1.437559900773138,-0.04416595799657785,-0.05909073392844957,1
1.350896147804798,-0.03300623596425034,-0.1077205038806484,1
1.264232394836458,-0.02184651393192283,-0.1563502738328471,1
1.177568641868119,-0.01068679189959532,-0.2049800437850459,1
1.090904888899779,0.0004729301327321689,-0.2536098137372447,1
1.004241135931439,0.01163265216505968,-0.3022395836894435,1
0.9175773829630995,0.02279237419738719,-0.3508693536416423,1
0.8309136299947598,0.03395209622971471,-0.399499123593841,1
0.7442498770264201,0.04511181826204221,-0.4481288935460398,1
0.6575861240580805,0.05627154029436972,-0.4967586634982386,1
0.5709223710897408,0.06743126232669722,-0.5453884334504373,1
1.484969161103918,-0.05612086031836896,-0.1463228515535808,1
1.398305408135578,-0.04496113828604145,-0.1949526215057795,1
1.311641655167239,-0.03380141625371394,-0.2435823914579784,1
1.224977902198899,-0.02264169422138643,-0.2922121614101771,1
1.138314149230559,-0.01148197218905894,-0.3408419313623759,1
1.05165039626222,-0.0003222501567314295,-0.3894717013145746,1
0.96498664329388,0.01083747187559608,-0.4381014712667735,1
0.8783228903255402,0.02199719390792361,-0.4867312412189723,1
0.7916591373572005,0.03315691594025111,-0.5353610111711711,1
0.7049953843888609,0.04431663797257862,-0.5839907811233698,1
0.6183316314205212,0.05547636000490612,-0.6326205510755685,1
1.532378421434699,-0.06807576264016005,-0.233554969178712,1
1.445714668466359,-0.05691604060783256,-0.2821847391309108,1
1.359050915498019,-0.04575631857550505,-0.3308145090831095,1
1.27238716252968,-0.03459659654317754,-0.3794442790353083,1
1.18572340956134,-0.02343687451085003,-0.4280740489875071,1
1.099059656593,-0.01227715247852251,-0.4767038189397058,1
1.01239590362466,-0.001117430446195014,-0.5253335888919046,1
0.9257321506563206,0.0100422915861325,-0.5739633588441034,1
0.8390683976879809,0.02120201361846,-0.6225931287963022,1
0.7524046447196413,0.03236173565078751,-0.6712228987485011,1
0.6657408917513016,0.04352145768311501,-0.7198526687006997,1
1.579787681765479,-0.08003066496195116,-0.3207870868038432,1
1.493123928797139,-0.06887094292962365,-0.369416856756042,1
1.4064601758288,-0.05771122089729616,-0.4180466267082408,1
1.31979642286046,-0.04655149886496865,-0.4666763966604395,1
1.23313266989212,-0.03539177683264114,-0.5153061666126383,1
1.146468916923781,-0.02423205480031362,-0.563935936564837,1
1.059805163955441,-0.01307233276798611,-0.6125657065170359,1
0.9731414109871011,-0.001912610735658599,-0.6611954764692346,1
0.8864776580187613,0.009247111296668886,-0.7098252464214335,1
0.7998139050504217,0.0204068333289964,-0.7584550163736322,1
0.713150152082082,0.03156655536132391,-0.8070847863258309,1
1.627196942096259,-0.09198556728374227,-0.4080192044289744,1
1.540533189127919,-0.08082584525141476,-0.4566489743811731,1
1.45386943615958,-0.06966612321908724,-0.5052787443333719,1
1.36720568319124,-0.05850640118675973,-0.5539085142855708,1
1.2805419302229,-0.04734667915443225,-0.6025382842377695,1
1.193878177254561,-0.03618695712210473,-0.6511680541899684,1
1.107214424286221,-0.02502723508977722,-0.6997978241421671,1
1.020550671317881,-0.01386751305744971,-0.7484275940943658,1
0.9338869183495416,-0.002707791025122197,-0.7970573640465647,1
0.847223165381202,0.008451931007205316,-0.8456871339987634,1
0.7605594124128624,0.0196116530395328,-0.8943169039509621,1
1.67460620242704,-0.1039404696055334,-0.4952513220541056,1
1.5879424494587,-0.09278074757320587,-0.5438810920063043,1
1.50127869649036,-0.08162102554087836,-0.5925108619585031,1
1.414614943522021,-0.07046130350855084,-0.6411406319107019,1
1.327951190553681,-0.05930158147622333,-0.6897704018629006,1
1.241287437585341,-0.04814185944389582,-0.7384001718150995,1
1.154623684617001,-0.03698213741156831,-0.7870299417672982,1
1.067959931648662,-0.02582241537924079,-0.8356597117194969,1
0.981296178680322,-0.01466269334691331,-0.8842894816716959,1
0.8946324257119824,-0.003502971314585795,-0.9329192516238946,1
0.8079686727436427,0.007656750717741717,-0.9815490215760933,1
1.72201546275782,-0.1158953719273245,-0.5824834396792368,1
1.635351709789481,-0.104735649894997,-0.6311132096314356,1
1.548687956821141,-0.09357592786266947,-0.6797429795836344,1
1.462024203852801,-0.08241620583034195,-0.7283727495358331,1
1.375360450884461,-0.07125648379801444,-0.777002519488032,1
1.288696697916122,-0.06009676176568696,-0.8256322894402307,1
1.202032944947782,-0.04893703973335944,-0.8742620593924294,1
1.115369191979442,-0.03777731770103193,-0.9228918293446283,1
1.028705439011103,-0.02661759566870442,-0.971521599296827,1
0.9420416860427628,-0.01545787363637691,-1.020151369249026,1
0.8553779330744232,-0.004298151604049408,-1.068781139201224,1
1.7694247230886,-0.1278502742491156,-0.6697155573043682,1
1.682760970120261,-0.1166905522167881,-0.7183453272565669,1
1.596097217151921,-0.1055308301844606,-0.7669750972087656,1
1.509433464183581,-0.09437110815213307,-0.8156048671609645,1
1.422769711215242,-0.08321138611980555,-0.8642346371131632,1
1.336105958246902,-0.07205166408747804,-0.9128644070653619,1
1.249442205278562,-0.06089194205515053,-0.9614941770175608,1
1.162778452310222,-0.04973222002282301,-1.010123946969759,1
1.076114699341883,-0.0385724979904955,-1.058753716921958,1
0.9894509463735432,-0.02741277595816799,-1.107383486874157,1
0.9027871934052035,-0.0162530539258405,-1.156013256826356,1
1.816833983419381,-0.1398051765709067,-0.7569476749294993,1
1.730170230451041,-0.1286454545385792,-0.805577444881698,1
1.643506477482702,-0.1174857325062517,-0.8542072148338967,1
1.556842724514362,-0.1063260104739241,-0.9028369847860956,1
1.470178971546022,-0.09516628844159664,-0.9514667547382943,1
1.383515218577682,-0.08400656640926912,-1.000096524690493,1
1.296851465609343,-0.07284684437694161,-1.048726294642692,1
1.210187712641003,-0.0616871223446141,-1.097356064594891,1
1.123523959672663,-0.05052740031228661,-1.145985834547089,1
1.036860206704324,-0.0393676782799591,-1.194615604499288,1
0.9501964537359839,-0.02820795624763162,-1.243245374451487,1
1.864243243750161,-0.1517600788926978,-0.8441797925546305,1
1.777579490781822,-0.1406003568603703,-0.8928095625068292,1
1.690915737813482,-0.1294406348280427,-0.9414393324590279,1
1.604251984845142,-0.1182809127957152,-0.9900691024112268,1
1.517588231876803,-0.1071211907633877,-1.038698872363425,1
1.430924478908463,-0.09596146873106023,-1.087328642315624,1
1.344260725940123,-0.08480174669873272,-1.135958412267823,1
1.257596972971784,-0.07364202466640521,-1.184588182220022,1
1.170933220003444,-0.06248230263407772,-1.23321795217222,1
1.084269467035104,-0.05132258060175021,-1.281847722124419,1
0.9976057140667643,-0.0401628585694227,-1.330477492076618,1
1.911652504080942,-0.1637149812144889,-0.9314119101797617,1
1.824988751112602,-0.1525552591821613,-0.9800416801319604,1
1.738324998144262,-0.1413955371498339,-1.028671450084159,1
1.651661245175922,-0.1302358151175064,-1.077301220036358,1
1.564997492207583,-0.1190760930851788,-1.125930989988557,1
1.478333739239243,-0.1079163710528513,-1.174560759940755,1
1.391669986270903,-0.09675664902052383,-1.223190529892954,1
1.305006233302564,-0.08559692698819632,-1.271820299845153,1
1.218342480334224,-0.07443720495586881,-1.320450069797352,1
1.131678727365884,-0.0632774829235413,-1.36907983974955,1
1.045014974397545,-0.05211776089121378,-1.417709609701749,1
