0.5529370116484673,-0.02001354450581627,-0.4737124326464999,1
0.622527187515814,0.04959150211955213,-0.4913857149401778,1
0.6921173633831609,0.1191965487449205,-0.5090589972338558,1
0.7617075392505078,0.188801595370289,-0.5267322795275338,1
0.8312977151178546,0.2584066419956573,-0.5444055618212118,1
0.9008878909852015,0.3280116886210257,-0.5620788441148897,1
0.9704780668525483,0.3976167352463942,-0.5797521264085678,1
1.040068242719895,0.4672217818717626,-0.5974254087022457,1
1.109658418587242,0.5368268284971309,-0.6150986909959237,1
1.179248594454589,0.6064318751224993,-0.6327719732896017,1
1.248838770321936,0.6760369217478677,-0.6504452555832797,1
0.6222421500865831,-0.07865958671080509,-0.431790606353216,1
0.69183232595393,-0.009054540085436685,-0.449463888646894,1
0.7614225018212769,0.06055050653993171,-0.4671371709405719,1
0.8310126776886236,0.1301555531653001,-0.48481045323425,1
0.9006028535559706,0.1997605997906685,-0.5024837355279279,1
0.9701930294233173,0.2693656464160369,-0.5201570178216059,1
1.039783205290664,0.3389706930414054,-0.5378303001152839,1
1.109373381158011,0.4085757396667737,-0.5555035824089619,1
1.178963557025358,0.4781807862921421,-0.5731768647026398,1
1.248553732892705,0.5477858329175105,-0.5908501469963179,1
1.318143908760052,0.6173908795428789,-0.6085234292899958,1
0.691547288524699,-0.1373056289157939,-0.3898687800599322,1
0.7611374643920459,-0.06770058229042547,-0.4075420623536102,1
0.8307276402593927,0.001904464334942915,-0.4252153446472882,1
0.9003178161267397,0.07150951096031134,-0.4428886269409662,1
0.9699079919940864,0.1411145575856797,-0.4605619092346441,1
1.039498167861433,0.2107196042110481,-0.4782351915283221,1
1.10908834372878,0.2803246508364166,-0.4959084738220001,1
1.178678519596127,0.3499296974617849,-0.513581756115678,1
1.248268695463474,0.4195347440871533,-0.5312550384093561,1
1.317858871330821,0.4891397907125217,-0.548928320703034,1
1.387449047198167,0.55874483733789,-0.566601602996712,1
0.760852426962815,-0.1959516711207827,-0.3479469537666484,1
0.8304426028301618,-0.1263466244954143,-0.3656202360603263,1
0.9000327786975088,-0.05674157787004591,-0.3832935183540044,1
0.9696229545648555,0.01286346875532252,-0.4009668006476823,1
1.039213130432203,0.08246851538069089,-0.4186400829413603,1
1.108803306299549,0.1520735620060593,-0.4363133652350383,1
1.178393482166896,0.2216786086314277,-0.4539866475287163,1
1.247983658034243,0.2912836552567961,-0.4716599298223942,1
1.31757383390159,0.3608887018821645,-0.4893332121160723,1
1.387164009768937,0.4304937485075329,-0.5070064944097502,1
1.456754185636283,0.5000987951329012,-0.5246797767034281,1
0.8301575654009309,-0.2545977133257715,-0.3060251274733646,1
0.8997477412682777,-0.1849926667004031,-0.3236984097670426,1
0.9693379171356246,-0.1153876200750347,-0.3413716920607205,1
1.038928093002971,-0.04578257344966627,-0.3590449743543985,1
1.108518268870318,0.0238224731757021,-0.3767182566480765,1
1.178108444737665,0.09342751980107047,-0.3943915389417545,1
1.247698620605012,0.163032566426439,-0.4120648212354324,1
1.317288796472359,0.2326376130518073,-0.4297381035291105,1
1.386878972339705,0.3022426596771757,-0.4474113858227884,1
1.456469148207052,0.371847706302544,-0.4650846681164664,1
1.526059324074399,0.4414527529279124,-0.4827579504101444,1
0.8994627038390467,-0.3132437555307603,-0.2641033011800807,1
0.9690528797063936,-0.2436387089053919,-0.2817765834737588,1
1.03864305557374,-0.1740336622800235,-0.2994498657674367,1
1.108233231441087,-0.1044286156546551,-0.3171231480611147,1
1.177823407308434,-0.03482356902928668,-0.3347964303547927,1
1.247413583175781,0.03478147759608169,-0.3524697126484707,1
1.317003759043128,0.1043865242214502,-0.3701429949421486,1
1.386593934910475,0.1739915708468185,-0.3878162772358266,1
1.456184110777822,0.2435966174721869,-0.4054895595295046,1
1.525774286645168,0.3132016640975553,-0.4231628418231825,1
1.595364462512515,0.3828067107229237,-0.4408361241168606,1
0.9687678422771627,-0.3718897977357492,-0.2221814748867969,1
1.03835801814451,-0.3022847511103808,-0.2398547571804749,1
1.107948194011856,-0.2326797044850124,-0.2575280394741529,1
1.177538369879203,-0.1630746578596439,-0.2752013217678309,1
1.24712854574655,-0.09346961123427555,-0.2928746040615089,1
1.316718721613897,-0.02386456460890718,-0.3105478863551868,1
1.386308897481244,0.0457404820164613,-0.3282211686488649,1
1.455899073348591,0.1153455286418297,-0.3458944509425428,1
1.525489249215938,0.184950575267198,-0.3635677332362208,1
1.595079425083284,0.2545556218925664,-0.3812410155298988,1
1.664669600950631,0.3241606685179348,-0.3989142978235767,1
1.038072980715278,-0.4305358399407379,-0.1802596485935131,1
1.107663156582626,-0.3609307933153695,-0.1979329308871911,1
1.177253332449972,-0.2913257466900011,-0.2156062131808691,1
1.246843508317319,-0.2217207000646327,-0.233279495474547,1
1.316433684184666,-0.1521156534392643,-0.250952777768225,1
1.386023860052013,-0.08251060681389594,-0.268626060061903,1
1.45561403591936,-0.01290556018852745,-0.286299342355581,1
1.525204211786706,0.05669948643684092,-0.3039726246492589,1
1.594794387654053,0.1263045330622093,-0.3216459069429369,1
1.6643845635214,0.1959095796875777,-0.3393191892366149,1
1.733974739388747,0.265514626312946,-0.3569924715302929,1
1.107378119153394,-0.4891818821457267,-0.1383378223002293,1
1.176968295020741,-0.4195768355203583,-0.1560111045939073,1
1.246558470888088,-0.3499717888949899,-0.1736843868875853,1
1.316148646755435,-0.2803667422696215,-0.1913576691812633,1
1.385738822622782,-0.2107616956442531,-0.2090309514749412,1
1.455328998490129,-0.1411566490188848,-0.2267042337686192,1
1.524919174357476,-0.07155160239351627,-0.2443775160622972,1
1.594509350224822,-0.001946555768147895,-0.2620507983559752,1
1.664099526092169,0.06765849085722048,-0.2797240806496532,1
1.733689701959516,0.1372635374825888,-0.2973973629433311,1
1.803279877826863,0.2068685841079572,-0.3150706452370091,1
1.17668325759151,-0.5478279243507155,-0.09641599600694548,1
1.246273433458857,-0.4782228777253471,-0.1140892783006235,1
1.315863609326204,-0.4086178310999787,-0.1317625605943014,1
1.385453785193551,-0.3390127844746103,-0.1494358428879794,1
1.455043961060898,-0.2694077378492419,-0.1671091251816574,1
1.524634136928245,-0.1998026912238735,-0.1847824074753353,1
1.594224312795591,-0.130197644598505,-0.2024556897690134,1
1.663814488662938,-0.06059259797313665,-0.2201289720626913,1
1.733404664530285,0.009012448652231719,-0.2378022543563693,1
1.802994840397632,0.07861749527760009,-0.2554755366500473,1
1.872585016264979,0.1482225419029685,-0.2731488189437252,1
1.245988396029626,-0.6064739665557043,-0.05449416971366169,1
1.315578571896973,-0.5368689199303359,-0.07216745200733968,1
1.38516874776432,-0.4672638733049675,-0.08984073430101766,1
1.454758923631667,-0.3976588266795991,-0.1075140165946956,1
1.524349099499013,-0.3280537800542307,-0.1251872988883736,1
1.59393927536636,-0.2584487334288623,-0.1428605811820516,1
1.663529451233707,-0.1888436868034938,-0.1605338634757296,1
1.733119627101054,-0.1192386401781255,-0.1782071457694075,1
1.802709802968401,-0.04963359355275709,-0.1958804280630856,1
1.872299978835748,0.01997145307261128,-0.2135537103567635,1
1.941890154703095,0.08957649969797965,-0.2312269926504415,1
