1.799237404608329,0.4200313526152999,-0.6273601836927792,1
1.889802196638582,0.4199166054518066,-0.6697630760187224,1
1.980366988668835,0.4198018582883134,-0.7121659683446656,1
2.070931780699088,0.4196871111248201,-0.7545688606706088,1
2.16149657272934,0.4195723639613268,-0.796971752996552,1
2.252061364759593,0.4194576167978335,-0.8393746453224952,1
2.342626156789846,0.4193428696343403,-0.8817775376484384,1
2.433190948820099,0.419228122470847,-0.9241804299743815,1
2.523755740850352,0.4191133753073537,-0.9665833223003247,1
2.614320532880604,0.4189986281438604,-1.008986214626268,1
2.704885324910857,0.4188838809803671,-1.051389106952211,1
1.841565752696171,0.414342889417107,-0.5369392108236637,1
1.932130544726423,0.4142281422536138,-0.5793421031496069,1
2.022695336756676,0.4141133950901205,-0.6217449954755501,1
2.113260128786929,0.4139986479266272,-0.6641478878014933,1
2.203824920817182,0.4138839007631339,-0.7065507801274364,1
2.294389712847435,0.4137691535996406,-0.7489536724533795,1
2.384954504877688,0.4136544064361473,-0.7913565647793228,1
2.47551929690794,0.413539659272654,-0.833759457105266,1
2.566084088938193,0.4134249121091608,-0.8761623494312092,1
2.656648880968446,0.4133101649456675,-0.9185652417571523,1
2.747213672998699,0.4131954177821742,-0.9609681340830954,1
1.883894100784012,0.4086544262189141,-0.446518237954548,1
1.974458892814265,0.4085396790554208,-0.4889211302804912,1
2.065023684844518,0.4084249318919275,-0.5313240226064344,1
2.155588476874771,0.4083101847284343,-0.5737269149323776,1
2.246153268905023,0.408195437564941,-0.6161298072583208,1
2.336718060935276,0.4080806904014477,-0.658532699584264,1
2.427282852965529,0.4079659432379544,-0.7009355919102073,1
2.517847644995782,0.4078511960744611,-0.7433384842361505,1
2.608412437026034,0.4077364489109678,-0.7857413765620936,1
2.698977229056287,0.4076217017474745,-0.8281442688880367,1
2.78954202108654,0.4075069545839813,-0.8705471612139799,1
1.926222448871854,0.4029659630207212,-0.3560972650854325,1
2.016787240902107,0.4028512158572279,-0.3985001574113757,1
2.107352032932359,0.4027364686937346,-0.4409030497373189,1
2.197916824962612,0.4026217215302413,-0.4833059420632621,1
2.288481616992865,0.402506974366748,-0.5257088343892052,1
2.379046409023117,0.4023922272032547,-0.5681117267151484,1
2.46961120105337,0.4022774800397615,-0.6105146190410916,1
2.560175993083623,0.4021627328762682,-0.6529175113670348,1
2.650740785113876,0.4020479857127749,-0.695320403692978,1
2.741305577144129,0.4019332385492816,-0.7377232960189212,1
2.831870369174382,0.4018184913857883,-0.7801261883448644,1
1.968550796959695,0.3972774998225282,-0.2656762922163169,1
2.059115588989948,0.397162752659035,-0.3080791845422601,1
2.149680381020201,0.3970480054955417,-0.3504820768682033,1
2.240245173050453,0.3969332583320484,-0.3928849691941465,1
2.330809965080706,0.3968185111685552,-0.4352878615200897,1
2.421374757110959,0.3967037640050619,-0.4776907538460329,1
2.511939549141212,0.3965890168415686,-0.5200936461719761,1
2.602504341171465,0.3964742696780753,-0.5624965384979193,1
2.693069133201718,0.396359522514582,-0.6048994308238624,1
2.78363392523197,0.3962447753510887,-0.6473023231498055,1
2.874198717262223,0.3961300281875954,-0.6897052154757487,1
2.010879145047537,0.3915890366243354,-0.1752553193472014,1
2.101443937077789,0.3914742894608421,-0.2176582116731446,1
2.192008729108042,0.3913595422973488,-0.2600611039990878,1
2.282573521138295,0.3912447951338555,-0.302463996325031,1
2.373138313168548,0.3911300479703622,-0.3448668886509741,1
2.463703105198801,0.3910153008068689,-0.3872697809769173,1
2.554267897229053,0.3909005536433756,-0.4296726733028605,1
2.644832689259306,0.3907858064798824,-0.4720755656288037,1
2.735397481289559,0.3906710593163891,-0.5144784579547469,1
2.825962273319812,0.3905563121528958,-0.55688135028069,1
2.916527065350064,0.3904415649894025,-0.5992842426066332,1
2.053207493135378,0.3859005734261424,-0.08483434647808571,1
2.143772285165631,0.3857858262626491,-0.1272372388040289,1
2.234337077195883,0.3856710790991559,-0.1696401311299721,1
2.324901869226137,0.3855563319356626,-0.2120430234559153,1
2.415466661256389,0.3854415847721693,-0.2544459157818585,1
2.506031453286642,0.385326837608676,-0.2968488081078017,1
2.596596245316895,0.3852120904451827,-0.3392517004337449,1
2.687161037347148,0.3850973432816894,-0.381654592759688,1
2.7777258293774,0.3849825961181961,-0.4240574850856312,1
2.868290621407653,0.3848678489547028,-0.4664603774115743,1
2.958855413437906,0.3847531017912096,-0.5088632697375175,1
2.095535841223219,0.3802121102279495,0.005586626391029831,1
2.186100633253472,0.3800973630644562,-0.03681626593491336,1
2.276665425283725,0.3799826159009629,-0.07921915826085654,1
2.367230217313978,0.3798678687374696,-0.1216220505867997,1
2.457795009344231,0.3797531215739763,-0.1640249429127429,1
2.548359801374483,0.3796383744104831,-0.2064278352386861,1
2.638924593404736,0.3795236272469898,-0.2488307275646293,1
2.729489385434989,0.3794088800834965,-0.2912336198905725,1
2.820054177465242,0.3792941329200032,-0.3336365122165157,1
2.910618969495494,0.3791793857565099,-0.3760394045424588,1
3.001183761525748,0.3790646385930166,-0.418442296868402,1
2.137864189311061,0.3745236470297566,0.09600759926014538,1
2.228428981341314,0.3744088998662633,0.05360470693420219,1
2.318993773371567,0.37429415270277,0.011201814608259,1
2.409558565401819,0.3741794055392768,-0.03120107771768418,1
2.500123357432072,0.3740646583757835,-0.07360397004362737,1
2.590688149462325,0.3739499112122902,-0.1160068623695706,1
2.681252941492578,0.3738351640487969,-0.1584097546955137,1
2.77181773352283,0.3737204168853036,-0.2008126470214569,1
2.862382525553083,0.3736056697218103,-0.2432155393474001,1
2.952947317583336,0.373490922558317,-0.2856184316733432,1
3.043512109613589,0.3733761753948237,-0.3280213239992864,1
2.180192537398902,0.3688351838315637,0.1864285721292609,1
2.270757329429155,0.3687204366680704,0.1440256798033177,1
2.361322121459408,0.3686056895045771,0.1016227874773745,1
2.451886913489661,0.3684909423410838,0.05921989515143136,1
2.542451705519913,0.3683761951775905,0.01681700282548818,1
2.633016497550166,0.3682614480140972,-0.02558588950045501,1
2.723581289580419,0.368146700850604,-0.0679887818263982,1
2.814146081610672,0.3680319536871107,-0.1103916741523414,1
2.904710873640925,0.3679172065236174,-0.1527945664782846,1
2.995275665671177,0.3678024593601241,-0.1951974588042277,1
3.08584045770143,0.3676877121966308,-0.2376003511301709,1
2.222520885486744,0.3631467206333707,0.2768495449983764,1
2.313085677516996,0.3630319734698775,0.2344466526724333,1
2.403650469547249,0.3629172263063842,0.1920437603464901,1
2.494215261577502,0.3628024791428909,0.1496408680205469,1
2.584780053607755,0.3626877319793976,0.1072379756946037,1
2.675344845638008,0.3625729848159043,0.06483508336866053,1
2.765909637668261,0.362458237652411,0.02243219104271735,1
2.856474429698514,0.3623434904889178,-0.01997070128322584,1
2.947039221728766,0.3622287433254245,-0.06237359360916903,1
3.037604013759019,0.3621139961619312,-0.1047764859351122,1
3.128168805789271,0.3619992489984379,-0.1471793782610553,1
