1.614100085547777,-0.3179173993365965,0.003185840855896543,1
1.697204762466832,-0.3166144366952837,-0.0524191495904178,1
1.780309439385888,-0.315311474053971,-0.1080241400367321,1
1.863414116304944,-0.3140085114126583,-0.1636291304830465,1
1.946518793224,-0.3127055487713455,-0.2192341209293608,1
2.029623470143056,-0.3114025861300328,-0.2748391113756751,1
2.112728147062111,-0.3100996234887201,-0.3304441018219895,1
2.195832823981167,-0.3087966608474073,-0.3860490922683038,1
2.278937500900223,-0.3074936982060946,-0.4416540827146181,1
2.362042177819278,-0.3061907355647819,-0.4972590731609324,1
2.445146854738334,-0.3048877729234691,-0.5528640636072467,1
1.668484002971076,-0.2988595144407171,0.08491213129533373,1
1.751588679890131,-0.2975565517994044,0.02930714084901939,1
1.834693356809187,-0.2962535891580917,-0.02629784959729493,1
1.917798033728243,-0.2949506265167789,-0.08190284004360929,1
2.000902710647298,-0.2936476638754662,-0.1375078304899236,1
2.084007387566354,-0.2923447012341535,-0.1931128209362379,1
2.16711206448541,-0.2910417385928408,-0.2487178113825523,1
2.250216741404466,-0.289738775951528,-0.3043228018288666,1
2.333321418323521,-0.2884358133102153,-0.3599277922751809,1
2.416426095242577,-0.2871328506689025,-0.4155327827214953,1
2.499530772161633,-0.2858298880275898,-0.4711377731678096,1
1.722867920394374,-0.2798016295448378,0.1666384217347709,1
1.80597259731343,-0.2784986669035251,0.1110334312884566,1
1.889077274232486,-0.2771957042622124,0.05542844084214224,1
1.972181951151541,-0.2758927416208996,-0.0001765496041720993,1
2.055286628070597,-0.2745897789795869,-0.05578154005048641,1
2.138391304989653,-0.2732868163382742,-0.1113865304968007,1
2.221495981908709,-0.2719838536969614,-0.1669915209431151,1
2.304600658827765,-0.2706808910556487,-0.2225965113894294,1
2.38770533574682,-0.2693779284143359,-0.2782015018357438,1
2.470810012665876,-0.2680749657730233,-0.3338064922820581,1
2.553914689584932,-0.2667720031317105,-0.3894114827283723,1
1.777251837817673,-0.2607437446489585,0.2483647121742081,1
1.860356514736729,-0.2594407820076458,0.1927597217278938,1
1.943461191655785,-0.2581378193663331,0.1371547312815794,1
2.02656586857484,-0.2568348567250203,0.08154974083526509,1
2.109670545493896,-0.2555318940837076,0.02594475038895078,1
2.192775222412951,-0.2542289314423948,-0.02966024005736353,1
2.275879899332007,-0.2529259688010821,-0.08526523050367793,1
2.358984576251063,-0.2516230061597694,-0.1408702209499922,1
2.442089253170119,-0.2503200435184567,-0.1964752113963066,1
2.525193930089174,-0.2490170808771439,-0.2520802018426209,1
2.60829860700823,-0.2477141182358312,-0.3076851922889352,1
1.831635755240972,-0.2416858597530792,0.3300910026136453,1
1.914740432160027,-0.2403828971117665,0.2744860121673309,1
1.997845109079083,-0.2390799344704537,0.2188810217210166,1
2.080949785998139,-0.237776971829141,0.1632760312747023,1
2.164054462917194,-0.2364740091878283,0.107671040828388,1
2.24715913983625,-0.2351710465465155,0.05206605038207365,1
2.330263816755306,-0.2338680839052028,-0.003538940064240742,1
2.413368493674362,-0.2325651212638901,-0.05914393051055503,1
2.496473170593418,-0.2312621586225774,-0.1147489209568694,1
2.579577847512473,-0.2299591959812646,-0.1703539114031837,1
2.662682524431529,-0.2286562333399519,-0.225958901849498,1
1.886019672664271,-0.2226279748571999,0.4118172930530825,1
1.969124349583326,-0.2213250122158872,0.3562123026067681,1
2.052229026502382,-0.2200220495745744,0.3006073121604538,1
2.135333703421438,-0.2187190869332617,0.2450023217141394,1
2.218438380340493,-0.217416124291949,0.1893973312678251,1
2.301543057259549,-0.2161131616506362,0.1337923408215108,1
2.384647734178605,-0.2148101990093235,0.07818735037519639,1
2.467752411097661,-0.2135072363680108,0.02258235992888211,1
2.550857088016716,-0.212204273726698,-0.03302263051743223,1
2.633961764935772,-0.2109013110853853,-0.08862762096374657,1
2.717066441854827,-0.2095983484440725,-0.1442326114100609,1
1.940403590087569,-0.2035700899613206,0.4935435834925196,1
2.023508267006625,-0.2022671273200078,0.4379385930462053,1
2.106612943925681,-0.2009641646786951,0.382333602599891,1
2.189717620844736,-0.1996612020373824,0.3267286121535766,1
2.272822297763792,-0.1983582393960697,0.2711236217072623,1
2.355926974682848,-0.1970552767547569,0.215518631260948,1
2.439031651601903,-0.1957523141134442,0.1599136408146336,1
2.522136328520959,-0.1944493514721314,0.1043086503683193,1
2.605241005440015,-0.1931463888308187,0.04870365992200501,1
2.688345682359071,-0.191843426189506,-0.006901330524309329,1
2.771450359278126,-0.1905404635481932,-0.06250632097062361,1
1.994787507510868,-0.1845122050654413,0.5752698739319567,1
2.077892184429924,-0.1832092424241285,0.5196648834856424,1
2.160996861348979,-0.1819062797828158,0.4640598930393282,1
2.244101538268035,-0.1806033171415031,0.4084549025930138,1
2.327206215187091,-0.1793003545001903,0.3528499121466994,1
2.410310892106146,-0.1779973918588776,0.2972449217003852,1
2.493415569025202,-0.1766944292175648,0.2416399312540708,1
2.576520245944258,-0.1753914665762522,0.1860349408077565,1
2.659624922863314,-0.1740885039349394,0.1304299503614421,1
2.742729599782369,-0.1727855412936267,0.0748249599151278,1
2.825834276701425,-0.1714825786523139,0.01921996946881352,1
2.049171424934167,-0.165454320169562,0.6569961643713941,1
2.132276101853222,-0.1641513575282492,0.6013911739250798,1
2.215380778772278,-0.1628483948869365,0.5457861834787653,1
2.298485455691334,-0.1615454322456238,0.490181193032451,1
2.381590132610389,-0.160242469604311,0.4345762025861367,1
2.464694809529445,-0.1589395069629983,0.3789712121398224,1
2.547799486448501,-0.1576365443216856,0.323366221693508,1
2.630904163367557,-0.1563335816803728,0.2677612312471938,1
2.714008840286612,-0.1550306190390601,0.2121562408008794,1
2.797113517205668,-0.1537276563977473,0.156551250354565,1
2.880218194124724,-0.1524246937564346,0.1009462599082508,1
2.103555342357465,-0.1463964352736826,0.7387224548108312,1
2.186660019276521,-0.1450934726323699,0.6831174643645169,1
2.269764696195577,-0.1437905099910572,0.6275124739182024,1
2.352869373114633,-0.1424875473497444,0.5719074834718881,1
2.435974050033688,-0.1411845847084317,0.5163024930255738,1
2.519078726952744,-0.139881622067119,0.4606975025792596,1
2.6021834038718,-0.1385786594258063,0.4050925121329451,1
2.685288080790856,-0.1372756967844935,0.3494875216866309,1
2.768392757709911,-0.1359727341431808,0.2938825312403165,1
2.851497434628967,-0.134669771501868,0.2382775407940022,1
2.934602111548022,-0.1333668088605553,0.1826725503476879,1
2.157939259780764,-0.1273385503778033,0.8204487452502683,1
2.24104393669982,-0.1260355877364906,0.7648437548039541,1
2.324148613618875,-0.1247326250951779,0.7092387643576396,1
2.407253290537931,-0.1234296624538651,0.6536337739113253,1
2.490357967456987,-0.1221266998125524,0.598028783465011,1
2.573462644376042,-0.1208237371712397,0.5424237930186967,1
2.656567321295098,-0.1195207745299269,0.4868188025723822,1
2.739671998214154,-0.1182178118886142,0.4312138121260679,1
2.82277667513321,-0.1169148492473015,0.3756088216797536,1
2.905881352052265,-0.1156118866059887,0.3200038312334393,1
2.988986028971321,-0.114308923964676,0.2643988407871251,1
