1.206037215009124,0.1174404177026578,0.2015442137440836,1
1.303573795259409,0.1014533780171542,0.1863445402221347,1
1.401110375509694,0.08546633833165063,0.1711448667001858,1
1.498646955759979,0.06947929864614705,0.1559451931782369,1
1.596183536010264,0.05349225896064347,0.1407455196562879,1
1.69372011626055,0.03750521927513989,0.1255458461343391,1
1.791256696510835,0.0215181795896363,0.1103461726123901,1
1.88879327676112,0.005531139904132717,0.09514649909044123,1
1.986329857011405,-0.01045589978137085,0.07994682556849234,1
2.08386643726169,-0.02644293946687443,0.06474715204654344,1
2.181403017511975,-0.04242997915237801,0.04954747852459454,1
1.191977272433024,0.1254806606468592,0.1028645678785101,1
1.289513852683309,0.1094936209613556,0.08766489435656125,1
1.387050432933594,0.093506581275852,0.07246522083461235,1
1.484587013183879,0.07751954159034841,0.05726554731266342,1
1.582123593434164,0.06153250190484484,0.04206587379071453,1
1.679660173684449,0.04554546221934126,0.02686620026876563,1
1.777196753934734,0.02955842253383767,0.0116665267468167,1
1.874733334185019,0.01357138284833409,-0.003533146775132195,1
1.972269914435304,-0.002415656837169475,-0.01873282029708109,1
2.069806494685589,-0.01840269652267304,-0.03393249381902999,1
2.167343074935874,-0.03438973620817662,-0.04913216734097889,1
1.177917329856923,0.1335209035910605,0.004184922012936715,1
1.275453910107208,0.117533863905557,-0.01101475150901218,1
1.372990490357493,0.1015468242200534,-0.02621442503096108,1
1.470527070607778,0.08555978453454979,-0.04141409855291001,1
1.568063650858063,0.06957274484904621,-0.05661377207485888,1
1.665600231108348,0.05358570516354264,-0.07181344559680783,1
1.763136811358634,0.03759866547803904,-0.08701311911875673,1
1.860673391608919,0.02161162579253546,-0.1022127926407056,1
1.958209971859204,0.005624586107031898,-0.1174124661626545,1
2.055746552109489,-0.01036245357847168,-0.1326121396846034,1
2.153283132359774,-0.02634949326397526,-0.1478118132065523,1
1.163857387280823,0.1415611465352619,-0.09449472385263671,1
1.261393967531108,0.1255741068497583,-0.1096943973745856,1
1.358930547781393,0.1095870671642548,-0.1248940708965345,1
1.456467128031678,0.09360002747875117,-0.1400937444184834,1
1.554003708281963,0.0776129877932476,-0.1552934179404323,1
1.651540288532248,0.06162594810774401,-0.1704930914623813,1
1.749076868782534,0.04563890842224042,-0.1856927649843302,1
1.846613449032819,0.02965186873673684,-0.2008924385062791,1
1.944150029283104,0.01366482905123328,-0.216092112028228,1
2.041686609533389,-0.002322210634270294,-0.2312917855501768,1
2.139223189783674,-0.01830925031977387,-0.2464914590721257,1
1.149797444704722,0.1496013894794633,-0.1931743697182101,1
1.247334024955008,0.1336143497939597,-0.208374043240159,1
1.344870605205293,0.1176273101084561,-0.2235737167621079,1
1.442407185455578,0.1016402704229525,-0.2387733902840568,1
1.539943765705863,0.08565323073744896,-0.2539730638060057,1
1.637480345956148,0.06966619105194538,-0.2691727373279547,1
1.735016926206433,0.0536791513664418,-0.2843724108499036,1
1.832553506456718,0.03769211168093822,-0.2995720843718525,1
1.930090086707003,0.02170507199543464,-0.3147717578938013,1
2.027626666957288,0.005718032309931065,-0.3299714314157502,1
2.125163247207573,-0.01026900737557251,-0.3451711049376992,1
1.135737502128622,0.1576416324236647,-0.2918540155837835,1
1.233274082378907,0.1416545927381611,-0.3070536891057324,1
1.330810662629192,0.1256675530526575,-0.3222533626276813,1
1.428347242879477,0.1096805133671539,-0.3374530361496302,1
1.525883823129762,0.09369347368165035,-0.3526527096715791,1
1.623420403380047,0.07770643399614677,-0.367852383193528,1
1.720956983630332,0.06171939431064317,-0.3830520567154769,1
1.818493563880617,0.04573235462513958,-0.3982517302374259,1
1.916030144130903,0.02974531493963603,-0.4134514037593747,1
2.013566724381188,0.01375827525413245,-0.4286510772813236,1
2.111103304631473,-0.002228764431371127,-0.4438507508032725,1
1.121677559552522,0.165681875367866,-0.390533661449357,1
1.219214139802807,0.1496948356823625,-0.4057333349713059,1
1.316750720053092,0.1337077959968589,-0.4209330084932548,1
1.414287300303377,0.1177207563113553,-0.4361326820152037,1
1.511823880553662,0.1017337166258517,-0.4513323555371526,1
1.609360460803947,0.08574667694034814,-0.4665320290591015,1
1.706897041054232,0.06975963725484455,-0.4817317025810504,1
1.804433621304517,0.05377259756934097,-0.4969313761029993,1
1.901970201554803,0.0377855578838374,-0.5121310496249482,1
1.999506781805088,0.02179851819833382,-0.5273307231468971,1
2.097043362055373,0.005811478512830245,-0.5425303966688461,1
1.107617616976421,0.1737221183120674,-0.4892133073149304,1
1.205154197226706,0.1577350786265638,-0.5044129808368794,1
1.302690777476991,0.1417480389410603,-0.5196126543588282,1
1.400227357727277,0.1257609992555567,-0.5348123278807771,1
1.497763937977562,0.1097739595700531,-0.550012001402726,1
1.595300518227847,0.09378691988454951,-0.5652116749246749,1
1.692837098478132,0.07779988019904592,-0.5804113484466238,1
1.790373678728417,0.06181284051354234,-0.5956110219685727,1
1.887910258978702,0.04582580082803878,-0.6108106954905216,1
1.985446839228987,0.0298387611425352,-0.6260103690124705,1
2.082983419479272,0.01385172145703162,-0.6412100425344195,1
1.093557674400321,0.1817623612562688,-0.5878929531805038,1
1.191094254650606,0.1657753215707652,-0.6030926267024528,1
1.288630834900891,0.1497882818852616,-0.6182923002244016,1
1.386167415151176,0.133801242199758,-0.6334919737463506,1
1.483703995401461,0.1178142025142545,-0.6486916472682994,1
1.581240575651746,0.1018271628287509,-0.6638913207902485,1
1.678777155902031,0.08584012314324729,-0.6790909943121973,1
1.776313736152316,0.06985308345774371,-0.6942906678341462,1
1.873850316402601,0.05386604377224015,-0.709490341356095,1
1.971386896652886,0.03787900408673657,-0.7246900148780441,1
2.068923476903172,0.02189196440123299,-0.7398896883999929,1
1.079497731824221,0.1898026042004702,-0.6865725990460773,1
1.177034312074506,0.1738155645149666,-0.7017722725680261,1
1.274570892324791,0.157828524829463,-0.7169719460899749,1
1.372107472575076,0.1418414851439594,-0.732171619611924,1
1.469644052825361,0.1258544454584558,-0.7473712931338728,1
1.567180633075646,0.1098674057729523,-0.7625709666558217,1
1.664717213325931,0.09388036608744867,-0.7777706401777705,1
1.762253793576216,0.07789332640194509,-0.7929703136997196,1
1.859790373826501,0.06190628671644152,-0.8081699872216684,1
1.957326954076786,0.04591924703093794,-0.8233696607436173,1
2.054863534327071,0.02993220734543436,-0.8385693342655661,1
1.06543778924812,0.1978428471446715,-0.7852522449116507,1
1.162974369498405,0.181855807459168,-0.8004519184335995,1
1.26051094974869,0.1658687677736644,-0.8156515919555484,1
1.358047529998975,0.1498817280881608,-0.8308512654774972,1
1.45558411024926,0.1338946884026572,-0.8460509389994463,1
1.553120690499546,0.1179076487171536,-0.8612506125213951,1
1.650657270749831,0.10192060903165,-0.876450286043344,1
1.748193851000116,0.08593356934614646,-0.891649959565293,1
1.845730431250401,0.06994652966064289,-0.9068496330872419,1
1.943267011500686,0.05395948997513932,-0.9220493066091907,1
2.040803591750971,0.03797245028963574,-0.9372489801311396,1
