2.279819646496476,0.4735061990570211,-0.2345164997335488,1
2.375788045697835,0.446015577623998,-0.2286571407280995,1
2.471756444899195,0.4185249561909748,-0.2227977817226501,1
2.567724844100554,0.3910343347579517,-0.2169384227172007,1
2.663693243301914,0.3635437133249285,-0.2110790637117513,1
2.759661642503273,0.3360530918919054,-0.205219704706302,1
2.855630041704632,0.3085624704588822,-0.1993603457008526,1
2.951598440905991,0.281071849025859,-0.1935009866954032,1
3.047566840107351,0.2535812275928359,-0.1876416276899539,1
3.14353523930871,0.2260906061598127,-0.1817822686845045,1
3.23950363851007,0.1985999847267896,-0.1759229096790552,1
2.252667773072758,0.3882303330611223,-0.1898980904361308,1
2.348636172274118,0.3607397116280991,-0.1840387314306814,1
2.444604571475477,0.333249090195076,-0.1781793724252321,1
2.540572970676837,0.3057584687620528,-0.1723200134197827,1
2.636541369878196,0.2782678473290296,-0.1664606544143333,1
2.732509769079555,0.2507772258960065,-0.160601295408884,1
2.828478168280915,0.2232866044629833,-0.1547419364034346,1
2.924446567482274,0.1957959830299602,-0.1488825773979852,1
3.020414966683633,0.168305361596937,-0.1430232183925359,1
3.116383365884992,0.1408147401639139,-0.1371638593870865,1
3.212351765086352,0.1133241187308907,-0.1313045003816372,1
2.225515899649041,0.3029544670652234,-0.1452796811387128,1
2.3214842988504,0.2754638456322003,-0.1394203221332634,1
2.417452698051759,0.2479732241991771,-0.1335609631278141,1
2.513421097253119,0.2204826027661539,-0.1277016041223647,1
2.609389496454478,0.1929919813331308,-0.1218422451169153,1
2.705357895655837,0.1655013599001077,-0.115982886111466,1
2.801326294857197,0.1380107384670845,-0.1101235271060166,1
2.897294694058556,0.1105201170340613,-0.1042641681005672,1
2.993263093259916,0.08302949560103817,-0.0984048090951179,1
3.089231492461275,0.05553887416801501,-0.09254545008966852,1
3.185199891662634,0.02804825273499184,-0.08668609108421918,1
2.198364026225323,0.2176786010693246,-0.1006612718412948,1
2.294332425426683,0.1901879796363014,-0.09480191283584541,1
2.390300824628042,0.1626973582032782,-0.08894255383039606,1
2.486269223829401,0.1352067367702551,-0.08308319482494669,1
2.58223762303076,0.107716115337232,-0.07722383581949732,1
2.67820602223212,0.0802254939042088,-0.07136447681404798,1
2.774174421433479,0.05273487247118563,-0.06550511780859861,1
2.870142820634839,0.02524425103816247,-0.05964575880314923,1
2.966111219836198,-0.002246370394860697,-0.05378639979769986,1
3.062079619037557,-0.02973699182788386,-0.04792704079225052,1
3.158048018238917,-0.05722761326090703,-0.04206768178680115,1
2.171212152801605,0.1324027350734257,-0.0560428625438768,1
2.267180552002965,0.1049121136404025,-0.05018350353842743,1
2.363148951204324,0.07742149220737937,-0.04432414453297809,1
2.459117350405684,0.04993087077435626,-0.03846478552752872,1
2.555085749607043,0.0224402493413331,-0.03260542652207934,1
2.651054148808402,-0.00505037209169007,-0.02674606751662997,1
2.747022548009761,-0.03254099352471324,-0.0208867085111806,1
2.842990947211121,-0.0600316149577364,-0.01502734950573126,1
2.93895934641248,-0.08752223639075957,-0.009167990500281886,1
3.034927745613839,-0.1150128578237827,-0.003308631494832542,1
3.130896144815199,-0.1425034792568058,0.002550727510616829,1
2.144060279377888,0.04712686907752689,-0.01142445324645883,1
2.240028678579247,0.01963624764450372,-0.005565094241009455,1
2.335997077780606,-0.007854373788519442,0.0002942647644398888,1
2.431965476981966,-0.03534499522154261,0.00615362376988926,1
2.527933876183325,-0.06283561665456577,0.01201298277533863,1
2.623902275384684,-0.09032623808758883,0.01787234178078798,1
2.719870674586044,-0.1178168595206121,0.02373170078623735,1
2.815839073787403,-0.1453074809536352,0.02959105979168672,1
2.911807472988762,-0.1727981023866583,0.03545041879713609,1
3.007775872190122,-0.2002887238196815,0.04130977780258546,1
3.103744271391481,-0.2277793452527047,0.04716913680803483,1
2.11690840595417,-0.03814899691837198,0.03319395605095923,1
2.212876805155529,-0.06563961835139515,0.03905331505640861,1
2.308845204356889,-0.09313023978441831,0.04491267406185798,1
2.404813603558248,-0.1206208612174415,0.05077203306730735,1
2.500782002759607,-0.1481114826504646,0.05663139207275666,1
2.596750401960967,-0.1756021040834878,0.06249075107820604,1
2.692718801162326,-0.2030927255165109,0.06835011008365541,1
2.788687200363685,-0.2305833469495341,0.07420946908910478,1
2.884655599565045,-0.2580739683825572,0.08006882809455415,1
2.980623998766404,-0.2855645898155804,0.08592818710000352,1
3.076592397967763,-0.3130552112486035,0.09178754610545284,1
2.089756532530453,-0.1234248629142708,0.07781236534837718,1
2.185724931731812,-0.150915484347294,0.08367172435382655,1
2.281693330933171,-0.1784061057803172,0.08953108335927593,1
2.37766173013453,-0.2058967272133403,0.0953904423647253,1
2.47363012933589,-0.2333873486463635,0.1012498013701746,1
2.569598528537249,-0.2608779700793866,0.107109160375624,1
2.665566927738608,-0.2883685915124098,0.1129685193810734,1
2.761535326939968,-0.3158592129454329,0.1188278783865227,1
2.857503726141327,-0.3433498343784561,0.1246872373919721,1
2.953472125342686,-0.3708404558114792,0.1305465963974215,1
3.049440524544046,-0.3983310772445025,0.1364059554028708,1
2.062604659106735,-0.2087007289101697,0.1224307746457952,1
2.158573058308094,-0.2361913503431929,0.1282901336512446,1
2.254541457509453,-0.2636819717762161,0.1341494926566939,1
2.350509856710813,-0.2911725932092392,0.1400088516621433,1
2.446478255912172,-0.3186632146422624,0.1458682106675926,1
2.542446655113531,-0.3461538360752855,0.151727569673042,1
2.638415054314891,-0.3736444575083086,0.1575869286784914,1
2.73438345351625,-0.4011350789413318,0.1634462876839407,1
2.830351852717609,-0.4286257003743549,0.1693056466893901,1
2.926320251918969,-0.4561163218073782,0.1751650056948395,1
3.022288651120328,-0.4836069432404012,0.1810243647002888,1
2.035452785683017,-0.2939765949060685,0.1670491839432131,1
2.131421184884376,-0.3214672163390916,0.1729085429486625,1
2.227389584085736,-0.3489578377721148,0.1787679019541119,1
2.323357983287095,-0.376448459205138,0.1846272609595613,1
2.419326382488454,-0.4039390806381612,0.1904866199650106,1
2.515294781689814,-0.4314297020711843,0.1963459789704599,1
2.611263180891173,-0.4589203235042073,0.2022053379759093,1
2.707231580092532,-0.4864109449372306,0.2080646969813587,1
2.803199979293892,-0.5139015663702536,0.2139240559868081,1
2.899168378495251,-0.5413921878032769,0.2197834149922574,1
2.99513677769661,-0.5688828092363,0.2256427739977067,1
2.008300912259299,-0.3792524609019673,0.2116675932406311,1
2.104269311460659,-0.4067430823349906,0.2175269522460805,1
2.200237710662018,-0.4342337037680136,0.2233863112515299,1
2.296206109863377,-0.4617243252010369,0.2292456702569793,1
2.392174509064737,-0.48921494663406,0.2351050292624286,1
2.488142908266096,-0.516705568067083,0.2409643882678779,1
2.584111307467456,-0.5441961895001063,0.2468237472733273,1
2.680079706668815,-0.5716868109331293,0.2526831062787767,1
2.776048105870174,-0.5991774323661526,0.2585424652842261,1
2.872016505071533,-0.6266680537991757,0.2644018242896754,1
2.967984904272893,-0.6541586752321987,0.2702611832951247,1
