2.611492798466917,0.3604435392302939,0.2315573009060027,1
2.656333910165881,0.3342384802231427,0.146102227422723,1
2.701175021864846,0.3080334212159916,0.06064715393944339,1
2.74601613356381,0.2818283622088404,-0.02480791954383629,1
2.790857245262774,0.2556233032016893,-0.1102629930271159,1
2.835698356961739,0.2294182441945382,-0.1957180665103955,1
2.880539468660703,0.203213185187387,-0.2811731399936752,1
2.925380580359668,0.1770081261802358,-0.3666282134769548,1
2.970221692058632,0.1508030671730847,-0.4520832869602344,1
3.015062803757597,0.1245980081659336,-0.537538360443514,1
3.059903915456561,0.09839294915878244,-0.6229934339267936,1
2.536429035255845,0.2974993828167561,0.2114708720053704,1
2.581270146954809,0.2712943238096049,0.1260157985220907,1
2.626111258653773,0.2450892648024538,0.04056072503881111,1
2.670952370352738,0.2188842057953027,-0.04489434844446857,1
2.715793482051702,0.1926791467881515,-0.1303494219277481,1
2.760634593750666,0.1664740877810004,-0.2158044954110278,1
2.805475705449631,0.1402690287738492,-0.3012595688943075,1
2.850316817148595,0.1140639697666981,-0.3867146423775871,1
2.89515792884756,0.08785891075954694,-0.4721697158608666,1
2.939999040546524,0.06165385175239579,-0.5576247893441463,1
2.984840152245489,0.03544879274524465,-0.6430798628274259,1
2.461365272044772,0.2345552264032183,0.1913844431047381,1
2.506206383743736,0.2083501673960672,0.1059293696214585,1
2.551047495442701,0.182145108388916,0.02047429613817883,1
2.595888607141665,0.1559400493817649,-0.06498077734510085,1
2.64072971884063,0.1297349903746138,-0.1504358508283804,1
2.685570830539594,0.1035299313674626,-0.2358909243116601,1
2.730411942238559,0.07732487236031144,-0.3213459977949398,1
2.775253053937523,0.05111981335316029,-0.4068010712782194,1
2.820094165636488,0.02491475434600915,-0.4922561447614989,1
2.864935277335452,-0.001290304661141939,-0.5777112182447786,1
2.909776389034417,-0.02749536366829314,-0.6631662917280582,1
2.3863015088337,0.1716110699896805,0.1712980142041058,1
2.431142620532664,0.1454060109825294,0.08584294072082618,1
2.475983732231628,0.1192009519753782,0.0003878672375465519,1
2.520824843930593,0.09299589296822708,-0.08506720624573313,1
2.565665955629557,0.06679083396107593,-0.1705222797290127,1
2.610507067328522,0.04058577495392479,-0.2559773532122923,1
2.655348179027486,0.01438071594677365,-0.3414324266955721,1
2.700189290726451,-0.01182434306037755,-0.4268875001788517,1
2.745030402425415,-0.03802940206752864,-0.5123425736621312,1
2.78987151412438,-0.06423446107467978,-0.5977976471454108,1
2.834712625823344,-0.09043952008183093,-0.6832527206286906,1
2.311237745622627,0.1086669135761428,0.1512115853034735,1
2.356078857321592,0.08246185456899163,0.0657565118201939,1
2.400919969020556,0.05625679556184049,-0.01969856166308573,1
2.445761080719521,0.03005173655468935,-0.1051536351463654,1
2.490602192418485,0.003846677547538202,-0.190608708629645,1
2.53544330411745,-0.02235838145961294,-0.2760637821129246,1
2.580284415816414,-0.04856344046676414,-0.3615188555962043,1
2.625125527515379,-0.07476849947391523,-0.446973929079484,1
2.669966639214343,-0.1009735584810664,-0.5324290025627635,1
2.714807750913308,-0.1271786174882175,-0.6178840760460431,1
2.759648862612272,-0.1533836764953686,-0.7033391495293227,1
2.236173982411555,0.04572275716260499,0.1311251564028413,1
2.281015094110519,0.01951769815545384,0.04567008291956162,1
2.325856205809484,-0.006687360851697299,-0.03978499056371801,1
2.370697317508448,-0.03289241985884844,-0.1252400640469977,1
2.415538429207413,-0.05909747886599959,-0.2106951375302773,1
2.460379540906377,-0.08530253787315073,-0.2961502110135569,1
2.505220652605342,-0.1115075968803019,-0.3816052844968366,1
2.550061764304306,-0.137712655887453,-0.4670603579801162,1
2.594902876003271,-0.1639177148946042,-0.5525154314633958,1
2.639743987702235,-0.1901227739017553,-0.6379705049466754,1
2.684585099401199,-0.2163278329089064,-0.7234255784299551,1
2.161110219200483,-0.01722139925093286,0.111038727502209,1
2.205951330899447,-0.043426458258084,0.02558365401892934,1
2.250792442598411,-0.06963151726523514,-0.05987141946435029,1
2.295633554297376,-0.09583657627238629,-0.14532649294763,1
2.34047466599634,-0.1220416352795374,-0.2307815664309096,1
2.385315777695305,-0.1482466942866886,-0.3162366399141892,1
2.43015688939427,-0.1744517532938397,-0.4016917133974689,1
2.474998001093234,-0.2006568123009909,-0.4871467868807485,1
2.519839112792198,-0.226861871308142,-0.572601860364028,1
2.564680224491163,-0.2530669303152932,-0.6580569338473078,1
2.609521336190127,-0.2792719893224443,-0.7435120073305873,1
2.08604645598941,-0.08016555566447059,0.09095229860157669,1
2.130887567688375,-0.1063706146716217,0.005497225118297061,1
2.175728679387339,-0.1325756736787729,-0.07995784836498257,1
2.220569791086304,-0.158780732685924,-0.1654129218482623,1
2.265410902785268,-0.1849857916930752,-0.2508679953315418,1
2.310252014484233,-0.2111908507002263,-0.3363230688148214,1
2.355093126183197,-0.2373959097073775,-0.4217781422981012,1
2.399934237882162,-0.2636009687145286,-0.5072332157813808,1
2.444775349581126,-0.2898060277216798,-0.5926882892646603,1
2.48961646128009,-0.3160110867288309,-0.67814336274794,1
2.534457572979055,-0.342216145735982,-0.7635984362312197,1
2.010982692778338,-0.1431097120780083,0.07086586970094441,1
2.055823804477303,-0.1693147710851594,-0.01458920378233522,1
2.100664916176267,-0.1955198300923106,-0.1000442772656149,1
2.145506027875231,-0.2217248890994618,-0.1854993507488945,1
2.190347139574196,-0.2479299481066129,-0.2709544242321741,1
2.23518825127316,-0.274135007113764,-0.3564094977154537,1
2.280029362972125,-0.3003400661209152,-0.4418645711987335,1
2.324870474671089,-0.3265451251280664,-0.5273196446820131,1
2.369711586370054,-0.3527501841352175,-0.6127747181652926,1
2.414552698069018,-0.3789552431423686,-0.6982297916485724,1
2.459393809767982,-0.4051603021495197,-0.7836848651318519,1
1.935918929567266,-0.2060538684915461,0.05077944080031213,1
1.98076004126623,-0.2322589274986972,-0.0346756326829675,1
2.025601152965195,-0.2584639865058484,-0.1201307061662471,1
2.070442264664159,-0.2846690455129996,-0.2055857796495268,1
2.115283376363124,-0.3108741045201507,-0.2910408531328064,1
2.160124488062088,-0.3370791635273018,-0.376495926616086,1
2.204965599761052,-0.363284222534453,-0.4619510000993657,1
2.249806711460017,-0.3894892815416041,-0.5474060735826454,1
2.294647823158981,-0.4156943405487553,-0.6328611470659249,1
2.339488934857946,-0.4418993995559063,-0.7183162205492045,1
2.38433004655691,-0.4681044585630575,-0.803771294032484,1
1.860855166356194,-0.2689980249050839,0.03069301189967985,1
1.905696278055158,-0.295203083912235,-0.05476206158359978,1
1.950537389754122,-0.3214081429193862,-0.1402171350668794,1
1.995378501453087,-0.3476132019265374,-0.2256722085501591,1
2.040219613152051,-0.3738182609336885,-0.3111272820334386,1
2.085060724851016,-0.4000233199408395,-0.3965823555167183,1
2.12990183654998,-0.4262283789479907,-0.482037428999998,1
2.174742948248944,-0.4524334379551419,-0.5674925024832776,1
2.219584059947909,-0.4786384969622931,-0.6529475759665572,1
2.264425171646873,-0.5048435559694441,-0.7384026494498369,1
2.309266283345838,-0.5310486149765953,-0.8238577229331164,1
