1.86528,0.708554,-0.18626
1.87765,0.698291,-0.187003
1.88007,0.691733,-0.187003
1.88248,0.685166,-0.187003
1.87996,0.684249,-0.116511
1.88486,0.67859,-0.187003
1.88721,0.672008,-0.187003
1.87717,0.66843,-0.116045
1.88579,0.664093,-0.186632
1.87949,0.661873,-0.116045
1.88058,0.654886,-0.185888
1.88556,0.656621,-0.116278
1.89038,0.650911,-0.186632
1.88784,0.650035,-0.116278
1.8901,0.643441,-0.116278
1.89466,0.63836,-0.186632
1.89211,0.6375,-0.116278
1.89688,0.631742,-0.186632
1.86936,0.725829,-0.163705
1.89432,0.630891,-0.116278
1.89539,0.623541,-0.18626
1.90124,0.618484,-0.186632
1.87066,0.711343,-0.16338
1.87313,0.704811,-0.16338
1.87184,0.696876,-0.163054
1.90001,0.596156,-0.185888
1.87052,0.68896,-0.162729
1.89742,0.595344,-0.115813
1.90208,0.58952,-0.185888
1.87666,0.683791,-0.163054
1.90423,0.582545,-0.185888
1.87916,0.676909,-0.163054
1.90545,0.58292,-0.116045
1.90282,0.575221,-0.0231425
1.90615,0.576227,-0.185888
1.87763,0.669334,-0.162729
1.90738,0.576598,-0.116045
1.86625,0.665276,-0.103835
1.88372,0.664102,-0.163054
1.90938,0.569937,-0.116045
1.91395,0.564031,-0.18626
1.88979,0.658835,-0.16338
1.90369,0.56101,-0.11558
1.87462,0.653545,-0.104044
1.90874,0.555264,-0.0231425
1.90826,0.555122,-0.185516
1.88454,0.649636,-0.162729
1.90948,0.555477,-0.115813
1.88444,0.649602,-0.104463
1.91784,0.550656,-0.18626
1.88302,0.641767,-0.162403
1.88292,0.641731,-0.104253
1.91965,0.544293,-0.18626
1.88892,0.636793,-0.162729
1.88882,0.63676,-0.104463
1.89729,0.632249,-0.254557
1.91051,0.534502,0.0230959
1.89113,0.630196,-0.162729
1.91509,0.535786,-0.115813
1.88345,0.627637,-0.104044
1.91957,0.529819,-0.185888
1.91236,0.527829,0.0230959
1.89332,0.62359,-0.162729
1.91695,0.529097,-0.115813
1.88943,0.622308,-0.104253
1.91756,0.522068,-0.185516
1.91419,0.52115,0.0230959
1.87218,0.712298,-0.140071
1.91879,0.522402,-0.115813
1.89159,0.615709,-0.104253
1.8841,0.606007,-0.0575993
1.92707,0.517438,-0.18626
1.916,0.514466,0.0230959
1.89383,0.609137,-0.162403
1.89002,0.600637,-0.0577156
1.90594,0.605696,-0.254557
1.91392,0.50675,0.0230493
1.89595,0.602522,-0.162403
1.89584,0.602488,-0.104253
1.88829,0.59284,-0.0575993
1.90804,0.599041,-0.254557
1.92678,0.502966,-0.185888
1.87205,0.689895,-0.139513
1.92415,0.502281,-0.115813
1.89793,0.595868,-0.104253
1.89034,0.586245,-0.0575993
1.90254,0.590026,-0.253547
1.93238,0.49723,-0.18626
1.91353,0.49238,0.0230028
1.8782,0.684723,-0.139792
1.92203,0.494566,-0.11558
1.89618,0.588055,-0.104044
1.88856,0.578471,-0.0574829
1.90838,0.584543,-0.254052
1.88555,0.679955,-0.215908
1.93024,0.489502,-0.185888
1.92299,0.487664,0.0230959
1.87682,0.676808,-0.139513
1.90204,0.582602,-0.104253
1.89056,0.571876,-0.0574829
1.88042,0.670698,-0.215051
1.9358,0.483727,-0.18626
1.92468,0.480949,0.0230959
1.87917,0.670253,-0.139513
1.90417,0.575992,-0.162403
1.90407,0.57596,-0.104253
1.89255,0.565272,-0.0574829
1.91622,0.572341,-0.254557
1.88275,0.664129,-0.215051
1.93361,0.476014,-0.185888
1.92247,0.473271,0.0230493
1.8815,0.663689,-0.139513
1.90617,0.569341,-0.162403
1.89841,0.567023,-0.103835
1.89451,0.558663,-0.0574829
1.9144,0.564527,-0.254052
1.93913,0.470201,-0.18626
1.88381,0.657118,-0.139513
1.91197,0.563812,-0.162729
1.90029,0.553163,-0.0575993
1.91635,0.557841,-0.254052
1.88734,0.650969,-0.215051
1.93689,0.462503,-0.185888
1.92962,0.460767,0.0230959
1.88986,0.651839,-0.139792
1.90627,0.554906,-0.162078
1.93037,0.460946,-0.11558
1.90595,0.547964,-0.0577156
1.91819,0.551483,-0.254052
1.89325,0.645991,-0.215479
1.93841,0.456078,-0.185888
1.93113,0.454366,0.0230959
1.88323,0.642573,-0.09269
1.91183,0.549652,-0.104253
1.90786,0.541308,-0.0577156
1.92392,0.545867,-0.254557
1.8955,0.639379,-0.215479
1.94387,0.450208,-0.18626
1.93271,0.447623,0.0230959
1.88669,0.63641,-0.139234
1.91001,0.541918,-0.162078
1.93346,0.447797,-0.11558
1.91373,0.542976,-0.104253
1.90588,0.533567,-0.0575993
1.89772,0.632758,-0.215479
1.94155,0.442535,-0.185888
1.8889,0.62982,-0.139234
1.91572,0.536322,-0.162403
1.91025,0.534789,0.0346256
1.9389,0.441932,-0.115813
1.91177,0.535215,-0.104044
1.92386,0.531365,-0.254052
1.89236,0.62364,-0.214623
1.94308,0.435754,-0.185888
1.93579,0.434118,0.0230959
1.89109,0.623222,-0.139234
1.92143,0.530692,-0.162729
1.91211,0.528118,0.0346256
1.94433,0.436034,-0.116045
1.91363,0.528538,-0.104044
1.90956,0.520249,-0.0575993
1.92571,0.524648,-0.254052
1.93681,0.427254,-0.185145
1.88946,0.615383,-0.138955
1.91942,0.522935,-0.162403
1.94584,0.429246,-0.116045
1.89582,0.617454,-0.0928761
1.91931,0.522906,-0.104253
1.91523,0.514617,-0.0577156
1.92369,0.516892,-0.253547
1.90045,0.611633,-0.215051
1.94997,0.423024,-0.18626
1.8916,0.608783,-0.138955
1.92509,0.517266,-0.162729
1.94733,0.422451,-0.116045
1.89797,0.610832,-0.0928761
1.91727,0.515166,-0.104044
1.88809,0.607654,-0.0461541
1.91701,0.507929,-0.0577156
1.91779,0.508136,-0.0115308
1.95143,0.416215,-0.18626
1.93631,0.41299,0.0230493
1.89371,0.602177,-0.138955
1.92688,0.510544,-0.162729
1.94489,0.414818,-0.115813
1.91237,0.506699,0.0806004
1.91519,0.507448,-0.103835
1.89401,0.602272,-0.0462471
1.91877,0.501234,-0.0577156
1.95287,0.4094,-0.18626
1.8958,0.595562,-0.138955
1.92479,0.502806,-0.162403
1.91542,0.500359,0.0345558
1.95023,0.408846,-0.116045
1.91695,0.500759,-0.103835
1.92051,0.494533,-0.0577156
1.89787,0.58894,-0.138955
1.9304,0.497078,-0.162729
1.91716,0.493669,0.0345558
1.86756,0.681213,-0.127403
1.94773,0.401229,-0.115813
1.91586,0.493335,0.0806004
1.91869,0.494064,-0.103835
1.89817,0.589034,-0.0462471
1.92223,0.487826,-0.0577156
1.94837,0.394277,-0.0231425
1.93457,0.490959,-0.254052
1.9012,0.582708,-0.214194
1.90373,0.583482,-0.139234
1.93212,0.490337,-0.162729
1.92275,0.487958,0.0346256
1.86617,0.673335,-0.127148
1.94912,0.394428,-0.115813
1.91757,0.486645,0.0806004
1.92815,0.489329,-0.104253
1.89257,0.580061,-0.046061
1.92004,0.480144,-0.0575993
1.93627,0.484203,-0.254052
1.90703,0.57722,-0.214623
1.94581,0.386694,0.0230959
1.89811,0.574521,-0.138676
1.87227,0.668159,-0.127403
1.91926,0.479949,0.0806004
1.92209,0.480658,-0.103835
1.89841,0.57461,-0.0461541
1.9217,0.473439,-0.0575993
1.94231,0.478516,-0.400079
1.91619,0.572699,-0.311144
1.90522,0.569422,-0.214194
1.95108,0.380666,0.0231425
1.90393,0.569035,-0.138955
1.9355,0.476837,-0.162729
1.92611,0.474524,0.0346256
1.87836,0.662949,-0.127659
1.92764,0.474901,-0.104044
1.90423,0.569125,-0.0462471
1.92334,0.466728,-0.0575993
1.94397,0.471732,-0.400079
1.89905,0.560362,0
1.94847,0.3731,-0.0230959
1.91439,0.564887,-0.310529
1.93961,0.470674,-0.254052
1.96363,0.376004,-0.186632
1.94847,0.3731,0.0230959
1.90591,0.562385,-0.138955
1.9294,0.468198,-0.162078
1.92775,0.467797,0.0346256
1.87689,0.655072,-0.127403
1.92928,0.468169,-0.104044
1.90621,0.562474,-0.0462471
1.94942,0.465855,-0.400864
1.95369,0.367034,-0.0231425
1.91635,0.558201,-0.310529
1.94124,0.4639,-0.254052
1.90915,0.556106,-0.214194
1.94976,0.366296,0.0230959
1.90403,0.554613,-0.138676
1.93878,0.463313,-0.162729
1.92548,0.460135,0.0345558
1.87539,0.647214,-0.127148
1.93091,0.461432,-0.104044
1.93045,0.454205,-0.0577156
1.91491,0.550538,-0.214623
1.96229,0.361565,-0.18626
1.91362,0.550168,-0.139234
1.94038,0.456543,-0.162729
1.92708,0.453412,0.0345558
1.87764,0.640664,-0.127148
1.95964,0.361075,-0.116045
1.92862,0.453774,-0.103835
1.87993,0.641446,-0.0809261
1.90625,0.548048,-0.0461541
1.92026,0.445092,-0.0573665
1.95614,0.353728,-0.0231425
1.9239,0.546224,-0.311144
1.94435,0.450677,-0.254052
1.92055,0.545271,-0.215051
1.9674,0.355765,-0.186632
1.95614,0.353728,0.0231425
1.90776,0.54164,-0.138676
1.92857,0.447019,0.0345558
1.88732,0.636987,-0.127659
1.96475,0.355286,-0.116278
1.92726,0.446717,0.0806004
1.91419,0.543466,-0.09269
1.934,0.448278,-0.104044
1.88583,0.636487,-0.0810889
1.9119,0.542816,-0.0462471
1.93357,0.440717,-0.0577156
1.95036,0.444545,-0.400079
1.90669,0.533794,0
1.96136,0.347254,-0.023189
1.9187,0.537157,-0.214623
1.96869,0.348552,-0.186632
1.95742,0.346557,0.0231425
1.90973,0.534645,-0.138676
1.94352,0.442986,-0.162729
1.93409,0.440837,0.0346256
1.88585,0.628803,-0.127403
1.96604,0.348083,-0.116278
1.93174,0.4403,-0.103835
1.88057,0.627043,-0.0807633
1.91388,0.535805,-0.0462471
1.9351,0.433965,-0.0577156
1.95573,0.438592,-0.400864
1.9124,0.528199,0
1.95862,0.339722,-0.0231425
1.92776,0.532443,-0.311144
1.94752,0.436752,-0.254052
1.9244,0.531514,-0.215051
1.9699,0.341677,-0.186632
1.95862,0.339722,0.0231425
1.91928,0.5301,-0.139234
1.93728,0.434454,-0.162078
1.93172,0.433207,0.0345558
1.88424,0.620967,-0.127148
1.94106,0.435302,-0.104253
1.88275,0.620474,-0.0807633
1.91573,0.529121,-0.0462471
1.93653,0.427545,-0.0577156
1.95717,0.432104,-0.400864
1.9257,0.525007,-0.310529
1.94509,0.429435,-0.253547
1.91848,0.523037,-0.214194
1.95974,0.333224,0.0231425
1.91333,0.521632,-0.138676
1.93871,0.428027,-0.162078
1.93315,0.426798,0.0345558
1.8825,0.613478,-0.126892
1.93859,0.428001,-0.104044
1.8848,0.614227,-0.0807633
1.91748,0.522765,-0.0462471
1.9341,0.419934,-0.0575993
1.9625,0.426101,-0.401648
1.91595,0.515169,0
1.95694,0.325724,-0.0230959
1.93134,0.519308,-0.311144
1.94657,0.422642,-0.253547
1.92029,0.516336,-0.214194
1.96825,0.327606,-0.18626
1.91157,0.513991,0.046061
1.96483,0.327038,0.023189
1.92284,0.517022,-0.139234
1.94798,0.422948,-0.162729
1.93853,0.420896,0.0346256
1.88843,0.608126,-0.127148
1.96952,0.327818,-0.116278
1.93722,0.420611,0.0807633
1.94398,0.422078,-0.104253
1.91681,0.416181,0.160125
1.88313,0.606418,-0.0806004
1.91157,0.513991,-0.046061
1.93164,0.412346,-0.0574829
1.95631,0.417612,-0.400079
1.91773,0.508479,0
1.96596,0.320178,-0.023189
1.92932,0.511552,-0.310529
1.9558,0.417503,-0.254557
1.94416,0.415019,-0.0115541
1.92593,0.510651,-0.214623
1.96938,0.320735,-0.18626
1.91335,0.507317,0.046061
1.92463,0.510308,-0.139234
1.94945,0.416147,-0.162729
1.93999,0.414128,0.0346256
1.89054,0.601532,-0.127148
1.97065,0.320942,-0.116278
1.93868,0.413848,0.0807633
1.92215,0.410321,0.160451
1.88904,0.601054,-0.0807633
1.91722,0.508341,-0.0461541
1.89241,0.594859,-0.0346256
1.93698,0.406422,-0.0575993
1.95775,0.41078,-0.400079
1.91563,0.50077,0
1.95724,0.410673,-0.254557
1.93154,0.50493,-0.215051
1.97835,0.315111,-0.187003
1.96312,0.312684,0.0231425
1.9264,0.503587,-0.139234
1.94699,0.40852,-0.162403
1.94142,0.407353,0.0346256
1.89263,0.594928,-0.127148
1.94011,0.407077,0.0807633
1.94297,0.407677,-0.104044
1.92748,0.404427,0.160776
1.88731,0.593258,-0.0806004
1.93839,0.399658,-0.0575993
1.96302,0.404736,-0.400864
1.92124,0.495078,0
1.95478,0.403037,-0.254052
1.92944,0.497193,-0.214623
1.96815,0.306446,0.023189
1.92042,0.494868,-0.138676
1.9484,0.401722,-0.162403
1.8985,0.589502,-0.127403
1.94829,0.401699,-0.104253
1.92497,0.396892,0.160451
1.88937,0.586666,-0.0806004
1.92459,0.495942,-0.0462471
1.90034,0.582805,-0.0346954
1.94761,0.394477,-0.057832
1.96826,0.398659,-0.401648
1.9152,0.486399,0
1.96921,0.299573,-0.023189
1.95229,0.395423,-0.253547
1.93117,0.490454,-0.214623
1.9805,0.301291,-0.187003
1.96525,0.298971,0.0231425
1.92987,0.490125,-0.139234
1.94422,0.393789,0.0346256
1.89292,0.58053,-0.126892
1.97785,0.300888,-0.116511
1.93899,0.39273,0.0806004
1.94577,0.394103,-0.104044
1.92244,0.389378,0.160125
1.89141,0.580067,-0.0806004
1.92243,0.488236,-0.0461541
1.90236,0.576168,-0.0346954
1.94505,0.386895,-0.0577156
1.96964,0.391786,-0.401648
1.92465,0.481653,0
1.96144,0.390154,-0.254557
1.92901,0.482744,-0.214194
1.93157,0.483385,-0.139234
1.95116,0.388109,-0.162403
1.94558,0.387,0.0346256
1.89111,0.572762,-0.126636
1.91752,0.479868,0.115115
1.94427,0.386738,0.0807633
1.94713,0.387308,-0.104044
1.92379,0.382665,0.160125
1.89342,0.573461,-0.0806004
1.92413,0.481522,-0.0461541
1.90053,0.568378,-0.0346256
1.94639,0.380104,-0.0577156
1.95945,0.382653,-0.399295
1.91855,0.473017,0
1.97521,0.286392,-0.0232356
1.94179,0.478748,-0.311144
1.95889,0.382545,-0.254052
1.93454,0.47696,-0.214623
1.98256,0.287458,-0.187003
1.92191,0.473846,0.046061
1.97521,0.286392,0.0232356
1.92937,0.475685,-0.138955
1.9525,0.381296,-0.162403
1.943,0.37944,0.0345558
1.90075,0.568445,-0.127148
1.97991,0.287073,-0.116511
1.9456,0.379949,0.0807633
1.95239,0.381275,-0.104253
1.93685,0.37824,0.161102
1.90307,0.569139,-0.0809261
1.90634,0.562873,-0.0346954
1.95164,0.374059,-0.057832
1.96462,0.376549,-0.400079
1.92019,0.466316,0
1.97224,0.278935,-0.023189
1.93577,0.470101,-0.309915
1.96411,0.376451,-0.254557
1.94006,0.471143,-0.215051
1.98749,0.281093,-0.187375
1.92356,0.467134,0.046061
1.97224,0.278935,0.023189
1.96165,0.375979,-0.163054
1.89889,0.560676,-0.126892
1.91694,0.465528,0.114883
1.94692,0.373155,0.0807633
1.95371,0.374457,-0.104253
1.93424,0.370726,0.160776
1.89738,0.560228,-0.0806004
1.93133,0.469021,-0.0462471
1.90426,0.555761,-0.0346256
1.94887,0.367186,-0.0577156
1.96965,0.371102,-0.400864
1.92553,0.461214,0
1.9731,0.272738,-0.023189
1.94493,0.465859,-0.311144
1.96529,0.370279,-0.254557
1.94153,0.465046,-0.215051
1.98837,0.274848,-0.187375
1.9731,0.272738,0.023189
1.9286,0.461949,-0.138676
1.96282,0.369815,-0.163054
1.9494,0.367286,0.0346256
1.90831,0.556944,-0.127403
1.98572,0.274482,-0.116743
1.90674,0.456713,0.114185
1.94808,0.367037,0.0807633
1.95095,0.367578,-0.104044
1.93148,0.363909,0.160451
1.89913,0.554265,-0.0806004
1.9289,0.46202,-0.0461541
1.90234,0.548003,-0.0345558
1.95014,0.360381,-0.0577156
1.97479,0.364936,-0.401648
1.93103,0.455407,0
1.97801,0.266382,-0.0232356
1.94654,0.459066,-0.311144
1.96267,0.362695,-0.254052
1.90644,0.549184,0.0115308
1.94314,0.458265,-0.215051
1.97801,0.266382,0.0232356
1.96018,0.362236,-0.162729
1.95067,0.360478,0.0346256
1.90257,0.548069,-0.126892
1.91999,0.452804,0.114883
1.94542,0.359508,0.0806004
1.95615,0.361491,-0.104253
1.94058,0.358613,0.161102
1.89721,0.546526,-0.0804376
1.9305,0.455284,-0.0461541
1.90828,0.541787,-0.0346256
1.95151,0.352891,-0.0577156
1.96846,0.355955,-0.400079
1.92497,0.446183,0
1.97902,0.258786,-0.0232356
1.94444,0.450697,-0.310529
1.96404,0.355157,-0.254052
1.90854,0.541861,0.0115308
1.93714,0.449005,-0.214194
1.98243,0.259232,-0.186632
1.92834,0.446965,0.046061
1.97902,0.258786,0.0232356
1.93971,0.449601,-0.139234
1.96548,0.355417,-0.163054
1.95204,0.352986,0.0346256
1.9085,0.541851,-0.127148
1.98372,0.259401,-0.116511
1.91782,0.444527,0.11465
1.95072,0.352747,0.0807633
1.96145,0.354688,-0.104463
1.93409,0.349741,0.160451
1.90314,0.540329,-0.0806004
1.93613,0.448771,-0.0462471
1.91016,0.535123,-0.0346256
1.94879,0.345379,-0.0575993
1.96969,0.349082,-0.400079
1.92651,0.439462,0
1.98388,0.252381,-0.0232822
1.946,0.443907,-0.310529
1.96918,0.348992,-0.254557
1.91042,0.535196,0.0115308
1.9614,0.347613,-0.0115773
1.9387,0.442241,-0.214194
1.98727,0.252814,-0.187003
1.92989,0.440232,0.046061
1.97991,0.251876,0.0232356
1.94127,0.442828,-0.139234
1.95326,0.346171,0.0346256
1.91038,0.535186,-0.127148
1.92325,0.438718,0.114883
1.948,0.345239,0.0806004
1.94001,0.44254,-0.09269
1.95481,0.346446,-0.104044
1.93923,0.343684,0.160776
1.91271,0.535839,-0.0809261
1.93769,0.442011,-0.0462471
1.91568,0.530187,-0.0346954
1.95381,0.339941,-0.0577156
1.97078,0.342893,-0.400079
1.92788,0.433407,0
1.94739,0.437792,-0.310529
1.97417,0.343484,-0.255062
1.94396,0.437021,-0.214623
1.99201,0.24706,-0.187375
1.93516,0.435044,0.0461541
1.98069,0.245655,0.0232356
1.93876,0.435852,-0.138955
1.96387,0.341691,-0.162729
1.95828,0.340718,0.0346954
1.9159,0.530247,-0.127403
1.92462,0.432674,0.114883
1.95302,0.339803,0.0807633
1.95589,0.340303,-0.104044
1.94423,0.338274,0.161102
1.91054,0.528762,-0.0807633
1.93516,0.435044,-0.0461541
1.91376,0.522109,-0.0346256
1.9511,0.332106,-0.0575993
1.97589,0.336325,-0.400864
1.92946,0.426338,0
1.98158,0.238394,-0.0232356
1.94512,0.429798,-0.309915
1.97542,0.336246,-0.255062
1.94555,0.429892,-0.214623
1.98895,0.239281,-0.187003
1.93284,0.427085,0.046061
1.98158,0.238394,0.0232356
1.94034,0.428743,-0.138955
1.9651,0.33449,-0.162729
1.90166,0.51881,0.0573665
1.95163,0.332196,0.0345558
1.90628,0.520068,-0.126636
1.9262,0.425617,0.114883
1.95425,0.332642,0.0807633
1.94298,0.429325,-0.09269
1.95713,0.333132,-0.104044
1.94545,0.331145,0.161102
1.90475,0.519652,-0.0804376
1.9117,0.514387,-0.0345558
1.96408,0.327265,-0.0579483
1.98092,0.330071,-0.401648
1.9824,0.231476,-0.0232356
1.95433,0.424685,-0.311144
1.97267,0.328696,-0.254557
1.91583,0.515495,0.0115308
1.96488,0.327398,-0.0115773
1.95092,0.423944,-0.215051
1.99768,0.233261,-0.187747
1.93823,0.421186,0.0461541
1.98637,0.23194,0.0232822
1.94573,0.422815,-0.139234
1.97019,0.328284,-0.163054
1.91119,0.514247,0.0575993
1.96067,0.326697,0.0346954
1.90808,0.513412,-0.126636
1.99504,0.232952,-0.116976
1.92767,0.418891,0.114883
1.95934,0.326476,0.0809261
1.96616,0.327612,-0.104463
1.9466,0.324353,0.161102
1.91427,0.515077,-0.0807633
1.93823,0.421186,-0.0461541
1.91726,0.50907,-0.0346256
1.96121,0.320106,-0.057832
1.982,0.3235,-0.401648
1.98315,0.2249,-0.0232356
1.948,0.416548,-0.309915
1.96983,0.321513,-0.254052
1.91366,0.508112,0.0115076
1.94454,0.415808,-0.214194
1.99449,0.226186,-0.187375
1.93961,0.414755,0.0461541
1.97521,0.32239,-0.16338
1.91288,0.507906,0.0575993
1.96174,0.320192,0.0346954
1.91363,0.508105,-0.126892
1.99184,0.225885,-0.116743
1.92514,0.411661,0.11465
1.96041,0.319976,0.0809261
1.96329,0.320446,-0.104253
1.9516,0.318537,0.161427
1.9121,0.5077,-0.0806004
1.94352,0.415591,-0.0462471
1.96231,0.313258,-0.057832
1.98312,0.31658,-0.401648
1.94158,0.408093,0
1.99188,0.21885,-0.0233287
1.95718,0.411372,-0.311144
1.97486,0.315261,-0.254557
1.91542,0.50143,0.0115076
1.94987,0.409836,-0.214623
2.00318,0.220093,-0.188119
1.93714,0.40716,0.046061
1.9879,0.218413,0.0232822
1.94856,0.409561,-0.139234
1.97632,0.315494,-0.16338
1.91464,0.501226,0.0575993
1.96284,0.313343,0.0346954
1.99261,0.218931,-0.116743
1.92657,0.404939,0.11465
1.96152,0.313131,0.0809261
1.9644,0.313591,-0.104253
1.95663,0.312352,0.161753
1.91773,0.502035,-0.0807633
1.92077,0.495673,-0.0346256
1.96339,0.306407,-0.057832
1.94299,0.401314,0
1.99661,0.212319,-0.0233753
1.94699,0.40214,-0.3093
1.98379,0.30959,-0.255567
1.95518,0.403832,-0.215051
2.00394,0.213099,-0.188119
1.9807,0.210628,0.023189
1.94998,0.402757,-0.139234
1.97347,0.307979,-0.163054
1.91251,0.493541,0.0574829
1.921,0.495731,-0.127148
1.99734,0.212397,-0.116976
1.93188,0.399019,0.114883
1.9626,0.306283,0.0809261
1.95759,0.305501,-0.103835
1.95377,0.304906,0.161427
1.91947,0.495338,-0.0807633
1.94246,0.401205,-0.0461541
1.96445,0.299551,-0.057832
1.97753,0.301545,-0.400079
1.9483,0.395324,0
1.98938,0.20453,-0.0232822
1.95613,0.396912,-0.310529
1.97309,0.300868,-0.254052
1.92275,0.489031,0.0115308
1.97316,0.300879,-0.0116006
1.95658,0.397004,-0.215051
2.00467,0.206102,-0.188119
1.95137,0.395948,-0.139234
1.97847,0.301689,-0.16338
1.91809,0.487847,0.0575993
1.96894,0.300235,0.0347652
1.91885,0.488039,-0.126892
2.00204,0.205831,-0.117208
1.93326,0.392273,0.114883
1.96365,0.29943,0.0809261
1.96654,0.299869,-0.104253
1.95483,0.298083,0.161427
1.91732,0.487649,-0.0806004
1.94385,0.394422,-0.0461541
1.92039,0.480945,-0.0345558
1.96949,0.292938,-0.0579483
1.98638,0.295449,-0.401648
1.99409,0.197632,-0.0233287
1.95757,0.389741,-0.310529
1.9781,0.294219,-0.254557
1.92453,0.481981,0.0115308
1.95802,0.389831,-0.215051
2.00938,0.199147,-0.188491
1.99409,0.197632,0.0233287
1.95281,0.388793,-0.139234
1.97562,0.29385,-0.163054
1.91599,0.479843,0.0574829
1.96607,0.292429,0.0346954
1.92062,0.481003,-0.126892
2.00278,0.198493,-0.117208
1.93077,0.384405,0.11465
1.96869,0.292819,0.0810889
1.96367,0.292072,-0.104044
1.95196,0.29033,0.161102
1.91909,0.480619,-0.0806004
1.94921,0.388076,-0.0462471
1.92206,0.474238,-0.0345558
1.97446,0.286635,-0.0580647
1.9874,0.288513,-0.401648
1.99875,0.19105,-0.0233753
1.9628,0.383663,-0.311144
1.97912,0.287311,-0.254557
1.9262,0.47526,0.0115308
1.96327,0.383756,-0.215479
1.99817,0.190994,-0.187375
1.9427,0.379734,0.046061
1.99477,0.19067,0.0233287
1.97664,0.286951,-0.163054
1.91765,0.473151,0.0574829
1.97104,0.286138,0.0347652
1.92617,0.475251,-0.127148
2.00743,0.19188,-0.117441
1.93602,0.378429,0.114883
1.96179,0.284796,0.0807633
1.95681,0.382492,-0.0928761
1.97259,0.286363,-0.104463
1.96085,0.28466,0.161753
1.92076,0.473917,-0.0806004
1.94662,0.380502,-0.0461541
1.92354,0.468197,-0.0345558
1.97139,0.279869,-0.0579483
1.98441,0.281717,-0.400864
1.96011,0.376749,-0.310529
1.98394,0.281651,-0.255062
1.92768,0.469207,0.0115308
1.97615,0.280545,-0.0116006
1.95275,0.375335,-0.214194
2.00669,0.185449,-0.188119
1.94388,0.37363,0.046061
1.99138,0.184034,0.0232822
1.95535,0.375833,-0.139234
1.98147,0.281301,-0.16338
1.91913,0.467125,0.0574829
1.97588,0.280507,0.034835
1.92765,0.469198,-0.127148
2.00405,0.185205,-0.117208
1.93328,0.371591,0.11465
1.96663,0.279194,0.0809261
1.95015,0.374835,-0.0925039
1.97348,0.280165,-0.104463
1.96174,0.278499,0.161753
1.92224,0.467881,-0.0806004
1.95174,0.375139,-0.0462471
1.92921,0.461738,-0.0346256
1.97245,0.272297,-0.0579483
1.98936,0.274632,-0.401648
1.95369,0.367742,0
1.99605,0.176739,-0.0233287
1.96154,0.369219,-0.310529
1.98108,0.273488,-0.254557
1.92947,0.461801,0.0115308
1.97721,0.272955,-0.0116006
1.962,0.369305,-0.215051
2.00739,0.177742,-0.188119
1.94923,0.366902,0.0461541
1.99605,0.176739,0.0233287
1.95678,0.368322,-0.139234
1.97859,0.273145,-0.163054
1.92091,0.459752,0.0574829
1.97695,0.272918,0.034835
1.92944,0.461792,-0.127148
2.00475,0.177508,-0.117208
1.93861,0.364904,0.114883
1.96769,0.27164,0.0809261
1.95943,0.368822,-0.0928761
1.97058,0.272039,-0.104253
1.96279,0.270964,0.161753
1.92402,0.460496,-0.0806004
1.95316,0.367642,-0.0462471
1.93065,0.455676,-0.0346256
1.97726,0.266634,-0.0580647
1.99021,0.268381,-0.401648
1.95484,0.361602,0
2.00457,0.171148,-0.0234219
1.96269,0.363056,-0.310529
1.98586,0.267793,-0.255062
1.92702,0.454819,0.0115076
1.98203,0.267277,-0.0116238
1.96706,0.363863,-0.215479
2.00793,0.171435,-0.188119
1.94644,0.36005,0.046061
1.99261,0.170127,0.0232822
1.96185,0.362899,-0.139513
1.98339,0.267461,-0.16338
1.91845,0.452797,0.0573665
1.97383,0.266171,0.0347652
1.93088,0.455729,-0.127148
1.94368,0.359538,0.115115
1.9725,0.265991,0.0810889
1.97538,0.266381,-0.104463
1.94417,0.359629,0.242764
1.95968,0.264264,0.161427
1.92546,0.454449,-0.0806004
1.93223,0.448933,-0.0346256
1.98611,0.260771,-0.0582974
1.99503,0.261942,-0.402433
1.95609,0.354776,0
2.00914,0.164476,-0.0234684
1.96784,0.356907,-0.311144
1.98678,0.260859,-0.255062
1.9286,0.448089,0.0115076
1.98295,0.260356,-0.0116238
1.96049,0.355575,-0.214623
2.00852,0.164425,-0.188119
1.95556,0.35468,0.0462471
2.00117,0.163823,0.0233753
1.95917,0.355336,-0.139234
1.98826,0.261054,-0.163705
1.92392,0.447002,0.0574829
1.97475,0.259279,0.0347652
1.93246,0.448986,-0.127148
2.00588,0.164208,-0.117208
1.94492,0.352751,0.115115
1.97737,0.259624,0.0812517
1.98026,0.260003,-0.104672
1.94541,0.35284,0.242764
1.9685,0.258459,0.162078
1.93482,0.449534,-0.0809261
1.95162,0.353966,-0.0461541
1.92989,0.441294,-0.0345558
1.97511,0.252316,-0.0579483
1.99593,0.254976,-0.402433
2.0097,0.157461,-0.0234684
1.96907,0.350035,-0.311144
1.98768,0.253922,-0.255062
1.93405,0.442245,0.0115308
1.97988,0.252925,-0.0116006
1.9578,0.348032,-0.214194
2.01305,0.157723,-0.188491
1.95678,0.347851,0.0462471
2.00572,0.157148,0.0234219
1.98521,0.253606,-0.16338
1.92547,0.440283,0.0574829
1.97961,0.252891,0.034835
1.92623,0.440457,-0.126636
2.01042,0.157517,-0.117441
1.94221,0.34526,0.114883
1.9743,0.252213,0.0810889
1.98116,0.253089,-0.104672
1.94663,0.346047,0.242764
1.96544,0.25108,0.161753
1.92469,0.440104,-0.0804376
1.96072,0.348551,-0.0463402
1.93142,0.434555,-0.0345558
1.97994,0.245913,-0.0580647
1.98902,0.247041,-0.400864
1.95852,0.341111,0
2.00625,0.150147,-0.0234219
1.97028,0.34316,-0.311144
1.99249,0.247472,-0.255567
1.93558,0.435492,0.0115308
1.98075,0.246013,-0.0116006
1.96292,0.341879,-0.214623
2.00962,0.150398,-0.188119
1.95011,0.339647,0.046061
1.99828,0.14955,0.0233287
1.96554,0.342334,-0.139513
1.99399,0.247658,-0.164031
1.93479,0.435315,0.0577156
1.98048,0.24598,0.034835
1.92776,0.433731,-0.126636
2.01494,0.150797,-0.117673
1.93947,0.337794,0.11465
1.96724,0.244335,0.0807633
1.98203,0.246172,-0.104672
1.94001,0.337887,0.241789
1.9663,0.244219,0.161753
1.93401,0.435138,-0.0807633
1.95799,0.341019,-0.0462471
1.93698,0.427999,-0.0346256
1.98484,0.238787,-0.0581811
1.95587,0.332918,0
2.0108,0.142726,-0.0234684
1.96379,0.334266,-0.309915
1.99343,0.23982,-0.255567
1.98168,0.238406,-0.0116006
1.96814,0.335007,-0.215051
2.01415,0.142963,-0.188491
2.00681,0.142443,0.0234219
1.96684,0.334785,-0.139513
1.98701,0.239048,-0.16338
1.92864,0.426158,0.0574829
1.98538,0.238851,0.0349048
1.9333,0.427188,-0.126892
2.01551,0.143059,-0.117673
1.94469,0.331015,0.114883
1.9761,0.237735,0.0810889
1.98296,0.23856,-0.104672
1.93738,0.32977,0.241301
1.96722,0.236667,0.161753
1.93176,0.426847,-0.0806004
1.96322,0.33417,-0.0463402
1.94237,0.422084,-0.0346954
1.98169,0.231393,-0.0580647
1.99468,0.232909,-0.401648
1.96096,0.326746,0
2.0073,0.135436,-0.0234219
1.97274,0.328708,-0.311144
1.99425,0.232859,-0.255567
1.93481,0.420442,0.0115076
1.9693,0.328135,-0.215051
2.01861,0.136199,-0.188862
1.96043,0.326657,0.0462471
1.99932,0.134898,0.0233287
1.968,0.327917,-0.139513
1.97992,0.231185,-0.162729
1.9223,0.417724,0.0572502
1.98223,0.231455,0.034835
1.93088,0.419589,-0.126636
2.01599,0.136023,-0.117673
1.94583,0.324224,0.114883
1.98089,0.231299,0.0812517
1.97066,0.328362,-0.0930622
1.97981,0.231173,-0.104463
1.94635,0.32431,0.242276
1.96804,0.229798,0.161753
1.93324,0.420101,-0.0806004
1.96043,0.326657,-0.0462471
1.94368,0.41598,-0.0346954
1.98241,0.225166,-0.0580647
1.9954,0.226642,-0.401648
1.96198,0.320584,0
2.01171,0.129386,-0.0234684
1.96987,0.321872,-0.310529
1.99497,0.226593,-0.255567
1.98719,0.225709,-0.0116238
1.97425,0.322588,-0.215479
2.01903,0.129857,-0.188862
2.00372,0.128873,0.0233753
1.93534,0.414194,0.0575993
1.98295,0.225227,0.034835
1.93609,0.414356,-0.126892
2.01243,0.129433,-0.117441
1.94684,0.31811,0.114883
1.98558,0.225526,0.0814146
1.97169,0.32217,-0.0930622
1.98053,0.224953,-0.104463
1.95128,0.318834,0.242764
1.97271,0.224065,0.162078
1.93846,0.414862,-0.0807633
1.9654,0.321142,-0.0463402
1.93345,0.406386,-0.034486
1.97925,0.217463,-0.0579483
2.00012,0.219755,-0.402433
2.01217,0.122013,-0.0234684
1.97494,0.315273,-0.311144
2.00368,0.220147,-0.256577
1.99198,0.218862,-0.0116471
1.96363,0.313469,-0.214194
2.01552,0.122216,-0.188491
1.95866,0.312676,0.0461541
2.00818,0.121771,0.0234219
1.97412,0.315144,-0.139792
1.9973,0.219446,-0.164031
1.93293,0.406276,0.0574829
1.98376,0.217958,0.034835
1.94541,0.4089,-0.127403
2.01687,0.122298,-0.117673
1.95194,0.311602,0.115115
1.98639,0.218247,0.0814146
1.99722,0.219438,-0.1053
1.95635,0.312307,0.243251
1.97352,0.216833,0.162078
1.93606,0.406933,-0.0806004
1.96261,0.313306,-0.0462471
1.94661,0.402061,-0.0346954
1.9959,0.212243,-0.0584138
2.00087,0.212772,-0.402433
2.02057,0.115444,-0.0235616
1.97602,0.308377,-0.311144
1.99654,0.212312,-0.255567
1.94296,0.401306,0.0115308
1.99273,0.211906,-0.0116471
1.97258,0.307839,-0.215051
2.01991,0.115406,-0.188862
1.95974,0.305836,0.0461541
2.00859,0.114759,0.0234219
1.97127,0.307635,-0.139513
2.00201,0.212894,-0.164356
1.93825,0.400334,0.0575993
1.98451,0.211032,0.034835
1.94292,0.401299,-0.127148
2.02127,0.115484,-0.117906
1.94907,0.30417,0.114883
1.98316,0.210889,0.0812517
1.99003,0.21162,-0.104881
1.95351,0.304863,0.242764
1.98219,0.210786,0.162729
1.94138,0.40098,-0.0807633
1.96369,0.306453,-0.0462471
1.94401,0.394807,-0.0346256
1.99659,0.205623,-0.0584138
2.00547,0.206537,-0.403217
1.96919,0.300624,0
2.00896,0.108098,-0.0234219
1.98094,0.302419,-0.311759
2.00118,0.206096,-0.256072
1.99342,0.205297,-0.0116471
1.97752,0.301896,-0.215479
2.02028,0.108707,-0.188862
1.96865,0.300542,0.0463402
2.00496,0.107883,0.0233753
1.97228,0.301096,-0.139513
2.00271,0.206253,-0.164356
1.93565,0.393108,0.0574829
1.98917,0.204859,0.0349048
1.94815,0.395647,-0.127403
1.95006,0.297705,0.114883
1.98385,0.204311,0.0812517
1.98675,0.204609,-0.104672
1.95058,0.297784,0.242276
1.98685,0.204619,0.163054
1.9427,0.39454,-0.0807633
1.96865,0.300542,-0.0463402
1.94937,0.388461,-0.0346954
1.99335,0.197909,-0.0582974
2.00231,0.198798,-0.402433
1.97027,0.293405,0
2.00535,0.100534,-0.0233753
1.97813,0.294575,-0.311144
1.99798,0.198368,-0.255567
1.94963,0.388514,0.0115541
1.99018,0.197594,-0.0116238
1.97468,0.29406,-0.215051
2.02464,0.101501,-0.189234
1.96974,0.293325,0.0463402
2.00934,0.100734,0.0234219
1.97731,0.294453,-0.139792
1.99552,0.198124,-0.163705
1.93708,0.386012,0.0574829
1.98593,0.197172,0.034835
1.94567,0.387725,-0.127148
2.02203,0.10137,-0.117906
1.95904,0.291732,0.115348
1.98061,0.196644,0.0810889
1.99544,0.198116,-0.105091
1.95559,0.291218,0.242764
1.94021,0.386636,-0.0806004
1.96974,0.293325,-0.0463402
1.95071,0.381654,-0.0346954
2.00199,0.191711,-0.0585302
2.00689,0.192181,-0.403217
1.97524,0.2871,0
2.01367,0.0939053,-0.0234684
1.97914,0.287667,-0.311144
1.99866,0.191392,-0.255567
1.94313,0.380169,0.0115076
1.97963,0.287737,-0.215479
2.03294,0.0948038,-0.189978
1.97075,0.286447,0.0463402
2.01367,0.0939053,0.0234684
1.97833,0.287549,-0.139792
1.9962,0.191157,-0.163705
1.93841,0.379247,0.0574829
1.98661,0.190238,0.034835
1.9431,0.380164,-0.126892
2.02636,0.0944969,-0.118138
1.96005,0.284892,0.115348
1.98526,0.19011,0.0812517
1.99214,0.190768,-0.104881
1.94155,0.37986,-0.0806004
1.9668,0.285872,-0.0462471
1.94418,0.373335,-0.0345558
1.99468,0.183989,-0.0582974
2.00755,0.185176,-0.403217
1.97623,0.280205,0
2.01799,0.0870495,-0.023515
1.98014,0.280758,-0.311144
2.00722,0.185145,-0.256577
1.9955,0.184064,-0.0116471
1.98062,0.280827,-0.215479
2.02132,0.0871935,-0.188862
1.96778,0.279006,0.0462471
2.01399,0.0868771,0.0234684
1.98327,0.281203,-0.140071
2.00082,0.184555,-0.164031
1.94365,0.373234,0.0575993
1.98726,0.183304,0.034835
1.94833,0.374133,-0.127148
2.03067,0.0875965,-0.118371
1.96498,0.27861,0.11558
1.9899,0.183547,0.0814146
1.98201,0.281023,-0.0932484
1.99279,0.183814,-0.104881
1.94679,0.373836,-0.0807633
1.9757,0.280129,-0.0464332
1.9494,0.367286,-0.0346256
1.99133,0.176671,-0.0581811
1.9772,0.273304,0
2.01828,0.0800043,-0.023515
1.99285,0.275468,-0.312989
2.0039,0.177786,-0.256072
1.95359,0.368077,0.0115541
2.00011,0.17745,-0.0116703
1.98553,0.274455,-0.215908
2.02162,0.0801367,-0.188862
1.9727,0.272683,0.0463402
2.01028,0.0796875,0.0234219
1.97634,0.273185,-0.139513
2.00543,0.177921,-0.164356
1.94494,0.366446,0.0575993
1.99586,0.177072,0.0349746
1.95355,0.368068,-0.127403
2.03096,0.0805071,-0.118371
1.96199,0.271202,0.115348
1.99052,0.176599,0.0814146
1.97506,0.273008,-0.0928761
1.99342,0.176857,-0.104881
1.95594,0.368518,-0.0810889
1.9727,0.272683,-0.0463402
1.95847,0.362274,-0.0347652
1.99589,0.170406,-0.0582974
1.97413,0.266211,0
2.01454,0.0731653,-0.0234684
1.98984,0.268329,-0.312374
2.00843,0.171477,-0.256577
2.00467,0.171156,-0.0116936
1.98248,0.267338,-0.215479
2.02983,0.0737208,-0.189606
1.96963,0.265605,0.0462471
2.01454,0.0731653,0.0234684
1.97723,0.266629,-0.139513
2.006,0.17127,-0.164356
1.94221,0.359267,0.0574829
2.0044,0.171133,0.0351142
1.95869,0.362314,-0.127659
2.03122,0.0737712,-0.118371
1.96683,0.265227,0.11558
1.9911,0.169997,0.0814146
1.994,0.170245,-0.104881
1.94929,0.360575,-0.0807633
1.97756,0.266674,-0.0464332
1.95585,0.354381,-0.0346954
1.9965,0.16309,-0.0582974
1.97113,0.258454,0
2.01479,0.0657816,-0.0234684
1.98689,0.260521,-0.311759
2.00904,0.164115,-0.256577
1.95218,0.353716,0.0115308
2.0013,0.163482,-0.0116703
1.98345,0.26007,-0.215479
2.03009,0.0662811,-0.189606
1.97852,0.259424,0.0464332
2.01479,0.0657816,0.0234684
1.98611,0.260418,-0.140071
2.00265,0.163592,-0.164031
1.94352,0.352146,0.0574829
1.99306,0.162809,0.0349048
1.95214,0.353709,-0.127148
2.03147,0.0663263,-0.118371
1.96383,0.257498,0.115348
1.99171,0.162699,0.0814146
1.98088,0.259733,-0.0930622
1.99461,0.162936,-0.104881
1.9506,0.353428,-0.0807633
1.98249,0.259944,-0.0465263
1.95695,0.348235,-0.0346954
2.00498,0.157444,-0.0585302
1.9759,0.252768,0
2.02698,0.0598059,-0.0236081
1.99162,0.254779,-0.312374
1.95328,0.347581,0.0115308
2.00579,0.157508,-0.0116936
1.98426,0.253838,-0.215479
2.03825,0.0601383,-0.190349
2.02298,0.0596879,0.0235616
1.98692,0.254178,-0.140071
2.00315,0.1573,-0.164031
1.94855,0.34674,0.0575993
1.99356,0.156547,0.0349048
1.95325,0.347575,-0.127148
2.03167,0.0599443,-0.118371
1.96067,0.250821,0.115115
1.98565,0.254016,-0.0932484
1.99909,0.156982,-0.105091
1.95957,0.3487,-0.0810889
1.9833,0.253715,-0.0465263
1.95422,0.340714,-0.0346256
1.99754,0.149845,-0.0582974
2.01825,0.151399,-0.404786
1.98471,0.246857,0
2.03118,0.0528335,-0.0236547
1.99249,0.247825,-0.312374
2.00613,0.15049,-0.256072
1.95842,0.341448,0.0115541
2.00234,0.150205,-0.0116703
1.98513,0.246909,-0.215479
2.03048,0.0528155,-0.189606
1.98417,0.24679,0.0465263
1.98779,0.24724,-0.140071
2.01164,0.150903,-0.164682
1.94581,0.339249,0.0574829
2.00606,0.150484,0.0351142
1.95838,0.34144,-0.127403
2.03187,0.0528516,-0.118371
1.9655,0.244468,0.115348
1.99673,0.149784,0.0815774
1.97859,0.246096,-0.0928761
2.0076,0.1506,-0.105509
1.95683,0.34117,-0.0809261
1.97227,0.245309,-0.0462471
1.96334,0.334895,-0.0347652
1.99808,0.142523,-0.0582974
2.03935,0.0455677,-0.0237478
2.00124,0.241468,-0.313604
2.01459,0.143701,-0.257082
1.99787,0.241062,-0.216764
2.03066,0.0453735,-0.189606
1.98109,0.239037,0.0464332
1.99265,0.240431,-0.14035
2.01615,0.143813,-0.165007
1.95492,0.33346,0.0577156
2.00261,0.142846,0.0350444
1.95962,0.33426,-0.127403
2.03205,0.0454045,-0.118371
1.97035,0.237741,0.11558
1.99328,0.142181,0.0814146
1.98741,0.2398,-0.0932484
2.00415,0.142957,-0.1053
1.95807,0.333996,-0.0809261
1.98109,0.239037,-0.0464332
1.96055,0.32738,-0.0346954
2.00654,0.136088,-0.0585302
1.98245,0.232183,0
2.0235,0.0381466,-0.0235616
1.99814,0.234021,-0.312989
2.01112,0.136399,-0.256577
1.96476,0.328083,0.0115773
2.01135,0.136414,-0.0117168
1.9908,0.233161,-0.215908
2.03479,0.0383594,-0.189978
1.98191,0.23212,0.0464332
1.99347,0.233474,-0.14035
2.01267,0.136504,-0.164682
1.95213,0.325975,0.0575993
2.00708,0.136125,0.0351142
1.96471,0.328075,-0.127659
2.03219,0.0383105,-0.118371
1.97513,0.231326,0.115813
2.00174,0.135763,0.0817402
1.95528,0.326501,-0.0807633
1.98589,0.232585,-0.0465263
1.96163,0.320877,-0.0346954
2.01097,0.129691,-0.0586465
2.01972,0.130255,-0.404786
1.98321,0.225607,0
2.02362,0.0314357,-0.0235616
1.99891,0.227393,-0.312989
2.01156,0.129728,-0.256577
1.96189,0.32092,0.0115541
2.01179,0.129743,-0.0117168
1.99156,0.226557,-0.215908
1.99424,0.226861,-0.14035
1.94531,0.318208,0.0573665
2.00353,0.129211,0.0350444
1.95791,0.320268,-0.127148
2.0403,0.0316948,-0.118836
1.97589,0.224774,0.115813
2.00218,0.129123,0.0817402
1.99694,0.227169,-0.0936206
2.00508,0.129311,-0.1053
1.95635,0.320014,-0.0807633
1.98267,0.225546,-0.0464332
1.96279,0.313685,-0.0346954
2.01143,0.12232,-0.0586465
2.03172,0.0241139,-0.0236547
1.99187,0.2192,-0.311759
2.01598,0.122596,-0.257082
1.96306,0.313728,0.0115541
2.01225,0.122369,-0.0117168
2.00028,0.220127,-0.216764
2.04297,0.0242475,-0.190721
1.98746,0.218715,0.0465263
1.98712,0.218678,-0.139792
2.01357,0.12245,-0.164682
1.95436,0.312338,0.0575993
2.00798,0.12211,0.0351142
1.96301,0.31372,-0.127403
2.0404,0.0242169,-0.118836
1.9767,0.217531,0.115813
2.00663,0.122027,0.0819031
1.99776,0.219849,-0.0936206
1.96146,0.313473,-0.0809261
1.99144,0.219153,-0.0466193
1.96782,0.307451,-0.0347652
2.00785,0.11507,-0.0585302
1.98875,0.211835,0
2.03579,0.0170567,-0.0237012
2.00441,0.213504,-0.313604
2.0164,0.11556,-0.257082
1.96414,0.306875,0.0115541
2.01266,0.115346,-0.0117168
1.99708,0.212723,-0.216336
2.03906,0.0170841,-0.190349
1.98821,0.211778,0.0465263
1.99581,0.212587,-0.14035
2.01398,0.115422,-0.164682
1.95544,0.305516,0.0575993
2.0084,0.115101,0.0351142
1.96804,0.307484,-0.127659
2.04446,0.0171293,-0.119069
1.97744,0.210631,0.115813
2.00994,0.11519,-0.105509
1.96254,0.306626,-0.0809261
1.98424,0.211354,-0.0464332
1.96883,0.300923,-0.0347652
1.98546,0.204828,0
2.03584,0.0103051,-0.0237012
2.00118,0.206449,-0.312989
2.02073,0.109086,-0.257587
2.00904,0.108455,-0.0116936
1.99778,0.206099,-0.216336
2.03911,0.0103216,-0.190349
1.9889,0.205183,0.0465263
1.9965,0.205967,-0.14035
2.01436,0.108742,-0.164682
1.96039,0.299633,0.0577156
2.00877,0.10844,0.0351142
1.9651,0.300352,-0.127403
2.03652,0.0103086,-0.118604
2.01031,0.108523,-0.105509
1.9675,0.300719,-0.0810889
1.98493,0.204773,-0.0464332
1.96987,0.294048,-0.0347652
2.00859,0.1014,-0.0585302
1.98617,0.197896,0
2.03186,0.0031918,-0.0236547
2.00975,0.200246,-0.314219
2.02902,0.102431,-0.258597
2.00941,0.101441,-0.0116936
1.99849,0.199123,-0.216336
1.99359,0.198635,0.0466193
1.99721,0.198996,-0.14035
2.01871,0.10191,-0.165007
1.95747,0.292197,0.0575993
2.01712,0.10183,0.0352539
1.97403,0.294669,-0.127915
2.04853,0.00321798,-0.119301
1.97883,0.197165,0.115813
2.00389,0.199662,-0.0938067
1.96459,0.293259,-0.0809261
1.98961,0.198239,-0.0465263
1.97484,0.287746,-0.034835
2.01692,0.0947624,-0.0587629
1.98684,0.190961,0
2.00651,0.192851,-0.313604
2.02144,0.0949748,-0.257587
1.97115,0.287208,0.0115773
2.02174,0.0949886,-0.0117633
2.00313,0.192526,-0.216764
2.04311,-0.00392288,-0.190721
1.99029,0.191292,0.0465263
1.99789,0.192023,-0.14035
2.01905,0.0948624,-0.165007
1.95848,0.285362,0.0575993
2.00548,0.094225,0.0350444
1.9632,0.28605,-0.127148
2.04853,-0.00393327,-0.119301
1.97951,0.190256,0.115813
2.0006,0.192283,-0.0936206
1.9656,0.286399,-0.0809261
1.99427,0.191674,-0.0466193
1.97188,0.280288,-0.0347652
2.02123,0.0878955,-0.0588792
1.99546,0.184762,0
2.00717,0.185846,-0.313604
1.9761,0.280889,0.0116006
2.01806,0.0877575,-0.0117401
1.99983,0.185166,-0.216336
2.04707,-0.0110758,-0.191093
1.99891,0.185081,0.0467124
2.0065,0.185784,-0.140908
1.96342,0.279087,0.0577156
2.02178,0.0879194,0.0353237
1.97209,0.280319,-0.127659
2.04051,-0.0110403,-0.118836
1.98414,0.183714,0.116045
2.00524,0.185667,-0.0938067
2.01533,0.0876387,-0.105719
1.97054,0.280099,-0.0810889
1.99094,0.184344,-0.0465263
1.96492,0.272306,-0.0346256
2.01753,0.0806803,-0.0587629
1.99211,0.177441,0
2.01174,0.179189,-0.314219
1.97311,0.273441,0.0115773
2.01436,0.0805532,-0.0117168
2.00046,0.178185,-0.216336
2.051,-0.0182563,-0.191465
1.99954,0.178103,0.0467124
2.00713,0.178779,-0.140908
2.02365,0.0809247,-0.165333
1.96835,0.272781,0.057832
2.01009,0.0803825,0.0351142
1.9691,0.272886,-0.127403
2.04845,-0.0182336,-0.119301
1.98477,0.176787,0.116045
2.01961,0.0807634,-0.105928
1.97151,0.273219,-0.0810889
1.99157,0.177393,-0.0465263
1.97378,0.266516,-0.0347652
1.99272,0.170487,0
2.01629,0.172503,-0.314834
2.03026,0.0740922,-0.258597
1.97009,0.266017,0.0115541
2.01462,0.0735217,-0.0117168
2.00107,0.171201,-0.216336
1.99617,0.170782,0.0466193
2.00377,0.171432,-0.140629
2.02392,0.0738608,-0.165333
1.97325,0.266444,0.0579483
2.01435,0.0735118,0.0351841
1.974,0.266545,-0.127659
2.05236,-0.025433,-0.119534
1.98935,0.170199,0.116278
2.00649,0.171665,-0.0938067
2.01988,0.0737136,-0.105928
1.97245,0.266336,-0.0810889
1.99617,0.170782,-0.0466193
1.98259,0.261013,-0.0349048
2.01804,0.0669455,-0.0587629
1.98929,0.16355,0
2.01291,0.165492,-0.314219
2.03049,0.0673587,-0.258597
1.97492,0.260004,0.0115773
2.02285,0.0671053,-0.0117633
2.00559,0.16489,-0.216764
2.00071,0.164488,0.0467124
2.0083,0.165113,-0.140908
2.02813,0.0672805,-0.165658
1.96619,0.258855,0.0577156
1.98279,0.261039,-0.128171
2.04828,-0.0321766,-0.119301
1.98592,0.163273,0.116045
2.00704,0.165009,-0.0938067
1.97332,0.259793,-0.0810889
1.99274,0.163833,-0.0465263
1.97952,0.253582,-0.034835
2.02625,0.0601375,-0.0589956
1.99782,0.157232,0
2.00954,0.158154,-0.313604
1.97979,0.253616,0.0116006
2.02707,0.0601619,-0.0117866
2.01805,0.158824,-0.21805
2.00525,0.157817,0.0468054
2.01285,0.158414,-0.141187
1.96709,0.251989,0.0577156
1.98369,0.254116,-0.128171
2.05214,-0.0394034,-0.119534
1.99964,0.157375,-0.0934345
2.02034,0.059962,-0.105928
1.97025,0.252395,-0.0809261
1.99728,0.157189,-0.0466193
1.97647,0.245832,-0.0347652
2.00237,0.150208,0
2.01404,0.151084,-0.314219
2.03092,0.0528271,-0.258597
1.97673,0.245865,0.0115773
2.02728,0.0527324,-0.0117866
2.05453,-0.0469823,-0.191837
2.01341,0.151036,-0.141187
2.02856,0.0527658,-0.165658
1.97196,0.245272,0.057832
1.97668,0.245859,-0.127659
2.05199,-0.0469241,-0.119534
2.00817,0.150643,-0.0938067
2.02454,0.052661,-0.106137
1.97116,0.245172,-0.0809261
2.00183,0.150167,-0.0467124
1.98521,0.240238,-0.0349048
2.00286,0.143568,0
2.01848,0.144687,-0.314834
1.97754,0.239309,0.0115773
2.02345,0.045919,-0.0117633
2.01118,0.144164,-0.217193
2.00631,0.143815,0.0468054
2.0139,0.144359,-0.141187
1.97277,0.238732,0.057832
1.97749,0.239303,-0.127659
2.05581,-0.0538326,-0.119766
2.00866,0.143983,-0.0938067
2.0247,0.0459475,-0.106137
1.9799,0.239595,-0.0812517
1.97809,0.232373,-0.0347652
1.99936,0.136303,0
2.02291,0.137909,-0.315449
1.97836,0.232404,0.0115773
2.02759,0.0389319,-0.0117866
2.01167,0.137142,-0.217193
2.0068,0.13681,0.0468054
2.01439,0.137328,-0.141187
2.03685,0.0391096,-0.166309
1.97756,0.23231,0.0579483
1.97831,0.232398,-0.127659
2.05561,-0.061009,-0.119766
2.01314,0.137242,-0.0939929
1.98073,0.232682,-0.0812517
2.0068,0.13681,-0.0468054
1.98684,0.226372,-0.0349048
2.00381,0.129581,0
2.01944,0.130592,-0.314834
1.97916,0.225498,0.0115773
2.02772,0.0318544,-0.0117866
2.0161,0.130376,-0.217621
2.00327,0.129546,0.0467124
2.01486,0.130296,-0.141187
1.97041,0.224501,0.0577156
1.98704,0.226395,-0.128171
2.05539,-0.0681836,-0.119766
2.00962,0.129957,-0.0938067
1.98153,0.225767,-0.0812517
2.00726,0.129804,-0.0468054
1.98762,0.219435,-0.0349048
2.02699,0.0247656,-0.0589956
2.00425,0.122585,0
2.03939,0.0249171,-0.259607
1.98789,0.219465,0.0116238
2.03181,0.0248245,-0.0118098
2.02051,0.12358,-0.21805
2.0117,0.123041,0.0468985
2.01132,0.123018,-0.140908
2.03308,0.0248401,-0.165984
1.97118,0.217621,0.0577156
1.98385,0.219019,-0.127915
2.06711,-0.0757973,-0.120464
2.01804,0.123428,-0.094179
1.97833,0.21841,-0.0810889
2.0117,0.123041,-0.0468985
1.9844,0.21207,-0.034835
2.00467,0.115588,0
2.0203,0.116489,-0.314834
1.98467,0.212099,0.0116006
2.02789,0.0176966,-0.0117866
2.0161,0.116247,0.0469915
2.01971,0.116455,-0.141466
1.97591,0.211163,0.057832
1.98857,0.212517,-0.128171
2.05885,-0.0826925,-0.119999
2.03313,0.0177423,-0.106556
1.98305,0.211927,-0.0812517
1.99706,0.206377,-0.0350444
2.00506,0.108591,0
2.02069,0.109438,-0.314834
1.98937,0.205582,0.0116238
2.00452,0.108562,0.0467124
2.0201,0.109406,-0.141466
2.04118,0.0106886,-0.166634
1.98061,0.204677,0.0579483
1.98533,0.205165,-0.127915
2.02284,0.109554,-0.0943651
2.04117,0.0106885,-0.106975
1.98776,0.205415,-0.0814146
2.00452,0.108562,-0.0467124
1.98981,0.19861,-0.0349048
2.00942,0.101793,0
2.02501,0.102583,-0.315449
1.99008,0.198636,0.0116238
2.01773,0.102214,-0.217621
2.00888,0.101766,0.0468054
2.02047,0.102353,-0.141466
2.04121,0.0035629,-0.166634
1.98529,0.198159,0.0580647
1.99001,0.19863,-0.128171
2.01922,0.10229,-0.094179
1.99244,0.198872,-0.0815774
2.00888,0.101766,-0.0468054
1.99447,0.192046,-0.0349746
2.03514,-0.00355125,-0.0592283
2.00977,0.0947789,0
1.99474,0.192072,0.0116471
2.01807,0.0951705,-0.217621
2.00523,0.0945649,0.0467124
1.97801,0.190461,0.057832
1.99069,0.191682,-0.128171
2.01956,0.0952409,-0.094179
1.98516,0.19115,-0.0812517
2.01721,0.09513,-0.0469915
1.99115,0.184713,-0.0349048
2.03911,-0.0106767,-0.0593447
2.01009,0.0877624,0
2.02568,0.0884432,-0.315449
1.99142,0.184738,0.0116238
2.02236,0.0882985,-0.21805
2.01753,0.0880875,0.0469915
2.02113,0.0882448,-0.141466
2.04517,-0.0107084,-0.16696
1.98264,0.183925,0.0579483
1.99532,0.185101,-0.128427
2.02388,0.0883645,-0.0943651
2.01753,0.0880875,-0.0469915
1.99975,0.178472,-0.0350444
2.03906,-0.0177949,-0.0593447
2.01038,0.0807448,0
1.99205,0.177785,0.0116238
2.02266,0.0812381,-0.21805
2.00984,0.080723,0.0468054
2.02542,0.0813488,-0.141745
2.04512,-0.0178478,-0.16696
1.98327,0.177002,0.0579483
1.99198,0.177779,-0.128171
2.02417,0.0812988,-0.0943651
2.04112,-0.0178129,-0.106975
1.99043,0.177641,-0.0814146
1.99634,0.171499,-0.0349746
2.04699,-0.0246515,-0.0595774
2.01863,0.0743736,0
1.99661,0.171522,0.0116471
2.02689,0.074678,-0.218478
2.02568,0.0746332,-0.141745
1.98783,0.170768,0.0580647
2.02842,0.0747344,-0.0945512
1.99101,0.171041,-0.0814146
1.99693,0.164529,-0.0349746
2.01488,0.067193,0
2.03043,0.0677116,-0.316064
1.99321,0.164223,0.0116238
2.03112,0.0677344,-0.218906
2.02592,0.0675613,-0.141745
1.98842,0.163828,0.0580647
2.0011,0.164872,-0.128683
2.02867,0.0676529,-0.0945512
2.04495,-0.0317671,-0.107184
1.99956,0.164746,-0.0817402
2.02632,0.0675747,-0.0471777
1.9935,0.157242,-0.0349048
1.99776,0.157578,0.0116471
1.99296,0.1572,0.0581811
2.00166,0.157886,-0.128683
2.0289,0.0605706,-0.0945512
2.02255,0.0603812,-0.0470846
2.00202,0.150884,-0.0350444
2.0193,0.0532302,0
1.9983,0.150604,0.0116471
2.03154,0.0535529,-0.218906
2.03432,0.0536263,-0.142303
1.98951,0.149942,0.0580647
2.0022,0.150898,-0.128683
2.0251,0.0533832,-0.0943651
2.02675,0.0534266,-0.0471777
2.00652,0.144181,-0.0351142
2.02347,0.0462723,0
2.03893,0.0466259,-0.317293
1.99482,0.143341,0.0116238
2.03569,0.0465517,-0.219335
2.03051,0.0464333,-0.142024
1.99002,0.142996,0.0580647
2.03326,0.0464962,-0.0947374
2.00516,0.144084,-0.0819031
2.02692,0.0463512,-0.0471777
2.00302,0.136903,-0.0350444
2.02362,0.0392088,0
1.9993,0.136649,0.0116471
2.03584,0.0394456,-0.219335
2.03465,0.0394225,-0.142303
1.9945,0.136321,0.0581811
2.00321,0.136916,-0.128683
2.03341,0.0393986,-0.0947374
2.05229,-0.060552,-0.107603
2.02307,0.0391982,-0.0470846
2.00346,0.13026,-0.0350444
2.00374,0.130278,0.0116703
2.03477,0.0326751,-0.142303
1.99494,0.129706,0.0581811
2.00365,0.130273,-0.128683
2.02954,0.0325911,-0.0945512
2.00391,0.123266,-0.0350444
2.00817,0.123529,0.0116936
2.04004,0.0256372,-0.219763
2.00336,0.123233,0.0584138
2.00808,0.123523,-0.128938
2.03363,0.0255567,-0.0947374
2.00654,0.123428,-0.0819031
2.02729,0.025477,-0.0471777
2.02032,0.116844,-0.0353237
2.00462,0.115936,0.0116703
1.99981,0.115659,0.0582974
2.00852,0.116162,-0.128938
2.03771,0.0181385,-0.0949235
2.03537,0.0181177,-0.0473638
2.00873,0.109141,-0.0351142
2.00501,0.108938,0.0116703
2.03899,0.0110321,-0.142582
2.04176,0.0110471,-0.0951096
2.00737,0.109067,-0.0819031
2.03142,0.0109912,-0.0472707
2.00908,0.102479,-0.0351142
2.01335,0.102696,0.0117168
2.04301,0.00427887,-0.142861
2.00454,0.102247,0.0584138
2.03779,0.00426794,-0.0949235
2.01171,0.102613,-0.0820659
2.01743,0.0954926,-0.0352539
2.00972,0.0951273,0.0116936
2.04301,-0.00320915,-0.142861
2.02006,0.095617,-0.0823915
2.03545,-0.00319727,-0.0473638
2.01376,0.0882748,-0.0351841
2.01004,0.0881115,0.0116936
2.01792,0.0884571,-0.12945
2.04576,-0.0103546,-0.0952957
2.0124,0.088215,-0.0820659
2.02205,0.0815673,-0.0353237
2.01433,0.0812559,0.0117168
2.04571,-0.0174955,-0.0952957
2.02229,0.0752145,-0.0353237
2.01457,0.0749273,0.0117168
2.04686,-0.0239365,-0.14314
2.04964,-0.0239689,-0.0954819
2.02257,0.0674489,-0.0353237
2.01485,0.0671913,0.0117168
2.05473,-0.0319196,-0.143698
2.04953,-0.0318388,-0.0954819
2.0212,0.0674032,-0.0823915
2.01877,0.0609737,-0.0352539
2.01505,0.0608612,0.0117168
2.02293,0.0610992,-0.129706
2.0214,0.0610531,-0.0823915
2.02297,0.0540333,-0.0353237
2.01925,0.0539338,0.0117401
2.02313,0.0540375,-0.129706
2.02315,0.0466184,-0.0353237
2.04909,-0.0529417,-0.0954819
2.0313,0.0397123,-0.0354633
2.05688,-0.0603283,-0.0958541
2.02593,0.0396073,-0.0825544
2.05266,-0.0677349,-0.095668
2.03006,0.0322451,-0.0827172
2.03153,0.0258849,-0.0354633
2.0356,0.0188304,-0.0355331
2.03166,0.011347,-0.0354633
2.03579,0.0113701,-0.130473
2.03568,0.00461884,-0.0355331
2.03582,0.00461915,-0.130473
2.03569,-0.00284236,-0.0355331
2.06186,-0.0885808,-0.132264
