2.1349,0.355728,-0.126045
2.15023,0.335948,-0.126743
2.15539,0.328667,-0.126976
2.16042,0.322106,-0.127208
2.16548,0.315138,-0.127441
2.16223,0.306576,-0.0254241
2.16662,0.307199,-0.127441
2.17121,0.300121,-0.0255173
2.17559,0.300727,-0.127906
2.17219,0.29292,-0.0255173
2.18054,0.294045,-0.128138
2.17722,0.285477,-0.0255638
2.17584,0.285296,-0.204849
2.1816,0.286052,-0.128138
2.11462,0.383149,-0.112627
2.18217,0.278381,-0.0256104
2.18077,0.278203,-0.205221
2.18654,0.27894,-0.128371
2.19097,0.272512,-0.0257035
2.18954,0.272334,-0.205964
2.19097,0.272512,0.0257035
2.19588,0.265342,-0.0257501
2.20382,0.266301,0.0258432
2.20081,0.257757,-0.0257966
2.19934,0.257585,-0.206708
2.20081,0.257757,0.0257966
2.20517,0.258268,-0.129301
2.20562,0.250909,-0.0258432
2.20414,0.25074,-0.207079
2.2096,0.251361,0.0258898
2.21046,0.243647,-0.0258898
2.20896,0.243482,-0.207451
2.21046,0.243647,0.0258898
2.21481,0.244127,-0.129766
2.13784,0.342044,-0.113464
2.21134,0.235543,-0.0258898
2.21929,0.236391,0.0259829
2.21966,0.23643,-0.129999
2.1343,0.326213,-0.0628356
2.22007,0.22903,-0.0259829
2.22645,0.229689,-0.208938
2.22404,0.229441,0.0260295
2.22043,0.229068,-0.129999
2.14333,0.319942,-0.0630683
2.22483,0.221676,-0.0260295
2.22724,0.221916,-0.208938
2.22881,0.222073,0.026076
2.22917,0.222108,-0.130464
2.14444,0.312458,-0.0630683
2.23356,0.214674,-0.0261226
2.23197,0.214521,-0.20931
2.24152,0.215439,0.0262157
2.1619,0.315003,-0.178351
2.23831,0.206854,-0.0261692
2.24067,0.207073,-0.210054
2.23831,0.206854,0.0261692
2.16304,0.307077,-0.178351
2.24263,0.207253,-0.131162
2.15845,0.299126,-0.0634174
2.235,0.199075,-0.0261226
2.24695,0.20014,0.0262623
2.16405,0.299902,-0.178351
2.17137,0.293194,-0.0637664
2.24365,0.191954,-0.0262157
2.25162,0.192636,0.0263088
2.16903,0.292879,-0.178676
2.16836,0.28547,-0.0636501
2.24826,0.184841,-0.0262623
2.25623,0.185496,0.0263554
2.1779,0.286726,-0.179327
2.25655,0.185522,-0.131859
2.25288,0.177306,-0.0263088
2.19007,0.280554,-0.0128327
2.2671,0.178425,-0.212284
2.25687,0.17762,0.0263554
2.18284,0.279629,-0.179653
2.26515,0.178271,-0.132324
2.26146,0.17004,-0.026402
2.26771,0.17051,-0.212284
2.26146,0.17004,0.026402
2.19172,0.272993,-0.180304
2.26974,0.170662,-0.132557
2.19599,0.273525,-0.115976
2.26603,0.162432,-0.0264485
2.27624,0.163163,-0.213028
2.27002,0.162718,0.0264951
2.1887,0.264862,-0.179978
2.27828,0.16331,-0.133022
2.12287,0.36287,-0.100321
2.27459,0.154667,-0.0265417
2.20882,0.259086,-0.0129257
2.27459,0.154667,0.0265417
2.19361,0.257302,-0.180304
2.13207,0.356404,-0.100693
2.20583,0.258735,-0.116395
2.19685,0.2503,-0.0643483
2.27908,0.147382,-0.0265882
2.20967,0.25176,-0.0129257
2.28308,0.14764,0.0266348
2.13035,0.348859,-0.150953
2.20634,0.251381,-0.18128
2.28335,0.147658,-0.133255
2.1293,0.348686,-0.100507
2.19771,0.24263,-0.0643483
2.28757,0.139914,-0.0266814
2.21654,0.244709,-0.283851
2.21451,0.244485,-0.0129489
2.28577,0.139805,-0.213771
2.29555,0.140403,0.0267745
2.21513,0.244553,-0.181931
2.1305,0.341252,-0.100507
2.29603,0.132388,-0.0267745
2.21933,0.237177,-0.0129722
2.29818,0.132512,-0.214887
2.29603,0.132388,0.0267745
2.13668,0.334595,-0.151232
2.13958,0.335049,-0.100879
2.22029,0.237281,-0.117023
2.30047,0.12459,-0.0268211
2.2281,0.230252,-0.0130187
2.30658,0.12492,-0.21563
2.29648,0.124373,0.0267745
2.14178,0.327739,-0.151511
2.22075,0.229492,-0.182256
2.14468,0.328183,-0.101066
2.22905,0.230351,-0.117442
2.30489,0.116761,-0.0268676
2.22293,0.221878,-0.284356
2.31098,0.117069,-0.216002
2.30489,0.116761,0.0268676
2.14686,0.32085,-0.15179
2.22947,0.22253,-0.182907
2.23256,0.22284,0.0391632
2.23503,0.223086,0.09151
2.14977,0.321285,-0.101252
2.31727,0.109279,-0.0270073
2.23159,0.214877,-0.285366
2.23363,0.215074,-0.0130419
2.31535,0.109188,-0.216374
2.31327,0.109091,0.0269608
2.15586,0.314505,-0.152348
2.23817,0.21551,-0.183558
2.31749,0.10929,-0.135115
2.15878,0.314932,-0.101624
2.1645,0.315765,-0.0508998
2.2255,0.206454,-0.0650464
2.32563,0.10154,-0.0271004
2.23628,0.207454,-0.285871
2.24233,0.208016,-0.0130884
2.3197,0.101281,-0.216746
2.31364,0.101017,0.0269608
2.15694,0.30698,-0.152348
2.24288,0.208066,-0.183884
2.24601,0.208357,0.0393726
2.32185,0.101375,-0.135348
2.23653,0.207478,0.09151
2.15196,0.30627,-0.101252
2.32996,0.0935813,-0.027147
2.24094,0.199999,-0.286376
2.24305,0.200187,-0.0130884
2.32401,0.0933424,-0.217117
2.31398,0.0929393,0.0269608
2.158,0.299448,-0.152348
2.25071,0.200871,0.0394424
2.24919,0.200735,0.0919985
2.16489,0.300403,-0.10181
2.23485,0.191595,-0.0652792
2.33028,0.0854481,-0.027147
2.24558,0.192515,-0.286881
2.2517,0.19304,-0.0131349
2.33229,0.0855218,-0.217861
2.32228,0.085155,0.0270539
2.15903,0.291914,-0.152348
2.25222,0.193084,-0.184535
2.25386,0.193224,0.0921613
2.1778,0.294451,-0.102368
2.25661,0.193461,-0.118698
2.18118,0.287158,0
2.34255,0.0777107,-0.0272867
2.24228,0.184349,-0.286376
2.25635,0.185506,-0.0131582
2.33257,0.0773795,-0.217861
2.32256,0.0770476,0.0270539
2.17191,0.285937,-0.153185
2.26003,0.185808,0.0395821
2.2585,0.185683,0.0923241
2.18278,0.287368,-0.102555
2.24809,0.176928,-0.0656282
2.18217,0.279542,0
2.34281,0.0695326,-0.0272867
2.25478,0.177455,-0.287892
2.26097,0.177942,-0.0131814
2.34079,0.0694726,-0.218604
2.34281,0.0695326,0.0272867
2.18081,0.279368,-0.153743
2.343,0.0695381,-0.13651
2.2671,0.178424,0.0926498
2.18773,0.280254,-0.102741
2.25266,0.169775,-0.0657446
2.19102,0.273296,0
2.35102,0.0619755,-0.0273798
2.26327,0.170574,-0.288902
2.26554,0.170745,-0.0132047
2.34101,0.0617114,-0.218604
2.19836,0.274212,0.0515511
2.34303,0.0617647,0.0272867
2.18568,0.27263,-0.154022
2.3512,0.0619801,-0.136976
2.26768,0.170907,0.0926498
2.18865,0.273,-0.102741
2.18402,0.264683,0
2.35522,0.0538593,-0.0274264
2.27177,0.163241,-0.289912
2.2741,0.163409,-0.0132512
2.34917,0.0537209,-0.219348
2.34723,0.0536765,0.0273333
2.18662,0.264998,-0.154022
2.35539,0.0538632,-0.137208
2.27225,0.163276,0.0928126
2.19355,0.265838,-0.102927
2.12729,0.364007,-0.0879277
2.26575,0.154861,-0.0660937
2.19288,0.257992,0
2.3634,0.0457921,-0.0275195
2.28024,0.155851,-0.290922
2.27865,0.155742,-0.0132744
2.19211,0.257902,-0.237755
2.34934,0.0455198,-0.219348
2.3554,0.0456371,0.0274264
2.19546,0.258296,-0.15458
2.11414,0.354165,-0.137381
2.27281,0.155343,0.0928126
2.20241,0.259113,-0.103299
2.27113,0.155228,0.185836
2.12855,0.356579,-0.0879277
2.27027,0.14721,-0.0662101
2.20171,0.251243,0
2.37154,0.0376696,-0.0276127
2.27681,0.147634,-0.290417
2.29115,0.148564,-0.0133442
2.20881,0.252052,-0.239469
2.35745,0.0374458,-0.220092
2.35954,0.037479,0.027473
2.20031,0.251083,-0.154859
2.29084,0.148544,0.0400707
2.12718,0.348721,-0.138148
2.37168,0.0376718,-0.138138
2.27732,0.147668,0.0929754
2.20727,0.251877,-0.103485
2.27166,0.1473,0.185836
2.27476,0.139529,-0.0663264
2.2145,0.244874,0
2.37566,0.02944,-0.0276592
2.27731,0.139685,-0.290417
2.29165,0.140565,-0.0133442
2.20967,0.24434,-0.239469
2.36553,0.0293146,-0.220835
2.36766,0.0293409,0.0275661
2.20911,0.244278,-0.155417
2.29205,0.140589,-0.187464
2.13233,0.341925,-0.138404
2.37579,0.0294417,-0.138371
2.28182,0.139961,0.0931383
2.2121,0.244609,-0.103671
2.27614,0.139613,0.186162
2.14283,0.343608,-0.0884162
2.28719,0.13268,-0.0666755
2.21928,0.237956,0
2.37974,0.0215987,-0.0277058
2.28568,0.132592,-0.291427
2.30009,0.133428,-0.0133907
2.21442,0.237436,-0.239897
2.3696,0.0215067,-0.221207
2.37974,0.0215987,0.0277058
2.21387,0.237377,-0.155696
2.37588,0.0215636,-0.138371
2.28626,0.132626,0.0933011
2.22085,0.238125,-0.104044
2.29564,0.12473,-0.0669082
2.22014,0.229821,0
2.3878,0.0129202,-0.0277989
2.30597,0.125291,-0.293952
2.30456,0.125215,-0.0134139
2.21924,0.229728,-0.240326
2.37763,0.0128651,-0.22195
2.22749,0.230582,0.0521094
2.3798,0.0128769,0.0277058
2.21076,0.22885,-0.155417
2.15045,0.32945,-0.139427
2.38792,0.0129208,-0.139069
2.2987,0.124896,0.0937896
2.22568,0.230395,-0.10423
2.29298,0.124585,0.187464
2.1438,0.320776,-0.0378368
2.30006,0.116918,-0.0670246
2.22491,0.222467,0
2.38783,0.00458445,-0.0277989
2.31035,0.117442,-0.294457
2.30898,0.117372,-0.0134371
2.22794,0.222771,-0.241183
2.38562,0.00458021,-0.222694
2.23226,0.223203,0.0522025
2.38783,0.00458445,0.0277989
2.21949,0.221926,-0.155975
2.15158,0.32194,-0.139427
2.39194,0.00459234,-0.139301
2.30311,0.117074,0.0939524
2.23045,0.223022,-0.104416
2.15816,0.322925,-0.0889047
2.15678,0.315026,-0.0380462
2.30444,0.109079,-0.067141
2.22965,0.215084,0
2.39184,-0.00375645,-0.0278455
2.30678,0.109189,-0.293952
2.31337,0.109501,-0.0134604
2.23266,0.215375,-0.241611
2.38961,-0.00375296,-0.223066
2.24099,0.216178,0.0523886
2.39583,-0.00376274,0.027892
2.22819,0.214943,-0.156534
2.15269,0.314429,-0.139427
2.39594,-0.0037629,-0.139534
2.31149,0.109412,0.0942781
2.23519,0.215619,-0.104602
2.30176,0.108951,0.188115
2.15928,0.31539,-0.0889047
2.15787,0.307495,-0.0380462
2.3128,0.101383,-0.0673737
2.24632,0.20878,0
2.40381,-0.0121669,-0.0279852
2.31112,0.10131,-0.294457
2.32173,0.101775,-0.0135069
2.22944,0.207211,-0.241183
2.39356,-0.012115,-0.223438
2.40381,-0.0121669,0.0279852
2.22893,0.207164,-0.156534
2.16168,0.308038,-0.139939
2.3999,-0.0121471,-0.139766
2.31186,0.101342,0.0942781
2.24389,0.208554,-0.104974
2.16828,0.308978,-0.0892304
2.24571,0.208724,-0.0524816
2.16289,0.300511,-0.0381161
2.31314,0.0933101,-0.0673737
2.24703,0.200938,0
2.40375,-0.0205571,-0.0279852
2.31938,0.0935621,-0.295468
2.32607,0.0938317,-0.0135301
2.23411,0.199783,-0.241611
2.39749,-0.0205036,-0.223809
2.24643,0.200884,0.0524816
2.41175,-0.0206255,0.0280783
2.24156,0.200449,-0.157371
2.1667,0.30104,-0.140195
2.40384,-0.0205579,-0.139999
2.24323,0.200598,0.131162
2.31619,0.0934334,0.0944409
2.24062,0.200365,-0.104788
2.16539,0.300858,-0.0890675
2.25041,0.20124,-0.0525747
2.17175,0.29479,-0.0382557
2.31742,0.0861907,-0.06749
2.25164,0.194221,0
2.41167,-0.0282028,-0.0280783
2.3276,0.0865693,-0.296478
2.25454,0.194471,-0.243753
2.40538,-0.0281292,-0.224553
2.25501,0.194512,0.0526678
2.41167,-0.0282028,0.0280783
2.24218,0.193405,-0.157371
2.17159,0.294768,-0.140451
2.41175,-0.0282037,-0.140464
2.24783,0.193893,0.131394
2.33245,0.0867499,0.0950922
2.31868,0.0862376,0.189416
2.1782,0.295666,-0.089556
2.17683,0.286972,-0.0383255
2.32572,0.0775589,-0.0677228
2.24838,0.185246,0
2.41155,-0.0374622,-0.0280783
2.33584,0.0778965,-0.297488
2.18109,0.287534,0.0127862
2.34266,0.0781237,-0.0136231
2.25527,0.185813,-0.243753
2.41322,-0.0374881,-0.225296
2.41954,-0.0375864,0.0281714
2.25086,0.18545,-0.157929
2.17666,0.28695,-0.140707
2.41562,-0.0375254,-0.140696
2.26448,0.186572,0.132324
2.32877,0.0776606,0.0949294
2.25789,0.18603,-0.105533
2.17932,0.2873,-0.089556
2.25973,0.186181,-0.0527608
2.17782,0.279372,-0.0383255
2.33797,0.0697985,-0.0680718
2.26895,0.17897,0
2.4194,-0.0460315,-0.0281714
2.3361,0.0697428,-0.297488
2.18208,0.279919,0.0127862
2.34691,0.0700656,-0.0136464
2.2559,0.17794,-0.243753
2.42103,-0.0460626,-0.22604
2.4314,-0.0462598,0.0283111
2.25547,0.177906,-0.158208
2.34714,0.0700725,-0.191695
2.18161,0.279859,-0.140962
2.43144,-0.0462606,-0.141627
2.33702,0.0697702,0.095255
2.26251,0.178462,-0.105719
2.18427,0.2802,-0.0897188
2.26834,0.178921,-0.0529469
2.18662,0.273522,-0.0384651
2.33818,0.0624537,-0.0680718
2.33687,0.0624188,-0.467544
2.2695,0.171841,0
2.43124,-0.0538975,-0.0283111
2.34028,0.0625098,-0.297993
2.19486,0.274552,0.012856
2.35112,0.0627995,-0.0136696
2.25645,0.170853,-0.243753
2.42884,-0.0538444,-0.226784
2.43124,-0.0538975,0.0283111
2.26,0.171121,-0.158487
2.1904,0.273995,-0.141474
2.41931,-0.053633,-0.140929
2.26168,0.171249,0.132092
2.34122,0.0625351,0.0954179
2.18911,0.273833,-0.0898817
2.27288,0.172097,-0.05304
2.18756,0.265887,-0.0384651
2.34238,0.0543838,-0.0681882
2.341,0.0543517,-0.468328
2.27009,0.163917,0
2.43503,-0.0624871,-0.0283577
2.35238,0.054616,-0.299508
2.19977,0.267371,0.0128792
2.35133,0.0545916,-0.0136696
2.26497,0.163548,-0.24461
2.43262,-0.0624251,-0.227155
2.43503,-0.0624871,0.0283577
2.26456,0.163518,-0.158766
2.18342,0.265383,-0.140962
2.43507,-0.062488,-0.141859
2.2782,0.164503,0.133022
2.34942,0.0545472,0.0957435
2.35154,0.0545965,0.19202
2.19799,0.267154,-0.0902073
2.27745,0.164449,-0.053133
2.1925,0.258336,-0.0385349
2.34656,0.0458768,-0.0683046
2.3451,0.0458483,-0.469113
2.27467,0.15587,0
2.43479,-0.0714109,-0.0283577
2.27129,0.155639,-0.354188
2.35653,0.0460718,-0.300013
2.27349,0.155789,-0.245466
2.43636,-0.0714569,-0.227527
2.28203,0.156375,0.0532261
2.44278,-0.0716455,0.0284508
2.26912,0.15549,-0.159045
2.20023,0.259248,-0.141986
2.43882,-0.0715291,-0.142092
2.28277,0.156425,0.133255
2.3536,0.0460145,0.0959064
2.28416,0.156521,-0.106649
2.34774,0.0458999,0.191695
2.20689,0.260032,-0.090533
2.20129,0.251973,-0.0386745
2.35469,0.0382242,-0.0685373
2.34916,0.0381345,-0.469897
2.27916,0.148586,0
2.43853,-0.0796158,-0.0284042
2.27179,0.148105,-0.354188
2.36857,0.0384496,-0.301529
2.27399,0.148249,-0.245466
2.44805,-0.0799263,-0.228642
2.45053,-0.0800073,0.0285439
2.27759,0.148483,-0.159603
2.36781,0.0384372,-0.193322
2.20864,0.252814,0.0646974
2.20108,0.25195,-0.141986
2.44256,-0.0797471,-0.142324
2.28726,0.149114,0.133487
2.36173,0.0383385,0.096232
2.28467,0.148945,-0.106649
2.20774,0.252712,-0.090533
2.28653,0.149066,-0.0533191
2.21015,0.244783,-0.0388142
2.35713,0.0296221,-0.471466
2.29167,0.140967,0
2.27626,0.14002,-0.354803
2.3687,0.0297675,-0.301529
2.2184,0.245697,0.0129722
2.2904,0.140889,-0.24718
2.4557,-0.0891881,-0.229386
2.45022,-0.0889891,0.0285439
2.27812,0.140134,-0.159603
2.37192,0.029808,-0.193647
2.21352,0.245157,0.0648137
2.20596,0.244319,-0.142242
2.45023,-0.0889895,-0.142789
2.37384,0.0298321,0.0967205
2.35996,0.0296577,0.192671
2.21262,0.245058,-0.0906958
2.29105,0.140929,-0.0534122
2.20701,0.236641,-0.0387443
2.3669,0.0214823,-0.0688864
2.29215,0.132968,0
2.27674,0.132074,-0.354803
2.37276,0.0215355,-0.302034
2.21526,0.237526,0.0129489
2.38386,0.0216363,-0.0138556
2.28293,0.132433,-0.246323
2.45537,-0.097759,-0.229386
2.29951,0.133395,0.0535983
2.45789,-0.0978591,0.0286371
2.28656,0.132644,-0.160161
2.37998,0.0216011,-0.194298
2.21834,0.237856,0.0649301
2.2068,0.236618,-0.142242
2.45389,-0.0977002,-0.143022
2.29226,0.132974,0.13372
2.37393,0.0215462,0.0967205
2.30163,0.133518,-0.107394
2.38463,0.0216432,-0.124978
2.21744,0.237759,-0.0908587
2.29552,0.133163,-0.0535052
2.20782,0.228935,-0.0387443
2.29659,0.125183,0
2.28508,0.124555,-0.356033
2.38075,0.0132966,-0.303044
2.22802,0.231029,0.0130187
2.29132,0.124896,-0.24718
2.46695,-0.106847,-0.230501
2.30396,0.125584,0.0536913
2.46552,-0.106785,0.0287302
2.29498,0.125095,-0.160719
2.38403,0.0133149,-0.194624
2.22313,0.230523,0.0650464
2.21952,0.230148,-0.143009
2.45753,-0.106439,-0.143255
2.29271,0.124971,0.13372
2.38199,0.0133035,0.0970462
2.30208,0.125482,-0.107394
2.38868,0.0133409,-0.125188
2.22621,0.230841,-0.0911843
2.30396,0.125584,-0.0536913
2.22051,0.222811,-0.0389538
2.37499,0.00538897,-0.0691191
2.29699,0.117567,0
2.28943,0.117179,-0.356648
2.38872,0.00542013,-0.304054
2.30364,0.117907,-0.248465
2.47454,-0.115398,-0.231245
2.46915,-0.115146,0.0287768
2.2914,0.11728,-0.16044
2.39204,0.00542766,-0.195275
2.23582,0.224347,0.0653955
2.39963,0.00544488,0.0418858
2.22424,0.223186,-0.143265
2.47711,-0.115517,-0.144417
2.31305,0.118388,0.134883
2.39001,0.00542306,0.0973718
2.30648,0.118052,-0.10758
2.38008,0.00540052,0.194298
2.23094,0.223857,-0.0913472
2.31235,0.118353,-0.0538774
2.22529,0.215056,-0.0390236
2.31339,0.109907,0
2.40063,-0.00335109,-0.305569
2.312,0.109841,-0.249322
2.48206,-0.124866,-0.231988
2.47271,-0.124396,0.0288233
2.29978,0.10926,-0.160998
2.39204,-0.0033391,-0.195275
2.23663,0.216152,0.0653955
2.40363,-0.00335528,0.0419556
2.23299,0.2158,-0.143777
2.48464,-0.124996,-0.144882
2.32144,0.110289,0.135348
2.39801,-0.00334743,0.0976975
2.31488,0.109977,-0.107952
2.38407,-0.00332797,0.194624
2.23572,0.216064,-0.09151
2.31676,0.110067,-0.0539705
2.23399,0.208028,-0.0391632
2.31776,0.102006,0
2.39267,-0.0116927,-0.304559
2.23828,0.208427,0.0130652
2.41193,-0.0117868,-0.0140183
2.31237,0.101769,-0.249322
2.49354,-0.134172,-0.233104
2.48024,-0.133457,0.0289165
2.31211,0.101758,-0.161835
2.39999,-0.0117285,-0.195926
2.23737,0.208342,0.0653955
2.22976,0.207634,-0.143521
2.48818,-0.133884,-0.145115
2.3258,0.10236,0.13558
2.40997,-0.0117773,0.098186
2.39201,-0.0116895,0.195275
2.23646,0.208258,-0.09151
2.32512,0.10233,-0.0541566
2.23464,0.201009,-0.0391632
2.38862,-0.0191768,-0.477742
2.31807,0.0947247,0
2.30631,0.0942443,-0.359107
2.40452,-0.0193045,-0.306074
2.25087,0.20247,0.0131349
2.41588,-0.0193957,-0.0140416
2.31268,0.0945047,-0.249322
2.50106,-0.142457,-0.233847
2.31641,0.0946569,-0.162114
2.40791,-0.0193317,-0.196577
2.24598,0.202029,0.0656282
2.41156,-0.019361,0.0420952
2.24233,0.201701,-0.144288
2.49173,-0.141926,-0.145348
2.3301,0.0952167,0.135813
2.41392,-0.01938,0.0983488
2.32354,0.0949484,-0.108324
2.39994,-0.0192677,0.195926
2.24109,0.201589,-0.0916728
2.32543,0.0950256,-0.0541566
2.23934,0.193161,-0.039233
2.32639,0.0865247,0
2.40443,-0.028118,-0.306074
2.2516,0.194218,0.0131349
2.41579,-0.0282508,-0.0140416
2.31699,0.0861749,-0.24975
2.50052,-0.151624,-0.233847
2.32072,0.0863139,-0.162393
2.40782,-0.0281577,-0.196577
2.25467,0.194483,0.065861
2.41547,-0.028247,0.042165
2.24703,0.193824,-0.144544
2.49518,-0.1513,-0.14558
2.32645,0.0865267,0.13558
2.40984,-0.0281812,0.098186
2.33186,0.086728,-0.108697
2.42051,-0.028306,-0.126862
2.33682,0.0869127,0.287124
2.40384,-0.028111,0.196251
2.24977,0.19406,-0.0919985
2.32976,0.0866499,-0.0542496
2.25196,0.186331,-0.0394424
2.32668,0.0784029,0
2.31877,0.0781365,-0.360952
2.41622,-0.0366923,-0.307589
2.42768,-0.0368662,-0.0141113
2.32522,0.0783538,-0.250607
2.50395,-0.160607,-0.234219
2.34204,0.0789204,0.0545288
2.42366,-0.0368051,-0.197878
2.25533,0.186611,0.065861
2.43135,-0.036922,0.0424443
2.25565,0.186637,-0.145056
2.49862,-0.160266,-0.145813
2.33871,0.0788082,0.136278
2.41772,-0.0367149,0.0985116
2.33614,0.0787217,-0.108883
2.4204,-0.0367557,-0.126862
2.33711,0.0787545,0.287124
2.41568,-0.0366841,0.197227
2.2584,0.186864,-0.0923241
2.34204,0.0789204,-0.0545288
2.26054,0.179496,-0.0395821
2.33492,0.0709303,0
2.42799,-0.0449243,-0.309105
2.26085,0.179521,0.0131814
2.32944,0.0707639,-0.251036
2.51135,-0.169445,-0.234963
2.35028,0.0713968,0.0547149
2.50613,-0.169093,0.0292424
2.32525,0.0706364,-0.162672
2.41954,-0.0447678,-0.197553
2.25594,0.179131,0.065861
2.42722,-0.0449099,0.0423744
2.26023,0.179472,-0.145312
2.51401,-0.169625,-0.146743
2.35093,0.0714166,0.136976
2.42158,-0.0448056,0.0986745
2.34038,0.0710961,-0.109069
2.42825,-0.0449291,-0.127281
2.34133,0.0711249,0.287612
2.41555,-0.0446941,0.197227
2.25503,0.179058,-0.0921613
2.26514,0.171907,-0.0396519
2.34315,0.062995,0
2.51351,-0.178406,-0.0293355
2.42385,-0.0533115,-0.3086
2.26545,0.171931,0.0132047
2.43937,-0.0536528,-0.0141811
2.33365,0.0627396,-0.251464
2.52266,-0.179056,-0.236078
2.33745,0.0628415,-0.163509
2.43132,-0.0534758,-0.198529
2.26054,0.171558,0.0659773
2.43504,-0.0535576,0.0425141
2.26085,0.171582,-0.145312
2.52536,-0.179247,-0.147441
2.43339,-0.0535214,0.0991629
2.3486,0.0631415,-0.109441
2.44006,-0.053668,-0.127909
2.34553,0.0630589,0.288099
2.43132,-0.0534758,0.198529
2.26759,0.172094,-0.0926498
2.35051,0.0631929,-0.0547149
2.26174,0.163711,-0.0395821
2.34736,0.0549086,0
2.52084,-0.187774,-0.0294287
2.27002,0.16431,0.0132279
2.43917,-0.0621678,-0.0141811
2.33783,0.0546858,-0.251892
2.52599,-0.188157,-0.23645
2.34164,0.0547749,-0.163788
2.43112,-0.0619628,-0.198529
2.2691,0.164243,0.0662101
2.43884,-0.0621594,0.0425839
2.2694,0.164265,-0.145823
2.52472,-0.188062,-0.147441
2.35536,0.0550959,0.137208
2.44118,-0.0622192,0.0994886
2.3528,0.0550361,-0.109627
2.44385,-0.0622872,-0.128118
2.35368,0.0550564,0.289074
2.43112,-0.0619628,0.198529
2.27615,0.164754,-0.0929754
2.35472,0.0550808,-0.054808
2.27429,0.156242,-0.0397915
2.35154,0.0463837,0
2.43134,-0.0708864,-0.30961
2.2746,0.156263,0.0132512
2.44292,-0.071224,-0.0142043
2.34597,0.0462737,-0.252749
2.52528,-0.197414,-0.23645
2.3669,0.0466866,0.0550871
2.34581,0.0462707,-0.164067
2.44283,-0.0712214,-0.199506
2.26969,0.155926,0.0662101
2.44259,-0.0712143,0.0426537
2.27795,0.156493,-0.146335
2.53197,-0.197937,-0.147906
2.36753,0.046699,0.137906
2.44094,-0.0711661,0.0994886
2.35699,0.046491,-0.109813
2.4476,-0.0713604,-0.128328
2.35783,0.0465077,0.289562
2.43885,-0.0711052,0.19918
2.28472,0.156958,-0.0933011
2.3629,0.0466077,-0.0549941
2.28281,0.148823,-0.0399311
2.35169,0.038175,0
2.53538,-0.20711,-0.0296149
2.44298,-0.0797614,-0.311125
2.28311,0.148843,0.0132977
2.45065,-0.080012,-0.0142508
2.45452,-0.0801383,-0.200482
2.27421,0.148262,0.0663264
2.44632,-0.0798706,0.0427235
2.28246,0.1488,-0.146591
2.53923,-0.207424,-0.148371
2.37167,0.0384993,0.138138
2.44866,-0.079947,0.0998143
2.35713,0.0382633,-0.109813
2.45532,-0.0801644,-0.128746
2.36195,0.0383415,0.290049
2.28924,0.149242,-0.0934639
2.28728,0.141499,-0.0400009
2.44666,-0.0880048,-0.31163
2.28759,0.141518,0.0133209
2.45437,-0.088282,-0.0142741
2.35816,0.0304584,-0.254034
2.35406,0.0304053,-0.164625
2.45424,-0.0882774,-0.200482
2.28267,0.141214,0.0665591
2.45804,-0.0884138,0.0429329
2.29091,0.141724,-0.147102
2.55046,-0.216858,-0.149068
2.37578,0.0306859,0.138371
2.44838,-0.0880666,0.0998143
2.36524,0.0305498,-0.110186
2.45504,-0.0883061,-0.128746
2.36206,0.0305088,0.290049
2.29371,0.141897,-0.0936268
2.29577,0.133579,-0.0401405
2.3679,0.0219043,0
2.45029,-0.0971288,-0.312135
2.28809,0.133133,0.0133209
2.46203,-0.097594,-0.0143206
2.36621,0.0218887,-0.254891
2.38725,0.0220833,0.0555524
2.45789,-0.0974299,-0.200808
2.29115,0.133311,0.0667919
2.4577,-0.0974223,0.0429329
2.28743,0.133094,-0.146847
2.55363,-0.226557,-0.149301
2.37987,0.022015,0.138603
2.45603,-0.0973564,0.10014
2.37732,0.0219914,-0.110744
2.47466,-0.0980947,-0.129793
2.37407,0.0219613,0.291512
2.29223,0.125346,-0.0400707
2.37196,0.0136617,0
2.56095,-0.23622,-0.0299409
2.46579,-0.106365,-0.314155
2.30052,0.1258,0.0133907
2.46167,-0.106187,-0.0143206
2.46948,-0.106524,-0.201784
2.2916,0.125312,0.0667919
2.47332,-0.10669,0.0432122
2.29585,0.125545,-0.147358
2.5568,-0.235837,-0.149534
2.38392,0.0137306,0.138836
2.45967,-0.106101,0.100303
2.38138,0.0137159,-0.11093
2.47031,-0.10656,-0.129584
2.3781,0.013697,0.291999
2.30664,0.126134,-0.0941152
2.38332,0.0137271,-0.0554593
2.30463,0.117957,-0.0402802
2.38399,0.00540912,0
2.56808,-0.245921,-0.030034
2.46937,-0.115157,-0.31466
2.30494,0.117973,0.0134139
2.47327,-0.115339,-0.0143903
2.39934,0.00544395,0.0558315
2.3742,0.00538689,-0.16602
2.47706,-0.115515,-0.202435
2.308,0.11813,0.0672573
2.47294,-0.115323,0.0432122
2.30824,0.118142,-0.148126
2.56391,-0.245521,-0.149999
2.38795,0.00541809,0.139069
2.47126,-0.115245,0.100791
2.38141,0.00540326,-0.11093
2.47391,-0.115369,-0.129793
2.3821,0.00540484,0.292486
2.31106,0.118286,-0.0942781
2.39535,0.00543488,-0.0557385
2.313,0.110697,-0.0404198
2.384,-0.00249652,0
2.57123,-0.25483,-0.0300806
2.37938,-0.00249168,-0.370176
2.4769,-0.123741,-0.315671
2.30932,0.110521,0.0134371
2.47287,-0.12354,-0.0143903
2.37824,-0.00249049,-0.256176
2.40335,-0.00251678,0.0559246
2.48861,-0.124326,-0.203411
2.31237,0.110667,0.0673737
2.48452,-0.124122,0.0434216
2.3126,0.110678,-0.148382
2.39993,-0.0025132,0.139766
2.38142,-0.00249382,-0.11093
2.4815,-0.12397,-0.130212
2.40335,-0.00251678,-0.0559246
2.31337,0.102622,-0.0404198
2.48438,-0.13281,-0.316681
2.31768,0.102813,0.0134836
2.48042,-0.132598,-0.0144368
2.39015,-0.0108462,-0.257461
2.40332,-0.010906,0.0559246
2.48816,-0.133012,-0.203411
2.31275,0.102594,0.0673737
2.48407,-0.132793,0.0434216
2.31696,0.102781,-0.148637
2.57807,-0.264598,-0.150929
2.39991,-0.0108905,0.139766
2.39738,-0.010879,-0.111675
2.48504,-0.132845,-0.130421
2.31979,0.102907,-0.0946037
2.3257,0.0950363,-0.0406292
2.4839,-0.141481,-0.316681
2.32202,0.0948858,0.0135069
2.49192,-0.141938,-0.0145065
2.39407,-0.0192213,-0.25789
2.41527,-0.0193914,0.0562037
2.39408,-0.0192213,-0.167416
2.49564,-0.14215,-0.204062
2.31708,0.094684,0.06749
2.49158,-0.141919,0.0435612
2.32529,0.0950191,-0.149149
2.40784,-0.0193318,0.140231
2.48591,-0.141595,0.101443
2.40931,-0.0193436,-0.112233
2.5045,-0.142654,-0.131468
2.32413,0.0949719,-0.0947666
2.32601,0.0873234,-0.0406292
2.31833,0.0870351,0.0134836
2.49543,-0.150441,-0.0145298
2.41919,-0.027446,0.0562968
2.40597,-0.027296,-0.168253
2.50311,-0.150905,-0.204713
2.32138,0.0871498,0.0676064
2.49908,-0.150661,0.0437008
2.32559,0.0873077,-0.149149
2.41176,-0.0273617,0.140464
2.4934,-0.150319,0.101768
2.41722,-0.0274237,-0.112605
2.508,-0.151199,-0.131677
2.32843,0.0874143,-0.0949294
2.41919,-0.027446,-0.0562968
2.33031,0.078933,-0.040699
2.40282,-0.0360686,-0.373865
2.33862,0.0792145,0.0135999
2.49885,-0.159842,-0.014553
2.40581,-0.0361135,-0.259175
2.42307,-0.0363726,0.0563898
2.40585,-0.0361142,-0.168253
2.5105,-0.160587,-0.205364
2.32968,0.0789116,0.0678391
2.51448,-0.160841,0.0439801
2.33387,0.0790536,-0.149661
2.41963,-0.0363209,0.140929
2.40912,-0.0361631,-0.112233
2.51141,-0.160645,-0.131887
2.34071,0.0792855,-0.0954179
2.42707,-0.0364326,-0.0564829
2.33857,0.0710411,-0.0408386
2.34288,0.0711722,0.0136231
2.51025,-0.169371,-0.0146228
2.41362,-0.0446583,-0.260032
2.43093,-0.0449785,0.056576
2.51788,-0.169886,-0.206015
2.33793,0.0710218,0.0680718
2.51789,-0.169887,0.0440499
2.34211,0.0711488,-0.150172
2.42747,-0.0449145,0.141394
2.42496,-0.044868,-0.112978
2.51881,-0.169949,-0.132305
2.42693,-0.0449045,-0.0564829
2.3428,0.062985,-0.0409084
2.41941,-0.0532143,0
2.34311,0.0629936,0.0136231
2.52161,-0.178982,-0.0146925
2.42538,-0.0533455,-0.261317
2.43075,-0.0534637,0.056576
2.51727,-0.178674,-0.206015
2.33816,0.0628605,0.0680718
2.53324,-0.179807,0.0443291
2.34634,0.0630802,-0.150428
2.43129,-0.0534755,0.141627
2.42878,-0.0534202,-0.113164
2.53414,-0.179871,-0.133143
2.34521,0.0630498,-0.0955807
2.43875,-0.0536396,-0.0567621
2.35499,0.0554984,-0.0411179
2.42722,-0.0614395,0
2.42603,-0.0614093,-0.377555
2.35131,0.0554116,0.0136696
2.525,-0.18764,-0.0147158
2.44256,-0.0618276,0.0568551
2.4253,-0.0613908,-0.169648
2.53257,-0.188202,-0.207317
2.34635,0.0552949,0.0683046
2.53263,-0.188207,0.0443291
2.35052,0.0553932,-0.150684
2.43509,-0.0616387,0.141859
2.44057,-0.0617774,-0.113722
2.53751,-0.18857,-0.133352
2.3494,0.0553666,-0.0957435
2.44655,-0.0619288,-0.0569482
2.35518,0.0468665,-0.0411179
2.42974,-0.0704152,-0.37817
2.35549,0.0468729,0.0136929
2.53227,-0.197515,-0.0147623
2.42892,-0.0703916,-0.261745
2.4543,-0.0711272,0.0571343
2.43303,-0.0705108,-0.170206
2.53186,-0.197483,-0.207317
2.35454,0.0468538,0.0685373
2.54388,-0.198421,0.0445385
2.3547,0.0468571,-0.15094
2.43884,-0.070679,0.142092
2.44432,-0.0708379,-0.113908
2.54079,-0.198179,-0.133561
2.36157,0.0469939,-0.096232
2.44631,-0.0708955,-0.0569482
2.35932,0.0387108,-0.0411877
2.43871,-0.0791961,0
2.43343,-0.0790244,-0.378784
2.35964,0.038716,0.0137161
2.53555,-0.206678,-0.0147855
2.45005,-0.0795641,0.0570412
2.44474,-0.0793917,-0.171043
2.54308,-0.207292,-0.208293
2.35868,0.0387003,0.0686537
2.54716,-0.207625,0.0446084
2.36283,0.0387684,-0.151451
2.44257,-0.0793214,0.142324
2.45205,-0.0796291,-0.11428
2.556,-0.208345,-0.134399
2.36972,0.0388813,-0.0965577
2.45404,-0.0796938,-0.0571343
2.36744,0.0305782,-0.0413273
2.37176,0.030634,0.0137859
2.54677,-0.216544,-0.0148553
2.44825,-0.0880616,-0.263887
2.46174,-0.0885471,0.0573204
2.55028,-0.216843,-0.208944
2.37879,0.0307249,0.0692355
2.37094,0.0306234,-0.151963
2.45026,-0.0881341,0.142789
2.46373,-0.0886187,-0.114839
2.55526,-0.217266,-0.134399
2.37783,0.0307124,-0.0968833
2.45774,-0.0884033,-0.0572273
2.37553,0.0223895,-0.0414669
2.37585,0.0223926,0.0138091
2.55795,-0.226491,-0.014925
2.45587,-0.0969207,-0.264744
2.46541,-0.0972973,0.0574134
2.4521,-0.0967719,-0.171601
2.37489,0.0223835,0.0691191
2.37901,0.0224223,-0.152475
2.4659,-0.0973165,0.14372
2.47139,-0.0975334,-0.115211
2.5704,-0.227594,-0.135236
2.38192,0.0224497,-0.0970462
2.46142,-0.0971396,-0.0573204
2.37959,0.0145363,-0.0415367
2.46175,-0.10533,0
2.38392,0.0145627,0.0138556
2.56117,-0.235338,-0.0149482
2.45951,-0.105234,-0.265172
2.47307,-0.105814,0.0575995
2.45974,-0.105244,-0.172159
2.38295,0.0145567,0.0693518
2.38307,0.0145575,-0.152731
2.46955,-0.105664,0.143952
2.47106,-0.105728,-0.115211
2.56566,-0.235751,-0.135027
2.38598,0.0145753,-0.097209
2.46508,-0.105472,-0.0574134
2.37563,0.00621942,-0.0414669
2.46936,-0.114292,0
2.39195,0.00626215,0.0139021
2.56829,-0.245037,-0.0149947
2.4631,-0.114003,-0.265601
2.48067,-0.114816,0.0577856
2.46733,-0.114198,-0.172717
2.38698,0.00624914,0.0694682
2.38709,0.00624944,-0.152986
2.47316,-0.114468,0.144185
2.48664,-0.115092,-0.115956
2.57675,-0.245843,-0.135655
2.39401,0.00626753,-0.0975347
2.46869,-0.114261,-0.0575065
2.38364,-0.00208011,-0.0416065
2.47294,-0.12311,0
2.39196,-0.00208738,0.0139021
2.5714,-0.254394,-0.015018
2.47063,-0.122995,-0.266457
2.48425,-0.123673,0.0578787
2.4709,-0.123009,-0.172996
2.39509,-0.00209011,-0.153498
2.48072,-0.123498,0.14465
2.48223,-0.123573,-0.115769
2.57985,-0.25523,-0.135864
2.39801,-0.00209266,-0.0976975
2.48026,-0.123474,-0.0577856
2.39561,-0.0104529,-0.041816
2.48048,-0.132167,0
2.40394,-0.0104892,0.0139718
2.47813,-0.132042,-0.267314
2.49179,-0.13277,0.0580648
2.48241,-0.13227,-0.173833
2.39896,-0.0104675,0.0698173
2.39906,-0.0104679,-0.153754
2.49375,-0.132874,-0.116328
2.58292,-0.26464,-0.136073
2.40598,-0.0104981,-0.0980231
2.4878,-0.132557,-0.0579717
2.39956,-0.0188465,-0.0418858
2.49199,-0.141505,0
2.41189,-0.0189433,0.0140183
2.49354,-0.141593,-0.269028
2.50329,-0.142147,0.058344
2.4899,-0.141387,-0.174391
2.40291,-0.0188728,0.0699336
2.40699,-0.0189048,-0.154266
2.50524,-0.142258,-0.116886
2.59389,-0.274918,-0.136702
2.40993,-0.0189279,-0.098186
2.48732,-0.14124,-0.0579717
2.40348,-0.0268483,-0.0419556
2.49949,-0.150248,0
2.41181,-0.0269413,0.0140183
2.49305,-0.149861,-0.269028
2.5068,-0.150687,0.058437
2.4934,-0.149882,-0.17467
2.41483,-0.026975,0.0702827
2.40691,-0.0268866,-0.154266
2.50476,-0.150565,-0.116886
2.40985,-0.0269194,-0.098186
2.5028,-0.150447,-0.058344
2.40738,-0.0348763,-0.0420254
2.50696,-0.159042,0
2.41971,-0.0350548,0.0140648
2.50048,-0.158631,-0.269885
2.51825,-0.159759,0.0587162
2.50085,-0.158655,-0.175228
2.41872,-0.0350406,0.0703991
2.4108,-0.0349258,-0.154521
2.51621,-0.159629,-0.117445
2.41774,-0.0350264,-0.0985116
2.51027,-0.159253,-0.0585301
2.41124,-0.0433514,-0.0420952
2.52235,-0.168861,0
2.42357,-0.0435729,0.0140881
2.51369,-0.168281,0.0586231
2.51621,-0.16845,-0.176344
2.42658,-0.0436271,0.0706318
2.42264,-0.0435562,-0.155289
2.51165,-0.168144,-0.117258
2.43359,-0.0437531,-0.0991629
2.5097,-0.168014,-0.0585301
2.42306,-0.0524483,-0.0423046
2.51773,-0.177823,0
2.43139,-0.0526285,0.0141346
2.52705,-0.178482,-0.272883
2.52901,-0.17862,0.0589953
2.5116,-0.17739,-0.176065
2.4304,-0.0526072,0.0707482
2.42246,-0.0524353,-0.155289
2.52297,-0.178194,-0.117817
2.4414,-0.0528453,-0.0994886
2.52901,-0.17862,-0.0589953
2.43087,-0.0606828,-0.0424443
2.5251,-0.186761,0
2.4392,-0.0608907,0.0141811
2.53638,-0.187596,0.0591814
2.52691,-0.186895,-0.177181
2.42622,-0.0605666,0.0706318
2.43425,-0.060767,-0.156056
2.53034,-0.187148,-0.118189
2.43722,-0.0608412,-0.0993258
2.52841,-0.187006,-0.0589953
2.43864,-0.0693953,-0.0425839
2.53241,-0.196192,0
2.43497,-0.0692909,0.0141578
2.54369,-0.197066,0.0593675
2.52624,-0.195714,-0.177181
2.43398,-0.0692628,0.0708645
2.43801,-0.0693773,-0.156312
2.54162,-0.196906,-0.118747
2.44099,-0.069462,-0.0994886
2.5397,-0.196757,-0.0592745
2.53566,-0.205796,0
2.4467,-0.0786004,0.0142276
2.53346,-0.205618,-0.17774
2.4457,-0.0785685,0.0712136
2.44572,-0.078569,-0.156824
2.54088,-0.20622,-0.118747
2.4487,-0.0786649,-0.0998143
2.54693,-0.206711,-0.0594606
2.44609,-0.0867017,-0.0427235
2.54692,-0.215214,0
2.45442,-0.0869969,0.0142741
2.5447,-0.215026,-0.178577
2.45342,-0.0869615,0.0714464
2.45741,-0.087103,-0.157591
2.54018,-0.214645,-0.118747
2.45642,-0.0870678,-0.10014
2.55022,-0.215493,-0.0595536
2.45377,-0.0955509,-0.0428631
2.46609,-0.0960308,0.0143438
2.46109,-0.0958362,0.0716791
2.45709,-0.0956805,-0.157591
2.55136,-0.224561,-0.119306
2.46409,-0.0959528,-0.100466
2.5614,-0.225445,-0.0598328
2.46539,-0.105055,-0.0430725
2.47371,-0.105409,0.0143903
2.46072,-0.104856,0.0716791
2.47268,-0.105365,-0.158615
2.55848,-0.234641,-0.119678
2.46771,-0.105154,-0.100628
2.56852,-0.235562,-0.0600189
2.46904,-0.112982,-0.0431423
2.47337,-0.11318,0.0143903
2.55824,-0.242725,-0.179693
2.46835,-0.11295,-0.158359
2.56171,-0.243055,-0.119864
2.47136,-0.113088,-0.100791
2.57573,-0.244386,-0.060205
2.47696,-0.12201,0.0144135
2.47196,-0.121764,0.0720282
2.4799,-0.122155,-0.159126
2.48692,-0.122501,-0.101443
2.57486,-0.253375,-0.060205
2.48412,-0.131926,-0.0434216
2.48845,-0.132156,0.0144833
2.49137,-0.132311,-0.159894
2.49042,-0.132261,-0.101605
2.58978,-0.264887,-0.0605772
2.49163,-0.141049,-0.0435612
2.49596,-0.141294,0.0145298
2.48696,-0.140785,0.0724936
2.49886,-0.141458,-0.160406
2.50591,-0.141857,-0.102257
2.59282,-0.274347,-0.0606703
2.50315,-0.149592,-0.0437706
2.4995,-0.149373,0.014553
2.50239,-0.149546,-0.160661
2.50944,-0.149967,-0.10242
2.5999,-0.283357,-0.0608564
2.50661,-0.158581,-0.0438404
2.49795,-0.158033,0.0728427
2.50584,-0.158532,-0.160917
2.52086,-0.159483,-0.102908
2.60684,-0.293325,-0.0610425
2.50997,-0.168472,-0.0439103
2.51031,-0.168495,0.0146228
2.5053,-0.168159,0.0730754
2.51318,-0.168687,-0.161429
2.52023,-0.169161,-0.102908
2.51741,-0.176917,-0.0440499
2.51376,-0.176661,0.014646
2.51662,-0.176862,-0.161685
2.52766,-0.177638,-0.103234
2.52874,-0.186586,-0.0442593
2.52509,-0.186317,0.0147158
2.53589,-0.187114,-0.162964
2.535,-0.187048,-0.103559
2.52804,-0.195854,-0.0442593
2.52838,-0.19588,0.014739
2.53519,-0.196407,-0.162964
2.53828,-0.196647,-0.103722
2.54731,-0.205846,-0.0446084
2.53569,-0.204908,0.0147855
2.5385,-0.205135,-0.16322
2.54957,-0.206029,-0.104211
2.54259,-0.214401,-0.0445385
2.53895,-0.214094,0.0148088
2.54175,-0.21433,-0.163475
2.5568,-0.215599,-0.104536
2.54975,-0.22442,-0.0446782
2.5501,-0.22445,0.0148785
2.55685,-0.225044,-0.164499
2.56395,-0.22567,-0.104862
2.55692,-0.234048,-0.0448178
2.564,-0.234696,-0.16501
2.57509,-0.235711,-0.10535
2.56015,-0.242457,-0.0448876
2.56325,-0.24275,-0.16501
2.57434,-0.2438,-0.10535
2.57521,-0.252955,-0.0451668
2.57745,-0.253175,-0.105513
2.58843,-0.263836,-0.106002
2.58754,-0.272418,-0.106002
2.60247,-0.283178,-0.106653
