2.23097,0.360139,0.0263088
2.24801,0.354844,-0.0264951
2.23616,0.352973,0.0263554
2.2493,0.346603,-0.0264951
2.22953,0.343557,0.0262623
2.2417,0.345432,-0.132092
2.24247,0.338341,-0.026402
2.2306,0.336551,0.0262623
2.24375,0.329727,-0.026402
2.23188,0.327983,0.0262623
2.24477,0.322677,-0.026402
2.24113,0.322153,-0.131859
2.24192,0.314284,-0.0263554
2.22608,0.312063,0.0261692
2.24224,0.314328,-0.131859
2.23117,0.304443,-0.0262157
2.257,0.421164,-0.0133442
2.22325,0.303361,0.0261226
2.23942,0.305568,-0.131627
2.24265,0.410794,-0.0132512
2.24628,0.411458,0.0398613
2.24042,0.29814,-0.131627
2.22923,0.288736,-0.0261692
2.24013,0.402257,-0.0132279
2.23749,0.289806,-0.131394
2.23022,0.280952,-0.0261692
2.2494,0.395821,-0.0132744
2.24443,0.282742,-0.211169
2.24245,0.282492,-0.131627
2.23521,0.273262,-0.0262157
2.23901,0.385538,-0.0132047
2.21933,0.27132,0.0260295
2.2395,0.273787,-0.131394
2.2361,0.265848,-0.0262157
2.24422,0.378776,-0.0132279
2.22418,0.264431,0.026076
2.23247,0.265416,-0.130929
2.23673,0.369486,-0.0659773
2.22907,0.257123,-0.0261226
2.23764,0.369636,-0.0131814
2.21317,0.25529,0.0259363
2.24917,0.371541,0.0397915
2.23338,0.257621,-0.130929
2.22204,0.248065,-0.0260295
2.23898,0.361432,-0.0131814
2.24028,0.250101,-0.210425
2.22602,0.248508,0.026076
2.24262,0.362021,0.0396519
2.23431,0.249434,-0.130929
2.25566,0.364126,-0.119745
2.23919,0.354253,-0.0659773
2.21884,0.240652,-0.0259829
2.23615,0.353772,-0.0131582
2.24106,0.243062,-0.210425
2.21486,0.24022,0.0259363
2.2398,0.354349,0.0395821
2.23652,0.345433,-0.065861
2.23348,0.344963,-0.0131349
2.23797,0.234431,-0.210054
2.2197,0.232517,0.0259829
2.24503,0.346747,0.0396519
2.23199,0.233804,-0.130697
2.22448,0.225171,-0.0260295
2.23071,0.336568,-0.0131117
2.23481,0.226217,-0.209682
2.21652,0.224365,0.0259363
2.24228,0.338313,0.0395821
2.23279,0.226012,-0.130697
2.24349,0.338496,-0.118907
2.22522,0.217792,-0.0260295
2.23973,0.330336,-0.0131582
2.21725,0.217013,0.0259363
2.24339,0.330874,0.0395821
2.23353,0.218606,-0.130697
2.24065,0.330471,-0.118698
2.23205,0.321245,-0.0656282
2.22596,0.210023,-0.0260295
2.23295,0.321375,-0.0131117
2.2363,0.210998,-0.209682
2.21003,0.20852,0.0258432
2.23265,0.321332,0.0393726
2.2303,0.210432,-0.130464
2.22323,0.319976,0.09151
2.23784,0.322078,-0.118489
2.22925,0.312507,-0.0655119
2.25548,0.42944,0
2.21477,0.20078,-0.0258898
2.23016,0.312634,-0.0130884
2.21078,0.200419,0.0258432
2.23381,0.313147,0.0393726
2.22708,0.201896,-0.130231
2.22439,0.311825,0.09151
2.239,0.313874,-0.118489
2.21941,0.193783,-0.0259363
2.22722,0.304695,-0.0130652
2.21542,0.193435,0.0258898
2.22692,0.304654,0.039233
2.21978,0.193816,-0.129766
2.21749,0.303364,0.0911843
2.23607,0.305907,-0.118279
2.24842,0.420375,-0.0532261
2.22736,0.296799,-0.0653955
2.21608,0.185701,-0.0258898
2.22827,0.296919,-0.0130652
2.22648,0.186573,-0.208567
2.20412,0.184699,0.0257501
2.24463,0.299099,-0.18486
2.22797,0.296879,0.039233
2.22044,0.186066,-0.129766
2.23713,0.2981,-0.118279
2.2324,0.289146,-0.0655119
2.22074,0.177896,-0.0259363
2.23727,0.289777,-0.0131117
2.2008,0.176299,0.0257035
2.233,0.289224,0.0393028
2.21713,0.177607,-0.129534
2.2196,0.287489,0.0911843
2.23425,0.289385,-0.11807
2.22546,0.280353,-0.0652792
2.23762,0.393748,0
2.21337,0.169533,-0.0258432
2.2343,0.281467,-0.0130884
2.20539,0.168922,0.0257501
2.23003,0.280929,0.039233
2.21774,0.169867,-0.129534
2.2392,0.282084,-0.118279
2.24095,0.394335,-0.0529469
2.22246,0.272096,-0.0651628
2.24292,0.386614,0
2.20996,0.161514,-0.0257966
2.23527,0.273665,-0.0130884
2.20996,0.161514,0.0257966
2.22306,0.27217,0.0390934
2.21831,0.162125,-0.129534
2.21362,0.271014,0.0908587
2.23225,0.273295,-0.117861
2.21938,0.264252,-0.0650464
2.24419,0.379175,0
2.21447,0.154463,-0.0258432
2.2322,0.265779,-0.0130652
2.2249,0.15519,-0.208195
2.21048,0.154185,0.0257966
2.24067,0.266787,-0.184209
2.22395,0.264797,0.0390934
2.21486,0.15449,-0.129301
2.23711,0.266363,-0.11807
2.24156,0.370686,0
2.22516,0.257068,-0.0130187
2.22543,0.147424,-0.208195
2.20701,0.146204,0.0257501
2.24158,0.258965,-0.184209
2.22883,0.257492,0.0391632
2.21937,0.147022,-0.129534
2.25096,0.372241,-0.106277
2.23405,0.258095,-0.117861
2.237,0.369934,-0.0527608
2.21719,0.248307,-0.0649301
2.23889,0.36222,0
2.2115,0.138749,-0.0257966
2.22605,0.249298,-0.0130187
2.19953,0.137997,0.0256569
2.23455,0.250251,-0.183558
2.22972,0.24971,0.0391632
2.21588,0.139024,-0.129301
2.21232,0.247761,0.0906958
2.227,0.249405,-0.117442
2.23433,0.361484,-0.0526678
2.21801,0.240952,-0.0649301
2.23613,0.354168,0
2.20796,0.131177,-0.0257501
2.23084,0.242346,-0.0130419
2.2224,0.132035,-0.207823
2.24342,0.355323,0.0528539
2.20396,0.130939,0.0257035
2.23141,0.242408,-0.183233
2.22258,0.24145,0.0390236
2.21234,0.131437,-0.129069
2.20916,0.239991,0.090533
2.2416,0.355034,-0.105719
2.22782,0.242018,-0.117442
2.23552,0.354072,-0.0526678
2.21883,0.233208,-0.0649301
2.23735,0.346359,0
2.21239,0.123691,-0.0257966
2.21974,0.233303,-0.0129722
2.24465,0.347489,0.0528539
2.20441,0.123245,0.0257035
2.22341,0.233689,0.0390236
2.21279,0.123713,-0.129069
2.21396,0.232696,0.0906958
2.23887,0.346595,-0.105533
2.22865,0.23424,-0.117442
2.21172,0.224268,-0.0646974
2.23465,0.33756,0
2.20884,0.115374,-0.0257501
2.22058,0.225166,-0.0129722
2.20085,0.114956,0.0256569
2.23308,0.226434,-0.183233
2.22425,0.225539,0.0390236
2.20126,0.114978,-0.128371
2.24013,0.338388,-0.105533
2.22949,0.22607,-0.117442
2.2318,0.329564,0
2.20921,0.108049,-0.0257501
2.21733,0.217411,-0.0129489
2.21571,0.108366,-0.207079
2.24306,0.331227,0.0527608
2.20122,0.107658,0.0256569
2.22985,0.218639,-0.182907
2.21703,0.217382,0.038884
2.20961,0.108068,-0.128836
2.2036,0.216065,0.0902073
2.23333,0.32979,-0.10516
2.22228,0.217897,-0.117023
2.20208,0.215916,0.180629
2.26132,0.439558,-0.0402103
2.22513,0.210338,-0.0650464
2.23294,0.321772,0
2.21807,0.20967,-0.0129489
2.21607,0.100632,-0.207079
2.20558,0.100155,0.0257035
2.2306,0.210855,-0.182907
2.21379,0.209266,0.0388142
2.21396,0.100536,-0.129069
2.20434,0.208372,0.0902073
2.23843,0.322563,-0.105346
2.21905,0.209763,-0.116814
2.19885,0.207853,0.180304
2.22837,0.321114,-0.0523886
2.21391,0.201482,-0.0646974
2.23404,0.313975,0
2.20192,0.0922878,-0.0256569
2.21879,0.201926,-0.0129489
2.20845,0.0925616,-0.206336
2.2374,0.314446,0.0525747
2.20192,0.0922878,0.0256569
2.22736,0.202705,-0.182582
2.21053,0.201174,0.0387443
2.21031,0.0926396,-0.128836
2.20107,0.200313,0.0900445
2.23558,0.314191,-0.10516
2.21977,0.202015,-0.116814
2.25648,0.422287,-0.0400707
2.21858,0.1941,-0.0648137
2.23513,0.306174,0
2.20622,0.084754,-0.0257035
2.2155,0.193831,-0.0129257
2.23848,0.306634,0.0525747
2.19823,0.0844469,0.0256104
2.22805,0.194929,-0.182582
2.20723,0.193107,0.0386745
2.20663,0.0847697,-0.128604
2.20574,0.192977,0.0902073
2.23667,0.306384,-0.10516
2.21648,0.193916,-0.116605
2.19628,0.192149,0.179978
2.2266,0.305006,-0.0522955
2.24621,0.411851,-0.0398613
2.21529,0.185634,-0.0646974
2.23227,0.297452,0
2.20252,0.0765288,-0.0256569
2.20822,0.185042,-0.0128792
2.21304,0.0768942,-0.206708
2.23563,0.297899,0.0524816
2.20252,0.0765288,0.0256569
2.24265,0.298835,-0.158208
2.22875,0.186762,-0.182582
2.20792,0.185016,0.0386745
2.19894,0.0764046,-0.128138
2.20245,0.184558,0.0900445
2.23777,0.298185,-0.10516
2.22514,0.186459,-0.117023
2.19697,0.184098,0.179978
2.2277,0.296843,-0.0522955
2.2515,0.405109,-0.0399311
2.20793,0.177646,-0.0644646
2.22928,0.289533,0
2.23469,0.179799,-0.285366
2.23999,0.403039,0.0132279
2.21281,0.178039,-0.0129024
2.2093,0.0694305,-0.206336
2.2366,0.290485,0.0524816
2.19877,0.0690994,0.0256104
2.24363,0.291397,-0.158208
2.22936,0.17937,-0.182582
2.20853,0.177694,0.0386745
2.19919,0.0691126,-0.128138
2.22947,0.289558,0.130929
2.19906,0.176933,0.0898817
2.23875,0.290763,-0.10516
2.2138,0.178118,-0.116395
2.20154,0.177132,0.180304
2.22471,0.28894,-0.0522025
2.24502,0.395858,-0.0397915
2.20853,0.169938,-0.0644646
2.22234,0.280747,0
2.19899,0.0614243,-0.0256104
2.23135,0.171694,-0.284861
2.24138,0.395217,0.0132279
2.21741,0.170621,-0.0129257
2.191,0.061201,0.0255173
2.24068,0.283064,-0.157929
2.22202,0.170976,-0.181931
2.25229,0.39714,0.0665591
2.20913,0.169984,0.0386745
2.2074,0.0616591,-0.128604
2.21858,0.280272,0.130231
2.20365,0.169563,0.0900445
2.23579,0.282446,-0.104974
2.21839,0.170697,-0.116605
2.19817,0.169141,0.179978
2.23364,0.282175,-0.0523886
2.25427,0.38938,-0.0399311
2.20513,0.161935,-0.0643483
2.22727,0.273475,0
2.22798,0.163613,-0.284356
2.23487,0.386029,0.0131814
2.20575,0.0539076,-0.205964
2.22667,0.273401,0.0522025
2.1912,0.053552,0.0255173
2.23373,0.274268,-0.157371
2.2226,0.163218,-0.181931
2.20971,0.162271,0.0386745
2.22351,0.273013,0.130464
2.20822,0.162162,0.0902073
2.23279,0.274153,-0.104788
2.211,0.162366,-0.116186
2.19079,0.160882,0.179327
2.22667,0.273401,-0.0522025
2.24379,0.379508,-0.0397217
2.20967,0.154515,-0.0644646
2.22424,0.265225,0
2.19937,0.0460699,-0.0256104
2.22853,0.155834,-0.284356
2.21455,0.154856,-0.0129024
2.20194,0.0461238,-0.205592
2.19137,0.0459024,0.0255173
2.2426,0.267413,-0.157929
2.22316,0.155458,-0.181931
2.21027,0.154557,0.0386745
2.20378,0.0461624,-0.128371
2.21255,0.26383,0.129766
2.2008,0.153894,0.0898817
2.23374,0.266357,-0.104788
2.21156,0.154647,-0.116186
2.19134,0.153233,0.179327
2.23158,0.2661,-0.0522955
2.23721,0.370367,-0.0395821
2.2062,0.146536,-0.0643483
2.22913,0.257919,0
2.2251,0.147791,-0.283851
2.23356,0.369764,0.0131582
2.21508,0.147126,-0.0129024
2.19552,0.0383231,0.0255638
2.23559,0.258667,-0.157371
2.21971,0.147433,-0.181606
2.20281,0.146311,0.0385349
2.19195,0.0382608,-0.127673
2.21346,0.256106,0.129766
2.20132,0.146212,0.0898817
2.23465,0.258558,-0.104788
2.21607,0.147191,-0.116395
2.19584,0.145848,0.179653
2.24358,0.371422,-0.0926498
2.22455,0.25739,-0.0521094
2.24231,0.363978,-0.0396519
2.20266,0.139352,-0.0642319
2.22595,0.250468,0
2.19563,0.0314259,-0.0255638
2.2216,0.14055,-0.283346
2.23471,0.362746,0.0131582
2.21154,0.139914,-0.0128792
2.2022,0.0315199,-0.205592
2.22535,0.2504,0.0521094
2.19163,0.0313686,0.0255173
2.24036,0.252089,-0.15765
2.22016,0.140459,-0.181606
2.20326,0.13939,0.0385349
2.18807,0.0313177,-0.127441
2.19778,0.139043,0.0897188
2.22751,0.250644,-0.104416
2.20855,0.139725,-0.115976
2.19231,0.138697,0.179327
2.24473,0.364372,-0.0926498
2.22138,0.249953,-0.0520164
2.23961,0.355521,-0.0395821
2.20314,0.131662,-0.0642319
2.23079,0.243129,0
2.18772,0.0236744,-0.0254707
2.22207,0.132794,-0.283346
2.23597,0.354942,0.0131582
2.21202,0.132193,-0.0128792
2.2023,0.023832,-0.205592
2.19172,0.0237176,0.0255173
2.23726,0.243834,-0.157371
2.21666,0.13247,-0.18128
2.23111,0.354171,0.0657446
2.20373,0.131698,0.0385349
2.19216,0.0237223,-0.127673
2.21511,0.24142,0.129766
2.19426,0.131132,0.089556
2.22837,0.242866,-0.104416
2.20902,0.132014,-0.115976
2.1888,0.130805,0.179002
2.2381,0.355281,-0.0923241
2.22224,0.242197,-0.0520164
2.24485,0.347923,-0.0396519
2.19961,0.123363,-0.0641155
2.22769,0.234533,0
2.21859,0.124427,-0.282841
2.22935,0.34552,0.0131117
2.1878,0.0156563,0.0254707
2.21713,0.124345,-0.18128
2.23239,0.345992,0.0657446
2.2042,0.12362,0.0385349
2.19622,0.0157166,-0.127906
2.21201,0.232882,0.129534
2.19872,0.123313,0.0897188
2.22925,0.234697,-0.104416
2.2055,0.123693,-0.115767
2.18927,0.122783,0.179002
2.23938,0.347076,-0.0923241
2.21913,0.233632,-0.0519233
2.23809,0.339279,-0.0395123
2.21199,0.1167,-0.0644646
2.22845,0.227145,0
2.19184,0.008417,-0.0255173
2.21502,0.116861,-0.282336
2.19843,0.00844231,-0.205221
2.23493,0.227806,-0.157092
2.20957,0.116573,-0.180629
2.22957,0.337988,0.0656282
2.2006,0.1161,0.0384651
2.19227,0.00841867,-0.127673
2.21277,0.225546,0.129534
2.19911,0.116021,0.0897188
2.22604,0.226899,-0.10423
2.20989,0.11659,-0.115976
2.18966,0.115523,0.179002
2.23262,0.33845,-0.0919985
2.21592,0.225867,-0.0518303
2.23134,0.330292,-0.0393726
2.20439,0.108584,-0.0642319
2.22127,0.218581,0
2.19185,0.00076543,-0.0255173
2.21542,0.109128,-0.282336
2.22769,0.329751,0.0130884
2.20129,0.108432,-0.0128095
2.22465,0.218913,0.0520164
2.18785,0.000764033,0.0254707
2.21394,0.109055,-0.180955
2.22678,0.329617,0.0655119
2.197,0.10822,0.0383953
2.1843,0.000762793,-0.127208
2.20559,0.217038,0.129069
2.19152,0.107951,0.0893932
2.20629,0.108678,-0.115767
2.18607,0.107682,0.178676
2.23379,0.330654,-0.0919985
2.21669,0.21813,-0.0518303
2.24436,0.324217,-0.0395821
2.19677,0.100524,-0.0639992
2.22202,0.210826,0
2.18784,-0.00687253,-0.0254707
2.21182,0.101213,-0.281831
2.22883,0.321974,0.0130884
2.20565,0.100931,-0.0128327
2.23696,0.212243,-0.242039
2.19047,-0.00688078,-0.204477
2.22142,0.210769,0.0519233
2.18384,-0.00685997,0.0254241
2.2325,0.21182,-0.156813
2.21431,0.101327,-0.180955
2.22396,0.321271,0.0653955
2.20136,0.100734,0.0384651
2.23615,0.323032,-0.1448
2.18429,-0.00686137,-0.127208
2.20236,0.208961,0.128836
2.19189,0.1003,0.0893932
2.22359,0.210975,-0.104044
2.19868,0.100611,-0.115348
2.18643,0.100051,0.178676
2.23097,0.322284,-0.0918356
2.21744,0.210391,-0.0518303
2.23359,0.314707,-0.0393726
2.19311,0.0926858,-0.0638828
2.21876,0.202704,0
2.1878,-0.0145101,-0.0254707
2.21613,0.0936583,-0.282336
2.22598,0.313633,0.0130652
2.20599,0.0932301,-0.0128327
2.2258,0.203347,-0.240754
2.18246,-0.0144747,-0.203733
2.21816,0.202649,0.0518303
2.1838,-0.0144836,0.0254241
2.2213,0.202936,-0.155975
2.21067,0.0934276,-0.180629
2.24122,0.315781,-0.145056
2.18425,-0.0144865,-0.127208
2.20705,0.201635,0.129069
2.19222,0.0926482,0.0893932
2.22829,0.203575,-0.10423
2.19503,0.0927666,-0.115139
2.18278,0.0922492,0.178351
2.23208,0.314494,-0.0918356
2.21418,0.202285,-0.0517372
2.18943,0.0848744,-0.0637664
2.21547,0.194607,0
2.18374,-0.0221069,-0.0254241
2.21247,0.0857677,-0.281831
2.22706,0.30586,0.0130652
2.20631,0.0855286,-0.0128327
2.23442,0.196272,-0.241611
2.19435,-0.0222143,-0.204849
2.21885,0.194905,0.0518303
2.18374,-0.0221069,0.0254241
2.22597,0.19553,-0.156255
2.207,0.0855554,-0.180304
2.19402,0.0850523,0.0383255
2.24231,0.307955,-0.145056
2.18818,-0.0221519,-0.127441
2.20377,0.193579,0.128836
2.19253,0.0849947,0.0893932
2.22501,0.195445,-0.104044
2.19534,0.0851034,-0.115139
2.18309,0.0846288,0.178351
2.23317,0.3067,-0.0918356
2.21487,0.194555,-0.0517372
2.2397,0.299636,-0.0394424
2.18971,0.0772318,-0.0637664
2.21215,0.186537,0
2.21276,0.0780447,-0.281831
2.22811,0.298085,0.0130652
2.20259,0.0776861,-0.0128095
2.22717,0.187803,-0.240754
2.19426,-0.0298734,-0.204849
2.21554,0.186823,0.0517372
2.18365,-0.029729,0.0254241
2.20728,0.0778514,-0.180304
2.21928,0.296904,0.0651628
2.1903,0.0772527,0.0382557
2.2315,0.298539,-0.144288
2.1841,-0.0297351,-0.127208
2.20045,0.185551,0.128604
2.19681,0.0774822,0.089556
2.19562,0.0774402,-0.115139
2.18337,0.0770083,0.178351
2.23026,0.298373,-0.0916728
2.17477,0.0767049,0.396764
2.21554,0.186823,-0.0517372
2.22487,0.289751,-0.0391632
2.18597,0.0694613,-0.0636501
2.2088,0.178492,0
2.18353,-0.0373507,-0.0254241
2.20905,0.0701947,-0.281326
2.2212,0.289273,0.0130187
2.19885,0.0698706,-0.0127862
2.22384,0.179708,-0.240326
2.19016,-0.037464,-0.204477
2.18353,-0.0373507,0.0254241
2.22728,0.179986,-0.156255
2.21152,0.0702732,-0.180629
2.22427,0.289672,0.0652792
2.19056,0.0696071,0.0382557
2.23253,0.290748,-0.144288
2.17599,-0.0372218,-0.126743
2.20108,0.177869,0.128604
2.19307,0.0696869,0.0893932
2.22632,0.179908,-0.104044
2.20386,0.0700298,-0.115558
2.17965,0.0692603,0.178025
2.23525,0.291103,-0.0918356
2.16716,0.0688636,0.395329
2.2082,0.178444,-0.0515511
2.22984,0.282486,-0.039233
2.1862,0.0618308,-0.0636501
2.2134,0.17109,0
2.20135,0.0622593,-0.280315
2.21823,0.281016,0.0129954
2.22446,0.171945,-0.240326
2.18603,-0.0450264,-0.204105
2.2128,0.171044,0.0516442
2.17939,-0.0448896,0.0253776
2.21994,0.171596,-0.155696
2.20378,0.0623282,-0.179978
2.21733,0.280902,0.0650464
2.19079,0.0619607,0.0382557
2.23353,0.282954,-0.144288
2.17186,-0.0447345,-0.126511
2.19373,0.169569,0.128138
2.18931,0.0619187,0.0892304
2.22295,0.171828,-0.103857
2.19211,0.0619981,-0.11493
2.18386,0.0617646,0.178351
2.23626,0.283299,-0.0918356
2.20881,0.170735,-0.0515511
2.22684,0.274211,-0.0391632
2.1944,0.0543968,-0.0638828
2.20759,0.0547238,-0.441656
2.206,0.162773,0
2.17922,-0.0524974,-0.0253776
2.20552,0.0546726,-0.280821
2.22317,0.273759,0.0130187
2.19929,0.054518,-0.0127862
2.22108,0.163886,-0.239897
2.18188,-0.0525615,-0.203733
2.20939,0.163024,0.0515511
2.17522,-0.0524011,0.025331
2.22451,0.164139,-0.155975
2.2,0.0545358,-0.179653
2.21433,0.272671,0.0649301
2.19099,0.0543124,0.0382557
2.23847,0.275643,-0.144544
2.17967,-0.0525083,-0.126976
2.19431,0.16191,0.128138
2.18552,0.0541766,0.0890675
2.21955,0.163773,-0.103671
2.18832,0.0542462,-0.11472
2.19352,0.161852,0.270062
2.18008,0.0540418,0.178025
2.23327,0.275002,-0.0916728
2.21338,0.163318,-0.0516442
2.23568,0.267776,-0.0393028
2.18657,0.0469473,-0.0636501
2.20653,0.155456,0
2.17504,-0.0596147,-0.025331
2.19776,0.0471875,-0.27981
2.21612,0.265433,0.0129722
2.19946,0.047224,-0.0127862
2.22558,0.156798,-0.240326
2.18169,-0.0597972,-0.203733
2.17504,-0.0596147,0.025331
2.20017,0.0472394,-0.179653
2.21522,0.265326,0.0649301
2.19116,0.0470459,0.0382557
2.22748,0.266793,-0.143777
2.1755,-0.0596273,-0.126743
2.19882,0.154913,0.128371
2.19367,0.0470999,0.0893932
2.22008,0.156411,-0.103671
2.18849,0.0469886,-0.11472
2.18024,0.0468115,0.178025
2.2302,0.267119,-0.09151
2.16382,0.0464589,0.394611
2.20992,0.155695,-0.0515511
2.23263,0.25951,-0.039233
2.18272,0.0392441,-0.0635337
2.21105,0.148022,0
2.17481,-0.0672051,-0.025331
2.19791,0.0395171,-0.27981
2.22101,0.258159,0.0129954
2.22214,0.148765,-0.239897
2.17351,-0.0671648,-0.20299
2.21045,0.147982,0.0515511
2.17881,-0.0673287,0.0253776
2.21761,0.148461,-0.155417
2.20032,0.0395606,-0.179653
2.21614,0.257593,0.0649301
2.18731,0.0393267,0.0381859
2.22839,0.259018,-0.143777
2.17128,-0.067096,-0.126511
2.19536,0.146971,0.128138
2.18983,0.0393719,0.0892304
2.18864,0.0393506,-0.11472
2.19061,0.146654,0.269575
2.18039,0.0392022,0.178025
2.23112,0.259334,-0.09151
2.16004,0.0388362,0.393894
2.21045,0.147982,-0.0515511
2.21762,0.249923,-0.0389538
2.21196,0.0320459,-0.442441
2.21155,0.140303,0
2.202,0.0319017,-0.280315
2.21792,0.249957,0.0129722
2.19573,0.0318109,-0.012763
2.21471,0.140503,-0.239041
2.17326,-0.0747519,-0.20299
2.20696,0.140011,0.0514581
2.17457,-0.0747968,0.025331
2.21811,0.140719,-0.155417
2.19646,0.0318214,-0.179327
2.21702,0.249855,0.0649301
2.18744,0.0316907,0.0381859
2.22929,0.251237,-0.143777
2.17104,-0.0746754,-0.126511
2.19187,0.139054,0.127906
2.18596,0.0316692,0.0890675
2.18877,0.0317099,-0.11472
2.19507,0.139257,0.270062
2.18052,0.0315904,0.178025
2.22804,0.251096,-0.0913472
2.16016,0.0312955,0.393894
2.20297,0.139758,-0.051365
2.22246,0.242614,-0.0390236
2.20421,0.0242377,-0.440872
2.20005,0.131863,0
2.17429,-0.0823876,-0.025331
2.2021,0.0242145,-0.280315
2.2148,0.241778,0.0129489
2.19183,0.0241016,-0.0127397
2.22313,0.133246,-0.239897
2.17697,-0.0824889,-0.203362
2.19946,0.131828,0.051272
2.1703,-0.0822362,0.0252844
2.21461,0.132736,-0.155138
2.20055,0.0241974,-0.179653
2.21788,0.242114,0.0649301
2.18354,0.0240104,0.0381161
2.22221,0.242587,-0.143265
2.17076,-0.0822538,-0.126511
2.18836,0.131163,0.127673
2.18206,0.0239941,0.0889047
2.21362,0.132677,-0.103299
2.18487,0.024025,-0.114511
2.18762,0.131118,0.269088
2.17663,0.0239344,0.1777
2.22493,0.242883,-0.0911843
2.16419,0.0237976,0.394611
2.20345,0.132067,-0.051365
2.22329,0.234855,-0.0390236
2.17902,0.0163543,-0.0634174
2.20428,0.0165439,-0.440872
2.2005,0.124183,0
2.17399,-0.0899763,-0.025331
2.19423,0.0164685,-0.279305
2.21564,0.234046,0.0129489
2.1919,0.016451,-0.0127397
2.21961,0.125262,-0.239469
2.17667,-0.090087,-0.203362
2.20789,0.1246,0.0514581
2.166,-0.0896455,0.0252379
2.21107,0.12478,-0.154859
2.19264,0.0164565,-0.179002
2.18761,0.0164187,0.0381859
2.22305,0.234829,-0.143265
2.16647,-0.0896651,-0.126278
2.1888,0.123523,0.127673
2.18213,0.0163776,0.0889047
2.21407,0.124949,-0.103299
2.18893,0.0164287,-0.11472
2.18013,0.123034,0.268113
2.17271,0.0163069,0.177375
2.22179,0.234696,-0.0910215
2.16032,0.016214,0.393894
2.2039,0.124375,-0.051365
2.2241,0.227092,-0.0390236
2.19648,0.00881733,-0.439303
2.20092,0.116501,0
2.17366,-0.097565,-0.025331
2.21028,0.116996,-0.344349
2.19428,0.00880848,-0.279305
2.21246,0.225904,0.0129257
2.21606,0.117302,-0.239041
2.20432,0.116681,0.051365
2.16567,-0.0972063,0.0252379
2.21548,0.117272,-0.155138
2.18471,0.00877009,-0.178351
2.18765,0.00878187,0.0381859
2.22385,0.227067,-0.143265
2.17013,-0.0974066,-0.126511
2.19321,0.116093,0.127906
2.18617,0.00877593,0.0890675
2.2145,0.11722,-0.103299
2.18099,0.00875514,-0.114302
2.18451,0.115633,0.2686
2.17275,0.00872208,0.177375
2.21464,0.226126,-0.0906958
2.2123,0.117104,-0.0515511
2.22089,0.218935,-0.0389538
2.17508,0.00113936,-0.063301
2.20042,0.00115264,-0.440087
2.20131,0.108818,0
2.17331,-0.105151,-0.025331
2.21462,0.109476,-0.344964
2.19033,0.00114735,-0.2788
2.21323,0.21818,0.0129257
2.21248,0.10937,-0.238612
2.17201,-0.105088,-0.20299
2.20072,0.108789,0.051272
2.16932,-0.104958,0.0252844
2.21189,0.109341,-0.154859
2.18872,0.00114651,-0.178676
2.20438,0.217307,0.0644646
2.18367,0.00114386,0.0381161
2.21669,0.21852,-0.142753
2.16579,-0.104788,-0.126278
2.18961,0.10824,0.127673
2.18219,0.00114309,0.0889047
2.18101,0.00114247,-0.114302
2.1849,0.108007,0.2686
2.17277,0.00113815,0.177375
2.22337,0.219179,-0.0910215
2.2087,0.109183,-0.0514581
2.21766,0.210803,-0.038884
2.17507,-0.00645366,-0.063301
2.20041,-0.00652886,-0.440087
2.20168,0.101133,0
2.17293,-0.112738,-0.025331
2.21499,0.101744,-0.344964
2.19032,-0.00649891,-0.2788
2.21,0.210074,0.0129024
2.17163,-0.11267,-0.20299
2.20108,0.101105,0.051272
2.16494,-0.112323,0.0252379
2.20827,0.101436,-0.15458
2.18871,-0.00649413,-0.178676
2.17966,-0.00646728,0.0380462
2.22141,0.211158,-0.143009
2.16541,-0.112348,-0.126278
2.18998,0.100595,0.127673
2.17818,-0.0064629,0.0887419
2.21127,0.101573,-0.103113
2.18899,-0.00649496,-0.11472
2.18527,0.100379,0.2686
2.17675,-0.00645865,0.1777
2.22014,0.211038,-0.0908587
2.19309,0.100738,-0.0510859
2.21839,0.203061,-0.038884
2.19253,-0.0141586,-0.438518
2.19802,0.0932777,0
2.17252,-0.120321,-0.025331
2.21533,0.0940123,-0.344964
2.19425,-0.0141697,-0.279305
2.2147,0.202724,0.0129257
2.21319,0.0939216,-0.238612
2.17122,-0.120249,-0.20299
2.16454,-0.119879,0.0252379
2.20861,0.0937272,-0.15458
2.19266,-0.0141594,-0.179002
2.20584,0.201912,0.0644646
2.17962,-0.0140752,0.0380462
2.22213,0.203403,-0.143009
2.169,-0.120126,-0.126511
2.18632,0.0927813,0.127441
2.17815,-0.0140657,0.0887419
2.21161,0.0938543,-0.103113
2.18096,-0.0140839,-0.114302
2.18164,0.0925824,0.268113
2.17671,-0.0140564,0.1777
2.22087,0.203287,-0.0908587
2.20142,0.093422,-0.051272
2.22307,0.195667,-0.0389538
2.17897,-0.0216771,-0.0634174
2.19434,0.0854494,0
2.20775,0.0859717,-0.343735
2.19419,-0.0218285,-0.279305
2.2154,0.194992,0.0129257
2.20556,0.0858865,-0.237755
2.16283,-0.127359,-0.202246
2.19774,0.0855819,0.0511789
2.16011,-0.127198,0.0251913
2.20494,0.0858624,-0.154301
2.18861,-0.021773,-0.178676
2.21051,0.194562,0.064581
2.17956,-0.021683,0.0380462
2.22681,0.195996,-0.143265
2.16059,-0.127227,-0.126045
2.18664,0.0851495,0.127441
2.18208,-0.0217081,0.0889047
2.20793,0.0859788,-0.102927
2.17798,0.0848125,0.267625
2.16868,-0.0215747,0.177049
2.2136,0.194834,-0.090533
2.20573,0.0858931,-0.051365
2.22374,0.187905,-0.0389538
2.17488,-0.0292298,-0.063301
2.19862,0.0779304,0
2.16365,-0.134988,-0.0252379
2.18219,-0.0293281,-0.27779
2.20809,0.186583,0.0128792
2.20585,0.0781865,-0.237755
2.16238,-0.134908,-0.202246
2.19802,0.0779093,0.0511789
2.15566,-0.134489,0.0251447
2.20124,0.0780232,-0.154022
2.18055,-0.029306,-0.178025
2.17547,-0.0292378,0.0379764
2.21952,0.187549,-0.142753
2.16412,-0.135017,-0.126278
2.18293,0.0773742,0.127208
2.178,-0.0292717,0.0887419
2.20822,0.0782706,-0.102927
2.17282,-0.0292021,-0.113883
2.18223,0.0773495,0.268113
2.16859,-0.0291453,0.177049
2.21427,0.187105,-0.090533
2.19802,0.0779093,-0.0511789
2.2164,0.179496,-0.0388142
2.19088,0.0700003,0
2.16715,-0.142802,-0.0252844
2.18208,-0.0369447,-0.27779
2.20474,0.178552,0.012856
2.20213,0.0703597,-0.237327
2.16587,-0.142717,-0.202618
2.19828,0.0702367,0.0511789
2.15518,-0.142013,0.0251447
2.2015,0.0703394,-0.154022
2.18043,-0.0369169,-0.178025
2.19986,0.178157,0.0642319
2.17136,-0.0367632,0.0379066
2.21618,0.179479,-0.142497
2.15965,-0.142307,-0.126045
2.18718,0.0698818,0.127441
2.17788,-0.0368737,0.0887419
2.20448,0.0704348,-0.102741
2.1767,-0.0368537,-0.114092
2.17852,0.0696053,0.267625
2.16449,-0.0366469,0.176724
2.21491,0.179375,-0.090533
2.19029,0.0699813,-0.0509928
2.20907,0.170755,-0.0386745
2.18713,0.0618562,0
2.16662,-0.150744,-0.0252844
2.20064,0.0622383,-0.342505
2.1859,-0.0450245,-0.278295
2.20538,0.17047,0.012856
2.20237,0.0622874,-0.237327
2.16136,-0.150378,-0.202246
2.19453,0.0620655,0.0510859
2.15863,-0.150189,0.0251913
2.20174,0.0622695,-0.154022
2.1763,-0.0448268,-0.1777
2.20449,0.1704,0.0643483
2.17521,-0.0448043,0.0379764
2.21285,0.171046,-0.142242
2.15513,-0.149945,-0.125813
2.17943,0.0616386,0.126976
2.16974,-0.0446917,0.0884162
2.20073,0.062241,-0.102555
2.17479,0.0615073,0.267138
2.16035,-0.0444984,0.176398
2.21156,0.170947,-0.0903702
2.19453,0.0620655,-0.0510859
2.20966,0.163043,-0.0386745
2.19133,0.0543209,0
2.16209,-0.158014,-0.0252379
2.19689,0.0544588,-0.34189
2.17779,-0.0524628,-0.277285
2.20597,0.162771,0.012856
2.20655,0.0546983,-0.237755
2.15685,-0.157631,-0.201875
2.15411,-0.157431,0.0251447
2.19397,0.0543863,-0.153464
2.17613,-0.0524227,-0.1777
2.19709,0.162116,0.0641155
2.17904,-0.0524928,0.0380462
2.21741,0.163615,-0.142497
2.15459,-0.157467,-0.125813
2.17964,0.0540311,0.126976
2.16957,-0.0522648,0.0884162
2.19694,0.0544601,-0.102368
2.17239,-0.0523327,-0.113883
2.17499,0.053916,0.267138
2.16417,-0.0521347,0.176724
2.21613,0.163521,-0.090533
2.19473,0.0544053,-0.0510859
2.20617,0.155818,-0.0386047
2.16628,-0.0589962,-0.0630683
2.18349,0.0472626,0
2.201,0.0476417,-0.342505
2.18555,-0.059521,-0.278295
2.20647,0.155839,0.012856
2.19876,0.0475932,-0.236899
2.16031,-0.16471,-0.202246
2.19489,0.0475095,0.0510859
2.1536,-0.164198,0.0251447
2.19812,0.0475792,-0.153743
2.19759,0.155212,0.0641155
2.21791,0.156648,-0.142497
2.16205,-0.164843,-0.126278
2.1798,0.0471827,0.126976
2.17339,-0.0591898,0.0885791
2.2011,0.0476438,-0.102555
2.16822,-0.059049,-0.113674
2.17118,0.0469963,0.26665
2.16798,-0.0590425,0.177049
2.21265,0.156276,-0.0903702
2.19089,0.0474229,-0.0509928
2.21069,0.148384,-0.0386745
2.18764,0.0397131,0
2.1972,0.0398867,-0.34189
2.1774,-0.0669058,-0.277285
2.207,0.148136,0.012856
2.19892,0.0399178,-0.236899
2.15972,-0.17225,-0.202246
2.19504,0.0398476,0.0510859
2.15302,-0.171715,0.0251447
2.19029,0.0397612,-0.153185
2.17175,-0.0667323,-0.177375
2.19812,0.14754,0.0641155
2.17464,-0.0668212,0.0379764
2.21048,0.14837,-0.141986
2.1535,-0.171754,-0.125813
2.17595,0.039501,0.126743
2.17317,-0.066776,0.0885791
2.20125,0.0399602,-0.102555
2.168,-0.0666171,-0.113674
2.17133,0.0394171,0.26665
2.15581,-0.0662425,0.176073
2.20122,0.147748,-0.0898817
2.19105,0.039775,-0.0509928
2.21119,0.140666,-0.0386745
2.18377,0.032018,0
2.19338,0.0321589,-0.341275
2.17318,-0.0743703,-0.27678
2.19952,0.139924,0.0128095
2.17869,-0.0745586,-0.01267
2.19507,0.0321836,-0.23647
2.15514,-0.179457,-0.201875
2.19117,0.0321266,0.0509928
2.15639,-0.179561,0.0251913
2.20238,0.032291,-0.154022
2.1715,-0.0743127,-0.177375
2.19463,0.139613,0.0639992
2.1704,-0.074275,0.0379066
2.207,0.1404,-0.14173
2.15289,-0.17927,-0.125813
2.17209,0.0318467,0.126511
2.16893,-0.0742247,0.0884162
2.19738,0.0322176,-0.102368
2.17175,-0.0743211,-0.113883
2.17146,0.0318375,0.26665
2.15556,-0.0737673,0.176073
2.20571,0.140317,-0.0900445
2.18317,0.0320093,-0.0508067
2.21169,0.132561,-0.0386745
2.20138,0.0242065,-0.342505
2.18083,-0.0826354,-0.27779
2.20401,0.1321,0.0128327
2.19119,0.0240944,-0.236042
2.15447,-0.187355,-0.201875
2.18328,0.0240074,0.0508067
2.15572,-0.187464,0.0251913
2.19451,0.0241309,-0.153464
2.1752,-0.0824221,-0.1777
2.19912,0.131807,0.0641155
2.16612,-0.0820779,0.0378368
2.2075,0.13231,-0.14173
2.17219,0.0238854,0.126511
2.16864,-0.0821737,0.0884162
2.19349,0.0241196,-0.102182
2.16747,-0.0821292,-0.113674
2.17553,0.0239222,0.267138
2.15926,-0.0818183,0.176398
2.20222,0.131993,-0.0898817
2.17928,0.0239634,-0.0507136
2.20813,0.125,-0.0386047
2.17994,0.016741,0
2.19355,0.0168456,-0.341275
2.17658,-0.0897034,-0.277285
2.20443,0.124791,0.0128327
2.19524,0.0168585,-0.23647
2.14987,-0.19414,-0.201503
2.18734,0.0167979,0.0508998
2.1511,-0.194251,0.0251447
2.1866,0.0167922,-0.152906
2.17491,-0.0896348,-0.1777
2.19955,0.124514,0.0641155
2.16983,-0.0894253,0.0379066
2.20793,0.124989,-0.14173
2.15158,-0.194295,-0.125813
2.17625,0.0167127,0.126743
2.16836,-0.0893648,0.0884162
2.18956,0.016815,-0.101996
2.16718,-0.0893163,-0.113674
2.16766,0.0166467,0.266163
2.16296,-0.0891423,0.176724
2.20264,0.124689,-0.0898817
2.18734,0.0167979,-0.0508998
2.20855,0.117291,-0.0386047
2.17998,0.00913154,0
2.15439,-0.202133,-0.0251913
2.18964,0.009172,-0.34066
2.17229,-0.0971233,-0.27678
2.20486,0.117095,0.0128327
2.1913,0.00917897,-0.236042
2.14918,-0.201643,-0.201503
2.18739,0.00916257,0.0508998
2.15041,-0.201759,0.0251447
2.19063,0.00917615,-0.153185
2.1706,-0.0970481,-0.177375
2.19597,0.116623,0.0639992
2.1695,-0.0969988,0.0379066
2.20835,0.117281,-0.14173
2.14692,-0.201431,-0.12558
2.1723,0.00909937,0.126511
2.16404,-0.0967547,0.0882534
2.18961,0.00917186,-0.101996
2.1677,0.0090801,0.266163
2.15467,-0.0963358,0.176073
2.20307,0.117,-0.0898817
2.18739,0.00916257,-0.0508998
2.20096,0.109185,-0.0384651
2.18,0.00152193,0
2.14969,-0.209264,-0.0251447
2.16797,-0.104514,-0.276275
2.19726,0.109002,0.0127862
2.19132,0.00152983,-0.236042
2.14846,-0.209144,-0.201503
2.17941,0.00152152,0.0507136
2.14571,-0.208877,0.0250982
2.18267,0.00152379,-0.152627
2.19237,0.108759,0.0638828
2.16915,-0.104571,0.0379066
2.20077,0.109176,-0.141218
2.15018,-0.209311,-0.125813
2.17232,0.00151657,0.126511
2.16768,-0.1045,0.0884162
2.19362,0.00153144,-0.102182
2.16375,0.00151058,0.265675
2.15034,-0.103664,0.175747
2.17941,0.00152152,-0.0507136
2.19733,0.101317,-0.0383953
2.15621,-0.111493,-0.0628356
2.17599,-0.00607652,0
2.15293,-0.217168,-0.0251913
2.18965,-0.00611467,-0.34066
2.19763,0.101331,0.0127862
2.18734,-0.00610821,-0.235614
2.15168,-0.217042,-0.201875
2.1834,-0.00609721,0.0508067
2.14895,-0.216767,0.0251447
2.18665,-0.00610629,-0.152906
2.16589,-0.111993,-0.177049
2.18875,0.100922,0.0637664
2.16078,-0.111729,0.037767
2.20114,0.101493,-0.141218
2.14546,-0.216415,-0.12558
2.17231,-0.00606625,0.126511
2.16331,-0.11186,0.0882534
2.18962,-0.00611458,-0.101996
2.15815,-0.111593,-0.113255
2.16374,-0.00604232,0.265675
2.14997,-0.11117,0.175747
2.19584,0.101249,-0.089556
2.1834,-0.00609721,-0.0508067
2.19767,0.0936467,-0.0383953
2.19357,-0.0137828,-0.341275
2.16719,-0.119647,-0.276275
2.19397,0.0934891,0.012763
2.15091,-0.224552,-0.201875
2.17937,-0.0136935,0.0507136
2.1442,-0.223851,0.0250982
2.18662,-0.0137391,-0.152906
2.18909,0.0932809,0.0637664
2.16437,-0.119492,0.0378368
2.20148,0.0938091,-0.141218
2.14072,-0.223488,-0.125348
2.17228,-0.013649,0.126511
2.15892,-0.11919,0.0880906
2.18559,-0.0137326,-0.10181
2.16174,-0.119346,-0.113464
2.15974,-0.0135702,0.265188
2.15355,-0.118894,0.176073
2.19219,0.0934132,-0.0893932
2.17937,-0.0136935,-0.0507136
2.20198,0.0861311,-0.0384651
2.15937,-0.126777,-0.0629519
2.1759,-0.0212675,0
2.15136,-0.232193,-0.0251913
2.19351,-0.0214397,-0.341275
2.19428,0.0858301,0.012763
2.18724,-0.0213784,-0.235614
2.14615,-0.231631,-0.201503
2.17531,-0.0212618,0.0506206
2.14341,-0.231335,0.0250982
2.17858,-0.0212937,-0.152348
2.16108,-0.126878,-0.176724
2.19339,0.0857953,0.0638828
2.16394,-0.127046,0.0378368
2.19781,0.0859679,-0.140962
2.1439,-0.231387,-0.12558
2.17222,-0.0212316,0.126511
2.1545,-0.126491,0.0879277
2.18553,-0.0213617,-0.10181
2.16365,-0.0211478,0.265675
2.15312,-0.12641,0.176073
2.1965,0.0859167,-0.089556
2.1833,-0.0213399,-0.0508067
2.19827,0.0783019,-0.0383953
2.17181,-0.0288097,0
2.15054,-0.239701,-0.0251913
2.18947,-0.0290439,-0.34066
2.17026,-0.13502,-0.27678
2.19457,0.0781701,0.012763
2.18318,-0.0289605,-0.235185
2.14533,-0.239121,-0.201503
2.17522,-0.0288549,0.0506206
2.14259,-0.238815,0.0250982
2.18248,-0.0289512,-0.152627
2.16062,-0.13442,-0.176724
2.18968,0.077996,0.0637664
2.16349,-0.134599,0.0378368
2.19809,0.0782956,-0.140962
2.13911,-0.238427,-0.125348
2.16814,-0.0287609,0.126278
2.15803,-0.13426,0.0880906
2.18144,-0.0289374,-0.101624
2.15562,-0.0285949,0.2647
2.15266,-0.133925,0.176073
2.1888,0.0779644,-0.0892304
2.18322,-0.028961,-0.0508067
2.19054,0.0703712,-0.0382557
2.14571,-0.246749,-0.0251447
2.16186,-0.142074,-0.27577
2.19083,0.0703807,0.0127397
2.18704,-0.0366476,-0.235614
2.15635,-0.247973,-0.202618
2.17511,-0.0364476,0.0506206
2.13777,-0.245836,0.0250516
2.17438,-0.0364356,-0.152069
2.16014,-0.141962,-0.176724
2.18994,0.0703521,0.0637664
2.163,-0.14215,0.0378368
2.19436,0.0704942,-0.140707
2.14223,-0.246349,-0.12558
2.16802,-0.0363289,0.126278
2.14958,-0.141267,0.0877649
2.18532,-0.0366189,-0.10181
2.15948,-0.0361858,0.265188
2.14423,-0.140916,0.175422
2.1791,-0.0365147,-0.0507136
2.19477,0.0628388,-0.0383255
2.14087,-0.253767,-0.0250982
2.18131,-0.0441684,-0.33943
2.16135,-0.14962,-0.27577
2.18707,0.0626184,0.0127165
2.16678,-0.149996,-0.0126235
2.18292,-0.0442011,-0.235185
2.13689,-0.253296,0.0250516
2.17823,-0.0441061,-0.152348
2.15963,-0.149501,-0.176724
2.18618,0.0625929,0.0636501
2.15451,-0.149147,0.0376972
2.13739,-0.253355,-0.125348
2.16788,-0.0438965,0.126278
2.16103,-0.149598,0.0882534
2.15537,-0.0436432,0.2647
2.14372,-0.1484,0.175422
2.18929,0.0626819,-0.0892304
2.17497,-0.04404,-0.0506206
2.19496,0.0555604,-0.0383255
2.1674,-0.0510776,0
2.14795,-0.261833,-0.0251913
2.19126,0.0554667,0.0127397
2.16228,-0.156891,-0.0126002
2.17879,-0.051346,-0.234757
2.17881,-0.0513464,0.0507136
2.13604,-0.260381,0.0250516
2.17808,-0.0513292,-0.152348
2.18637,0.055343,0.0636501
2.158,-0.15658,0.037767
2.1908,0.0554551,-0.140451
2.16772,-0.0510853,0.126278
2.15255,-0.156185,0.0879277
2.18502,-0.0514929,-0.10181
2.15138,-0.1561,-0.113046
2.15521,-0.0507904,0.2647
2.14322,-0.155508,0.175422
2.18948,0.0554217,-0.0892304
2.17481,-0.0512522,-0.0506206
2.18715,0.0477237,-0.0381859
2.14306,-0.268831,-0.0251447
2.18096,-0.0590149,-0.33943
2.16028,-0.164328,-0.27577
2.19144,0.0478174,0.0127397
2.16172,-0.164438,-0.0126002
2.17462,-0.0588435,-0.234328
2.17462,-0.0588434,0.0506206
2.13115,-0.267338,0.025005
2.17389,-0.0588238,-0.152069
2.15856,-0.164198,-0.176724
2.18256,0.0476235,0.0635337
2.15345,-0.163809,0.0376972
2.18699,0.0477203,-0.140195
2.16354,-0.0585437,0.126045
2.14801,-0.163395,0.0877649
2.18084,-0.0590117,-0.101624
2.15502,-0.0583132,0.2647
2.14266,-0.162988,0.175422
2.18567,0.0476914,-0.0890675
2.17861,-0.0589515,-0.0507136
2.1873,0.0400888,-0.0381859
2.14211,-0.27631,-0.0251447
2.18074,-0.0666275,-0.33943
2.1916,0.0401676,0.0127397
2.1744,-0.066434,-0.234328
2.1704,-0.0663117,0.0505275
2.13021,-0.274775,0.025005
2.16969,-0.0662899,-0.15179
2.15798,-0.171731,-0.176724
2.1907,0.0401512,0.0637664
2.15685,-0.171642,0.037767
2.19513,0.0402323,-0.140707
2.15933,-0.0659736,0.125813
2.13946,-0.170258,0.0874392
2.17263,-0.0663798,-0.101252
2.15024,-0.171116,-0.113046
2.1548,-0.0658352,0.2647
2.14208,-0.170466,0.175422
2.1744,-0.0664338,-0.0506206
2.19542,0.0325722,-0.0383255
2.13716,-0.283261,-0.0250982
2.18772,0.0324579,0.0127165
2.17813,-0.074159,-0.234757
2.17016,-0.0738874,0.0505275
2.1332,-0.282735,0.0250516
2.16944,-0.0738632,-0.15179
2.15339,-0.178933,-0.176398
2.18284,0.0323854,0.0635337
2.15225,-0.178838,0.0376972
2.19525,0.0325697,-0.140707
2.13369,-0.282801,-0.125348
2.16308,-0.0736465,0.126045
2.14283,-0.178056,0.0876021
2.17638,-0.0740993,-0.101438
2.18195,0.0323723,-0.0889047
2.17415,-0.0740235,-0.0506206
2.18353,0.0247724,-0.0381161
2.16248,-0.0811841,0
2.14013,-0.291258,-0.0251447
2.17627,-0.0817019,-0.338815
2.18782,0.0248211,0.0127165
2.15589,-0.186721,-0.012577
2.16991,-0.0814632,-0.2339
2.17388,-0.0816122,0.0506206
2.1322,-0.29018,0.0250516
2.16518,-0.0812858,-0.151511
2.14878,-0.186105,-0.176073
2.17894,0.0247203,0.0634174
2.15162,-0.18635,0.0376972
2.18737,0.024816,-0.140195
2.13269,-0.290247,-0.125348
2.16281,-0.0811966,0.126045
2.14618,-0.185879,0.0877649
2.17611,-0.0816958,-0.101438
2.15429,-0.0808769,0.2647
2.13687,-0.185073,0.175096
2.18205,0.0247556,-0.0889047
2.17388,-0.0816122,-0.0506206
2.1796,0.0171189,-0.0380462
2.16218,-0.0887321,0
2.14306,-0.29928,-0.0251913
2.17992,-0.0894601,-0.33943
2.1879,0.017184,0.0127165
2.15921,-0.194604,-0.0126002
2.17359,-0.0892002,-0.234328
2.16559,-0.0888721,0.0504345
2.12325,-0.296514,0.0249585
2.16887,-0.0890068,-0.15179
2.15209,-0.193962,-0.176398
2.18301,0.0171456,0.0635337
2.14697,-0.193501,0.0376274
2.15852,-0.088582,0.125813
2.14154,-0.193011,0.0876021
2.17581,-0.0892913,-0.101438
2.15003,-0.0882335,0.264213
2.13621,-0.192531,0.175096
2.16959,-0.089036,-0.0505275
2.19165,0.00956291,-0.0382557
2.15786,-0.096101,0
2.17959,-0.0970689,-0.33943
2.17994,0.00951185,0.01267
2.15454,-0.201767,-0.012577
2.16929,-0.0966099,-0.2339
2.16926,-0.0966088,0.0505275
2.12616,-0.304491,0.025005
2.1514,-0.201473,-0.176398
2.18305,0.00952543,0.0635337
2.14628,-0.200994,0.0376274
2.1835,0.00952737,-0.139939
2.12666,-0.304563,-0.125115
2.1582,-0.0961161,0.125813
2.17149,-0.096708,-0.101252
2.14367,-0.200749,-0.112836
2.14971,-0.095738,0.264213
2.13155,-0.199614,0.174771
2.18617,0.009539,-0.0890675
2.16926,-0.0966088,-0.0505275
2.19167,0.00191259,-0.0382557
2.133,-0.313072,-0.0250982
2.17529,-0.104487,-0.338815
2.18396,0.00190587,0.0126932
2.15382,-0.209286,-0.012577
2.16891,-0.10418,0.0505275
2.12113,-0.31133,0.0249585
2.16421,-0.103955,-0.151511
2.14671,-0.208596,-0.176073
2.17908,0.0019016,0.0634174
2.14557,-0.208484,0.0376274
2.18751,0.00190896,-0.140195
2.13349,-0.313144,-0.12558
2.16184,-0.103841,0.126045
2.14411,-0.208343,0.0877649
2.16715,-0.104096,-0.101066
2.1454,-0.103051,0.263725
2.16891,-0.10418,-0.0505275
2.17966,-0.00570634,-0.0380462
2.16113,-0.111369,0
2.13585,-0.321111,-0.0251447
2.18396,-0.00571758,0.0126932
2.14512,-0.216002,-0.0125305
2.16856,-0.111752,-0.2339
2.12398,-0.319327,0.025005
2.16384,-0.111509,-0.151511
2.14597,-0.216088,-0.176073
2.17507,-0.00569433,0.063301
2.14483,-0.215973,0.0376274
2.18351,-0.00571642,-0.139939
2.15748,-0.111181,0.125813
2.14337,-0.215826,0.0877649
2.16677,-0.11166,-0.101066
2.14899,-0.110743,0.264213
2.17253,-0.111956,-0.0506206
2.17563,-0.0132903,-0.0379764
2.15674,-0.118692,0
2.13076,-0.327956,-0.0250982
2.17992,-0.0133166,0.01267
2.14435,-0.223488,-0.0125305
2.16816,-0.119321,-0.2339
2.16813,-0.119319,0.0505275
2.12286,-0.326739,0.025005
2.16344,-0.119061,-0.151511
2.14521,-0.223578,-0.176073
2.17504,-0.0132867,0.063301
2.14008,-0.223044,0.0375576
2.17949,-0.0133139,-0.139683
2.15309,-0.118492,0.12558
2.13863,-0.222893,0.0876021
2.17036,-0.119442,-0.101252
2.17416,-0.0132813,-0.0885791
2.16813,-0.119319,-0.0505275
2.17957,-0.020923,-0.0380462
2.15232,-0.125986,0
2.12961,-0.335392,-0.0250982
2.17986,-0.0209258,0.01267
2.13958,-0.230544,-0.0125072
2.15972,-0.12642,0.0503414
2.1217,-0.334147,0.025005
2.16301,-0.126612,-0.151511
2.14441,-0.231064,-0.176073
2.17498,-0.0208789,0.063301
2.14724,-0.231369,0.0376972
2.17943,-0.0209216,-0.139683
2.15266,-0.126007,0.12558
2.13387,-0.229928,0.0874392
2.16594,-0.126784,-0.101066
2.16371,-0.126653,-0.0504345
2.17548,-0.0284786,-0.0379764
2.12447,-0.342187,-0.0250516
2.17578,-0.0284825,0.0126467
2.14274,-0.238453,-0.0125305
2.15926,-0.133958,0.0503414
2.12052,-0.341551,0.025005
2.15857,-0.133915,-0.151232
2.14359,-0.238548,-0.176073
2.17489,-0.0284709,0.063301
2.14245,-0.238421,0.0376274
2.17934,-0.0285292,-0.139683
2.15221,-0.13352,0.12558
2.141,-0.23826,0.0877649
2.16548,-0.134344,-0.101066
2.17801,-0.0285117,-0.0887419
2.16325,-0.134205,-0.0504345
2.17137,-0.036006,-0.0379066
2.11932,-0.348951,-0.025005
2.17566,-0.0360772,0.0126467
2.13792,-0.245475,-0.0125072
2.16282,-0.141759,-0.233472
2.15878,-0.141494,0.0503414
2.11537,-0.348301,0.0249585
2.13879,-0.245575,-0.175747
2.16678,-0.03593,0.0630683
2.13763,-0.245442,0.0375576
2.17524,-0.0360701,-0.139427
2.15173,-0.141032,0.12558
2.13221,-0.24482,0.0874392
2.15304,-0.141118,-0.100507
2.1699,-0.0359816,-0.0884162
2.16277,-0.141756,-0.0504345
2.17923,-0.0437458,-0.0380462
2.15088,-0.148518,0
2.12598,-0.357674,-0.0250982
2.17153,-0.0435912,0.0126235
2.14499,-0.253877,-0.0125537
2.16231,-0.149308,-0.233472
2.15828,-0.149029,0.0503414
2.16554,-0.149531,-0.15179
2.13792,-0.253039,-0.175747
2.16665,-0.0434932,0.0630683
2.1447,-0.253842,0.0376972
2.15521,-0.148817,0.125813
2.13531,-0.252731,0.0876021
2.16051,-0.149183,-0.100879
2.16625,-0.14958,-0.0505275
2.17908,-0.0505918,-0.0380462
2.12878,-0.365027,-0.0251447
2.17538,-0.0505058,0.0126467
2.14021,-0.260131,-0.0125305
2.15787,-0.155814,-0.233043
2.16179,-0.156096,0.0504345
2.15312,-0.155471,-0.150953
2.14107,-0.260235,-0.176073
2.1665,-0.0502997,0.0630683
2.13595,-0.259614,0.0375576
2.17096,-0.0504033,-0.139172
2.14278,-0.154724,0.125115
2.13054,-0.258956,0.0874392
2.16003,-0.15597,-0.100879
2.16962,-0.0503721,-0.0884162
2.16179,-0.156096,-0.0504345
2.16689,-0.0582558,-0.0378368
2.14982,-0.163155,0
2.12349,-0.372137,-0.0250982
2.16718,-0.0582636,0.0126002
2.13131,-0.266979,-0.012484
2.15728,-0.163721,-0.233043
2.15322,-0.163413,0.0502484
2.15652,-0.163663,-0.151232
2.1703,-0.0583474,0.0631846
2.13896,-0.267938,0.0376274
2.17475,-0.0584672,-0.139427
2.1422,-0.162577,0.125115
2.12958,-0.266763,0.0874392
2.15147,-0.163281,-0.100507
2.15721,-0.163716,-0.0503414
2.17068,-0.0655618,-0.0379066
2.12225,-0.379176,-0.0250982
2.16698,-0.06545,0.0126002
2.13041,-0.274046,-0.012484
2.15673,-0.170874,-0.233043
2.14868,-0.170237,0.0501553
2.17009,-0.0655441,0.0631846
2.13409,-0.274519,0.0375576
2.17056,-0.0655581,-0.139172
2.14165,-0.16968,0.125115
2.15092,-0.170414,-0.100507
2.16921,-0.0655175,-0.0884162
2.16064,-0.171185,-0.0504345
2.16644,-0.0730038,-0.0378368
2.11698,-0.385865,-0.0250516
2.17073,-0.0731484,0.0126235
2.13341,-0.282005,-0.0125072
2.15605,-0.178396,0.0503414
2.16985,-0.0731187,0.0631846
2.13312,-0.281967,0.0375576
2.17031,-0.0731343,-0.139172
2.14104,-0.177154,0.125115
2.12375,-0.280728,0.0872764
2.15429,-0.178251,-0.100693
2.16003,-0.178726,-0.0504345
2.17415,-0.0812424,-0.0379764
2.11161,-0.39289,-0.025005
2.17045,-0.0811041,0.0126235
2.13236,-0.289822,-0.0125072
2.15149,-0.185961,-0.232615
2.15139,-0.185953,0.0502484
2.16158,-0.0807725,0.0629519
2.13207,-0.289783,0.0375576
2.17003,-0.0810884,-0.139172
2.14038,-0.185001,0.125115
2.12271,-0.28851,0.0872764
2.14965,-0.185801,-0.100507
2.15538,-0.186297,-0.0503414
2.16986,-0.0886679,-0.0379066
2.13936,-0.192439,0
2.1063,-0.399513,-0.0249585
2.16216,-0.0883532,0.012577
2.13133,-0.297264,-0.0125072
2.15073,-0.193461,0.0502484
2.16528,-0.0884806,0.0630683
2.12708,-0.296671,0.0374878
2.13972,-0.192471,0.125115
2.15296,-0.193662,-0.100693
2.15472,-0.19382,-0.0503414
2.16154,-0.0958871,-0.037767
2.13868,-0.199905,0
2.16583,-0.0960773,0.0126002
2.12632,-0.304135,-0.012484
2.15014,-0.200976,-0.232615
2.14606,-0.200595,0.0501553
2.14936,-0.200904,-0.150953
2.16495,-0.0960383,0.0630683
2.12999,-0.30466,0.0375576
2.13506,-0.199567,0.124883
2.14432,-0.200432,-0.100321
2.16407,-0.0959993,-0.0882534
2.15403,-0.20134,-0.0503414
2.1612,-0.103432,-0.037767
2.16149,-0.103446,0.012577
2.12921,-0.312136,-0.0125072
2.14535,-0.208085,0.0501553
2.16461,-0.103595,0.0630683
2.12496,-0.311513,0.0374878
2.16109,-0.103426,-0.13866
2.13833,-0.207404,0.125115
2.14758,-0.208302,-0.100507
2.15973,-0.103362,-0.0880906
2.15331,-0.208857,-0.0503414
2.16881,-0.111385,-0.0379066
2.13723,-0.214831,0
2.16511,-0.111195,0.0126002
2.12019,-0.318378,-0.0124607
2.14461,-0.215573,0.0501553
2.14393,-0.215505,-0.150674
2.15624,-0.11074,0.0628356
2.12386,-0.318929,0.0374878
2.16071,-0.110969,-0.13866
2.14156,-0.215266,0.125348
2.14287,-0.215398,-0.100321
2.14859,-0.215973,-0.0502484
2.16444,-0.118358,-0.0378368
2.16074,-0.118156,0.012577
2.13099,-0.327229,-0.0125305
2.13991,-0.22227,0.0500623
2.15587,-0.11789,0.0628356
2.12279,-0.32597,0.0374878
2.16033,-0.118134,-0.13866
2.14084,-0.222367,0.125348
2.15582,-0.223923,-0.0504345
2.16002,-0.125681,-0.037767
2.16031,-0.125698,0.012577
2.14707,-0.230593,0.0502484
2.15544,-0.125414,0.0628356
2.11769,-0.332757,0.037418
2.13608,-0.229412,0.125115
2.14135,-0.229978,-0.100321
2.15104,-0.23102,-0.0503414
2.15954,-0.133597,-0.037767
2.16383,-0.133862,0.0126002
2.11674,-0.340563,-0.0124607
2.13826,-0.237577,0.0500623
2.15896,-0.13356,0.0629519
2.13125,-0.236798,0.124883
2.15018,-0.238902,-0.0503414
2.15911,-0.14038,-0.037767
2.1634,-0.140659,0.0126002
2.11566,-0.347211,-0.0124607
2.14148,-0.244748,0.0501553
2.15853,-0.140342,0.0629519
2.15502,-0.140114,-0.138404
2.12653,-0.243039,0.12465
2.13577,-0.244095,-0.100135
2.15366,-0.140026,-0.0879277
2.14545,-0.245202,-0.0502484
2.16255,-0.148944,-0.0378368
2.16284,-0.148965,0.0126002
2.11431,-0.355332,-0.0124607
2.14052,-0.252968,0.0501553
2.15398,-0.148355,0.0628356
2.15845,-0.148662,-0.13866
2.12955,-0.251672,0.124883
2.14449,-0.253438,-0.0502484
2.15802,-0.156204,-0.037767
2.15832,-0.156225,0.012577
2.11306,-0.36271,-0.0124607
2.13962,-0.260439,0.0501553
2.14548,-0.155295,0.0626028
2.15393,-0.155907,-0.138404
2.14359,-0.260922,-0.0502484
2.15354,-0.162681,-0.0376972
2.15383,-0.162703,0.0125537
2.11585,-0.370036,-0.012484
2.13483,-0.266664,0.0500623
2.15295,-0.162637,0.0628356
2.15343,-0.162673,-0.138404
2.13309,-0.266447,-0.100135
2.14276,-0.267655,-0.0502484
2.14897,-0.169882,-0.0376274
2.15723,-0.170536,0.012577
2.11061,-0.376717,-0.0124607
2.13388,-0.274114,0.0500623
2.13718,-0.274537,-0.150674
2.15636,-0.170466,0.0629519
2.14751,-0.169767,-0.0877649
2.14182,-0.275133,-0.0502484
2.15627,-0.178793,-0.037767
2.15258,-0.178487,0.0125537
2.12885,-0.281781,0.0499692
2.1517,-0.178414,0.0628356
2.14685,-0.178012,-0.0877649
2.13678,-0.28283,-0.0501553
2.15165,-0.185975,-0.0376972
2.15593,-0.186344,0.012577
2.13182,-0.289749,0.0500623
2.14708,-0.18558,0.0627192
2.14757,-0.185622,-0.138148
2.13578,-0.290287,-0.0501553
2.15105,-0.192733,-0.0376972
2.15135,-0.192759,0.0125537
2.1309,-0.296444,0.0500623
2.14251,-0.191967,0.0626028
2.14698,-0.192368,-0.138148
2.13486,-0.296995,-0.0501553
2.14237,-0.199873,-0.0375576
2.14664,-0.200272,0.0125305
2.1298,-0.304253,0.0500623
2.14577,-0.20019,0.0627192
2.14626,-0.200236,-0.138148
2.12584,-0.303687,-0.0499692
2.14166,-0.20735,-0.0375576
2.14593,-0.207764,0.0125305
2.12872,-0.311685,0.0500623
2.14506,-0.207679,0.0627192
2.12476,-0.311106,-0.0499692
2.14494,-0.21485,-0.0376274
2.14523,-0.214879,0.0125305
2.12372,-0.31815,0.0499692
2.14436,-0.214791,0.0627192
2.14484,-0.21484,-0.138148
2.12372,-0.31815,-0.0499692
2.14418,-0.222335,-0.0376274
2.14844,-0.222778,0.0125537
2.1226,-0.325561,0.0499692
2.13564,-0.22145,0.0624865
2.1226,-0.325561,-0.0499692
2.14335,-0.230193,-0.0376274
2.13568,-0.22937,0.012484
2.13879,-0.229703,0.0626028
2.12534,-0.33396,-0.0500623
2.13864,-0.236486,-0.0375576
2.13893,-0.236518,0.0125072
2.13408,-0.235982,0.0624865
2.13855,-0.236476,-0.137892
2.13776,-0.244322,-0.0375576
2.13805,-0.244356,0.0125072
2.13718,-0.244256,0.0626028
2.13292,-0.251315,-0.0374878
2.13718,-0.251817,0.0125072
2.13631,-0.251715,0.0626028
2.13595,-0.259613,-0.0375576
2.13624,-0.259649,0.0125072
2.1314,-0.259061,0.0624865
2.11653,-0.362925,-0.0499692
2.13513,-0.266323,-0.0375576
2.13542,-0.266359,0.0125072
2.12661,-0.265261,0.0623701
2.11538,-0.369573,-0.0499692
2.13447,-0.273811,0.0125072
2.13361,-0.2737,0.0626028
2.1335,-0.28126,0.0125072
2.12471,-0.280101,0.0623701
2.1285,-0.28854,0.012484
2.12763,-0.288423,0.0624865
2.12719,-0.295928,-0.0374878
2.13144,-0.29652,0.0125072
2.12265,-0.295297,0.0623701
2.12619,-0.302981,-0.0374878
2.13044,-0.303586,0.0125072
2.12932,-0.311393,0.0125072
2.12036,-0.317268,0.0124607
2.12319,-0.325273,0.012484
2.12176,-0.332638,-0.0374878
2.126,-0.333302,0.0125072
2.12058,-0.340042,-0.0374878
2.12087,-0.340088,0.012484
2.11915,-0.339812,-0.0874392
