1.8005,0.630524,-0.178081
1.8128,0.634834,-0.111859
1.81501,0.628503,-0.111859
1.80485,0.61794,-0.178081
1.81719,0.622164,-0.111859
1.81077,0.612912,-0.178453
1.81935,0.615816,-0.111859
1.8129,0.606588,-0.178453
1.82528,0.610729,-0.112092
1.82257,0.602757,-0.179196
1.82845,0.597629,-0.179568
1.8257,0.596731,-0.111859
1.82673,0.590018,-0.179196
1.83537,0.592808,-0.112325
1.82499,0.582427,-0.178824
1.84123,0.587612,-0.112557
1.83071,0.577571,-0.179196
1.84317,0.581504,-0.112557
1.83641,0.572683,-0.179568
1.79311,0.656896,-0.155894
1.84509,0.575389,-0.112557
1.8385,0.565947,-0.179568
1.84719,0.568621,-0.112557
1.79776,0.644048,-0.155894
1.84534,0.56101,-0.112325
1.85795,0.557766,-0.0225837
1.84241,0.553099,-0.179568
1.79624,0.636437,-0.155569
1.85876,0.558009,-0.113022
1.85605,0.550141,-0.0225371
1.85196,0.548929,-0.180312
1.80222,0.631481,-0.155894
1.8607,0.551517,-0.113022
1.85377,0.542784,-0.180312
1.8043,0.625501,-0.155894
1.85485,0.543099,-0.112557
1.86753,0.539389,-0.0226303
1.8634,0.538196,-0.181055
1.8179,0.622759,-0.156871
1.86066,0.537405,-0.11279
1.81389,0.621386,-0.100485
1.86144,0.530596,-0.180683
1.86637,0.532002,-0.113022
1.81226,0.613769,-0.100276
1.86328,0.524095,-0.180683
1.82598,0.611318,-0.157196
1.81818,0.608707,-0.100485
1.87693,0.520874,-0.0226768
1.86894,0.518654,-0.181055
1.87308,0.519804,0.0226303
1.82053,0.602437,-0.156545
1.8165,0.601103,-0.100276
1.88251,0.515703,-0.0227234
1.87449,0.513505,-0.181427
1.87865,0.514646,0.0226768
1.82252,0.596396,-0.156545
1.87945,0.514865,-0.113487
1.82228,0.596318,-0.100485
1.88405,0.508708,-0.18217
1.87666,0.506714,0.0226303
1.82849,0.590938,-0.156871
1.88518,0.509014,-0.11372
1.82826,0.590863,-0.100694
1.87409,0.499708,-0.181055
1.87825,0.500816,0.0226303
1.83413,0.586405,-0.157196
1.88677,0.503089,-0.11372
1.8301,0.585117,-0.100694
1.83026,0.57743,-0.0558538
1.8837,0.494531,-0.181799
1.88402,0.494616,0.0226768
1.83637,0.579358,-0.157196
1.83234,0.578085,-0.100694
1.82845,0.569849,-0.0557375
1.89736,0.491043,-0.0228165
1.84868,0.576153,-0.246476
1.89698,0.490946,-0.182914
1.88961,0.489039,0.0227234
1.78731,0.654418,-0.133095
1.83458,0.571758,-0.156871
1.89427,0.490246,-0.113952
1.84197,0.574063,-0.101113
1.84571,0.568168,-0.0562029
1.84688,0.568529,-0.245971
1.89482,0.483338,-0.182542
1.89131,0.48244,0.0227234
1.78959,0.648175,-0.133095
1.8518,0.570043,-0.158173
1.89984,0.484618,-0.114185
1.84014,0.566455,-0.100904
1.83984,0.560038,-0.0559702
1.85246,0.563879,-0.246476
1.89633,0.477382,-0.182542
1.79537,0.643896,-0.133374
1.85358,0.564222,-0.158173
1.90523,0.479621,-0.114418
1.84574,0.561834,-0.101113
1.84197,0.55297,-0.0559702
1.85841,0.557903,-0.246981
1.90588,0.472012,-0.183286
1.90628,0.472109,0.0228631
1.79783,0.636998,-0.133374
1.85574,0.557101,-0.158173
1.90318,0.471343,-0.114185
1.84788,0.554743,-0.101113
1.84389,0.546536,-0.0559702
1.9118,0.4664,-0.0229097
1.86415,0.55254,-0.247486
1.89978,0.463468,-0.182542
1.90014,0.463556,0.02277
1.79628,0.629399,-0.133095
1.85767,0.55062,-0.158173
1.90869,0.465642,-0.114418
1.81002,0.634216,-0.0893398
1.85364,0.549424,-0.101322
1.85327,0.542989,-0.0562029
1.91285,0.460293,-0.183657
1.90936,0.459456,0.0228631
1.80201,0.625061,-0.133374
1.85939,0.544781,-0.158173
1.91403,0.460578,-0.11465
1.85152,0.542475,-0.101113
1.85909,0.537304,-0.0563193
1.86787,0.539839,-0.247486
1.85985,0.537522,-0.0112519
1.91839,0.454197,-0.184029
1.91104,0.452455,0.0228631
1.80429,0.618452,-0.133374
1.8652,0.53907,-0.158498
1.80296,0.617995,-0.0887814
1.86117,0.537904,-0.101532
1.85711,0.529714,-0.0562029
1.86974,0.533315,-0.247486
1.86171,0.531026,-0.0112519
1.91997,0.447498,-0.184029
1.9165,0.446689,0.0229097
1.80644,0.61215,-0.133374
1.86707,0.532555,-0.158498
1.92116,0.447776,-0.114883
1.80511,0.611697,-0.0887814
1.86304,0.531403,-0.101532
1.8628,0.524311,-0.0563193
1.87541,0.52786,-0.247991
1.87126,0.526692,-0.0112984
1.8101,0.606353,-0.205626
1.92152,0.440792,-0.184029
1.92195,0.44089,0.0229562
1.81235,0.607107,-0.133653
1.87276,0.527114,-0.158823
1.86715,0.525537,0.0338577
1.92661,0.44196,-0.115115
1.86488,0.524896,-0.101532
1.86838,0.519201,-0.0564356
1.87715,0.521638,-0.247991
1.87299,0.520483,-0.0112984
1.93074,0.436173,-0.184773
1.9273,0.435395,0.0230028
1.81814,0.602348,-0.133932
1.8745,0.520901,-0.158823
1.81302,0.600652,-0.0889675
1.86661,0.518709,-0.101532
1.87027,0.51235,-0.0564356
1.93279,0.429196,-0.0230493
1.87905,0.514754,-0.247991
1.8826,0.515728,-0.0113449
1.81807,0.594938,-0.206055
1.92844,0.42823,-0.184401
1.92888,0.428329,0.0230028
1.82413,0.596922,-0.134211
1.87255,0.512974,-0.158498
1.88235,0.515659,0.0340671
1.93355,0.429365,-0.115348
1.82281,0.596489,-0.0893398
1.87235,0.51292,-0.101741
1.87205,0.505819,-0.0564356
1.93818,0.423301,-0.0230959
1.877,0.507158,-0.247486
1.87667,0.507068,-0.0112984
1.93036,0.421594,0.0230028
1.8224,0.589324,-0.133932
1.88587,0.509555,-0.159474
1.87642,0.507,0.0339275
1.93893,0.423466,-0.11558
1.82488,0.590124,-0.0893398
1.87799,0.507424,-0.10195
1.8738,0.499281,-0.0564356
1.88643,0.502646,-0.248496
1.88229,0.501544,-0.0113216
1.94306,0.417266,-0.185516
1.93182,0.414853,0.0230028
1.82825,0.584174,-0.134211
1.87994,0.500916,-0.158823
1.88204,0.501476,0.0339973
1.9365,0.415856,-0.115348
1.88361,0.501893,-0.10216
1.87536,0.493392,-0.0564356
1.888,0.496718,-0.248496
1.82779,0.577703,-0.206483
1.94047,0.410336,-0.185145
1.94094,0.410437,0.0230959
1.83388,0.57963,-0.13449
1.88921,0.497037,-0.159474
1.88747,0.496579,0.0340671
1.94561,0.411423,-0.115813
1.82875,0.578008,-0.0893398
1.88517,0.495974,-0.10216
1.84168,0.582093,-0.0449444
1.88111,0.48719,-0.056552
1.88962,0.489394,-0.0113449
1.83379,0.571865,-0.206912
1.94983,0.4045,-0.185888
1.93859,0.402169,0.0230493
1.83229,0.571396,-0.134211
1.89111,0.489778,-0.159474
1.89324,0.49033,0.0341369
1.83477,0.572171,-0.0895259
1.88706,0.488731,-0.10216
1.88668,0.481609,-0.0566684
1.95174,0.397795,-0.023189
1.89928,0.484826,-0.249506
1.84338,0.567801,-0.207768
1.95123,0.397691,-0.185888
1.9439,0.396198,0.0230959
1.8419,0.567345,-0.134769
1.88894,0.482188,-0.159149
1.89881,0.484707,0.0342067
1.88978,0.482402,0.0794606
1.83294,0.564586,-0.0893398
1.89263,0.483129,-0.102369
1.84972,0.569754,-0.0450374
1.89602,0.477302,-0.0569011
1.95305,0.391321,-0.023189
1.90473,0.479495,-0.250011
1.90067,0.478473,-0.0113914
1.84144,0.560527,-0.20734
1.94913,0.390535,0.0231425
1.84377,0.561234,-0.134769
1.90213,0.478841,-0.160125
1.89653,0.477432,0.0341369
1.78855,0.641452,-0.121775
1.95379,0.39147,-0.116045
1.84627,0.561995,-0.0898981
1.89422,0.47685,-0.102369
1.8516,0.563617,-0.0450374
1.89379,0.469719,-0.0567847
1.95833,0.385274,-0.0232356
1.90639,0.472843,-0.250011
1.90233,0.471836,-0.0113914
1.9578,0.38517,-0.18626
1.95833,0.385274,0.0232356
1.84954,0.555944,-0.135049
1.90379,0.472199,-0.160125
1.89819,0.470809,0.0341369
1.79831,0.637874,-0.122287
1.95515,0.384648,-0.116045
1.84439,0.554398,-0.089712
1.89975,0.471197,-0.102578
1.85355,0.557151,-0.0450374
1.91655,0.468268,-0.394588
1.91188,0.467127,-0.250516
1.84531,0.547658,-0.20734
1.95966,0.378435,0.0232356
1.84764,0.548349,-0.134769
1.9093,0.466496,-0.160451
1.9037,0.465129,0.0342067
1.80052,0.631593,-0.122287
1.96432,0.379335,-0.116511
1.89465,0.462917,0.0794606
1.85015,0.549092,-0.0898981
1.8975,0.463614,-0.102369
1.85932,0.551815,-0.0451305
1.91728,0.461713,-0.251021
1.90938,0.459812,-0.0114146
1.85475,0.543773,-0.208197
1.9682,0.373318,-0.187003
1.95697,0.371189,0.023189
1.85328,0.543341,-0.135049
1.91084,0.460162,-0.160451
1.90523,0.458813,0.0342067
1.79884,0.624309,-0.122031
1.90783,0.459438,0.0799491
1.85579,0.544078,-0.0900843
1.9068,0.459189,-0.102788
1.80858,0.627692,-0.0779952
1.86498,0.54677,-0.0452235
1.8521,0.535633,0
1.96619,0.365476,-0.0232822
1.91896,0.454683,-0.251021
1.91495,0.453733,-0.0114378
1.85673,0.536972,-0.208197
1.96619,0.365476,0.0232822
1.85909,0.537654,-0.135328
1.92027,0.454994,-0.161102
1.9108,0.45275,0.0342765
1.80489,0.619007,-0.122287
1.86161,0.538383,-0.0902704
1.90847,0.452198,-0.102788
1.86313,0.538821,-0.0451305
1.91185,0.445955,-0.0571338
1.92517,0.449063,-0.395372
1.85396,0.529164,0
1.87373,0.534807,-0.303151
1.9244,0.448883,-0.251526
1.92041,0.447954,-0.0114611
1.85477,0.529395,-0.207768
1.96745,0.35861,0.0232822
1.86479,0.532255,-0.135607
1.91796,0.447382,-0.160776
1.91626,0.446985,0.0343463
1.80704,0.612703,-0.122287
1.90718,0.444867,0.0797863
1.86732,0.532977,-0.0904565
1.91781,0.447348,-0.103207
1.86884,0.533411,-0.0452235
1.91331,0.439614,-0.0571338
1.92665,0.442677,-0.395372
1.85571,0.523013,0
1.92579,0.442479,-0.0114843
1.86034,0.524321,-0.208197
1.97256,0.352788,0.0233287
1.86655,0.526069,-0.135607
1.91555,0.440127,-0.160451
1.92163,0.441524,0.0344161
1.81284,0.607977,-0.122543
1.97722,0.353621,-0.116976
1.90864,0.43854,0.0797863
1.85754,0.523531,-0.0898981
1.91929,0.440986,-0.103207
1.87445,0.528296,-0.0453166
1.91094,0.432051,-0.0570174
1.93201,0.436815,-0.396157
1.93128,0.43665,-0.252031
1.98499,0.347864,-0.188119
1.96984,0.345211,0.0232822
1.86453,0.518482,-0.135328
1.91926,0.433932,0.0343463
1.81496,0.601645,-0.122543
1.91016,0.431875,0.0797863
1.86321,0.518114,-0.0900843
1.91692,0.433403,-0.102997
1.87628,0.52175,-0.0453166
1.86317,0.511103,0
1.98681,0.341039,-0.0234684
1.88295,0.51653,-0.303765
1.93666,0.430767,-0.252536
1.93273,0.429893,-0.0115076
1.87163,0.513424,-0.209053
1.98619,0.340933,-0.188119
1.87423,0.514139,0.0452235
1.97498,0.339009,0.0233287
1.87017,0.513025,-0.135607
1.93414,0.430206,-0.161753
1.92857,0.428966,0.034486
1.82084,0.596549,-0.122798
1.98752,0.34116,-0.117441
1.91556,0.426072,0.0799491
1.87656,0.514778,-0.0906426
1.92232,0.427576,-0.103207
1.88195,0.516255,-0.0454097
1.91774,0.419889,-0.0571338
1.98793,0.334449,-0.0234684
1.88465,0.510283,-0.303765
1.87332,0.507215,-0.209053
1.98398,0.333785,0.0234219
1.87957,0.508907,-0.136165
1.93556,0.42379,-0.161753
1.93389,0.423424,0.0345558
1.82281,0.590508,-0.122798
1.92087,0.420573,0.0801119
1.88597,0.510641,-0.0910149
1.92373,0.421199,-0.103207
1.92708,0.414539,-0.0573665
1.94415,0.418209,-0.397726
1.87056,0.499116,0
1.98914,0.327161,-0.0234684
1.88651,0.503373,-0.303765
1.93962,0.417237,-0.252536
1.99309,0.32781,0.023515
1.88142,0.502015,-0.136165
1.941,0.417532,-0.162078
1.93152,0.415492,0.034486
1.82496,0.583823,-0.122798
1.93802,0.416892,0.0807633
1.88783,0.503726,-0.0910149
1.93697,0.416666,-0.103835
1.92541,0.414178,0.160776
1.82719,0.584536,-0.078158
1.88937,0.504135,-0.0455027
1.92852,0.407809,-0.0573665
1.88389,0.495636,0
1.8959,0.498795,-0.304995
1.94495,0.411284,-0.253042
1.94496,0.411285,-0.0115541
1.8846,0.495821,-0.20991
1.88725,0.496519,0.0454097
1.99817,0.321485,0.0235616
1.88702,0.496459,-0.136444
1.94244,0.410753,-0.162078
1.94078,0.410402,0.0346256
1.82698,0.577449,-0.122798
1.93947,0.410124,0.0807633
1.88958,0.497132,-0.0910149
1.94232,0.410728,-0.104044
1.83303,0.579358,-0.0783208
1.89112,0.497537,-0.0455027
1.87787,0.487049,0
1.88631,0.48924,-0.20991
2.00256,0.315026,-0.189234
1.88897,0.489929,0.0454097
1.98742,0.312644,0.0234219
1.88874,0.48987,-0.136444
1.9422,0.403625,0.0346256
1.83661,0.573448,-0.12331
1.93306,0.401726,0.0804376
1.88744,0.489531,-0.0908288
1.93983,0.403134,-0.103835
1.83122,0.571766,-0.078158
1.89671,0.491937,-0.0455958
1.84591,0.569288,-0.033718
1.95226,0.398612,-0.39851
1.94778,0.397697,-0.0115541
1.88416,0.481667,-0.209482
2.00758,0.308638,-0.189606
1.89454,0.484322,0.0455027
1.99246,0.306312,0.0234684
1.89044,0.483273,-0.136444
1.94917,0.39798,-0.162403
1.94752,0.397643,0.0346954
1.83479,0.565856,-0.123054
2.00501,0.308242,-0.118138
1.93837,0.395775,0.0806004
1.89688,0.484918,-0.091201
1.94123,0.396359,-0.103835
1.93354,0.39479,0.161102
1.83321,0.565369,-0.078158
1.89454,0.484322,-0.0455027
1.85172,0.564007,-0.0337879
1.94444,0.389951,-0.0577156
1.95749,0.392566,-0.399295
1.8851,0.474904,0
2.00538,0.301138,-0.0236081
1.90485,0.47988,-0.30561
1.95693,0.392455,-0.254052
1.89354,0.477031,-0.210339
1.89622,0.477706,0.0455027
2.00142,0.300544,0.0235616
1.89599,0.477647,-0.136723
1.95445,0.391958,-0.162729
1.95281,0.391629,0.0347652
1.84057,0.560612,-0.12331
1.94366,0.389792,0.0807633
1.89468,0.477318,-0.0910149
1.94652,0.390367,-0.104044
1.93882,0.388822,0.161427
1.84282,0.561296,-0.0784836
1.84975,0.556711,-0.033718
1.95357,0.385047,-0.0579483
1.96263,0.386832,-0.400079
1.89443,0.470579,0
2.01428,0.295648,-0.0237012
1.90643,0.473561,-0.30561
1.95829,0.385977,-0.0116006
1.89511,0.470749,-0.210339
1.90168,0.47238,0.0455958
2.00637,0.294486,0.0236081
1.9053,0.473281,-0.137281
1.95965,0.386246,-0.163054
1.94625,0.383605,0.0346256
1.84624,0.555656,-0.123566
2.01496,0.295748,-0.118604
1.94886,0.384118,0.0809261
1.90789,0.473923,-0.0915733
1.95564,0.385455,-0.104463
1.9401,0.382391,0.161427
1.84467,0.555183,-0.0784836
1.90556,0.473344,-0.0456888
1.85551,0.55139,-0.0337879
1.94705,0.376706,-0.0577156
1.96781,0.380723,-0.400864
1.89606,0.463963,0
1.85576,0.551464,0.0112519
1.9557,0.378379,-0.0115773
1.89674,0.464131,-0.210339
2.01854,0.289079,-0.190349
1.9072,0.466689,0.0456888
2.00738,0.287481,0.0236081
1.90694,0.466627,-0.137281
1.9649,0.38016,-0.16338
1.95936,0.379087,0.034835
1.84817,0.549208,-0.123566
1.95411,0.378072,0.0810889
1.90953,0.46726,-0.0915733
1.9609,0.379384,-0.104672
1.94925,0.377131,0.162078
1.85043,0.549878,-0.0786465
1.9072,0.466689,-0.0456888
1.85743,0.544909,-0.0337879
1.94836,0.369907,-0.0577156
1.96913,0.373851,-0.400864
1.90545,0.459216,0
1.90609,0.45937,-0.211195
1.90493,0.459091,0.0455958
2.00837,0.280471,0.0236081
1.91244,0.460902,-0.13756
1.96622,0.373298,-0.16338
1.96067,0.372245,0.034835
1.8539,0.543876,-0.123822
1.90999,0.46031,0.114418
1.95542,0.371248,0.0810889
1.90727,0.459655,-0.0913871
1.95436,0.371047,-0.104253
1.95055,0.370324,0.162078
1.85617,0.54454,-0.0788093
1.90882,0.460028,-0.0456888
1.85547,0.53731,-0.033718
1.96143,0.3653,-0.0580647
1.97428,0.367694,-0.401648
1.89925,0.450715,0
1.97386,0.367615,-0.255567
1.91542,0.454551,-0.212052
2.02446,0.275517,-0.190721
1.91041,0.453363,0.0456888
2.00934,0.273459,0.0236081
1.91016,0.453302,-0.137281
1.97143,0.367163,-0.163705
1.96589,0.366131,0.0349048
1.85196,0.536292,-0.123566
1.95277,0.363688,0.0809261
1.91275,0.453917,-0.0915733
1.97135,0.367148,-0.105091
1.95183,0.363513,0.162078
1.85422,0.536946,-0.0786465
1.9143,0.454286,-0.0457819
1.86118,0.531928,-0.0337879
1.95876,0.357733,-0.0579483
1.97941,0.361504,-0.402433
1.9086,0.445902,0
2.03011,0.269071,-0.0238409
1.85759,0.530901,0.0112286
1.97529,0.360752,-0.0116703
1.91699,0.447861,-0.212052
1.91588,0.447601,0.0457819
2.01821,0.267494,0.0237012
1.91561,0.447539,-0.13756
1.9727,0.360279,-0.163705
1.96716,0.359267,0.0349048
1.85766,0.53092,-0.123822
1.91315,0.446965,0.114418
1.95796,0.357587,0.0810889
1.9221,0.449055,-0.0919455
1.97262,0.360264,-0.105091
1.95309,0.356697,0.162078
1.85608,0.53047,-0.0786465
1.91977,0.448511,-0.0458749
1.86303,0.52543,-0.0337879
1.96787,0.352304,-0.0581811
1.91405,0.440135,0
1.92596,0.442875,-0.307455
1.86713,0.526587,0.0112751
1.91854,0.441168,-0.212052
1.92132,0.441808,0.0458749
2.01913,0.260449,0.0237012
1.92494,0.44264,-0.138118
1.9684,0.352399,0.0349048
1.8595,0.524434,-0.123822
1.91081,0.43939,0.114185
1.96707,0.352161,0.0814146
1.96993,0.352674,-0.104881
1.96217,0.351284,0.162729
1.86177,0.525074,-0.0788093
1.92132,0.441808,-0.0458749
1.86485,0.518923,-0.0337879
1.96515,0.344741,-0.0580647
1.91557,0.43345,0
1.86896,0.520065,0.0112751
1.92783,0.436224,-0.212909
2.03908,0.255789,-0.191837
1.92675,0.435981,0.045968
2.024,0.253897,0.0237478
1.93037,0.436798,-0.138397
1.97909,0.347188,-0.164031
1.97356,0.346216,0.0349746
1.86132,0.517939,-0.123822
1.91233,0.432717,0.114185
1.97222,0.345982,0.0815774
1.92909,0.436508,-0.0921316
1.98296,0.347865,-0.105509
1.86359,0.518572,-0.0788093
1.92675,0.435981,-0.045968
1.87042,0.513795,-0.0338577
1.97416,0.339577,-0.0582974
1.99076,0.342433,-0.404002
1.917,0.427095,0
1.87453,0.514924,0.0112984
1.98679,0.34175,-0.0117168
1.92926,0.429828,-0.212909
2.03992,0.249025,-0.191837
1.92429,0.428719,0.0458749
2.0288,0.247668,0.0237944
1.9318,0.430393,-0.138397
1.98258,0.341025,0.0351142
1.87457,0.514936,-0.124589
1.91376,0.426373,0.114185
1.96942,0.338762,0.0814146
1.92662,0.429239,-0.0919455
1.9841,0.341287,-0.105509
1.96845,0.338595,0.163054
1.86915,0.513447,-0.0789721
1.92819,0.429588,-0.045968
1.87615,0.507982,-0.0339275
1.97539,0.33234,-0.0582974
1.92246,0.420922,0
1.93822,0.424372,-0.308685
1.88027,0.509096,0.0113216
1.93083,0.422754,-0.212909
1.93366,0.423374,0.046061
2.02572,0.239761,0.0237478
1.92557,0.421604,-0.137839
1.98933,0.334685,-0.164682
1.98776,0.334421,0.0351841
1.8803,0.509105,-0.124845
1.91921,0.42021,0.114418
1.97459,0.332205,0.0815774
1.92818,0.422175,-0.0919455
1.98534,0.334013,-0.105509
1.97361,0.33204,0.16338
1.87488,0.507638,-0.079135
1.92975,0.422519,-0.045968
1.87791,0.501429,-0.0339275
1.98048,0.326092,-0.0584138
1.93174,0.415892,0
1.93969,0.417604,-0.308685
1.88203,0.502529,0.0113216
1.99313,0.328174,-0.0117401
1.9284,0.415174,-0.212481
2.04561,0.234876,-0.192208
1.93512,0.416621,0.046061
2.03847,0.234056,0.0238875
1.93483,0.416559,-0.138397
1.99442,0.328386,-0.165007
1.98891,0.327479,0.0351841
1.87821,0.501508,-0.124589
1.92847,0.415189,0.114883
1.97968,0.325959,0.0817402
1.94136,0.417965,-0.0925039
1.98649,0.32708,-0.105509
1.97869,0.325796,0.163705
1.87664,0.50109,-0.079135
1.93512,0.416621,-0.046061
1.87956,0.495199,-0.0339275
1.9855,0.320159,-0.0585302
1.93702,0.410313,0
1.94493,0.411988,-0.3093
1.89142,0.498323,0.0113681
1.93755,0.410426,-0.213337
2.04321,0.227739,0.0239341
1.94011,0.410968,-0.138676
1.9955,0.321771,-0.165007
1.88292,0.496084,0.0566684
1.98604,0.320246,0.0351142
1.876,0.494261,-0.124333
1.92593,0.407964,0.11465
1.98864,0.320665,0.0820659
1.94274,0.411525,-0.0925039
1.99545,0.321763,-0.105928
1.97976,0.319233,0.163705
1.88216,0.495882,-0.0792978
1.94041,0.411031,-0.0461541
1.87733,0.487957,-0.0338577
1.9905,0.314196,-0.0586465
1.94229,0.404703,0
2.00284,0.316144,-0.258092
1.89307,0.492048,0.0113681
1.99921,0.315571,-0.0117633
1.94279,0.404809,-0.213766
2.05504,0.22216,-0.192952
1.94176,0.404593,0.0461541
2.04793,0.221391,0.0239806
1.94927,0.406159,-0.139234
1.88843,0.490842,0.0567847
1.99104,0.314281,0.0351841
1.88536,0.490045,-0.124845
1.93118,0.402389,0.114883
1.98969,0.314068,0.0820659
1.948,0.405895,-0.09269
1.98868,0.313908,0.164356
1.88766,0.490643,-0.0794606
1.94176,0.404593,-0.0461541
1.89072,0.484049,-0.0340671
1.99164,0.306899,-0.0586465
2.00806,0.309429,-0.406355
1.94376,0.397582,0
2.00791,0.309406,-0.258597
1.89098,0.484115,0.0113449
1.94816,0.398483,-0.214194
2.05584,0.214627,-0.192952
1.94715,0.398276,0.0462471
2.04873,0.213884,0.0239806
1.95075,0.399012,-0.139234
1.89409,0.48491,0.0569011
2.00404,0.308809,0.0353935
1.88714,0.483132,-0.124845
1.93264,0.395309,0.114883
1.99083,0.306774,0.0820659
1.95339,0.399553,-0.0928761
2.00554,0.309041,-0.106347
1.99376,0.307225,0.164682
1.89332,0.484713,-0.0796234
1.94715,0.398276,-0.0462471
1.8962,0.478755,-0.0341369
2.00055,0.301484,-0.0588792
2.0052,0.302184,-0.405571
1.94114,0.390345,0
2.00532,0.302202,-0.0117866
1.94947,0.39202,-0.214194
2.06447,0.208608,-0.193695
2.0534,0.207491,0.0240272
1.95597,0.393327,-0.139513
2.01053,0.302988,-0.165984
1.88793,0.476668,0.0566684
2.00901,0.302757,0.0354633
1.89647,0.478825,-0.125357
1.94177,0.390472,0.115348
1.99184,0.30017,0.0820659
2.00261,0.301793,-0.106137
1.99082,0.300017,0.164356
1.89491,0.478431,-0.0796234
1.94846,0.391816,-0.0462471
1.89786,0.472135,-0.0341369
1.99764,0.293918,-0.0587629
2.01788,0.296897,-0.407924
1.94642,0.384343,0
1.9543,0.3859,-0.309915
1.902,0.473164,0.0113914
1.95083,0.385214,-0.214194
2.06518,0.201402,-0.193695
1.95766,0.386563,0.0464332
2.0581,0.200711,0.0240738
1.9495,0.384953,-0.138955
1.88958,0.470076,0.0566684
2.01005,0.295744,0.0354633
1.89039,0.470276,-0.124845
1.94704,0.384466,0.11558
2.00078,0.29438,0.0823915
2.0076,0.295384,-0.106347
1.89269,0.47085,-0.0794606
1.94981,0.385014,-0.0462471
1.89561,0.464554,-0.0340671
2.01053,0.288647,-0.059112
1.95167,0.378307,0
1.9634,0.380579,-0.311144
1.90752,0.467474,0.0114146
1.95607,0.379158,-0.214623
2.0738,0.194937,-0.194439
1.96292,0.380488,0.0465263
2.06277,0.1939,0.0241203
1.95867,0.379663,-0.139513
2.01655,0.289512,-0.166309
1.89898,0.46538,0.0569011
2.01503,0.289294,0.0355331
1.89977,0.465574,-0.125357
1.94837,0.377667,0.11558
2.0018,0.287394,0.0823915
1.99682,0.286679,0.164682
1.89821,0.465191,-0.0796234
1.95115,0.378205,-0.0462471
1.8973,0.457604,-0.0340671
2.01553,0.28183,-0.0592283
1.96484,0.373392,0
2.02382,0.28299,-0.260113
1.90533,0.459542,0.0113914
1.96526,0.373472,-0.215479
2.07054,0.186977,-0.194067
2.07143,0.187058,0.0242135
1.90067,0.458417,0.0569011
2.02004,0.282461,0.0356029
1.90534,0.459544,-0.125613
1.95367,0.371269,0.115813
2.00284,0.280056,0.0823915
1.96271,0.372987,-0.0930622
2.01758,0.282117,-0.106765
2.0018,0.279911,0.165007
1.90379,0.459168,-0.0797863
1.95252,0.371051,-0.0462471
1.90651,0.453491,-0.0342067
2.01244,0.274954,-0.059112
1.96207,0.366481,0
1.91455,0.455403,0.0114378
2.02515,0.27669,-0.0118796
1.97033,0.368025,-0.215908
2.08302,0.181507,-0.195183
1.9694,0.367851,0.0466193
2.07201,0.180548,0.0242135
1.91377,0.455218,0.0572502
2.02488,0.276653,0.0356727
1.90678,0.453555,-0.125613
1.95482,0.365128,0.115813
2.00767,0.274302,0.0825544
2.02637,0.276857,-0.107184
2.01057,0.274698,0.165658
1.913,0.455034,-0.0801119
1.96154,0.366382,-0.0464332
1.90434,0.445258,-0.0341369
2.02141,0.268279,-0.0593447
2.02965,0.269373,-0.409493
1.95952,0.358227,0
2.08464,0.173588,-0.0243531
1.96734,0.359655,-0.311144
1.92018,0.448961,0.0114611
1.97564,0.361173,-0.216336
2.07973,0.173179,-0.194811
1.9708,0.360288,0.0466193
2.08066,0.173256,0.0243066
2.03137,0.2696,-0.167285
1.91551,0.447868,0.0572502
1.91239,0.44714,-0.125868
1.95621,0.357621,0.115813
2.01267,0.267118,0.0827172
1.97312,0.360713,-0.0934345
2.02742,0.269075,-0.107184
2.00766,0.266453,0.165333
1.91473,0.447686,-0.0801119
1.96293,0.358849,-0.0464332
1.91758,0.441298,-0.0343463
2.02234,0.26122,-0.0593447
2.03836,0.26329,-0.411062
1.97258,0.353501,0
1.98025,0.354877,-0.312989
1.91394,0.440461,0.0114146
1.9808,0.354976,-0.216764
2.08429,0.166234,-0.195183
2.08125,0.165991,0.0243066
1.97955,0.354752,-0.140629
1.91706,0.441178,0.0572502
2.02685,0.261803,0.0356727
1.91783,0.441357,-0.126124
1.96531,0.352199,0.116278
2.01755,0.260602,0.08288
1.9783,0.354528,-0.0936206
2.0323,0.262508,-0.107393
1.91238,0.440103,-0.0799491
1.97598,0.354111,-0.0467124
1.91521,0.433718,-0.0342765
2.03117,0.255156,-0.0595774
1.9738,0.346613,0
2.09378,0.159637,-0.0244463
1.98537,0.348645,-0.313604
1.91546,0.433777,0.0114146
2.02803,0.254761,-0.0118796
1.97811,0.347371,-0.216336
2.08883,0.15926,-0.195554
2.08182,0.158725,0.0243066
1.91859,0.434483,0.0572502
2.03172,0.255225,0.0357425
1.91547,0.433777,-0.125868
1.96653,0.345336,0.116278
2.02241,0.254056,0.0830429
2.03717,0.25591,-0.107603
2.01738,0.253424,0.165984
1.91781,0.434307,-0.0801119
1.97326,0.346519,-0.0466193
1.91671,0.42703,-0.0342765
2.02808,0.24758,-0.0594611
1.98288,0.341077,0
1.98658,0.341713,-0.313604
1.92868,0.429698,0.0114843
2.03684,0.24865,-0.011926
1.97539,0.33979,-0.215908
2.08937,0.151968,-0.195554
1.9784,0.340307,0.0467124
2.09433,0.152328,0.0244463
2.042,0.249279,-0.167936
1.92399,0.428653,0.0573665
2.03657,0.248616,0.0358123
1.92087,0.427957,-0.126124
1.96772,0.33847,0.116278
2.02329,0.246995,0.0830429
2.02221,0.246863,0.166309
1.92711,0.429349,-0.0804376
1.9784,0.340307,-0.0467124
1.92585,0.422721,-0.0344161
2.02885,0.241207,-0.0594611
1.98394,0.334846,0
1.98764,0.33547,-0.313604
1.93002,0.423636,0.0114843
1.9843,0.334906,-0.216764
2.09381,0.145679,-0.195926
1.98735,0.335421,0.0468985
2.09878,0.146025,0.0244928
1.99091,0.336022,-0.141187
1.92533,0.422606,0.0573665
1.9261,0.422776,-0.12638
1.97271,0.33295,0.116511
2.02802,0.241109,0.0832057
1.98967,0.335813,-0.0939929
2.04279,0.242864,-0.107812
2.02694,0.240979,0.166634
1.93236,0.424149,-0.0806004
1.97946,0.33409,-0.0467124
1.93137,0.416167,-0.034486
2.03373,0.233873,-0.0595774
2.04963,0.235702,-0.412631
1.98521,0.327227,0
1.99671,0.329123,-0.314834
1.93945,0.417908,0.0115308
2.10231,0.138162,-0.19667
1.99257,0.328439,0.0469915
2.09933,0.137966,0.0244928
2.05161,0.235929,-0.168587
1.93085,0.416054,0.0574829
1.93551,0.41706,-0.126892
1.98579,0.327323,0.117208
2.0329,0.233778,0.0833685
1.99489,0.328822,-0.094179
1.97433,0.325434,0.245689
1.93006,0.415885,-0.0804376
1.98862,0.327789,-0.0468985
1.93267,0.410096,-0.034486
2.0424,0.22837,-0.0598101
1.98623,0.320987,0
2.00164,0.323477,-0.315449
1.93684,0.410982,0.0115076
1.99836,0.322948,-0.21805
2.10273,0.131555,-0.19667
1.99359,0.322176,0.0469915
1.99715,0.322752,-0.141466
1.93215,0.409985,0.0574829
2.04693,0.228876,0.035952
1.93291,0.410147,-0.126636
1.99075,0.321718,0.117441
2.03363,0.227389,0.0833685
1.97926,0.319861,0.246176
2.03253,0.227266,0.16696
1.93136,0.409818,-0.0804376
1.98964,0.321538,-0.0468985
1.93409,0.403348,-0.034486
2.05114,0.222101,-0.0600429
1.99919,0.315926,0
1.99885,0.315873,-0.314834
2.05925,0.22298,-0.263648
1.93827,0.40422,0.0115076
1.99555,0.315351,-0.217621
2.10715,0.124451,-0.197041
2.11218,0.124747,0.0246325
2.0022,0.316403,-0.141745
1.94139,0.404872,0.0577156
2.05169,0.222162,0.0360218
1.93824,0.404214,-0.126892
1.98792,0.314145,0.117208
2.04633,0.221581,0.083857
1.99213,0.314811,0.247639
1.9406,0.404707,-0.0807633
1.9947,0.315217,-0.0469915
1.93947,0.397058,-0.0345558
2.05194,0.21458,-0.0600429
2.00429,0.309205,0
2.0039,0.309146,-0.315449
1.95149,0.399518,0.0115773
2.06073,0.2155,-0.0120423
1.99669,0.308033,-0.217621
2.10759,0.116725,-0.197041
1.9998,0.308512,0.0470846
2.10463,0.116561,0.0245394
2.00729,0.309669,-0.142024
1.94286,0.397752,0.0577156
2.06045,0.215471,0.0361614
1.94753,0.398707,-0.127403
2.11716,0.117255,-0.123487
1.99301,0.307465,0.117441
2.0511,0.214493,0.0840198
2.06191,0.215623,-0.108649
1.98935,0.306901,0.247151
2.03807,0.21313,0.167285
1.94599,0.398392,-0.0809261
1.99584,0.307902,-0.0469915
1.94085,0.390287,-0.0345558
2.05665,0.20782,-0.0601592
2.00931,0.302805,0
2.00888,0.302739,-0.316064
2.06869,0.209036,-0.264658
1.94895,0.391917,0.0115541
2.05749,0.207904,-0.012019
2.00169,0.301656,-0.21805
2.10799,0.109369,-0.197041
2.00481,0.302127,0.0471777
2.11701,0.109837,0.0246791
1.94816,0.391757,0.057832
1.94891,0.391908,-0.127403
2.12554,0.110279,-0.123952
1.99802,0.301102,0.117673
2.05184,0.207334,0.0840198
2.00714,0.302477,-0.0945512
2.06265,0.208426,-0.108649
1.99826,0.301139,0.248126
2.0507,0.207219,0.168262
1.95129,0.392386,-0.0810889
2.00481,0.302127,-0.0471777
1.94605,0.384623,-0.0346256
2.06529,0.201776,-0.060392
2.07288,0.202518,-0.416553
2.00239,0.294973,0
2.01378,0.296651,-0.316679
2.00661,0.295595,-0.218478
2.12027,0.102957,-0.198157
2.12535,0.103204,0.0247722
2.07122,0.202355,-0.169889
1.94553,0.384519,0.0577156
1.9502,0.385442,-0.127403
2.12988,0.103423,-0.124185
2.00295,0.295056,0.117906
2.05649,0.200917,0.0841827
2.06333,0.201584,-0.108649
1.99925,0.29451,0.248126
2.05534,0.200804,0.168587
1.95258,0.385913,-0.0810889
2.00976,0.296059,-0.0472707
1.95131,0.378589,-0.0346954
2.06598,0.194565,-0.060392
2.07748,0.195648,-0.417338
2.01133,0.28912,0
2.12969,0.0959636,-0.0248188
2.01089,0.289057,-0.316064
1.95943,0.380164,0.0116006
2.0155,0.28972,-0.219335
2.12062,0.0955547,-0.198157
2.1257,0.0957836,0.0247722
2.01828,0.290119,-0.142582
2.07588,0.195497,-0.170214
1.95078,0.378487,0.057832
1.95153,0.378632,-0.127403
2.13421,0.0961673,-0.124418
2.00397,0.288062,0.117906
2.06116,0.194111,0.0843455
2.07198,0.195129,-0.109068
2.00419,0.288094,0.248613
1.95784,0.379855,-0.0812517
2.01078,0.289041,-0.0472707
1.96048,0.373273,-0.034835
2.07063,0.187714,-0.0605083
2.08206,0.188751,-0.418122
2.01232,0.282098,0
2.0158,0.282586,-0.316679
1.96467,0.374072,0.0116238
2.01257,0.282132,-0.218906
2.1289,0.088484,-0.1989
2.13002,0.0885305,0.0248188
1.95995,0.373172,0.0580647
1.95676,0.372565,-0.127659
2.13853,0.0888842,-0.12465
2.01683,0.28273,0.118604
2.07377,0.187999,0.084834
2.01305,0.2822,0.249588
1.95915,0.37302,-0.0812517
2.0197,0.283132,-0.0474568
1.95397,0.364616,-0.0346954
2.07529,0.180469,-0.0606247
2.08274,0.181117,-0.418122
2.02127,0.275801,0
2.01683,0.275195,-0.316679
1.96603,0.366867,0.0116238
2.00965,0.274215,-0.218478
2.12921,0.080679,-0.1989
2.02469,0.276267,0.0475499
2.13832,0.0810243,0.0249119
1.95737,0.365251,0.0579483
2.07983,0.180864,0.0364406
1.96204,0.366122,-0.127915
2.13485,0.0808927,-0.124418
2.00994,0.274255,0.118138
2.07444,0.180395,0.084834
2.01801,0.275356,0.250076
1.96836,0.367302,-0.0815774
2.01676,0.275186,-0.0473638
1.95904,0.359197,-0.0347652
2.07186,0.173615,-0.0605083
2.0872,0.174901,-0.418907
2.02213,0.26945,0
2.02552,0.269902,-0.317908
2.08778,0.174949,-0.266678
1.97111,0.36141,0.0116471
2.02627,0.270002,-0.220192
2.13741,0.0742665,-0.199644
2.13457,0.0741677,0.0248654
2.02907,0.270375,-0.14314
1.96244,0.359821,0.0580647
1.97496,0.362116,-0.128683
2.14307,0.0744632,-0.124883
2.02266,0.269522,0.118836
2.075,0.173878,0.084834
2.01493,0.26849,0.249588
2.02554,0.269905,-0.0475499
1.96821,0.353429,-0.0349048
2.07647,0.166339,-0.0606247
2.09174,0.167563,-0.419691
2.0231,0.262037,0
2.02649,0.262476,-0.317908
1.97636,0.354891,0.0116703
2.02724,0.262574,-0.220192
2.13767,0.0664325,-0.199644
2.14682,0.0667168,0.025005
2.03004,0.262937,-0.14314
1.95981,0.35192,0.0579483
1.97627,0.354876,-0.128683
2.15131,0.0668565,-0.125348
2.02364,0.262107,0.118836
2.07961,0.166591,0.0849968
1.97082,0.353896,-0.0815774
2.02652,0.26248,-0.0475499
1.98131,0.34829,-0.0351142
2.08105,0.159033,-0.060741
2.09234,0.159896,-0.419691
2.03199,0.255619,0
2.15105,0.0589579,-0.0250516
2.03136,0.255541,-0.318523
1.97764,0.347645,0.0116703
2.02819,0.255142,-0.220192
2.14188,0.0587067,-0.200016
2.03891,0.256491,-0.143698
2.0949,0.160092,-0.171516
1.96503,0.345427,0.0580647
1.97363,0.346939,-0.128427
2.15155,0.0589716,-0.125348
2.03251,0.255685,0.119301
2.08817,0.159577,0.0853225
2.03771,0.25634,-0.095668
2.09501,0.1601,-0.110115
1.97604,0.347363,-0.0817402
1.9824,0.342064,-0.0351142
2.0935,0.15337,-0.0610901
2.04072,0.250207,0
2.03608,0.249638,-0.319138
1.97478,0.34075,0.0116471
2.04082,0.25022,-0.221477
2.15798,0.0523633,-0.201503
2.09937,0.1538,-0.171842
1.97004,0.339931,0.0581811
2.09806,0.153704,0.0367199
1.97864,0.341415,-0.128683
2.15172,0.0522114,-0.125348
2.0333,0.249298,0.119301
2.09664,0.1536,0.0856481
1.985,0.342512,-0.0820659
2.03223,0.249167,-0.0476429
1.97964,0.334476,-0.0350444
2.09801,0.14634,-0.0612065
2.04158,0.243083,0
2.04086,0.242997,-0.319753
2.10585,0.146887,-0.268699
1.97991,0.334521,0.0116703
2.04168,0.243096,-0.221477
2.15815,0.0448307,-0.201503
1.97516,0.333719,0.0582974
2.09858,0.14638,0.0367199
1.98376,0.335172,-0.128938
2.1479,0.0446177,-0.125115
2.03416,0.2422,0.119301
2.09317,0.146003,0.0854853
2.10399,0.146757,-0.110534
1.98618,0.335581,-0.0820659
2.03309,0.242072,-0.0476429
1.9848,0.327869,-0.0351142
2.09454,0.138385,-0.0610901
2.04643,0.236056,0
2.16754,0.0370779,-0.0252379
2.04566,0.235968,-0.320368
1.98506,0.327914,0.0116936
2.04256,0.23561,-0.221477
2.15034,0.0367836,-0.200759
2.04937,0.236396,-0.144256
1.98031,0.327129,0.0584138
1.98497,0.327898,-0.128938
2.15603,0.0368811,-0.12558
2.04297,0.235657,0.119766
2.09369,0.138329,0.0854853
2.1085,0.139308,-0.110743
2.03793,0.235076,-0.047736
1.99772,0.323202,-0.0353237
2.09898,0.13169,-0.0612065
2.04323,0.228824,0
2.16765,0.0298903,-0.0252379
2.05036,0.229623,-0.320983
1.98614,0.321329,0.0116936
2.04728,0.229279,-0.221905
2.15841,0.0297629,-0.201503
2.05062,0.229652,0.0480151
2.05015,0.229599,-0.144256
1.98533,0.321199,0.0585302
1.99787,0.323227,-0.129706
2.16812,0.0298968,-0.126278
2.04374,0.228882,0.119766
2.10212,0.131886,0.085811
2.04896,0.229466,-0.0960402
2.10895,0.132315,-0.110743
1.99636,0.322984,-0.0823915
2.04267,0.228762,-0.047829
1.99488,0.315601,-0.0352539
2.09943,0.124361,-0.0612065
2.05197,0.222553,0
2.04722,0.222038,-0.320368
2.1152,0.125295,-0.269709
1.99515,0.315644,0.0117401
2.04807,0.22213,-0.221905
2.16647,0.0223099,-0.202246
2.05887,0.223301,-0.144814
2.11723,0.125416,-0.173144
1.98644,0.314266,0.0585302
2.00293,0.316875,-0.129962
2.1722,0.022369,-0.126511
2.05769,0.223173,-0.0964125
2.11339,0.125188,-0.110952
1.99748,0.316012,-0.0823915
2.05141,0.222492,-0.0480151
1.99992,0.309247,-0.0353237
2.10783,0.117477,-0.0614392
2.06069,0.216223,0
2.05585,0.215715,-0.321598
2.11958,0.118131,-0.270214
1.99229,0.308066,0.0117168
2.04884,0.214979,-0.221905
2.16653,0.0147468,-0.202246
2.06013,0.216164,0.0482012
2.05964,0.216113,-0.144814
2.12164,0.118246,-0.173469
1.99148,0.307941,0.0586465
2.00008,0.309271,-0.129706
2.17626,0.0148131,-0.126743
2.05323,0.21544,0.120232
2.05846,0.215989,-0.0964125
1.99857,0.309037,-0.0823915
2.05615,0.215747,-0.0481082
2.00104,0.301915,-0.0353237
2.10825,0.109751,-0.0614392
2.05749,0.208266,0
2.05662,0.208179,-0.321598
2.12396,0.110569,-0.270719
1.99736,0.301359,0.0117401
2.12109,0.110419,-0.0123445
2.04961,0.207469,-0.221905
2.17055,0.00681897,-0.202618
2.12206,0.11047,-0.173469
1.99655,0.301237,0.0587629
2.0012,0.301938,-0.129706
2.17231,0.00682449,-0.126511
2.06195,0.208718,0.120697
2.06321,0.208845,-0.0965986
2.12221,0.110477,-0.111371
2.00759,0.302903,-0.0827172
2.05693,0.20821,-0.0481082
2.00599,0.295862,-0.0353935
2.06215,0.201832,0
2.06517,0.202128,-0.322828
2.00626,0.295902,0.0117866
2.0582,0.201446,-0.222762
2.17056,-0.00037844,-0.202618
2.06557,0.202167,0.0482943
2.06904,0.202507,-0.145372
2.13038,0.10382,-0.17412
1.99358,0.294031,0.0586465
2.00614,0.295883,-0.129962
2.18031,-0.000380139,-0.126976
2.06661,0.202269,0.120929
2.06787,0.202392,-0.0967847
2.12655,0.103634,-0.11158
2.01254,0.296828,-0.08288
2.06159,0.201778,-0.0482012
2.00701,0.288858,-0.0353935
2.11694,0.0957602,-0.0616719
2.06284,0.194633,0
2.06193,0.194547,-0.322213
2.1326,0.0964684,-0.271729
2.0152,0.290037,0.0118331
2.06285,0.194635,-0.22319
2.18648,-0.00801303,-0.204105
2.0737,0.195658,-0.145652
2.13073,0.0963839,-0.17412
2.00647,0.28878,0.0589956
2.01111,0.289448,-0.130218
2.18828,-0.00801962,-0.127441
2.07128,0.195429,0.121162
2.07254,0.195548,-0.0969709
2.12291,0.0960305,-0.111371
2.01356,0.289801,-0.08288
2.06626,0.194956,-0.0482943
2.01593,0.282962,-0.0355331
2.12125,0.0885363,-0.0617883
2.06749,0.187793,0
2.06653,0.187706,-0.322828
2.13292,0.0890231,-0.271729
2.0162,0.283,0.0118331
2.05956,0.187072,-0.222762
2.18644,-0.0156458,-0.204105
2.07835,0.188779,-0.145931
2.13105,0.0889451,-0.17412
2.00746,0.281774,0.0589956
2.01606,0.28298,-0.130473
2.18424,-0.0156301,-0.127208
2.07195,0.188197,0.121162
2.07719,0.188674,-0.097157
2.13122,0.0889521,-0.11179
2.01852,0.283326,-0.0830429
2.07489,0.188465,-0.0484804
2.02478,0.277361,-0.0356727
2.12553,0.0816554,-0.0619047
2.07607,0.181633,0
2.06714,0.180852,-0.322828
2.1332,0.0819501,-0.271729
2.01317,0.27577,0.0118098
2.19832,-0.0230209,-0.205221
2.07896,0.181886,-0.145931
2.1393,0.0821843,-0.174771
2.01235,0.275658,0.059112
2.1341,0.0819846,0.0372783
2.02094,0.276835,-0.130729
2.19616,-0.0229982,-0.127906
2.07256,0.181326,0.121162
2.07382,0.181437,-0.0969709
2.13549,0.082038,-0.111999
2.07551,0.181584,-0.0484804
2.02182,0.269409,-0.0356029
2.12582,0.0738638,-0.0619047
2.07672,0.174022,0
2.07567,0.173934,-0.324057
2.14142,0.074406,-0.272739
2.01813,0.268917,0.0118331
2.06874,0.173354,-0.223619
2.08359,0.174598,-0.14621
2.13959,0.0743423,-0.174771
2.00938,0.267752,0.0589956
2.0259,0.269953,-0.130985
2.19606,-0.031048,-0.127906
2.08117,0.174395,0.121627
2.08244,0.174501,-0.0973431
2.13977,0.0743487,-0.112208
2.02837,0.270283,-0.0833685
2.08014,0.174309,-0.0485734
2.02275,0.26235,-0.0356029
2.13006,0.0665672,-0.062021
2.0813,0.167092,0
2.08414,0.16732,-0.325287
2.1496,0.0671779,-0.27375
2.02699,0.2629,0.0118796
2.0733,0.166449,-0.224047
2.14382,0.0669973,-0.175096
2.0222,0.262279,0.0593447
2.02683,0.262879,-0.130985
2.20392,-0.0388548,-0.128371
2.08702,0.16755,-0.0975292
2.14401,0.0670032,-0.112418
2.08473,0.167367,-0.0486665
2.03551,0.257145,-0.0358123
2.08583,0.160496,0
2.08074,0.160105,-0.324672
2.14981,0.0600496,-0.27375
2.03182,0.256678,0.0119028
2.08177,0.160183,-0.224904
2.09269,0.161024,-0.146768
2.152,0.0601108,-0.175747
2.01909,0.25507,0.0592283
2.03561,0.257158,-0.131497
2.20378,-0.0461626,-0.128371
2.08629,0.160531,0.121859
2.08756,0.160629,-0.0975292
2.14023,0.059782,-0.112208
2.09324,0.161066,-0.0488526
2.04036,0.250526,-0.0358821
2.08239,0.152922,0
2.08523,0.15313,-0.325287
2.15001,0.0525455,-0.27375
2.02873,0.249097,0.0118796
2.08628,0.153207,-0.225332
2.09722,0.154011,-0.147047
2.14821,0.0525016,-0.175422
2.01997,0.248021,0.0592283
2.04046,0.250537,-0.131753
2.09209,0.153634,-0.0977154
2.14442,0.0524089,-0.112418
2.03105,0.249382,-0.0833685
2.09778,0.154052,-0.0489456
2.04127,0.243045,-0.0358821
2.14663,0.0445905,-0.0624865
2.09491,0.146123,0
2.08578,0.145486,-0.325287
2.15415,0.0447468,-0.274255
2.02963,0.241659,0.0118796
2.08683,0.145559,-0.225332
2.09379,0.146045,-0.146768
2.15636,0.0447927,-0.176073
2.02881,0.241561,0.0594611
2.0374,0.242584,-0.131497
2.10061,0.146521,-0.0980876
2.15258,0.0447142,-0.112836
2.09434,0.146083,-0.0488526
2.03809,0.235814,-0.0358123
2.10337,0.139705,0
2.09414,0.139092,-0.326517
2.15825,0.0376718,-0.27476
2.03439,0.235387,0.0119028
2.09127,0.138901,-0.225761
2.10222,0.139629,-0.147326
2.16048,0.0377107,-0.176398
2.03357,0.235291,0.0595774
2.04216,0.236285,-0.131753
2.10109,0.139553,-0.0980876
2.15272,0.0375751,-0.112836
2.04068,0.236114,-0.0836942
2.09881,0.139402,-0.0489456
2.04685,0.229592,-0.035952
2.09985,0.132112,0
2.1025,0.132279,-0.327747
2.04315,0.229177,0.0119493
2.09174,0.131602,-0.225761
2.1027,0.132291,-0.147326
2.16857,0.0302818,-0.177049
2.0463,0.22953,0.0599265
2.04694,0.229602,-0.132008
2.10555,0.132471,-0.0982737
2.15683,0.0301178,-0.113046
2.05341,0.230327,-0.0841827
2.10327,0.132327,-0.0490387
2.05162,0.222877,-0.0360218
2.10429,0.125018,0
2.099,0.124704,-0.327132
2.04792,0.222475,0.0119725
2.10013,0.124771,-0.226617
2.10315,0.12495,-0.147326
2.16069,0.0226278,-0.176398
2.05566,0.223317,-0.13252
2.10201,0.124883,-0.0980876
2.15692,0.0225883,-0.113046
2.0542,0.223158,-0.0841827
2.1117,0.125459,-0.0492248
2.05238,0.215715,-0.0360218
2.10471,0.117672,0
2.04868,0.215326,0.0119725
2.10055,0.11744,-0.226617
2.11552,0.118277,-0.148163
2.16475,0.0151137,-0.176724
2.04387,0.21482,0.0598101
2.05643,0.21614,-0.13252
2.11041,0.117991,-0.0984599
2.16098,0.0150874,-0.113255
2.05894,0.216404,-0.0843455
2.11213,0.118087,-0.0492248
2.06108,0.209357,-0.0361614
2.10511,0.110324,0
2.11166,0.110668,-0.328977
2.04942,0.208173,0.0119725
2.10492,0.110314,-0.227046
2.11592,0.110891,-0.148163
2.17276,0.00758449,-0.177375
2.05256,0.208492,0.0600429
2.05717,0.20896,-0.13252
2.1148,0.110832,-0.098646
2.16901,0.00757141,-0.113674
2.06366,0.209619,-0.0845083
2.12052,0.111132,-0.0494109
2.06578,0.202551,-0.0362312
2.12146,0.103756,0
2.11993,0.103682,-0.330207
2.06208,0.202188,0.0120423
2.12028,0.103699,-0.148442
2.17676,-4.7438e-07,-0.1777
2.0493,0.200935,0.0599265
2.06186,0.202167,-0.132776
2.11917,0.103644,-0.0988321
2.17302,-4.73565e-07,-0.113883
2.06836,0.202804,-0.0846712
2.12089,0.103728,-0.0494109
2.06242,0.195683,-0.0361614
2.11379,0.0967259,0
2.12025,0.0970215,-0.330207
2.0627,0.195709,0.0120423
2.11355,0.096715,-0.227903
2.12458,0.0972199,-0.148721
2.18074,-0.00685107,-0.178025
2.06186,0.19563,0.0602756
2.07441,0.19682,-0.133543
2.11948,0.0969864,-0.0988321
2.17301,-0.00682679,-0.113883
2.06898,0.196305,-0.0846712
2.1292,0.0974309,-0.049597
2.12214,0.0889443,0
2.12455,0.0890457,-0.330821
2.0714,0.188513,0.0120888
2.12494,0.0890618,-0.148721
2.18468,-0.0152517,-0.178351
2.07515,0.188854,-0.133543
2.12383,0.0890153,-0.0990182
2.18095,-0.0152257,-0.114302
2.0737,0.188722,-0.084834
2.13355,0.0894226,-0.0496901
2.12243,0.0815366,0
2.07205,0.181282,0.0120888
2.12612,0.0816783,-0.229188
2.12524,0.0816443,-0.148721
2.1886,-0.0229189,-0.178676
2.06723,0.18086,0.060392
2.13211,0.0819084,-0.0993905
2.18488,-0.02288,-0.114511
2.07833,0.181831,-0.0849968
2.13784,0.0821286,-0.0497831
2.08036,0.174693,-0.0364406
2.1307,0.0744061,0
2.07267,0.174047,0.0120888
2.13349,0.0745033,-0.149279
2.19648,-0.0306703,-0.179327
2.07581,0.174311,0.0606247
2.07244,0.174028,-0.133288
2.12839,0.0743255,-0.0992044
2.08294,0.174909,-0.0851596
2.13812,0.074665,-0.0497831
2.0809,0.168157,-0.0364406
2.13092,0.0677123,0
2.07719,0.167858,0.012112
2.13457,0.0678281,-0.230044
2.1377,0.0679275,-0.149558
2.19637,-0.0375702,-0.179327
2.08033,0.168111,0.060741
2.08491,0.168481,-0.134055
2.1406,0.0680197,-0.0997627
2.19267,-0.0375068,-0.11493
2.08746,0.168687,-0.0853225
2.14234,0.068075,-0.0498762
2.08948,0.161144,-0.0365802
2.13516,0.0600145,0
2.08976,0.161166,0.0121818
2.14192,0.0602046,-0.149837
2.08891,0.161101,0.0609738
2.0895,0.161146,-0.134311
2.14083,0.060174,-0.0997627
2.2005,-0.0457086,-0.115348
2.09205,0.161343,-0.0854853
2.14657,0.0603353,-0.0499692
2.09401,0.154143,-0.0366501
2.14335,0.0527573,0
2.0943,0.154164,0.012205
2.14693,0.0528453,-0.23133
2.14212,0.052727,-0.149837
2.09345,0.154101,0.0610901
2.09403,0.154144,-0.134567
2.14502,0.0527985,-0.0999489
2.09658,0.154332,-0.0856481
2.15077,0.0529398,-0.0500623
2.09052,0.146917,-0.0365802
2.08682,0.146657,0.0121585
2.14709,0.0457249,-0.23133
2.15026,0.0457925,-0.150395
2.08996,0.146877,0.0609738
2.09453,0.147198,-0.134567
2.15318,0.0458546,-0.100321
2.09708,0.147378,-0.0856481
2.15893,0.045977,-0.0502484
2.09502,0.139885,-0.0366501
2.09929,0.140171,0.0122283
2.15121,0.0383007,-0.231758
2.14642,0.0382153,-0.150116
2.09445,0.139847,0.0610901
2.09503,0.139886,-0.134567
2.16131,0.0384805,-0.100693
2.10556,0.140589,-0.0859738
2.15508,0.0383695,-0.0501553
2.10347,0.133077,-0.0367897
2.10376,0.133095,0.0122515
2.16649,0.0310082,-0.151511
2.09891,0.132788,0.0612065
2.09949,0.132824,-0.134823
2.16143,0.0309359,-0.100693
2.10205,0.132986,-0.085811
2.16719,0.0310183,-0.0504345
2.10393,0.125733,-0.0367897
2.10022,0.125512,0.0122283
2.1586,0.0233592,-0.150953
2.11134,0.126176,0.0615556
2.10791,0.125971,-0.135334
2.16153,0.0233909,-0.100693
2.11048,0.126125,-0.0861366
2.16329,0.0234099,-0.0503414
2.11633,0.119062,-0.0369991
2.11262,0.118854,0.012298
2.16343,0.015859,-0.233043
2.16266,0.0158534,-0.151232
2.11177,0.118805,0.0615556
2.11232,0.118837,-0.13559
2.16559,0.0158749,-0.100879
2.1149,0.118982,-0.0862994
2.16736,0.0158878,-0.0504345
2.12073,0.111885,-0.0370689
2.11702,0.111689,0.0123213
2.17142,0.00833771,-0.2339
2.16669,0.00831955,-0.151511
2.12069,0.111883,-0.136102
2.16963,0.00833083,-0.101066
2.1153,0.111599,-0.0862994
2.11711,0.104285,-0.0369991
2.12139,0.104496,0.0123445
2.18735,0.000763527,-0.235614
2.1707,0.000757716,-0.15179
2.12107,0.10448,-0.136102
2.18563,0.000762928,-0.10181
2.12366,0.104607,-0.0866251
2.12146,0.0970768,-0.0370689
2.12174,0.09709,0.0123445
2.17468,-0.00683197,-0.152069
2.12142,0.0970753,-0.136102
2.18162,-0.00685379,-0.101624
2.12401,0.0971939,-0.0866251
2.13377,0.0901776,-0.0372783
2.18262,-0.0144759,-0.152627
2.12574,0.0898381,-0.136357
2.18958,-0.014522,-0.101996
2.13233,0.0901166,-0.0869508
2.13407,0.0827288,-0.0372783
2.18256,-0.0220946,-0.152627
2.13003,0.082572,-0.136613
2.1975,-0.0222459,-0.102368
2.13263,0.0826728,-0.0869508
2.13833,0.0757932,-0.0373482
2.13862,0.0758035,0.0124375
2.19444,-0.029493,-0.153464
2.13428,0.0756495,-0.136869
2.19342,-0.0294793,-0.102182
2.13289,0.0756003,-0.0869508
2.13858,0.0683286,-0.0373482
2.20231,-0.0372879,-0.154022
2.13852,0.0683265,-0.137125
2.1973,-0.0372032,-0.102368
2.14113,0.06841,-0.0872764
2.14281,0.0609769,-0.037418
2.20615,-0.0450567,-0.154301
2.14273,0.0609748,-0.137381
2.14136,0.0609356,-0.0872764
2.147,0.0535965,-0.0374878
2.14293,0.0534949,-0.137381
2.15354,0.0537597,-0.0877649
2.15118,0.0461876,-0.0375576
2.1471,0.0461001,-0.137637
2.14972,0.0461563,-0.0876021
2.15932,0.0388221,-0.0376972
2.15124,0.0386768,-0.137892
2.15386,0.038724,-0.0877649
2.16344,0.0313423,-0.037767
2.15535,0.0312251,-0.138148
2.16598,0.031379,-0.0882534
2.17554,0.0239222,-0.0379764
2.16343,0.0237891,-0.13866
2.16607,0.0238182,-0.0882534
2.16749,0.0162671,-0.138916
2.17014,0.016287,-0.0884162
2.17153,0.00871712,-0.139172
2.17418,0.00872776,-0.0885791
2.17154,0.00113701,-0.139172
2.1742,0.0011384,-0.0885791
2.17952,-0.00646679,-0.139683
2.18618,-0.00648655,-0.0890675
2.1874,-0.0221436,-0.140195
2.19929,-0.0291743,-0.140962
2.19519,-0.0367842,-0.140707
2.19904,-0.0445274,-0.140962
