2.28724,0.364311,-0.134883
2.29245,0.356939,-0.135115
2.28578,0.347733,-0.13465
2.28826,0.34811,-0.0808272
2.27908,0.338578,-0.134185
2.28014,0.331417,-0.134185
2.27161,0.305922,-0.133487
2.26079,0.296435,-0.13279
2.26378,0.288391,-0.213028
2.26186,0.288146,-0.13279
2.26082,0.279999,-0.212656
2.23965,0.269838,-0.0262623
2.26174,0.272499,-0.212656
2.24455,0.262482,-0.0263088
2.25872,0.264139,-0.212284
2.24884,0.262984,-0.131859
2.2296,0.252454,-0.0261226
2.25572,0.255412,-0.211912
2.24979,0.25474,-0.131859
2.29057,0.373454,-0.121629
2.2344,0.245497,-0.0261692
2.24863,0.24706,-0.211169
2.23043,0.24506,0.0261226
2.24665,0.246843,-0.131627
2.22335,0.236038,-0.0260295
2.2396,0.237763,-0.131162
2.28128,0.355608,-0.121001
2.22814,0.228684,-0.026076
2.22416,0.228275,0.0260295
2.24041,0.229943,-0.131162
2.28251,0.347642,-0.121001
2.22487,0.221287,-0.0260295
2.21293,0.2201,0.0258898
2.23318,0.222113,-0.130697
2.27569,0.339292,-0.120582
2.21369,0.212373,-0.0258898
2.22165,0.213137,0.0259829
2.22599,0.213554,-0.130231
2.28081,0.331921,-0.120791
2.21448,0.203873,-0.0258898
2.23281,0.20556,-0.20931
2.21448,0.203873,0.0258898
2.22679,0.205006,-0.130231
2.2702,0.321482,-0.120163
2.21113,0.19656,-0.0258432
2.21511,0.196914,0.0258898
2.27863,0.315375,-0.187789
2.26725,0.3138,-0.119954
2.20782,0.188501,-0.0257966
2.20383,0.188161,0.0257501
2.27576,0.306887,-0.187464
2.21219,0.188874,-0.129301
2.26833,0.305884,-0.119954
2.25974,0.295897,-0.0663264
2.20852,0.180023,-0.0257966
2.20454,0.179698,0.0257501
2.20892,0.180055,-0.129069
2.26552,0.296654,-0.119745
2.25283,0.286996,-0.0660937
2.20116,0.17169,-0.0257035
2.20515,0.172001,0.0257501
2.20555,0.172032,-0.128836
2.26258,0.288239,-0.119535
2.24985,0.27864,-0.0659773
2.19776,0.163709,-0.0256569
2.2162,0.165082,-0.207451
2.20175,0.164006,0.0257035
2.21012,0.164629,-0.129069
2.25565,0.279358,-0.119117
2.25072,0.27157,-0.0659773
2.19428,0.156518,-0.0256104
2.19428,0.156518,0.0256104
2.20266,0.157116,-0.128604
2.25255,0.271791,-0.118907
2.24768,0.263247,-0.065861
2.19481,0.148858,-0.0256104
2.19481,0.148858,0.0256104
2.24466,0.254556,-0.0657446
2.19534,0.140812,-0.0256104
2.19534,0.140812,0.0256104
2.2465,0.254765,-0.118489
2.24151,0.246673,-0.0656282
2.19579,0.133531,-0.0256104
2.24242,0.246773,-0.0131117
2.18781,0.133045,0.0255173
2.19223,0.133314,-0.127906
2.24336,0.246876,-0.118279
2.23043,0.237577,-0.0652792
2.19225,0.125637,-0.0255638
2.23532,0.238098,-0.0130652
2.19484,0.125785,-0.205221
2.18826,0.125408,0.0255173
2.22308,0.236794,0.0390236
2.19667,0.12589,-0.128138
2.24421,0.239044,-0.118279
2.23129,0.229401,-0.0652792
2.18871,0.117387,-0.0255173
2.22822,0.229085,-0.0130187
2.18471,0.117173,0.0254707
2.28001,0.34767,-0.161277
2.19313,0.117624,-0.127906
2.28311,0.348142,-0.10758
2.23712,0.230001,-0.117861
2.2281,0.221216,-0.0651628
2.18511,0.109546,-0.0254707
2.229,0.221305,-0.0130187
2.18111,0.109346,0.0254241
2.28121,0.339709,-0.161277
2.18954,0.109768,-0.127673
2.28035,0.339581,-0.107394
2.23394,0.221795,-0.117651
2.23276,0.214598,-0.0652792
2.18145,0.102493,-0.0254241
2.22571,0.21392,-0.0129954
2.19204,0.102991,-0.204849
2.17345,0.102118,0.025331
2.27437,0.33139,-0.160719
2.21744,0.213125,0.038884
2.18588,0.102702,-0.127441
2.2735,0.331263,-0.107022
2.23462,0.214776,-0.117651
2.22155,0.205696,-0.0649301
2.17779,0.0947036,-0.0253776
2.22246,0.20578,-0.0129722
2.18841,0.0951652,-0.204477
2.1738,0.0945298,0.025331
2.27551,0.323448,-0.160719
2.21419,0.205014,0.0388142
2.17825,0.0947233,-0.126976
2.26673,0.3222,-0.106649
2.2274,0.206238,-0.117233
2.21038,0.196105,-0.064581
2.17814,0.0863413,-0.0253776
2.21526,0.196538,-0.0129257
2.17682,0.0862889,-0.203362
2.17414,0.0861829,0.025331
2.27279,0.314163,-0.16044
2.21895,0.196865,0.038884
2.1746,0.0862011,-0.126743
2.264,0.312948,-0.106463
2.2242,0.197331,-0.117023
2.21105,0.188388,-0.064581
2.20796,0.188125,-0.0128792
2.16644,0.0783047,0.0252379
2.26596,0.305163,-0.159882
2.22451,0.189536,-0.182256
2.20766,0.1881,0.0386745
2.17489,0.0786102,-0.126743
2.26507,0.305043,-0.106463
2.21293,0.188549,-0.116395
2.2471,0.302623,-0.0527608
2.21163,0.181441,-0.064581
2.17067,0.0716295,-0.0252844
2.21253,0.181514,-0.0129024
2.16667,0.0714976,0.0252379
2.26295,0.297522,-0.159603
2.20824,0.181163,0.0386745
2.16715,0.0715132,-0.126278
2.2581,0.296883,-0.106091
2.21352,0.181595,-0.116395
2.25993,0.297125,-0.05304
2.21225,0.17372,-0.064581
2.16691,0.0639345,-0.0252379
2.21921,0.174266,-0.283346
2.21315,0.173791,-0.0129024
2.15492,0.0635806,0.0250982
2.26398,0.289621,-0.159603
2.20089,0.172828,0.0385349
2.16738,0.0639485,-0.126278
2.19541,0.172398,0.0897188
2.21414,0.173868,-0.116395
2.25302,0.28822,-0.0528539
2.20091,0.164715,-0.0642319
2.20181,0.164782,-0.0128327
2.16188,0.0558557,-0.201875
2.15913,0.0557848,0.0251447
2.26106,0.280829,-0.159324
2.20151,0.164759,0.0385349
2.15563,0.0556942,-0.12558
2.18806,0.163753,0.0893932
2.25223,0.279732,-0.105719
2.21078,0.165453,-0.116186
2.24613,0.278974,-0.0526678
2.19347,0.156846,-0.0639992
2.20633,0.157765,-0.012856
2.16603,0.0487764,-0.202246
2.15531,0.0485349,0.0250982
2.19805,0.157173,0.0384651
2.15979,0.0486359,-0.125813
2.18859,0.156497,0.0893932
2.20733,0.157836,-0.115976
2.2391,0.270565,-0.0524816
2.19799,0.149459,-0.0641155
2.20288,0.149791,-0.0128327
2.16221,0.0411389,-0.201875
2.15146,0.0409346,0.0250516
2.24707,0.263572,-0.158208
2.19061,0.148956,0.0383255
2.29538,0.383702,-0.149149
2.15596,0.04102,-0.12558
2.18514,0.148585,0.0892304
2.25409,0.264395,-0.105719
2.19591,0.149317,-0.115348
2.244,0.263213,-0.0525747
2.19054,0.140889,-0.0638828
2.20561,0.141858,-0.281326
2.19942,0.141459,-0.0128095
2.2524,0.255833,-0.244181
2.15836,0.0331531,-0.201503
2.1476,0.0329878,0.025005
2.2041,0.141761,-0.180304
2.19114,0.140927,0.0383255
2.15609,0.0331182,-0.12558
2.18567,0.140575,0.0892304
2.25107,0.255681,-0.105533
2.19246,0.141012,-0.115139
2.24098,0.254536,-0.0524816
2.19102,0.133241,-0.0638828
2.23849,0.24634,0
2.1517,0.025538,-0.0250516
2.20213,0.133916,-0.280821
2.19591,0.133538,-0.0127862
2.24933,0.247534,-0.243753
2.15846,0.0256182,-0.201503
2.1477,0.0254905,0.025005
2.2006,0.133823,-0.179978
2.18363,0.132792,0.0381859
2.2823,0.364747,-0.148126
2.14422,0.0254491,-0.124883
2.18614,0.132944,0.0892304
2.18895,0.133115,-0.11493
2.23391,0.245836,-0.0522955
2.18347,0.125516,-0.0636501
2.22736,0.237643,0
2.1986,0.126386,-0.280315
2.24618,0.239652,-0.243325
2.14659,0.0183586,-0.200387
2.14378,0.0183346,0.0249585
2.24574,0.239604,-0.157929
2.20103,0.126526,-0.179978
2.18007,0.12532,0.0381161
2.14429,0.0183389,-0.124883
2.17859,0.125236,0.0889047
2.18539,0.125626,-0.11472
2.23073,0.238003,-0.0522025
2.17192,0.117247,-0.063301
2.2242,0.229457,0
2.19903,0.118711,-0.280315
2.24305,0.231402,-0.242896
2.14266,0.0108458,-0.200016
2.13983,0.0108315,0.0249119
2.24259,0.231355,-0.15765
2.18049,0.11771,0.0381161
2.27683,0.347999,-0.147614
2.14434,0.0108543,-0.124883
2.17104,0.1172,0.0885791
2.18182,0.117782,-0.114511
2.22757,0.229805,-0.0521094
2.17631,0.109866,-0.0634174
2.21702,0.220898,0
2.23593,0.222782,-0.242039
2.1387,0.00335963,-0.199644
2.13185,0.00334887,0.0248188
2.23942,0.223129,-0.157371
2.18594,0.110352,-0.178676
2.18089,0.110098,0.0381161
2.27014,0.33887,-0.147102
2.14436,0.00336853,-0.124883
2.17941,0.110023,0.0889047
2.17424,0.109762,-0.114092
2.26896,0.338693,-0.0934639
2.22438,0.221631,-0.0520164
2.17268,0.102081,-0.063301
2.22176,0.21354,0
2.13585,-0.00410094,-0.0248654
2.19188,0.102983,-0.279305
2.13472,-0.00409876,-0.199272
2.13185,-0.00409326,0.0248188
2.23224,0.214546,-0.156813
2.18631,0.102721,-0.178676
2.16928,0.101921,0.0379066
2.27131,0.330943,-0.147102
2.14037,-0.00410961,-0.12465
2.16382,0.101664,0.0882534
2.23129,0.214455,-0.104416
2.1786,0.102359,-0.114302
2.26617,0.330194,-0.0933011
2.22116,0.213482,-0.0519233
2.16903,0.0943227,-0.0631846
2.21453,0.205046,0
2.18826,0.0951589,-0.2788
2.23347,0.2068,-0.241611
2.13867,-0.0115714,-0.199644
2.22189,0.205728,0.0519233
2.13182,-0.0115344,0.0248188
2.17361,0.094522,0.0379764
2.26454,0.321889,-0.146591
2.12836,-0.0115156,-0.123952
2.17214,0.094458,0.0885791
2.17496,0.0945804,-0.114092
2.26335,0.32172,-0.0931383
2.21393,0.20499,-0.0517372
2.16935,0.0867513,-0.0631846
2.21523,0.197315,0
2.18858,0.0875203,-0.2788
2.17423,0.0869464,-0.0126467
2.13065,-0.0189653,-0.1989
2.21463,0.197261,0.0517372
2.13177,-0.0189753,0.0248188
2.16993,0.0867748,0.0379066
2.2617,0.313435,-0.146335
2.12831,-0.0189445,-0.123952
2.15649,0.086237,0.0879277
2.17128,0.0868287,-0.113883
2.15112,0.0860223,0.175747
2.2605,0.313269,-0.0929754
2.20666,0.196552,-0.0515511
2.24721,0.303834,-0.0395821
2.16563,0.0794099,-0.0630683
2.21587,0.189967,0
2.18489,0.0801162,-0.278295
2.1745,0.0797353,-0.0126467
2.13058,-0.0260313,-0.1989
2.21527,0.189916,0.0517372
2.1277,-0.0259961,0.0247722
2.27064,0.307002,-0.146847
2.16075,0.0792312,0.0880906
2.22143,0.190444,-0.103857
2.17156,0.0796273,-0.113883
2.15139,0.0788879,0.175747
2.25361,0.3047,-0.0926498
2.21527,0.189916,-0.0517372
2.16589,0.0718504,-0.0630683
2.20855,0.181576,0
2.22169,0.182656,-0.346809
2.18119,0.0723579,-0.27779
2.12251,-0.0333427,-0.198157
2.20795,0.181527,0.0515511
2.11959,-0.0332969,0.0246791
2.21908,0.182442,-0.155696
2.16759,0.0719068,-0.177049
2.16648,0.0718698,0.0378368
2.25982,0.297512,-0.146079
2.12813,-0.033431,-0.123952
2.16102,0.0716887,0.0880906
2.2181,0.182362,-0.103671
2.15985,0.0716498,-0.113255
2.14369,0.0711137,0.175096
2.25862,0.297353,-0.0928126
2.20795,0.181527,-0.0515511
2.25726,0.288761,-0.0397217
2.16614,0.0639109,-0.0630683
2.2092,0.17348,0
2.12346,-0.0411434,-0.0247257
2.12237,-0.0411224,-0.198157
2.20461,0.17312,0.0514581
2.11946,-0.0410659,0.0246791
2.21973,0.174307,-0.155696
2.16386,0.0638436,-0.176724
2.15873,0.0636924,0.0376972
2.25694,0.28872,-0.145823
2.124,-0.041154,-0.12372
2.15727,0.0636493,0.0879277
2.1561,0.0636148,-0.113046
2.13995,0.0631381,0.174771
2.25177,0.288058,-0.0924869
2.20461,0.17312,-0.0514581
2.25423,0.28078,-0.0396519
2.16234,0.0566232,-0.0629519
2.19381,0.164953,0
2.17371,0.0569209,-0.27678
2.12621,-0.0482501,-0.198529
2.1972,0.165209,0.051272
2.11531,-0.0480029,0.0246325
2.16804,0.0567724,-0.177049
2.15893,0.0565338,0.0376972
2.25392,0.280741,-0.145567
2.12385,-0.0481967,-0.12372
2.15347,0.056391,0.0877649
2.16029,0.0565695,-0.113255
2.13616,0.0559375,0.174445
2.24874,0.280096,-0.0923241
2.1972,0.165209,-0.051272
2.24329,0.271469,-0.0394424
2.15054,0.0488032,-0.0626028
2.19836,0.157581,0
2.11913,-0.0554907,-0.0246791
2.21954,0.159099,-0.346194
2.16596,0.0491532,-0.27577
2.15541,0.0489138,-0.0125305
2.11408,-0.0553585,-0.197413
2.11113,-0.0552813,0.024586
2.2129,0.158624,-0.155138
2.16026,0.0490238,-0.176398
2.15512,0.0489071,0.0376274
2.25093,0.272393,-0.145312
2.11569,-0.0554006,-0.123255
2.14567,0.0486927,0.0874392
2.20793,0.158267,-0.103113
2.15648,0.0489382,-0.113046
2.24574,0.271765,-0.0921613
2.19378,0.157253,-0.0511789
2.23628,0.262703,-0.0393028
2.1467,0.0412188,-0.0624865
2.17257,0.0417155,-0.434596
2.18692,0.14909,0
2.16612,0.0415918,-0.27577
2.15557,0.0413891,-0.0125305
2.21006,0.150667,-0.238612
2.10591,-0.0625019,-0.19667
2.19431,0.149593,0.0511789
2.10293,-0.0624134,0.0244928
2.20946,0.150626,-0.154859
2.1644,0.0415587,-0.176724
2.15527,0.0413835,0.0376274
2.25186,0.264533,-0.145312
2.11548,-0.0627859,-0.123255
2.19518,0.149652,0.128138
2.14183,0.0411253,0.0872764
2.15265,0.0413331,-0.112836
2.13251,0.0409464,0.17412
2.24271,0.263457,-0.0919985
2.19431,0.149593,-0.0511789
2.24116,0.255348,-0.0393726
2.14283,0.0336628,-0.0623701
2.16878,0.0340704,-0.433811
2.18743,0.141455,0
2.2127,0.14309,-0.344964
2.16228,0.0339685,-0.275265
2.1557,0.033865,-0.0125305
2.10568,-0.0698521,-0.19667
2.19083,0.141675,0.0510859
2.09471,-0.069488,0.0243997
2.20201,0.142398,-0.154301
2.16055,0.0339411,-0.176398
2.25277,0.256672,-0.145312
2.11525,-0.0701695,-0.123255
2.18373,0.141216,0.127441
2.13796,0.0335864,0.0871136
2.20101,0.142334,-0.102741
2.14879,0.0337564,-0.112627
2.23964,0.255175,-0.0918356
2.18684,0.141417,-0.0509928
2.23408,0.246645,-0.039233
2.14293,0.0261822,-0.0623701
2.16496,0.0264513,-0.433027
2.1919,0.134063,0
2.10244,-0.0770931,-0.0244928
2.2053,0.134882,-0.343735
2.15842,0.0263714,-0.27476
2.23041,0.24624,0.0130419
2.1518,0.0262905,-0.0125072
2.20311,0.134748,-0.237755
2.10543,-0.0772024,-0.19667
2.19131,0.134026,0.0510859
2.09845,-0.0769466,0.0244463
2.14869,0.0262525,-0.175422
2.14751,0.0262381,0.0374878
2.24572,0.24793,-0.1448
2.10701,-0.0772606,-0.12279
2.17225,0.132861,0.126743
2.13807,0.0261227,0.0871136
2.19751,0.134405,-0.102555
2.1449,0.0262062,-0.112418
2.23257,0.246478,-0.09151
2.1953,0.13427,-0.0511789
2.223,0.23757,-0.0390236
2.13901,0.0186663,-0.0622537
2.16112,0.0188592,-0.432243
2.18038,0.125719,0
2.10216,-0.0844321,-0.0244928
2.20576,0.127183,-0.343735
2.15453,0.0188018,-0.274255
2.21932,0.237177,0.0129722
2.14788,0.0187437,-0.012484
2.1996,0.126828,-0.237327
2.09718,-0.0842322,-0.195926
2.18378,0.125915,0.0508998
2.09817,-0.0842716,0.0244463
2.19499,0.126561,-0.153743
2.1408,0.0186819,-0.174771
2.14359,0.0187063,0.037418
2.23466,0.238816,-0.144032
2.10673,-0.0846155,-0.12279
2.17669,0.125507,0.126976
2.13415,0.0186239,0.0869508
2.19397,0.126503,-0.102368
2.14098,0.0186835,-0.112208
2.23342,0.238683,-0.09151
2.18777,0.126146,-0.0509928
2.22779,0.230221,-0.0390934
2.13507,0.0111802,-0.0621374
2.16117,0.0113169,-0.432243
2.17681,0.117893,0
2.10186,-0.0917681,-0.0244928
2.1983,0.119056,-0.342505
2.15459,0.0112824,-0.274255
2.22014,0.22943,0.0129722
2.14393,0.0112266,-0.0124607
2.20003,0.11915,-0.237327
2.0929,-0.091377,-0.195554
2.17622,0.117861,0.0507136
2.09386,-0.0914192,0.0243997
2.19541,0.1189,-0.153743
2.14085,0.0112105,-0.174771
2.14364,0.0112251,0.037418
2.23548,0.231016,-0.144032
2.10243,-0.0917932,-0.122557
2.16914,0.117477,0.126511
2.1342,0.0111756,0.0869508
2.19041,0.118629,-0.102182
2.13704,0.0111905,-0.111999
2.23026,0.230476,-0.0913472
2.18421,0.118293,-0.0508998
2.22461,0.222045,-0.0390236
2.13109,0.0037198,-0.062021
2.14943,0.0037518,-0.429889
2.16922,0.109888,0
2.15064,0.00375392,-0.27375
2.21297,0.220884,0.0129257
2.19249,0.111067,-0.23647
2.08859,-0.098495,-0.195183
2.17662,0.110263,0.0507136
2.08155,-0.0981629,0.02426
2.18785,0.110832,-0.153185
2.14486,0.00374383,-0.175096
2.22002,0.221588,0.0649301
2.13967,0.00373476,0.0373482
2.23231,0.222814,-0.143777
2.09811,-0.098944,-0.122325
2.16954,0.109904,0.126511
2.12623,0.00371131,0.0866251
2.18283,0.110578,-0.10181
2.13706,0.00373021,-0.111999
2.11695,0.00369511,0.172818
2.23105,0.222689,-0.0913472
2.17662,0.110263,-0.0507136
2.21741,0.213513,-0.038884
2.13109,-0.00371869,-0.062021
2.14551,-0.00374384,-0.429105
2.17358,0.102504,0
2.09317,-0.106035,-0.0243997
2.15064,-0.00375281,-0.27375
2.22169,0.213925,0.0129722
2.13596,-0.00372718,-0.0124142
2.19286,0.103414,-0.23647
2.09221,-0.105986,-0.195554
2.17699,0.102665,0.0507136
2.08119,-0.105428,0.02426
2.18822,0.103195,-0.153185
2.1329,-0.00372184,-0.17412
2.23307,0.215021,-0.143777
2.09775,-0.106267,-0.122325
2.16991,0.102331,0.126511
2.12623,-0.00371021,0.0866251
2.1832,0.102958,-0.10181
2.12908,-0.00371517,-0.11158
2.11297,-0.00368706,0.172493
2.21988,0.213751,-0.0908587
2.17699,0.102665,-0.0507136
2.21814,0.205771,-0.038884
2.13107,-0.0111581,-0.062021
2.1494,-0.0112541,-0.429889
2.16993,0.0947415,0
2.0888,-0.113125,-0.0243531
2.18758,0.0955118,-0.34066
2.14665,-0.0112397,-0.273244
2.21445,0.205429,0.0129257
2.09183,-0.113289,-0.195554
2.16935,0.0947159,0.0505275
2.07682,-0.112476,0.0242135
2.17661,0.0950329,-0.152348
2.12889,-0.0111467,-0.173795
2.12765,-0.0111402,0.0371387
2.22983,0.206855,-0.143521
2.16626,0.0945813,0.126278
2.12221,-0.0111118,0.0864623
2.17956,0.0951618,-0.101624
2.12905,-0.0111476,-0.11158
2.21664,0.205631,-0.0906958
2.18133,0.0952392,-0.0508067
2.21084,0.197702,-0.0387443
2.12302,-0.0181561,-0.0617883
2.14151,-0.0183142,-0.42832
2.16624,0.0873845,0
2.08442,-0.119821,-0.0243066
2.18788,0.0882575,-0.34066
2.14263,-0.0183239,-0.272739
2.20716,0.197372,0.0128792
2.13189,-0.0182319,-0.012391
2.18557,0.0881643,-0.235614
2.09542,-0.120453,-0.195926
2.17364,0.0876832,0.0506206
2.17691,0.0878149,-0.152348
2.12485,-0.0181718,-0.173469
2.20228,0.196936,0.0643483
2.1236,-0.0181611,0.0370689
2.21858,0.198394,-0.142753
2.09299,-0.120314,-0.122092
2.16257,0.0872367,0.126045
2.12216,-0.0181488,0.0864623
2.17587,0.087773,-0.101438
2.129,-0.0182073,-0.11158
2.21332,0.197924,-0.090533
2.16965,0.087522,-0.0505275
2.20753,0.189641,-0.0386745
2.12295,-0.0255663,-0.0617883
2.14535,-0.0258362,-0.429105
2.17053,0.0799701,0
2.08399,-0.127096,-0.0243066
2.18422,0.0804747,-0.340045
2.13859,-0.0257547,-0.272234
2.20385,0.189325,0.012856
2.18189,0.0803887,-0.235185
2.16994,0.0799484,0.0505275
2.076,-0.126609,0.0242135
2.17322,0.0800691,-0.152069
2.12079,-0.0255404,-0.173144
2.19897,0.188906,0.0642319
2.11952,-0.0255251,0.0369991
2.2113,0.189965,-0.142242
2.08857,-0.127376,-0.121859
2.15488,0.0793937,0.12558
2.1101,-0.0254116,0.0859738
2.17217,0.0800306,-0.101252
2.12493,-0.0255902,-0.111371
2.21002,0.189855,-0.0903702
2.16994,0.0799484,-0.0505275
2.20815,0.182319,-0.0386745
2.11486,-0.0324839,-0.0615556
2.13741,-0.0328304,-0.427536
2.15879,0.0723692,0
2.08355,-0.134007,-0.0243066
2.17658,0.0729657,-0.338815
2.13452,-0.032786,-0.271729
2.20047,0.181686,0.0128327
2.12771,-0.0326814,-0.0123678
2.17817,0.073019,-0.234757
2.07468,-0.133436,-0.194067
2.1582,0.0723497,0.0502484
2.16948,0.0727277,-0.15179
2.12468,-0.0326348,-0.173469
2.1956,0.181283,0.0641155
2.11943,-0.0325541,0.0369991
2.2159,0.182959,-0.142497
2.08814,-0.134302,-0.121859
2.15114,0.0721131,0.125348
2.16444,0.0725586,-0.100879
2.11685,-0.0325145,-0.110952
2.20665,0.182196,-0.0902073
2.1662,0.0726176,-0.0504345
2.20083,0.173595,-0.0385349
2.11872,-0.0403116,-0.0616719
2.12944,-0.0405155,-0.425967
2.14704,0.0640978,0
2.07507,-0.1411,-0.0242135
2.17683,0.0649871,-0.338815
2.20511,0.173933,0.012856
2.17445,0.0649159,-0.234328
2.0702,-0.140769,-0.193695
2.16245,0.0645578,0.0503414
2.0631,-0.140286,0.0240738
2.16574,0.0646561,-0.151511
2.12056,-0.0403467,-0.173144
2.19625,0.173234,0.0641155
2.12329,-0.0403986,0.0370689
2.21655,0.174836,-0.142497
2.08763,-0.141955,-0.121859
2.15539,0.0643468,0.12558
2.11386,-0.0402192,0.0861366
2.16469,0.0646245,-0.100879
2.11671,-0.0402734,-0.110952
2.20731,0.174106,-0.0902073
2.16645,0.0646771,-0.0504345
2.19743,0.165612,-0.0384651
2.11057,-0.0475266,-0.0614392
2.1332,-0.0480362,-0.426751
2.15525,0.0568141,0
2.06658,-0.147772,-0.0241203
2.16914,0.0571803,-0.337585
2.13027,-0.0479701,-0.271224
2.20172,0.165935,0.0128327
2.17466,0.0573257,-0.234328
2.06969,-0.147994,-0.193695
2.06658,-0.147772,0.0241203
2.16197,0.0569911,-0.151232
2.11244,-0.0475686,-0.172493
2.18886,0.164966,0.0638828
2.11514,-0.0476295,0.0369293
2.20919,0.166498,-0.141986
2.07916,-0.148671,-0.121394
2.15161,0.056718,0.125348
2.10172,-0.0473274,0.0856481
2.1649,0.0570684,-0.100879
2.10857,-0.0474816,-0.110534
2.19196,0.165199,-0.089556
2.16666,0.0571148,-0.0504345
2.198,0.15794,-0.0384651
2.11839,-0.0551019,-0.0616719
2.1291,-0.0553806,-0.425967
2.14344,0.0490157,0
2.07004,-0.155284,-0.0241669
2.17328,0.0496982,-0.3382
2.12612,-0.0553031,-0.270719
2.19829,0.157961,0.0128095
2.11125,-0.0549163,-0.0122748
2.15894,0.0493703,-0.232615
2.07711,-0.155814,-0.194439
2.05808,-0.154386,0.0240272
2.15816,0.0493525,-0.150953
2.11226,-0.0549425,-0.172493
2.18943,0.157324,0.0638828
2.11496,-0.0550129,0.0369293
2.20578,0.158499,-0.14173
2.07863,-0.155928,-0.121394
2.1478,0.0491154,0.125115
2.09755,-0.0545599,0.0854853
2.16109,0.0494194,-0.100693
2.11239,-0.0549458,-0.110743
2.19252,0.157547,-0.089556
2.15485,0.0492768,-0.0501553
2.19055,0.149721,-0.0383255
2.10219,-0.0620245,-0.0612065
2.12497,-0.0626966,-0.425182
2.1396,0.041456,0
2.07348,-0.162822,-0.0242135
2.12591,-0.0627243,-0.270719
2.19085,0.149741,0.012763
2.09905,-0.0619317,-0.012205
2.1591,0.0418339,-0.232615
2.06464,-0.162128,-0.193324
2.15501,0.0417546,0.0501553
2.05753,-0.161569,0.0240272
2.15832,0.0418188,-0.150953
2.10408,-0.0620801,-0.171842
2.11076,-0.0622772,0.0368595
2.19835,0.150254,-0.141218
2.07409,-0.16287,-0.121162
2.14396,0.0415405,0.124883
2.09735,-0.0618814,0.0854853
2.15326,0.0417207,-0.100321
2.11218,-0.0623191,-0.110743
2.18907,0.14962,-0.0893932
2.15101,0.0416771,-0.0500623
2.18707,0.141815,-0.0382557
2.10596,-0.069494,-0.0613228
2.11298,-0.0697256,-0.422829
2.06492,-0.169405,-0.0241203
2.16172,0.0343364,-0.336356
2.12172,-0.0700139,-0.270214
2.18737,0.141834,0.0127397
2.15526,0.0342338,-0.232186
2.14649,0.0340944,-0.150116
2.11182,-0.0696874,-0.172493
2.18249,0.141518,0.0636501
2.10653,-0.0695128,0.0367897
2.19488,0.142321,-0.140962
2.06953,-0.169783,-0.120929
2.1401,0.033993,0.12465
2.08913,-0.0689385,0.0851596
2.1454,0.0340772,-0.0999489
2.10796,-0.0695599,-0.110534
2.12378,0.0337338,0.2608
2.18958,0.141978,-0.0893932
2.14715,0.0341049,-0.0499692
2.18356,0.133935,-0.0381859
2.10571,-0.0768447,-0.0613228
2.11273,-0.0771009,-0.422829
2.13584,0.0264683,0
2.06033,-0.176271,-0.0240738
2.15787,0.0267414,-0.335741
2.11749,-0.0772749,-0.269709
2.19184,0.134443,0.012763
2.15537,0.0267103,-0.232186
2.05949,-0.176199,-0.192952
2.14725,0.0266098,0.0499692
2.14659,0.0266016,-0.150116
2.1036,-0.0767678,-0.171842
2.18696,0.134143,0.0637664
2.10228,-0.0767197,0.0367199
2.19138,0.134414,-0.140707
2.0729,-0.177346,-0.121162
2.13622,0.026473,0.124418
2.14551,0.0265882,-0.0999489
2.09972,-0.0766262,-0.110115
2.18209,0.133844,-0.0890675
2.14326,0.0265602,-0.0498762
2.17603,0.12585,-0.0380462
2.10143,-0.0840348,-0.0612065
2.11244,-0.0844752,-0.422829
2.13192,0.0189771,0
2.05572,-0.183107,-0.0240272
2.154,0.0191737,-0.335126
2.11721,-0.0846659,-0.269709
2.18431,0.126329,0.0127165
2.10628,-0.0842288,-0.0122515
2.15545,0.0191865,-0.232186
2.06283,-0.18374,-0.193324
2.14334,0.0190787,0.0498762
2.14667,0.0191084,-0.150116
2.10332,-0.0841102,-0.171842
2.17544,0.125816,0.0634174
2.098,-0.0838978,0.0366501
2.18785,0.126534,-0.140451
2.06829,-0.184226,-0.120929
2.1363,0.0190161,0.124418
2.09259,-0.0836813,0.0853225
2.14159,0.0190632,-0.0997627
2.09944,-0.0839552,-0.110115
2.17855,0.125996,-0.0889047
2.15133,0.0191499,-0.0500623
2.18043,0.118851,-0.0381161
2.10114,-0.0910029,-0.0612065
2.11215,-0.0914799,-0.422829
2.05909,-0.190291,-0.0240738
2.15405,0.0120306,-0.335126
2.11296,-0.0915147,-0.269204
2.17673,0.11865,0.01267
2.10199,-0.0910399,-0.0122283
2.14357,0.0119721,-0.230901
2.05824,-0.190213,-0.192952
2.04315,-0.188818,0.0238875
2.14273,0.0119674,-0.149837
2.09904,-0.0909121,-0.171516
2.17585,0.118601,0.0634174
2.09372,-0.0906815,0.0365802
2.18427,0.119061,-0.140195
2.06369,-0.190717,-0.120697
2.12836,0.0118871,0.123952
2.14564,0.0119836,-0.0999489
2.09516,-0.0907438,-0.109906
2.12005,0.0118407,0.260313
2.17896,0.118771,-0.0889047
2.14339,0.0119711,-0.0498762
2.17284,0.110832,-0.0379764
2.08883,-0.0977759,-0.0608574
2.11182,-0.0988521,-0.422829
2.132,0.00446525,0
2.05443,-0.197095,-0.0240272
2.15408,0.00451151,-0.335126
2.1047,-0.0985186,-0.268194
2.17713,0.111051,0.01267
2.09367,-0.0980026,-0.0121818
2.13166,0.00446456,-0.229616
2.0536,-0.197016,-0.19258
2.13942,0.00448079,0.0497831
2.04248,-0.195949,0.0238875
2.13877,0.00447945,-0.149558
2.09871,-0.0982386,-0.171516
2.17625,0.111006,0.0634174
2.09738,-0.0981764,0.0366501
2.18467,0.111435,-0.140195
2.05904,-0.197538,-0.120464
2.12839,0.0044577,0.123952
2.13368,0.00446878,-0.0993905
2.09882,-0.0982435,-0.110115
2.1161,0.00443197,0.259825
2.17137,0.110757,-0.0885791
2.13542,0.00447242,-0.0496901
2.16924,0.102678,-0.0379066
2.08446,-0.10523,-0.060741
2.10753,-0.106394,-0.422044
2.124,-0.00333637,0
2.04573,-0.203831,-0.0239341
2.14618,-0.00337121,-0.333896
2.10432,-0.106232,-0.268194
2.17753,0.10307,0.01267
2.0933,-0.105676,-0.0121818
2.13962,-0.00336091,-0.230473
2.0489,-0.204147,-0.192208
2.13542,-0.00335431,0.0496901
2.13079,-0.00334704,-0.149
2.09436,-0.105729,-0.171191
2.16865,0.10265,0.0631846
2.08902,-0.10546,0.0365104
2.17709,0.10305,-0.139683
2.05036,-0.204291,-0.119999
2.13238,-0.00334954,0.124185
2.13368,-0.00335158,-0.0993905
2.08648,-0.105331,-0.109487
2.11214,-0.00331774,0.259338
2.16777,0.102609,-0.0884162
2.13942,-0.00336059,-0.0497831
2.17358,0.0952807,-0.0379764
2.08807,-0.112721,-0.0608574
2.09931,-0.113327,-0.420475
2.11997,-0.0107302,0
2.03705,-0.210149,-0.0238409
2.1422,-0.0108428,-0.333281
2.17787,0.0954688,0.01267
2.08892,-0.112766,-0.0121585
2.13164,-0.0107893,-0.229616
2.04818,-0.211297,-0.192208
2.1314,-0.0107881,0.049597
2.12678,-0.0107647,-0.148721
2.08999,-0.112824,-0.170865
2.165,0.0949047,0.0630683
2.08465,-0.112536,0.0364406
2.16946,0.0951001,-0.139172
2.04963,-0.211447,-0.119999
2.12038,-0.0107323,0.123487
2.12966,-0.0107793,-0.0992044
2.08211,-0.112398,-0.109277
2.16812,0.0950412,-0.0884162
2.13539,-0.0108083,-0.0496901
2.16188,0.0879639,-0.037767
2.07573,-0.118596,-0.0605083
2.10286,-0.120145,-0.42126
2.11993,-0.0173903,0
2.0324,-0.216125,-0.0237944
2.14216,-0.0175726,-0.333281
2.09961,-0.11996,-0.267689
2.17017,0.0883011,0.0126235
2.09255,-0.119557,-0.0121818
2.13557,-0.0175186,-0.230044
2.04354,-0.21731,-0.191837
2.12674,-0.0174461,-0.148721
2.08963,-0.11939,-0.170865
2.16529,0.0881027,0.0630683
2.08428,-0.119084,0.0364406
2.17374,0.0884464,-0.139427
2.04499,-0.217463,-0.119766
2.12433,-0.0174264,0.12372
2.12962,-0.0174698,-0.0992044
2.08573,-0.119167,-0.109487
2.1081,-0.0172932,0.258851
2.16441,0.0880669,-0.0882534
2.12735,-0.0174512,-0.049504
2.1622,0.0796623,-0.037767
2.07925,-0.126808,-0.0606247
2.09847,-0.12798,-0.420475
2.11985,-0.0255301,0
2.03553,-0.224365,-0.0238409
2.13812,-0.0257502,-0.332666
2.09121,-0.127538,-0.266678
2.1585,0.0795258,0.0125537
2.08808,-0.127347,-0.0121585
2.13151,-0.0256706,-0.229616
2.04665,-0.225591,-0.192208
2.12665,-0.025612,-0.148721
2.08518,-0.12717,-0.17054
2.16162,0.0796407,0.0629519
2.07982,-0.126843,0.0363708
2.16608,0.0798052,-0.138916
2.04414,-0.225314,-0.119766
2.11626,-0.0254869,0.123255
2.12554,-0.0255986,-0.0990182
2.08925,-0.127418,-0.109696
2.10008,-0.025292,0.257876
2.16473,0.0797555,-0.0882534
2.12727,-0.0256195,-0.049504
2.15445,0.0725998,-0.0376274
2.07087,-0.132828,-0.060392
2.09805,-0.134572,-0.420475
2.11576,-0.0321289,0
2.03084,-0.230308,-0.0237944
2.13408,-0.0324071,-0.332051
2.0908,-0.134107,-0.266678
2.15874,0.0727443,0.0125537
2.0757,-0.133138,-0.0120888
2.11949,-0.0321856,-0.228331
2.03802,-0.231122,-0.191465
2.12318,-0.0322416,0.0494109
2.12656,-0.032293,-0.148721
2.08079,-0.133465,-0.170214
2.15786,0.0727147,0.0628356
2.07542,-0.13312,0.036301
2.16233,0.0728655,-0.13866
2.03945,-0.231284,-0.119534
2.11218,-0.0320745,0.123022
2.11746,-0.0321548,-0.098646
2.08086,-0.133469,-0.109277
2.09999,-0.0318894,0.257876
2.07283,-0.132954,0.169564
2.15699,0.0726852,-0.0879277
2.11918,-0.0321809,-0.0493179
2.1587,0.0648229,-0.0376972
2.07037,-0.140417,-0.060392
2.08972,-0.14173,-0.418907
2.10763,-0.0397325,0
2.02601,-0.237285,-0.0237478
2.12604,-0.0400797,-0.330821
2.08633,-0.1415,-0.266173
2.15499,0.0647116,0.0125305
2.0752,-0.140745,-0.0120888
2.11936,-0.0399538,-0.228331
2.0332,-0.238127,-0.191093
2.11505,-0.0398725,0.0492248
2.11446,-0.0398614,-0.147884
2.08028,-0.14109,-0.170214
2.15412,0.0646853,0.0627192
2.07093,-0.140455,0.0362312
2.1586,0.0648198,-0.138404
2.03066,-0.237829,-0.119069
2.11205,-0.0398158,0.123022
2.10934,-0.0397648,-0.0982737
2.07239,-0.140555,-0.108859
2.09985,-0.039586,0.257876
2.15324,0.064659,-0.0877649
2.11905,-0.0399479,-0.0493179
2.15891,0.0572872,-0.0376972
2.06587,-0.147359,-0.0602756
2.0853,-0.148744,-0.418122
2.10348,-0.0469999,0
2.02517,-0.244356,-0.0237478
2.12589,-0.0475007,-0.330821
2.08979,-0.149065,-0.266678
2.1632,0.0574011,0.012577
2.0707,-0.147703,-0.0120655
2.11523,-0.0472626,-0.227903
2.02841,-0.244746,-0.190721
2.1149,-0.0472552,0.0492248
2.11032,-0.0471528,-0.147605
2.0758,-0.148067,-0.169889
2.15033,0.0570596,0.0626028
2.07042,-0.147683,0.0362312
2.15482,0.0571786,-0.138148
2.03378,-0.245394,-0.119301
2.11189,-0.047188,0.123022
2.10919,-0.0471275,-0.0982737
2.07189,-0.147788,-0.108859
2.14946,0.0570364,-0.0876021
2.1149,-0.0472552,-0.0492248
2.1471,0.0494745,-0.0374878
2.06535,-0.154569,-0.0602756
2.08868,-0.156315,-0.418907
2.1073,-0.0544454,0
2.11781,-0.054717,-0.329592
2.07738,-0.15547,-0.265163
2.15139,0.0495733,0.0125072
2.07018,-0.154931,-0.0120655
2.11506,-0.0546459,-0.227903
2.03149,-0.252315,-0.191093
2.11472,-0.0546373,0.0492248
2.10615,-0.0544159,-0.147326
2.06732,-0.154717,-0.169238
2.14252,0.049369,0.0623701
2.06192,-0.154313,0.0360916
2.15102,0.0495646,-0.137892
2.03291,-0.252492,-0.119301
2.10373,-0.0543533,0.122557
2.07136,-0.155019,-0.108859
2.14965,0.0495331,-0.0876021
2.11472,-0.0546373,-0.0492248
2.14326,0.0419012,-0.037418
2.0648,-0.161778,-0.0602756
2.08421,-0.163299,-0.418122
2.1031,-0.0616837,0
2.11365,-0.0619933,-0.328977
2.08078,-0.16303,-0.265668
2.14755,0.0419851,0.012484
2.06563,-0.161843,-0.0120423
2.0306,-0.259405,-0.191093
2.10595,-0.0617674,-0.147326
2.06677,-0.161932,-0.169238
2.13869,0.0418117,0.0622537
2.05738,-0.161197,0.0360218
2.15118,0.0420559,-0.137892
2.02805,-0.25908,-0.119069
2.09954,-0.0615793,0.122325
2.10481,-0.061734,-0.0980876
2.06682,-0.161936,-0.108649
2.14581,0.041951,-0.0874392
2.10652,-0.0617842,-0.0490387
2.14339,0.0347936,-0.037418
2.09888,-0.0685269,0
2.01858,-0.264676,-0.0237012
2.12134,-0.0692601,-0.330207
2.07628,-0.169607,-0.265163
2.14768,0.0348633,0.012484
2.0611,-0.168367,-0.012019
2.10271,-0.0686519,-0.226617
2.1103,-0.0688998,0.0491318
2.01462,-0.264156,0.0236547
2.10573,-0.0687506,-0.147326
2.06622,-0.168785,-0.169238
2.14281,0.0347842,0.0623701
2.05683,-0.168018,0.0360218
2.14332,0.0347925,-0.137381
2.02322,-0.265285,-0.118836
2.09533,-0.068411,0.122092
2.1006,-0.0685831,-0.0979015
2.06229,-0.168464,-0.10844
2.13794,0.0347052,-0.0871136
2.09831,-0.0685084,-0.0488526
2.1435,0.0269375,-0.037418
2.05166,-0.175168,-0.0599265
2.09462,-0.0760741,0
2.11317,-0.0767478,-0.328977
2.07169,-0.176878,-0.264658
2.14379,0.0269411,0.0124607
2.05648,-0.17558,-0.0119958
2.09847,-0.0762139,-0.226189
2.0169,-0.271978,-0.189978
2.09805,-0.0761986,0.0488526
2.10148,-0.0763232,-0.147047
2.06559,-0.176357,-0.169238
2.13493,0.0268297,0.0621374
2.05222,-0.175216,0.035952
2.14343,0.0269366,-0.137381
2.02224,-0.272699,-0.118836
2.09507,-0.0760903,0.122092
2.09634,-0.0761367,-0.0977154
2.05768,-0.175682,-0.108231
2.14605,0.0269695,-0.0874392
2.09405,-0.0760535,-0.0487595
2.13959,0.0194188,-0.0373482
2.08635,-0.0830669,0
2.10499,-0.0838092,-0.327747
2.07501,-0.18446,-0.265163
2.14388,0.0194578,0.0124607
2.05187,-0.182403,-0.0119725
2.09819,-0.0835385,-0.226189
2.09777,-0.0835217,0.0488526
2.09721,-0.0834995,-0.146768
2.06099,-0.183213,-0.168913
2.13101,0.019341,0.062021
2.05558,-0.182732,0.0360218
2.13553,0.019382,-0.136869
2.0908,-0.0832441,0.121859
2.05308,-0.18251,-0.108021
2.13414,0.0193694,-0.0869508
2.10177,-0.0836808,-0.0489456
2.13564,0.0119278,-0.0372783
2.09004,-0.0905222,0
2.00377,-0.284465,-0.0235616
2.10074,-0.0909854,-0.327132
2.05855,-0.190241,-0.263143
2.13993,0.0119517,0.0124375
2.04724,-0.189196,-0.0119493
2.09391,-0.0906899,-0.225761
2.09747,-0.0908438,0.0488526
2.09292,-0.090647,-0.146489
2.12707,0.0118799,0.0619047
2.04298,-0.188802,0.0358123
2.13559,0.0119275,-0.136869
2.08651,-0.0903691,0.121627
2.09177,-0.0905971,-0.0975292
2.04845,-0.189308,-0.107812
2.1302,0.0118974,-0.0867879
2.09747,-0.0908438,-0.0488526
2.13567,0.00447295,-0.0372783
2.04176,-0.19588,-0.0596938
2.08572,-0.0976302,0
2.00672,-0.292034,-0.0236081
2.09646,-0.098133,-0.326517
2.05787,-0.197426,-0.263143
2.12796,0.0044568,0.0123678
2.04259,-0.195959,-0.011926
2.08961,-0.0978125,-0.225332
2.01,-0.29251,-0.189606
2.09714,-0.0981647,0.0488526
2.09658,-0.0981387,-0.146768
2.05569,-0.197216,-0.168587
2.1231,0.00444661,0.0617883
2.12763,0.00445611,-0.136357
2.08219,-0.0974651,0.121394
2.09144,-0.0978981,-0.0975292
2.04778,-0.196457,-0.107812
2.13023,0.00446155,-0.0867879
2.09314,-0.0979778,-0.0487595
2.12767,-0.00297079,-0.0371387
2.04106,-0.203005,-0.0596938
2.08536,-0.10491,0
2.00569,-0.299037,-0.0236081
2.10005,-0.105649,-0.327132
2.04927,-0.203822,-0.262133
2.12796,-0.00297119,0.0123678
2.00502,-0.298937,-0.189234
2.09279,-0.105284,0.0487595
2.09224,-0.105256,-0.146489
2.05102,-0.203996,-0.168262
2.1271,-0.00296999,0.0619047
2.01033,-0.299729,-0.118371
2.08184,-0.104733,0.121394
2.08709,-0.104997,-0.0973431
2.04708,-0.203604,-0.107812
2.12623,-0.00296878,-0.0866251
2.0848,-0.104882,-0.0485734
2.12365,-0.00963689,-0.0370689
2.04041,-0.209417,-0.0596938
2.08103,-0.111247,0
2.00474,-0.305337,-0.0236081
2.10365,-0.112457,-0.327747
2.06046,-0.211475,-0.263648
2.12394,-0.0096382,0.0123445
2.04124,-0.209502,-0.011926
2.00408,-0.305235,-0.189234
2.08446,-0.111431,0.0485734
2.08393,-0.111402,-0.145931
2.04641,-0.210032,-0.167936
2.12708,-0.00965243,0.0619047
2.04097,-0.209473,0.0358123
2.12761,-0.00965486,-0.136357
2.00544,-0.305442,-0.118138
2.07352,-0.110846,0.120929
2.07877,-0.111127,-0.0969709
2.03848,-0.209218,-0.107393
2.12222,-0.00963037,-0.0864623
2.08845,-0.111644,-0.0486665
2.1316,-0.0174861,-0.0372085
2.07661,-0.118646,0
1.99966,-0.312066,-0.0235616
2.09534,-0.119716,-0.326517
2.05968,-0.219025,-0.263648
2.03251,-0.216136,-0.0118796
2.08452,-0.119098,-0.224904
1.99901,-0.311964,-0.188862
2.08404,-0.11907,0.0485734
2.08351,-0.11904,-0.145931
2.03769,-0.216688,-0.167285
2.11503,-0.0173501,0.0615556
2.03621,-0.21653,0.0357425
2.12357,-0.0174202,-0.136102
2.00036,-0.312175,-0.117906
2.0731,-0.118445,0.120929
2.08234,-0.118973,-0.097157
2.0377,-0.216688,-0.107393
2.12217,-0.0174087,-0.0864623
2.07605,-0.118614,-0.0483873
2.12753,-0.0248799,-0.0371387
2.03091,-0.223139,-0.0594611
2.07219,-0.125652,0
2.05101,-0.225347,-0.262638
2.11982,-0.0247897,0.0123213
2.08361,-0.126344,0.0485734
2.08308,-0.126312,-0.145931
2.11096,-0.0246861,0.0614392
2.02749,-0.222762,0.0356029
2.1235,-0.0248327,-0.136102
1.99531,-0.318526,-0.117673
2.06869,-0.125439,0.120697
2.07793,-0.125999,-0.0969709
2.03296,-0.223363,-0.107184
2.07562,-0.12586,-0.0483873
2.11943,-0.0321847,-0.0369991
2.0341,-0.230677,-0.0595774
2.06775,-0.132628,0
2.07867,-0.133329,-0.324057
2.03838,-0.231163,-0.261123
2.11172,-0.0320676,0.0122748
2.0757,-0.133138,-0.224047
2.07916,-0.13336,0.0484804
2.07864,-0.133327,-0.145652
2.03217,-0.230459,-0.16696
2.11086,-0.0320546,0.0614392
2.11941,-0.0321843,-0.135846
2.06425,-0.132404,0.120464
2.07349,-0.132996,-0.0967847
2.114,-0.0321022,-0.0861366
2.06719,-0.132592,-0.0482012
2.11532,-0.0391388,-0.0369293
2.02538,-0.236494,-0.0593447
2.0673,-0.139484,0
2.0376,-0.237921,-0.261123
2.1116,-0.0390701,0.0122748
2.07525,-0.140021,-0.224047
2.07871,-0.140254,0.0484804
2.08217,-0.140488,-0.145931
2.0314,-0.237196,-0.16696
2.10275,-0.0389063,0.0612065
2.1153,-0.0391385,-0.13559
2.0638,-0.139249,0.120464
2.06905,-0.139602,-0.0965986
2.02742,-0.236733,-0.106975
2.11788,-0.0391863,-0.0862994
2.06674,-0.139447,-0.0482012
2.11116,-0.0468029,-0.0368595
2.06677,-0.147061,0
2.07375,-0.147557,-0.323443
2.03672,-0.245388,-0.261123
2.11544,-0.0468979,0.012298
2.02135,-0.243536,-0.0118331
2.07472,-0.147626,-0.224047
2.0702,-0.147305,0.0482943
2.07368,-0.147552,-0.145372
2.03051,-0.24464,-0.16696
2.10259,-0.046613,0.0612065
2.11115,-0.0468027,-0.135334
2.05531,-0.146245,0.119999
2.06454,-0.146901,-0.0964125
2.11772,-0.0469484,-0.0862994
2.06223,-0.146737,-0.0481082
2.11098,-0.054172,-0.0368595
2.01966,-0.250489,-0.0592283
2.05827,-0.153678,0
2.03585,-0.252496,-0.261123
2.10727,-0.0540767,0.0122515
2.07023,-0.154571,-0.223619
2.06569,-0.154232,0.0482012
2.0652,-0.154195,-0.144814
2.02569,-0.251236,-0.166634
2.09842,-0.0538496,0.0610901
2.01624,-0.250064,0.0354633
2.11097,-0.0541717,-0.135334
1.98674,-0.345669,-0.117441
2.06275,-0.154013,0.120464
2.068,-0.154405,-0.0965986
2.02171,-0.250743,-0.106765
2.10556,-0.0540328,-0.085811
2.06569,-0.154232,-0.0482012
2.11079,-0.061172,-0.0368595
2.01882,-0.257185,-0.0592283
2.06174,-0.160814,0
2.03107,-0.258744,-0.260618
2.09509,-0.0607168,0.0121818
2.01964,-0.257289,-0.0118331
2.0697,-0.161435,-0.223619
2.07263,-0.161664,-0.145372
2.09423,-0.0606921,0.0609738
2.10679,-0.061056,-0.135078
2.05825,-0.160542,0.120232
2.06349,-0.160951,-0.0964125
2.10137,-0.060899,-0.0856481
2.05719,-0.16046,-0.0480151
2.10656,-0.0687775,-0.0367897
2.0139,-0.264063,-0.059112
2.06113,-0.16837,0
2.06421,-0.168621,-0.322213
2.02223,-0.265155,-0.259607
2.06117,-0.168373,-0.222762
2.06855,-0.168975,0.0482943
2.06407,-0.168609,-0.144814
2.09,-0.0682369,0.0608574
2.04969,-0.167435,0.119766
2.06687,-0.168838,-0.0965986
2.10114,-0.0686005,-0.0856481
2.09431,-0.075697,-0.0365802
2.06361,-0.175825,-0.322213
2.02523,-0.272742,-0.260113
2.0946,-0.0757072,0.0121818
2.05998,-0.175516,0.0481082
2.06744,-0.176152,-0.145093
2.08975,-0.075532,0.0608574
2.09433,-0.0756977,-0.134311
2.0583,-0.175373,-0.0962264
2.01502,-0.271367,-0.106556
2.0929,-0.0756457,-0.0853225
2.09405,-0.0826415,-0.0365802
2.05596,-0.182043,0
2.06301,-0.182668,-0.322213
2.01645,-0.278371,-0.259102
2.09034,-0.082495,0.0121585
2.05998,-0.182399,-0.222762
2.05142,-0.181641,0.0479221
2.0589,-0.182303,-0.144535
2.01413,-0.278051,-0.165984
2.08949,-0.0824615,0.0608574
2.09407,-0.0826423,-0.134311
2.05771,-0.182198,-0.0962264
2.09663,-0.0827432,-0.0854853
2.09775,-0.0901223,-0.0366501
2.04336,-0.188118,0
2.06236,-0.189868,-0.322213
2.0194,-0.285965,-0.259607
2.09403,-0.0899628,0.0121818
2.04281,-0.188067,0.047736
2.05825,-0.189489,-0.144535
2.09377,-0.0899515,-0.134311
2.0491,-0.188647,-0.0958541
2.08834,-0.0897182,-0.0851596
2.04679,-0.188434,-0.047829
2.09342,-0.0972586,-0.0365802
2.01839,-0.293012,-0.259607
2.05074,-0.196019,-0.221905
2.05408,-0.196338,0.0480151
2.04963,-0.195913,-0.143977
2.08547,-0.096889,-0.133799
1.96737,-0.384557,-0.116743
2.04843,-0.195798,-0.0958541
2.08801,-0.0970073,-0.0851596
2.04214,-0.195197,-0.047736
2.0851,-0.103802,-0.0364406
2.03805,-0.201628,0
2.05008,-0.202818,-0.221905
2.04944,-0.202755,0.0479221
2.05294,-0.203101,-0.144256
2.08513,-0.103804,-0.133799
2.05175,-0.202983,-0.0960402
2.08369,-0.103732,-0.0849968
2.08071,-0.111231,-0.0363708
2.0373,-0.209097,0
2.0447,-0.209857,0.047829
2.04821,-0.210217,-0.143977
2.08075,-0.111233,-0.133543
2.03907,-0.209278,-0.0954819
2.08329,-0.111369,-0.0849968
2.08031,-0.118493,-0.0363708
2.03656,-0.216207,0
2.04379,-0.216975,-0.319753
2.0766,-0.118281,0.0120888
2.04066,-0.216643,-0.221048
2.036,-0.216149,0.0476429
2.04747,-0.217365,-0.143977
2.08434,-0.118722,-0.133799
2.0423,-0.216817,-0.095668
2.0789,-0.118413,-0.084834
2.07988,-0.125754,-0.0363708
2.06819,-0.125047,0.0120423
2.03921,-0.22369,0.047736
2.03876,-0.223641,-0.143419
2.06735,-0.124996,0.0602756
2.08391,-0.125997,-0.133799
2.03358,-0.223073,-0.0952957
2.07449,-0.125427,-0.0846712
2.07946,-0.13265,-0.0363708
2.02709,-0.229166,0
2.06776,-0.131904,0.0120423
2.03914,-0.230528,-0.221048
2.03051,-0.229553,0.0475499
2.03801,-0.2304,-0.143419
2.07551,-0.132399,-0.133288
2.0368,-0.230264,-0.0954819
2.07406,-0.132306,-0.0846712
2.07499,-0.13964,-0.036301
2.03437,-0.237184,-0.22062
2.03367,-0.237102,0.0476429
2.03719,-0.237513,-0.143419
2.02805,-0.236447,-0.0951096
2.06252,-0.146034,-0.0360916
2.02147,-0.242835,0
2.03276,-0.244191,-0.318523
2.02843,-0.243671,-0.142861
2.06658,-0.146321,-0.132776
2.02721,-0.243525,-0.0951096
2.06599,-0.153529,-0.0361614
2.05829,-0.152957,0.0119958
2.0236,-0.25026,-0.142582
2.06605,-0.153534,-0.132776
2.06858,-0.153722,-0.0845083
2.05746,-0.16012,-0.0360218
2.05376,-0.159831,0.0119725
2.02389,-0.257471,-0.219763
2.0655,-0.160745,-0.132776
2.0215,-0.257167,-0.0949235
2.06088,-0.167625,-0.0360916
2.02692,-0.26505,-0.220192
2.02181,-0.264381,-0.142582
2.05697,-0.167307,-0.132264
2.02059,-0.264222,-0.0949235
2.0555,-0.167187,-0.0840198
2.06028,-0.174817,-0.0360916
2.01692,-0.270906,-0.142303
2.01965,-0.271273,-0.0949235
2.01201,-0.2774,-0.142024
2.04317,-0.180551,0.0596938
2.01078,-0.27723,-0.0945512
2.05428,-0.181533,-0.0840198
2.04706,-0.188099,-0.0358821
2.01222,-0.28459,-0.218906
2.04966,-0.188337,-0.083857
2.04639,-0.195243,-0.0358821
2.00607,-0.290867,-0.141745
2.05444,-0.19601,-0.132264
2.00381,-0.297684,-0.0943651
2.04034,-0.201855,-0.0835313
2.04104,-0.208761,-0.0358123
2.00525,-0.304698,-0.218478
2.00281,-0.304328,-0.0943651
1.99908,-0.310546,-0.141466
1.99785,-0.310354,-0.094179
2.02788,-0.221731,0.0118563
1.99169,-0.323653,-0.0939929
2.03014,-0.235972,-0.130985
2.01873,-0.263262,-0.130473
2.01199,-0.2842,0.0118098
