2.3918,-0.0141932,0.0278455
2.37965,-0.0299052,-0.0277058
2.37153,-0.0380826,0.0276127
2.36737,-0.0471094,-0.0275661
2.36337,-0.0470298,0.0275195
2.35921,-0.0543617,-0.027473
2.36321,-0.0544538,0.0275195
2.35901,-0.0625961,-0.027473
2.35901,-0.0625961,0.027473
2.35875,-0.071653,-0.027473
2.34676,-0.0712886,0.0273333
2.35052,-0.0787966,-0.0273798
2.33853,-0.0783946,0.0272401
2.33824,-0.0865555,-0.0272401
2.34224,-0.0867035,0.0272867
2.33791,-0.0951267,-0.0272401
2.33791,-0.0951267,0.0272401
2.33758,-0.102877,-0.0272401
2.32959,-0.102526,0.027147
2.32979,-0.102535,-0.135813
2.32921,-0.110657,-0.027147
2.31723,-0.110088,0.0270073
2.32144,-0.110288,-0.135348
2.31681,-0.11858,-0.0270073
2.31681,-0.11858,0.0270073
2.31704,-0.118591,-0.135115
2.31643,-0.125858,-0.0270073
2.30444,-0.125207,0.0268676
2.31266,-0.125654,-0.134883
2.30399,-0.13325,-0.0268676
2.29601,-0.132788,0.0267745
2.31221,-0.133725,-0.134883
2.30349,-0.141693,-0.0268676
2.28353,-0.140465,0.0266348
2.30373,-0.141708,-0.134417
2.37468,-0.0385486,-0.0691191
2.37565,-0.0385643,-0.0138091
2.28699,-0.149096,0.0266814
2.29922,-0.149893,-0.134185
2.2905,-0.156552,-0.0267279
2.27454,-0.155461,0.0265417
2.3632,-0.0457883,0.0412575
2.2828,-0.156026,-0.133255
2.28196,-0.163974,-0.0266348
2.37134,-0.054228,-0.0137859
2.28018,-0.163846,-0.2134
2.266,-0.162827,0.0264485
2.2902,-0.164566,-0.13372
2.2734,-0.171337,-0.0265417
2.35914,-0.0621883,-0.0137161
2.28357,-0.172103,-0.213771
2.26143,-0.170435,0.026402
2.35083,-0.0619691,0.0410481
2.27275,-0.179668,-0.0265417
2.3509,-0.0705945,-0.0136696
2.27895,-0.180158,-0.2134
2.26079,-0.178722,0.026402
2.34658,-0.0704648,0.0409782
2.26906,-0.179376,-0.132557
2.26414,-0.186942,-0.0264485
2.34264,-0.0785322,-0.0136231
2.27037,-0.187456,-0.212656
2.25617,-0.186284,0.0263554
2.33833,-0.0783875,0.0408386
2.2724,-0.187624,-0.13279
2.33837,-0.086153,-0.0135999
2.26577,-0.194643,-0.212284
2.24757,-0.19308,0.0262623
2.34605,-0.0864358,0.0409782
2.26381,-0.194475,-0.132324
2.33521,-0.0860363,-0.122466
2.32912,-0.0939543,-0.0678391
2.33806,-0.0943149,-0.0135999
2.26111,-0.202196,-0.211912
2.23493,-0.199855,0.0261226
2.33774,-0.0943021,0.0408386
2.25914,-0.20202,-0.132092
2.32077,-0.102139,-0.0676064
2.24215,-0.208787,-0.0262157
2.32571,-0.102356,-0.0135301
2.25242,-0.209744,-0.211169
2.23418,-0.208045,0.0261226
2.32939,-0.102518,0.040699
2.32655,-0.102393,-0.122047
2.31642,-0.109645,-0.06749
2.23348,-0.215453,-0.0261226
2.31737,-0.10969,-0.0134836
2.25171,-0.217212,-0.211169
2.22154,-0.214301,0.0259829
2.32105,-0.109864,0.0405594
2.31548,-0.109601,0.0944409
2.32221,-0.109919,-0.121838
2.30804,-0.117324,-0.0672573
2.23669,-0.223646,-0.0261692
2.30499,-0.117169,-0.0134139
2.22077,-0.222054,0.0259829
2.32525,-0.118199,-0.190067
2.31266,-0.117559,0.0404198
2.23704,-0.22368,-0.130929
2.32181,-0.118024,-0.121838
2.30762,-0.12538,-0.0672573
2.21999,-0.229805,-0.0259829
2.30456,-0.125214,-0.0134139
2.23826,-0.231696,-0.210054
2.21601,-0.229393,0.0259363
2.31224,-0.125631,0.0404198
2.2283,-0.230665,-0.130464
2.29471,-0.124679,0.0936268
2.30942,-0.125478,-0.12121
2.29517,-0.133142,-0.0669082
2.21118,-0.237087,-0.0258898
2.30009,-0.133428,-0.0133907
2.22947,-0.239049,-0.20931
2.21118,-0.237087,0.0258898
2.30777,-0.133873,0.04035
2.29025,-0.132857,0.0934639
2.30097,-0.133479,-0.120791
2.2987,-0.140998,-0.0670246
2.20243,-0.243539,-0.0257966
2.29165,-0.140565,-0.0133442
2.21038,-0.244418,0.0258898
2.30797,-0.141566,-0.188766
2.29134,-0.140546,0.0400707
2.21473,-0.244899,-0.129766
2.30051,-0.141108,-0.120791
2.28623,-0.148244,-0.0666755
2.20554,-0.251679,-0.0258432
2.29115,-0.148564,-0.0133442
2.37106,-0.0376615,0.0551802
2.19759,-0.250772,0.0257501
2.30746,-0.149621,-0.188766
2.28685,-0.148285,0.0400009
2.21386,-0.252629,-0.129766
2.27732,-0.147667,0.0929754
2.29203,-0.148621,-0.120373
2.28572,-0.155825,-0.0666755
2.19674,-0.258058,-0.0257501
2.27867,-0.155344,-0.0132744
2.21112,-0.259747,-0.207823
2.36692,-0.0454472,0.0550871
2.20072,-0.258525,0.0257966
2.28634,-0.155867,0.0400009
2.20508,-0.259037,-0.129301
2.28754,-0.155949,-0.120163
2.28118,-0.163517,-0.0665591
2.19186,-0.265244,-0.0257035
2.27413,-0.163011,-0.0132512
2.20624,-0.266985,-0.207451
2.35875,-0.0535276,0.054901
2.19186,-0.265244,0.0257035
2.29446,-0.164469,-0.187789
2.28579,-0.163847,0.0400009
2.20019,-0.266253,-0.129069
2.27902,-0.163362,-0.119745
2.25867,-0.161904,0.18486
2.36275,-0.0536183,-0.0549941
2.27658,-0.171576,-0.0664428
2.19087,-0.273276,-0.0257035
2.26953,-0.171045,-0.0132279
2.19735,-0.274083,-0.206708
2.35854,-0.0621725,0.054901
2.18293,-0.272286,0.0256104
2.27794,-0.171679,-0.186487
2.19128,-0.273326,-0.128604
2.27044,-0.171113,-0.119326
2.35454,-0.0620671,-0.054808
2.27198,-0.179208,-0.0663264
2.178,-0.279395,-0.0255638
2.26891,-0.178966,-0.0132279
2.34632,-0.070047,0.0546219
2.18197,-0.279904,0.0256104
2.26938,-0.179003,-0.185836
2.27259,-0.179256,0.0397915
2.19031,-0.280974,-0.128604
2.34841,-0.0701093,-0.109441
2.26584,-0.178724,-0.119117
2.35032,-0.0701663,-0.0547149
2.2634,-0.186086,-0.0660937
2.17707,-0.286616,-0.0255638
2.25236,-0.185178,-0.0131349
2.34208,-0.0776947,0.0545288
2.1731,-0.286094,0.0255173
2.27672,-0.18718,-0.186487
2.25604,-0.185481,0.0395123
2.18145,-0.287193,-0.128138
2.24655,-0.1847,0.0918356
2.34417,-0.077764,-0.109255
2.26922,-0.186564,-0.119326
2.34607,-0.0778273,-0.0546219
2.25079,-0.192961,-0.0657446
2.17605,-0.294214,-0.0255638
2.24772,-0.192697,-0.0131117
2.3378,-0.0857231,0.0544357
2.17605,-0.294214,0.0255638
2.26811,-0.194445,-0.185836
2.2514,-0.193013,0.0394424
2.18043,-0.294806,-0.128138
2.32649,-0.0853086,0.13558
2.3359,-0.0856534,-0.108883
2.26457,-0.194142,-0.119117
2.3378,-0.0857231,-0.0544357
2.24612,-0.200461,-0.0656282
2.23906,-0.199831,-0.0130652
2.17363,-0.301616,-0.204849
2.16313,-0.300159,0.0254241
2.25947,-0.201653,-0.185186
2.25071,-0.20087,0.0394424
2.17148,-0.301318,-0.127673
2.25195,-0.200981,-0.118489
2.22771,-0.198817,0.182582
2.33349,-0.0937225,-0.0543427
2.2454,-0.2083,-0.0656282
2.31779,-0.101197,0
2.16603,-0.308271,-0.0254707
2.23039,-0.206907,-0.0130187
2.32516,-0.101518,0.0541566
2.15811,-0.307144,0.0253776
2.25479,-0.20917,-0.18486
2.16646,-0.308333,-0.127441
2.32185,-0.101374,0.135348
2.24328,-0.208102,-0.11807
2.32915,-0.101693,-0.0542496
2.24068,-0.215753,-0.0655119
2.31343,-0.109099,0
2.15702,-0.314675,-0.0253776
2.23363,-0.215074,-0.0130419
2.3168,-0.109257,0.0539705
2.15702,-0.314675,0.0253776
2.24611,-0.216275,-0.184209
2.23731,-0.215428,0.039233
2.31749,-0.10929,0.135115
2.22386,-0.214133,0.0910215
2.31891,-0.109357,-0.108138
2.24254,-0.215932,-0.11807
2.32479,-0.109634,-0.0541566
2.23196,-0.222779,-0.0652792
2.30904,-0.116971,0
2.24662,-0.224242,-0.287386
2.22491,-0.222075,-0.0129954
2.3164,-0.117344,0.0539705
2.31537,-0.117292,-0.162114
2.24137,-0.223718,-0.183884
2.22461,-0.222045,0.0390236
2.15636,-0.32227,-0.126976
2.30513,-0.116773,0.134417
2.21912,-0.221498,0.0908587
2.31053,-0.117046,-0.107766
2.22587,-0.222171,-0.117233
2.20963,-0.220551,0.18128
2.31241,-0.117142,-0.0538774
2.22321,-0.229747,-0.0650464
2.31261,-0.125247,0
2.24188,-0.231675,-0.286881
2.21616,-0.229018,-0.0129489
2.14953,-0.328924,-0.20299
2.304,-0.12478,0.0536913
2.31096,-0.125157,-0.161835
2.23661,-0.231131,-0.183558
2.21984,-0.229398,0.0389538
2.14338,-0.327983,-0.126278
2.30072,-0.124603,0.134185
2.23303,-0.230761,-0.117651
2.304,-0.12478,-0.0536913
2.21445,-0.236656,-0.0648137
2.30018,-0.132628,0
2.14175,-0.335389,-0.0252379
2.22922,-0.238235,-0.285366
2.21137,-0.236327,-0.0129257
2.1405,-0.335193,-0.202246
2.30355,-0.132822,0.0536913
2.30254,-0.132764,-0.161277
2.23182,-0.238513,-0.183233
2.21902,-0.237145,0.0389538
2.14222,-0.335463,-0.126278
2.28832,-0.131943,0.133487
2.29769,-0.132484,-0.107208
2.22426,-0.237705,-0.117233
2.20011,-0.235124,0.180629
2.29956,-0.132592,-0.0535983
2.29172,-0.140167,0
2.22837,-0.246015,-0.285366
2.20258,-0.243167,-0.0128792
2.13931,-0.342662,-0.202246
2.29908,-0.140618,0.0535983
2.13267,-0.341598,0.0251447
2.29808,-0.140557,-0.160998
2.21513,-0.244552,-0.181931
2.21421,-0.244451,0.038884
2.13709,-0.342307,-0.126045
2.28784,-0.13993,0.133487
2.19682,-0.242531,0.0900445
2.28924,-0.140016,-0.106835
2.21151,-0.244153,-0.116605
2.19135,-0.241928,0.179978
2.29509,-0.140374,-0.0535052
2.20082,-0.250752,-0.0644646
2.28323,-0.14765,0
2.19774,-0.250401,-0.012856
2.12752,-0.348394,0.0250982
2.2936,-0.14832,-0.160719
2.2103,-0.251832,-0.181606
2.20142,-0.25082,0.0386745
2.13194,-0.349119,-0.125813
2.28335,-0.147658,0.133255
2.19199,-0.249746,0.0898817
2.28873,-0.148006,-0.106835
2.20668,-0.251419,-0.116395
2.29458,-0.148384,-0.0535052
2.20395,-0.258515,-0.064581
2.29071,-0.155763,0
2.1969,-0.257688,-0.012856
2.1224,-0.354788,0.0250516
2.28911,-0.155655,-0.16044
2.20549,-0.258696,-0.18128
2.1966,-0.257653,0.0386047
2.12684,-0.355529,-0.12558
2.27488,-0.154687,0.13279
2.18718,-0.256547,0.0897188
2.29222,-0.155866,-0.107022
2.20583,-0.258735,-0.116395
2.18174,-0.255909,0.179327
2.28211,-0.155179,-0.0532261
2.19113,-0.264767,-0.0642319
2.27818,-0.162903,0
2.20996,-0.267044,-0.283346
2.18408,-0.263915,-0.0127862
2.28554,-0.163429,0.0533191
2.11721,-0.361521,0.025005
2.28457,-0.16336,-0.160161
2.20062,-0.265914,-0.180955
2.18378,-0.26388,0.0383953
2.11771,-0.361606,-0.125115
2.26636,-0.162057,0.132324
2.19024,-0.26466,0.0898817
2.28767,-0.163581,-0.106835
2.19698,-0.265475,-0.115976
2.18083,-0.263523,0.179327
2.28156,-0.163144,-0.0532261
2.18627,-0.271539,-0.0641155
2.26566,-0.169561,0
2.19332,-0.272414,-0.281326
2.18716,-0.27165,-0.0128095
2.11483,-0.368336,-0.200387
2.26904,-0.169813,0.0529469
2.27208,-0.170041,-0.159324
2.19577,-0.272719,-0.180629
2.19083,-0.272106,0.0385349
2.10863,-0.367256,-0.12465
2.25785,-0.168976,0.131859
2.17745,-0.270444,0.0893932
2.27516,-0.170272,-0.106277
2.19213,-0.272267,-0.115767
2.17994,-0.270754,0.179327
2.27303,-0.170112,-0.05304
2.17733,-0.278536,-0.0638828
2.25306,-0.176924,0
2.19624,-0.280955,-0.281831
2.34694,-0.0692455,0.0136464
2.17821,-0.278649,-0.012763
2.10955,-0.375387,-0.200016
2.26441,-0.177816,0.0528539
2.09888,-0.37349,0.0248188
2.27542,-0.17868,-0.159603
2.18684,-0.279753,-0.179978
2.17792,-0.278611,0.0383255
2.1112,-0.375682,-0.124883
2.25323,-0.176938,0.131627
2.17248,-0.277916,0.0892304
2.27054,-0.178297,-0.106091
2.18319,-0.279286,-0.115348
2.16707,-0.277224,0.178351
2.26043,-0.177503,-0.0527608
2.34238,-0.0768863,-0.0409084
2.17243,-0.285234,-0.0637664
2.25247,-0.184395,0
2.18743,-0.287203,-0.280821
2.18124,-0.286391,-0.0127862
2.26726,-0.185606,-0.245038
2.10437,-0.38167,-0.199644
2.25983,-0.184997,0.0527608
2.26686,-0.185573,-0.159045
2.178,-0.285966,-0.179327
2.16905,-0.284791,0.0381859
2.25661,-0.184735,0.131859
2.16362,-0.284078,0.0889047
2.26595,-0.185499,-0.105905
2.18225,-0.286524,-0.115348
2.16614,-0.284409,0.178351
2.25186,-0.184345,-0.0525747
2.33409,-0.0851793,-0.0407688
2.1674,-0.292659,-0.0636501
2.25975,-0.193331,0
2.17849,-0.294157,-0.27981
2.17621,-0.293849,-0.012763
2.25864,-0.193236,-0.244181
2.09904,-0.388655,-0.199272
2.26617,-0.193881,-0.159045
2.17694,-0.293947,-0.179327
2.16403,-0.292204,0.0381161
2.24399,-0.191983,0.131162
2.16653,-0.292541,0.0890675
2.26526,-0.193803,-0.105905
2.17723,-0.293986,-0.115139
2.23499,-0.191213,0.275425
2.15323,-0.290746,0.177375
2.25116,-0.192597,-0.0525747
2.15845,-0.299126,-0.0634174
2.2471,-0.200153,0
2.16959,-0.30067,-0.2788
2.17121,-0.300894,-0.0127397
2.25399,-0.200766,-0.243753
2.09376,-0.395241,-0.1989
2.25048,-0.200454,0.0525747
2.2615,-0.201436,-0.158766
2.16405,-0.299902,-0.178351
2.163,-0.299756,0.0381161
2.23535,-0.199106,0.130697
2.15757,-0.299004,0.0887419
2.25661,-0.201,-0.105533
2.16432,-0.299939,-0.114511
2.23035,-0.198661,0.274937
2.1522,-0.29826,0.177375
2.24251,-0.199744,-0.0523886
2.14562,-0.304221,-0.0630683
2.23451,-0.20611,0
2.17257,-0.308041,-0.279305
2.16234,-0.306591,-0.0126932
2.24542,-0.207116,-0.242896
2.08077,-0.399564,-0.197785
2.23789,-0.206421,0.0522955
2.07789,-0.399011,0.0246325
2.24497,-0.207074,-0.15765
2.16704,-0.307259,-0.178676
2.15412,-0.305427,0.0379764
2.23073,-0.205761,0.130464
2.14871,-0.304659,0.0884162
2.24801,-0.207354,-0.10516
2.1515,-0.305054,-0.113883
2.22577,-0.205303,0.27445
2.14731,-0.30446,0.177049
2.23789,-0.206421,-0.0522955
2.14444,-0.312458,-0.0630683
2.22574,-0.213923,0
2.15959,-0.314665,-0.27779
2.23669,-0.214975,-0.242039
2.07531,-0.406784,-0.197413
2.23708,-0.215013,0.0522955
2.24018,-0.21531,-0.157371
2.15796,-0.314428,-0.178025
2.15689,-0.314272,0.0380462
2.31669,-0.108847,-0.148637
2.22595,-0.213943,0.130231
2.14357,-0.312331,0.0882534
2.23924,-0.21522,-0.104788
2.15426,-0.313889,-0.114092
2.22101,-0.213468,0.273962
2.14612,-0.312703,0.177049
2.2331,-0.21463,-0.0522025
2.30871,-0.11655,-0.04035
2.13543,-0.318761,-0.0628356
2.221,-0.221294,0
2.1624,-0.322787,-0.278295
2.30503,-0.116364,0.0134139
2.23593,-0.222781,-0.242039
2.07388,-0.414026,-0.197413
2.22836,-0.222027,0.0521094
2.06707,-0.412666,0.0245394
2.23545,-0.222733,-0.157092
2.14896,-0.320781,-0.177375
2.14787,-0.320618,0.0379066
2.21725,-0.22092,0.129766
2.14247,-0.319811,0.0882534
2.2345,-0.222639,-0.104602
2.14525,-0.320228,-0.113674
2.21235,-0.220432,0.272987
2.13713,-0.319015,0.176398
2.22836,-0.222027,-0.0521094
2.30429,-0.124393,-0.0402802
2.14616,-0.328025,-0.0631846
2.14414,-0.327717,-0.433811
2.2242,-0.229456,0
2.14949,-0.328535,-0.27678
2.22723,-0.229769,-0.241183
2.23069,-0.230125,-0.156813
2.15177,-0.328883,-0.1777
2.13883,-0.326905,0.037767
2.30391,-0.124372,-0.14787
2.20852,-0.227838,0.129301
2.14134,-0.327288,0.0882534
2.14412,-0.327714,-0.113674
2.21157,-0.228153,0.272987
2.12812,-0.325269,0.175747
2.21962,-0.228983,-0.0519233
2.30389,-0.131631,-0.0402802
2.13327,-0.332916,-0.0628356
2.21949,-0.236019,0
2.06429,-0.426366,-0.0245394
2.13669,-0.33345,-0.275265
2.14204,-0.334285,-0.0126002
2.22649,-0.236765,-0.241183
2.06719,-0.426966,-0.197041
2.21889,-0.235955,0.0519233
2.05645,-0.424748,0.0244463
2.22598,-0.23671,-0.156534
2.13497,-0.333182,-0.176398
2.13384,-0.333006,0.0376972
2.29952,-0.131382,-0.147614
2.1324,-0.332781,0.0879277
2.22503,-0.236609,-0.10423
2.14308,-0.334448,-0.113674
2.20294,-0.23426,0.272012
2.12709,-0.331953,0.175747
2.20696,-0.234687,-0.0516442
2.29139,-0.139746,-0.0400707
2.11618,-0.338578,-0.0623701
2.20266,-0.242787,0
2.13931,-0.342279,-0.27577
2.21371,-0.244005,-0.239897
2.05384,-0.432438,-0.195926
2.20206,-0.242721,0.0515511
2.04698,-0.430993,0.0243531
2.21713,-0.244381,-0.155975
2.12974,-0.340748,-0.176073
2.28279,-0.139222,0.0665591
2.13255,-0.341197,0.0376972
2.19893,-0.242376,0.128836
2.12321,-0.339704,0.0876021
2.21616,-0.244275,-0.103857
2.12995,-0.340781,-0.113046
2.19808,-0.242282,0.271525
2.1258,-0.340118,0.175747
2.20604,-0.243159,-0.0516442
2.29089,-0.147744,-0.0400707
2.11893,-0.346608,-0.0624865
2.19782,-0.250022,0
2.20312,-0.250624,-0.344964
2.13419,-0.349104,-0.275265
2.28322,-0.147249,0.0132977
2.21284,-0.251731,-0.239897
2.05622,-0.440439,-0.196298
2.20915,-0.25131,0.0517372
2.04155,-0.437298,0.0243066
2.20833,-0.251217,-0.155417
2.12854,-0.34818,-0.176073
2.1274,-0.347993,0.0376274
2.28655,-0.147464,-0.146847
2.19411,-0.249599,0.128604
2.12201,-0.347113,0.0876021
2.21529,-0.252009,-0.103857
2.12481,-0.347569,-0.112836
2.18539,-0.248607,0.270062
2.1128,-0.345605,0.174771
2.28136,-0.147129,-0.0931383
2.2012,-0.250406,-0.0515511
2.27845,-0.15413,-0.0398613
2.10994,-0.351948,-0.0622537
2.19306,-0.256461,0
2.12917,-0.355154,-0.27476
2.21204,-0.258681,-0.239897
2.04704,-0.445204,-0.195554
2.03626,-0.442859,0.02426
2.20753,-0.258153,-0.155417
2.11563,-0.352897,-0.175096
2.12235,-0.354017,0.0375576
2.28209,-0.154377,-0.146591
2.19331,-0.256491,0.128604
2.11697,-0.35312,0.0874392
2.20655,-0.258039,-0.103485
2.11582,-0.352929,-0.112418
2.17671,-0.254549,0.269088
2.10777,-0.351585,0.174445
2.20041,-0.25732,-0.0515511
2.27786,-0.16248,-0.0398613
2.10076,-0.358334,-0.062021
2.18813,-0.264018,0
2.12785,-0.362956,-0.27476
2.2662,-0.161648,0.0132047
2.11738,-0.36117,-0.012484
2.20318,-0.265834,-0.239041
2.03462,-0.450319,0.02426
2.20261,-0.265765,-0.155138
2.1104,-0.359979,-0.174771
2.27753,-0.162456,-0.146335
2.18443,-0.263571,0.128138
2.11845,-0.361353,-0.112627
2.18364,-0.263477,0.270062
2.10254,-0.358638,0.17412
2.19151,-0.264425,-0.051365
2.2733,-0.170132,-0.0397915
2.09555,-0.364979,-0.0619047
2.18323,-0.271161,0
2.19257,-0.272322,-0.343735
2.12266,-0.3697,-0.274255
2.1983,-0.273033,-0.238612
2.03992,-0.458967,-0.195183
2.1866,-0.271581,0.051272
2.02913,-0.456541,0.0242135
2.11306,-0.368027,-0.175096
2.10794,-0.367136,0.0373482
2.26501,-0.169512,-0.145567
2.17953,-0.270702,0.127906
2.11045,-0.367574,0.0872764
2.11324,-0.36806,-0.112418
2.18271,-0.271097,0.270062
2.10127,-0.365975,0.17412
2.26379,-0.16942,-0.0924869
2.18263,-0.271088,-0.0511789
2.26076,-0.176734,-0.0395821
2.09039,-0.371227,-0.0617883
2.17835,-0.277893,0
2.19558,-0.280092,-0.344349
2.11361,-0.37535,-0.273244
2.25708,-0.176447,0.0131582
2.18949,-0.279315,-0.237755
2.0345,-0.464842,-0.194811
2.18569,-0.27883,0.051272
2.02761,-0.463267,0.0242135
2.18887,-0.279236,-0.154301
2.10005,-0.372941,-0.17412
2.10671,-0.374125,0.0373482
2.26045,-0.176711,-0.145312
2.0321,-0.464294,-0.121394
2.16674,-0.276413,0.127208
2.09348,-0.371775,0.0866251
2.18788,-0.279109,-0.102741
2.10415,-0.373669,-0.111999
2.16605,-0.276324,0.268113
2.10005,-0.372941,0.17412
2.26321,-0.176926,-0.0924869
2.18172,-0.278324,-0.0511789
2.25212,-0.184367,-0.0394424
2.08509,-0.378172,-0.0616719
2.16938,-0.284834,0
2.17886,-0.286079,-0.34189
2.24844,-0.184065,0.0131117
2.18056,-0.286302,-0.236899
2.0289,-0.471394,-0.194439
2.17672,-0.285798,0.0510859
2.01421,-0.46798,0.0240738
2.17992,-0.286218,-0.153743
2.09867,-0.380636,-0.17412
2.25979,-0.184994,-0.145312
2.16967,-0.284872,0.127441
2.18684,-0.287126,-0.102741
2.09883,-0.380666,-0.11179
2.16502,-0.284261,0.268113
2.08298,-0.37779,0.172818
2.2506,-0.184242,-0.0919985
2.18069,-0.286319,-0.0511789
2.25146,-0.192227,-0.0394424
2.08375,-0.385449,-0.0616719
2.16441,-0.29187,0
2.02035,-0.476846,-0.0241669
2.09916,-0.388299,-0.271729
2.23981,-0.191232,0.0130652
2.17561,-0.293381,-0.23647
2.17175,-0.29286,0.0509928
2.01256,-0.475008,0.0240738
2.171,-0.292759,-0.153185
2.08948,-0.386509,-0.173469
2.2472,-0.191863,-0.144544
2.16471,-0.29191,0.127208
2.09077,-0.386746,0.0866251
2.08963,-0.386536,-0.111371
2.15221,-0.290225,0.26665
2.07772,-0.384333,0.172493
2.17175,-0.29286,-0.0509928
2.24281,-0.199377,-0.0393028
2.0824,-0.39272,-0.0616719
2.15149,-0.297779,0
2.1729,-0.300741,-0.341275
2.0978,-0.395624,-0.271729
2.23515,-0.198695,0.0130419
2.16669,-0.299883,-0.235614
2.16279,-0.299343,0.0508067
2.01089,-0.48203,0.0240738
2.16601,-0.299788,-0.152906
2.08812,-0.3938,-0.173469
2.24651,-0.199706,-0.144544
2.15181,-0.297822,0.126511
2.08548,-0.393301,0.0864623
2.17291,-0.300743,-0.102182
2.08827,-0.393828,-0.111371
2.14725,-0.297192,0.266163
2.07637,-0.391583,0.172493
2.2413,-0.199242,-0.0916728
2.16675,-0.299891,-0.0508998
2.23417,-0.206078,-0.0391632
2.0693,-0.397361,-0.0613228
2.15445,-0.305473,0
2.16406,-0.306836,-0.340045
2.08193,-0.399786,-0.0123213
2.15781,-0.305949,-0.234757
2.16179,-0.306513,0.0508067
2.16896,-0.30753,-0.153185
2.0868,-0.400722,-0.173469
2.23391,-0.206054,-0.143777
2.0099,-0.488846,-0.120464
2.15081,-0.304956,0.126511
2.06846,-0.3972,0.085811
2.16399,-0.306825,-0.10181
2.08695,-0.400751,-0.111371
2.14232,-0.303753,0.265675
2.06723,-0.396963,0.171842
2.23664,-0.206306,-0.09151
2.15783,-0.305952,-0.0507136
2.22942,-0.213884,-0.0390934
2.07175,-0.405711,-0.0614392
2.1454,-0.312215,0
2.15901,-0.314196,-0.33943
2.08719,-0.408735,-0.270719
2.15668,-0.313856,-0.234757
2.01052,-0.49681,-0.193324
2.15669,-0.313859,0.0507136
1.99583,-0.493179,0.0239341
2.15597,-0.313753,-0.152348
2.08141,-0.407602,-0.173144
2.22917,-0.213859,-0.143521
2.14572,-0.312262,0.126278
2.06699,-0.404778,0.085811
2.15889,-0.314179,-0.101624
2.07371,-0.406094,-0.110743
2.13334,-0.31046,0.2647
2.06576,-0.404537,0.171842
2.23189,-0.214121,-0.0913472
2.15669,-0.313859,-0.0507136
2.2207,-0.220873,-0.0389538
2.07033,-0.41294,-0.0614392
2.13639,-0.318523,0
2.15008,-0.320565,-0.3382
2.221,-0.220903,0.0129722
2.15557,-0.321382,-0.234757
2.14767,-0.320206,0.0505275
1.9941,-0.500142,0.0239341
2.15091,-0.320689,-0.152069
2.07215,-0.413305,-0.172493
2.06697,-0.41227,0.0367897
2.22444,-0.221244,-0.143265
2.00248,-0.502245,-0.120232
2.13672,-0.318573,0.125813
2.05773,-0.410428,0.0854853
2.14988,-0.320534,-0.101252
2.0762,-0.414112,-0.110952
2.12439,-0.316734,0.263725
2.05261,-0.409406,0.170865
2.22318,-0.221119,-0.0910215
2.15163,-0.320795,-0.0506206
2.22398,-0.228257,-0.0390236
2.06118,-0.417854,-0.0612065
2.13142,-0.32463,0
2.14516,-0.326723,-0.337585
2.07666,-0.420992,-0.269709
2.21632,-0.227471,0.0129489
2.14668,-0.326955,-0.2339
2.14666,-0.326951,0.0505275
1.98476,-0.504434,0.0238409
2.14595,-0.326844,-0.15179
2.07085,-0.419813,-0.172493
2.21579,-0.227416,-0.142753
2.13966,-0.325885,0.126045
2.06034,-0.417684,0.0856481
2.14491,-0.326685,-0.101066
2.07097,-0.419839,-0.110743
2.13123,-0.324602,0.2647
2.0474,-0.41506,0.17054
2.22247,-0.228102,-0.0910215
2.14666,-0.326951,-0.0505275
2.0518,-0.423788,-0.0609738
2.12626,-0.331824,0
2.14395,-0.334583,-0.337585
2.20354,-0.234323,0.0128792
2.06047,-0.425579,-0.0122283
2.13368,-0.332981,-0.232615
2.13754,-0.333584,0.0503414
1.9829,-0.511705,0.0238409
2.1408,-0.334092,-0.151511
2.06539,-0.426594,-0.172167
2.05628,-0.424712,0.0366501
2.21097,-0.235114,-0.142497
2.1345,-0.333109,0.125813
2.05097,-0.423616,0.0853225
2.1437,-0.334545,-0.101066
2.0616,-0.42581,-0.110324
2.12218,-0.331187,0.263725
2.03806,-0.420949,0.169889
2.13359,-0.332967,-0.0502484
2.20241,-0.241981,-0.0386745
2.05031,-0.430948,-0.0609738
2.12509,-0.339244,0
2.13106,-0.340196,-0.335741
2.06583,-0.434209,-0.268699
2.20271,-0.242014,0.0128792
2.12858,-0.3398,-0.232186
2.13242,-0.340412,0.0502484
1.9811,-0.518624,0.0238409
2.13962,-0.341562,-0.151511
2.05999,-0.432981,-0.171842
2.20617,-0.242394,-0.142242
2.1215,-0.33867,0.125115
2.04948,-0.430773,0.0853225
2.13857,-0.341396,-0.100879
2.12493,-0.339218,0.264213
2.04048,-0.428881,0.170214
2.20489,-0.242254,-0.0903702
2.13636,-0.341043,-0.0503414
2.20159,-0.249283,-0.0386745
2.04887,-0.437744,-0.0609738
2.12001,-0.345645,0
2.12992,-0.34726,-0.335741
2.19792,-0.248867,0.012856
2.12352,-0.346217,-0.231758
1.97164,-0.523139,0.0237478
2.1306,-0.347371,-0.150953
2.05854,-0.43981,-0.171842
2.19305,-0.248316,0.0642319
2.04552,-0.437027,0.0365104
2.20535,-0.249709,-0.142242
2.1243,-0.346346,0.125348
2.04022,-0.435897,0.0849968
2.12954,-0.3472,-0.100507
2.11204,-0.344346,0.26275
2.03515,-0.434812,0.169889
2.20805,-0.250014,-0.090533
2.12733,-0.346838,-0.0501553
2.19277,-0.256039,-0.0385349
2.04733,-0.444894,-0.0609738
2.10695,-0.351071,0
1.97366,-0.531057,-0.0237944
2.12479,-0.354044,-0.335126
2.05507,-0.446575,-0.267689
2.19306,-0.256074,0.0128327
2.11837,-0.352974,-0.23133
2.12216,-0.353605,0.0500623
1.96594,-0.528979,0.0237012
2.11756,-0.352839,-0.150116
2.0492,-0.445299,-0.171191
2.04398,-0.444165,0.0365104
2.2005,-0.256943,-0.141986
2.11914,-0.353102,0.125115
2.03478,-0.442167,0.084834
2.12832,-0.354631,-0.100507
2.04539,-0.444472,-0.109696
2.10691,-0.351064,0.262263
2.02582,-0.44022,0.169238
2.19525,-0.256329,-0.0900445
2.1261,-0.354262,-0.0501553
2.19975,-0.265031,-0.0386745
2.03788,-0.450668,-0.060741
2.10171,-0.358119,0
1.96785,-0.537234,-0.0237478
2.11569,-0.360501,-0.333896
2.18417,-0.263153,0.0127862
2.12098,-0.361403,-0.231758
2.11691,-0.360709,0.0499692
1.96399,-0.536181,0.0237012
2.11626,-0.360598,-0.150116
2.04366,-0.451946,-0.170865
2.03453,-0.449926,0.0363708
2.18766,-0.263574,-0.141218
2.02925,-0.448759,0.0846712
2.11913,-0.361087,-0.100135
2.03985,-0.451103,-0.109487
2.1017,-0.358117,0.261775
2.0203,-0.446781,0.168913
2.19033,-0.263895,-0.0898817
2.17897,-0.270247,-0.0383255
2.03629,-0.457778,-0.060741
2.0965,-0.364767,0
1.9621,-0.543033,-0.0237012
2.11831,-0.368562,-0.334511
2.1753,-0.269791,0.0127397
2.03322,-0.457087,-0.012112
2.10796,-0.36676,-0.230473
1.95825,-0.541966,0.0236547
2.10712,-0.366615,-0.149558
2.03818,-0.458203,-0.17054
2.17441,-0.269681,0.0637664
2.02904,-0.456148,0.036301
2.18276,-0.270717,-0.140962
2.10869,-0.366888,0.12465
2.02767,-0.455839,0.0846712
2.10998,-0.367112,-0.0997627
2.10043,-0.365451,0.261775
2.01873,-0.453831,0.168913
2.1775,-0.270064,-0.0893932
2.1117,-0.367411,-0.0498762
2.17405,-0.277345,-0.0382557
2.02689,-0.463103,-0.0605083
2.09522,-0.372083,0
2.09755,-0.372498,-0.331436
2.17434,-0.277382,0.0127397
2.02381,-0.4624,-0.0120655
2.10275,-0.37342,-0.230044
1.95249,-0.547718,0.0236081
2.10976,-0.374666,-0.149837
2.03268,-0.464427,-0.170214
2.16553,-0.276258,0.0635337
2.02354,-0.462337,0.0362312
2.17785,-0.277829,-0.140707
1.96086,-0.550065,-0.118604
2.10347,-0.373549,0.124418
2.01827,-0.461134,0.0843455
2.10475,-0.373776,-0.0995766
2.09915,-0.372781,0.261775
2.01325,-0.459986,0.168587
2.17654,-0.277663,-0.0893932
2.16518,-0.283514,-0.0381161
2.02145,-0.468918,-0.060392
2.08216,-0.376892,0
2.1002,-0.380156,-0.332051
2.17738,-0.285111,0.012763
2.02227,-0.469109,-0.0120655
2.09758,-0.379683,-0.229616
1.94682,-0.553097,0.0235616
2.09672,-0.379527,-0.149
2.03113,-0.471165,-0.170214
2.16856,-0.283957,0.0636501
2.02199,-0.469045,0.0362312
2.09436,-0.379099,0.123952
2.00895,-0.466018,0.0840198
2.09564,-0.37933,-0.0992044
2.09008,-0.378326,0.2608
2.00395,-0.464858,0.167936
2.17165,-0.28436,-0.0892304
2.16022,-0.290537,-0.0380462
2.01201,-0.474137,-0.0601592
2.08084,-0.384158,0
1.94488,-0.559889,-0.0235616
2.09108,-0.38605,-0.330821
2.1724,-0.292176,0.0127397
2.01283,-0.47433,-0.012019
2.09624,-0.387002,-0.229616
1.94488,-0.559889,0.0235616
2.09146,-0.38612,-0.148721
2.16359,-0.290992,0.0635337
2.16799,-0.291583,-0.140195
2.09302,-0.386408,0.123952
2.01509,-0.474861,0.0843455
2.09037,-0.385918,-0.0990182
2.02177,-0.476436,-0.108859
2.08485,-0.384898,0.260313
1.99455,-0.470022,0.167285
2.15876,-0.290341,-0.0887419
2.1631,-0.299001,-0.0381161
2.01415,-0.48244,-0.0602756
2.07548,-0.391041,0
1.93897,-0.565893,-0.023515
2.08189,-0.392247,-0.329592
2.15547,-0.297946,0.0126467
2.01108,-0.481704,-0.012019
2.0909,-0.393947,-0.229188
2.09003,-0.393783,-0.148721
2.01608,-0.482901,-0.169238
2.15459,-0.297825,0.063301
2.01081,-0.481639,0.0360916
2.15505,-0.297887,-0.139427
2.08375,-0.392598,0.123487
2.00556,-0.480382,0.0840198
2.08894,-0.393577,-0.0990182
2.01613,-0.482913,-0.108649
2.07952,-0.391802,0.259825
1.98894,-0.4764,0.16696
2.15768,-0.298251,-0.0887419
2.15016,-0.304865,-0.0379066
2.00857,-0.488522,-0.0601592
2.07018,-0.397529,0
1.93698,-0.572658,-0.023515
2.15045,-0.304906,0.0126235
2.00161,-0.48683,-0.0119725
2.07389,-0.398243,-0.227474
1.93315,-0.571524,0.0234684
2.08473,-0.400323,-0.148442
2.01438,-0.489935,-0.169238
2.14166,-0.30366,0.0629519
2.15399,-0.305408,-0.139427
2.07844,-0.399116,0.123255
1.99999,-0.486435,0.083857
2.08755,-0.400866,-0.0990182
2.01055,-0.489003,-0.10844
2.07034,-0.397561,0.258851
2.14518,-0.311419,-0.0378368
1.99917,-0.493265,-0.0599265
2.06885,-0.404392,0
2.14547,-0.311461,0.0126002
1.99999,-0.493465,-0.0119725
2.07256,-0.405118,-0.227474
2.08339,-0.407234,-0.148442
2.1446,-0.311335,0.0630683
1.99972,-0.493399,0.035952
2.14507,-0.311402,-0.138916
2.06927,-0.404474,0.12279
1.9906,-0.49115,0.0835313
2.07837,-0.406254,-0.098646
1.98178,-0.488972,0.166634
2.14373,-0.311208,-0.0882534
2.08006,-0.406584,-0.0493179
2.14408,-0.318905,-0.0378368
1.99356,-0.499269,-0.0598101
2.0635,-0.41083,0
2.14833,-0.319537,0.0126235
1.99049,-0.4985,-0.011926
2.07113,-0.41235,-0.227474
1.92539,-0.583509,0.0234219
2.07413,-0.412946,-0.147884
2.00326,-0.501698,-0.168587
2.13955,-0.318231,0.0629519
1.9941,-0.499404,0.0358821
2.14397,-0.318888,-0.138916
2.06784,-0.411695,0.12279
1.98112,-0.496153,0.0832057
2.0691,-0.411946,-0.0982737
1.99942,-0.500737,-0.108021
2.06369,-0.410869,0.258363
1.98006,-0.495887,0.166634
2.14263,-0.318689,-0.0882534
2.07471,-0.413062,-0.0492248
2.13505,-0.325183,-0.0376972
1.99568,-0.507209,-0.0599265
2.05421,-0.416441,0
1.92334,-0.590226,-0.0234219
2.1472,-0.327034,0.0126235
1.98486,-0.50446,-0.0119028
2.06189,-0.417997,-0.226617
1.91569,-0.58788,0.0233287
2.07267,-0.420184,-0.147884
1.99764,-0.507706,-0.168262
2.13447,-0.325095,0.0628356
1.98847,-0.505377,0.0358123
2.1389,-0.325769,-0.13866
1.9755,-0.502081,0.0830429
2.06765,-0.419166,-0.0982737
1.98992,-0.505745,-0.107603
2.05836,-0.417281,0.257876
1.97445,-0.501814,0.166309
2.1336,-0.324963,-0.0879277
2.13791,-0.332877,-0.037767
1.9785,-0.509834,-0.0594611
2.05282,-0.423251,0
1.91373,-0.594229,-0.0233287
2.14215,-0.333537,0.0126002
1.98705,-0.512037,-0.011926
2.06049,-0.424832,-0.226617
2.06736,-0.426249,-0.147605
2.12943,-0.331556,0.0627192
1.97904,-0.509972,0.0356727
2.12991,-0.331632,-0.138148
2.05326,-0.423341,0.122092
1.97383,-0.50863,0.0830429
2.06234,-0.425213,-0.0980876
1.9805,-0.510347,-0.107184
1.96506,-0.506369,0.165658
2.12462,-0.330807,-0.0876021
2.06402,-0.425559,-0.0490387
2.12878,-0.339451,-0.0376274
1.97662,-0.517082,-0.0594611
2.05517,-0.431594,0
1.91154,-0.601239,-0.0233287
2.13302,-0.340127,0.0125537
1.97355,-0.51628,-0.0118563
2.05503,-0.431564,-0.226189
2.06188,-0.433003,-0.147326
2.12425,-0.338729,0.0626028
1.97716,-0.517222,0.0356727
2.12868,-0.339436,-0.138148
1.97582,-0.516872,0.0832057
2.05686,-0.431948,-0.0979015
1.98248,-0.518614,-0.107393
1.96319,-0.513568,0.165658
2.12339,-0.338592,-0.0876021
2.05853,-0.432299,-0.0489456
2.11975,-0.345222,-0.0374878
1.96716,-0.521584,-0.0592283
2.04199,-0.435902,0
2.12398,-0.345912,0.0125072
1.96796,-0.521796,-0.0118331
2.04192,-0.435885,-0.224904
1.90572,-0.606362,0.0232822
2.11522,-0.344486,0.0623701
1.96383,-0.520701,0.0354633
2.11967,-0.34521,-0.137637
2.04635,-0.436832,0.121859
1.9625,-0.520348,0.0827172
2.05541,-0.438766,-0.0979015
1.98075,-0.525185,-0.107393
2.11437,-0.344346,-0.0872764
2.04926,-0.437454,-0.0487595
2.11853,-0.35262,-0.0374878
1.96533,-0.528448,-0.0592283
2.04046,-0.443027,0
1.9036,-0.613011,-0.0232822
2.12276,-0.353324,0.0125072
1.96999,-0.529701,-0.0118563
2.04427,-0.443854,-0.225332
1.89979,-0.611785,0.0232356
2.05109,-0.445334,-0.146768
2.1219,-0.353181,0.0626028
1.96973,-0.52963,0.0356029
2.11451,-0.351951,-0.137381
2.03701,-0.442278,0.121394
1.95682,-0.526158,0.0825544
2.04606,-0.444243,-0.0975292
1.96733,-0.528984,-0.106765
2.03689,-0.442252,0.255926
2.11315,-0.351725,-0.0872764
2.04772,-0.444604,-0.0487595
2.1094,-0.358672,-0.0373482
1.96348,-0.535305,-0.0592283
2.03499,-0.449284,0
1.96041,-0.53447,-0.0118098
2.03882,-0.45013,-0.224904
1.89384,-0.617173,0.023189
2.04562,-0.451631,-0.146489
2.11277,-0.359245,0.0623701
1.95243,-0.532294,0.0353237
2.10934,-0.358661,-0.137125
1.95111,-0.531934,0.0823915
2.04449,-0.451382,-0.0975292
1.96162,-0.534798,-0.106556
2.10403,-0.357759,-0.0869508
2.04225,-0.450887,-0.0486665
2.10419,-0.365349,-0.0372783
1.95389,-0.540025,-0.0589956
2.02951,-0.455509,0
2.11236,-0.366767,0.0124607
1.96239,-0.542376,-0.0118331
2.03724,-0.457244,-0.224904
1.89167,-0.62378,0.023189
2.10362,-0.36525,0.0621374
1.95442,-0.540172,0.0353935
2.1002,-0.364656,-0.136613
1.94924,-0.538741,0.0823915
2.03121,-0.455891,-0.0969709
1.96359,-0.542706,-0.106765
2.09489,-0.363734,-0.0866251
2.1029,-0.372691,-0.0372783
1.95584,-0.547921,-0.059112
2.02791,-0.462591,0
2.09925,-0.372044,0.012391
1.94893,-0.545986,-0.0117633
2.024,-0.461699,-0.223619
2.03464,-0.464126,-0.145931
2.08659,-0.369799,0.0616719
1.94482,-0.544833,0.0352539
2.10285,-0.372681,-0.136869
1.94735,-0.545542,0.0823915
1.95399,-0.547402,-0.106347
2.08968,-0.370347,-0.0864623
2.02736,-0.462466,-0.0483873
2.09372,-0.378606,-0.0371387
1.94238,-0.551469,-0.0587629
2.02238,-0.468763,0
2.094,-0.378657,0.0123678
1.94317,-0.551693,-0.0117401
2.02238,-0.468761,-0.223619
2.09315,-0.378504,0.0619047
1.93906,-0.550526,0.0351841
2.09761,-0.379309,-0.136613
2.01507,-0.467069,0.120464
1.93774,-0.550153,0.0820659
2.02019,-0.468256,-0.0965986
1.95206,-0.554219,-0.106347
2.08444,-0.376928,-0.0862994
2.02184,-0.468637,-0.0482943
2.08845,-0.385187,-0.0370689
1.92891,-0.554929,-0.0584138
2.01684,-0.474903,0
2.08874,-0.385239,0.0123445
1.93739,-0.557366,-0.0117168
2.08789,-0.385083,0.0617883
1.93328,-0.556185,0.0351142
2.08842,-0.385181,-0.136102
1.93581,-0.556914,0.0820659
2.02244,-0.476221,-0.0967847
1.94244,-0.558821,-0.105928
2.08311,-0.384201,-0.0862994
2.02019,-0.475691,-0.0482943
2.09103,-0.393214,-0.0371387
1.9308,-0.562778,-0.0585302
2.00739,-0.48008,0
2.08738,-0.392528,0.0123445
1.93543,-0.564126,-0.0117168
2.07867,-0.39089,0.0615556
1.93133,-0.56293,0.0351142
2.08706,-0.392468,-0.136102
2.00788,-0.480196,0.120232
1.92235,-0.560313,0.0815774
2.01688,-0.482348,-0.0965986
2.07783,-0.390732,-0.0861366
2.08571,-0.399758,-0.0370689
1.92499,-0.568382,-0.0584138
2.00182,-0.48614,0
2.07814,-0.398306,0.012298
1.92961,-0.569746,-0.0116936
2.01245,-0.488722,-0.144814
2.07337,-0.397391,0.0614392
1.92551,-0.568536,0.0350444
2.07784,-0.398248,-0.13559
2.00231,-0.48626,0.119999
1.92421,-0.568151,0.0817402
2.0113,-0.488442,-0.0964125
2.07253,-0.39723,-0.0859738
2.07645,-0.405503,-0.0369293
1.93066,-0.577389,-0.0586465
2.00011,-0.493125,0
2.07281,-0.404791,0.0122748
1.92378,-0.575332,-0.0116703
2.07197,-0.404626,0.0614392
1.91585,-0.572962,0.0349048
2.07644,-0.405499,-0.13559
2.0006,-0.493246,0.119999
1.92604,-0.57601,0.0819031
2.0672,-0.403696,-0.085811
2.00345,-0.493948,-0.0480151
2.07118,-0.411607,-0.0368595
1.92108,-0.581472,-0.0584138
1.99846,-0.499754,0
2.06361,-0.410103,0.0122283
1.92569,-0.582867,-0.0116936
2.05885,-0.409157,0.0610901
1.91012,-0.578153,0.034835
2.06333,-0.410048,-0.134823
1.98733,-0.496972,0.119301
1.91265,-0.57892,0.0814146
2.00017,-0.500182,-0.0960402
2.06585,-0.410549,-0.085811
1.99404,-0.498649,-0.047829
2.06588,-0.41768,-0.0367897
1.98904,-0.504412,0
2.05832,-0.416151,0.012205
1.9161,-0.586906,-0.0116471
1.99966,-0.507107,-0.144256
2.05356,-0.41519,0.0609738
1.90819,-0.584484,0.034835
2.06196,-0.416888,-0.134823
1.98567,-0.503559,0.119301
1.90308,-0.582918,0.0810889
1.99076,-0.504848,-0.095668
2.06448,-0.417397,-0.085811
1.99238,-0.505259,-0.047829
2.06433,-0.425249,-0.0367897
1.90552,-0.591314,-0.0580647
1.97943,-0.509704,0
2.05286,-0.422886,0.0121818
1.91011,-0.59274,-0.0116238
1.9862,-0.511448,-0.143419
2.04028,-0.420294,0.0606247
1.90603,-0.591474,0.034835
2.05651,-0.423638,-0.134567
1.97608,-0.508842,0.118836
1.98889,-0.512141,-0.095668
2.05119,-0.422542,-0.0853225
1.98277,-0.510563,-0.0476429
1.97773,-0.516265,0
2.04753,-0.428871,0.0121585
1.91195,-0.600269,-0.0116471
1.98835,-0.519039,-0.143698
2.0467,-0.428696,0.0608574
1.90025,-0.596593,0.0347652
2.05119,-0.429636,-0.134311
1.98718,-0.518734,-0.095668
2.04978,-0.429342,-0.0853225
2.04958,-0.437148,-0.0365802
1.97582,-0.523511,0
2.04203,-0.435538,0.0121353
1.90211,-0.604848,-0.0116006
1.98258,-0.525301,-0.143419
2.03729,-0.434527,0.0606247
1.89423,-0.602342,0.0346954
2.0457,-0.436319,-0.134055
1.96862,-0.521602,0.118604
1.98141,-0.52499,-0.0954819
2.04819,-0.436852,-0.0853225
1.97529,-0.523369,-0.0475499
2.04023,-0.442603,-0.0364406
1.97398,-0.530404,0
2.03659,-0.441815,0.012112
1.89999,-0.611484,-0.0116006
1.96959,-0.529223,0.0474568
2.03186,-0.440788,0.0605083
1.89212,-0.608951,0.0346954
2.04806,-0.444303,-0.134311
1.96293,-0.527435,0.118371
1.97184,-0.52983,-0.0951096
2.03494,-0.441457,-0.084834
1.96186,-0.527148,-0.0472707
2.03492,-0.448151,-0.0363708
1.96073,-0.533453,0
2.03129,-0.447351,0.0120888
1.89426,-0.616213,-0.0115773
1.9602,-0.533308,0.0472707
2.03437,-0.448029,0.0606247
1.88259,-0.612418,0.0345558
2.03496,-0.44816,-0.133543
1.95356,-0.531502,0.117906
1.97017,-0.536022,-0.0951096
2.03744,-0.448707,-0.0849968
1.96406,-0.534358,-0.0473638
2.02928,-0.455086,-0.036301
1.9471,-0.537783,0
2.03346,-0.456023,0.012112
1.88808,-0.62223,-0.0115541
1.95813,-0.540831,0.0472707
2.02483,-0.454087,0.060392
1.88402,-0.620894,0.0346256
1.95535,-0.540062,0.118138
2.02791,-0.454778,-0.0846712
1.95428,-0.539767,-0.0471777
2.03158,-0.463055,-0.0363708
1.94521,-0.544576,0
2.01625,-0.459562,0.012019
1.95624,-0.547663,0.0472707
2.01154,-0.458487,0.0600429
2.02384,-0.46129,-0.133032
1.95345,-0.546885,0.118138
1.95849,-0.548295,-0.0947374
2.02241,-0.460966,-0.0845083
1.95238,-0.546585,-0.0471777
2.01826,-0.467437,-0.0361614
1.9433,-0.551363,0
2.01074,-0.465695,0.0119958
2.00603,-0.464604,0.0599265
2.02999,-0.470154,-0.133543
1.93617,-0.54934,0.117208
2.02079,-0.468022,-0.0845083
1.94277,-0.551214,-0.0469915
2.01289,-0.47286,-0.0360916
1.9454,-0.558569,0
2.01316,-0.472924,0.012019
1.94487,-0.558418,0.0470846
2.01234,-0.472732,0.0601592
2.01685,-0.47379,-0.132776
1.92676,-0.553216,0.116743
1.95097,-0.56017,-0.0945512
2.01542,-0.473454,-0.0843455
1.94103,-0.557314,-0.0469915
2.00734,-0.478956,-0.0360218
1.93576,-0.563122,0
1.99983,-0.477164,0.0119493
1.93523,-0.562969,0.0468985
1.99901,-0.47697,0.0598101
2.0113,-0.479901,-0.13252
2.00598,-0.478631,-0.0840198
1.93139,-0.561852,-0.0468054
2.00548,-0.48666,-0.0360218
1.92591,-0.568286,0
1.99798,-0.484839,0.0119493
1.93306,-0.570396,0.0468985
1.99328,-0.483699,0.0596938
2.00556,-0.486679,-0.132264
2.00024,-0.485388,-0.083857
1.93306,-0.570396,-0.0468985
2.00394,-0.492958,-0.0360218
1.91645,-0.572046,0
1.99256,-0.490158,0.011926
1.93125,-0.576466,0.0468985
1.98399,-0.488049,0.0594611
2.00015,-0.492023,-0.132008
1.99483,-0.490715,-0.0836942
1.92359,-0.574179,-0.0467124
1.99436,-0.49836,-0.0358821
1.91434,-0.579066,0
1.98299,-0.495518,0.0118796
1.98607,-0.496286,0.0595774
1.99446,-0.498383,-0.131753
1.98914,-0.497054,-0.0835313
1.91382,-0.578909,-0.0465263
1.98882,-0.503988,-0.0358123
1.92006,-0.587753,0
1.98134,-0.502092,0.0118796
1.91571,-0.586423,0.0466193
1.98053,-0.501888,0.0594611
1.98505,-0.503033,-0.131241
1.9836,-0.502666,-0.0833685
1.91189,-0.585253,-0.0465263
1.98705,-0.510927,-0.0358123
1.90271,-0.589715,0
1.9757,-0.508008,0.0118563
1.90983,-0.591923,0.0465263
1.96715,-0.505811,0.059112
1.98329,-0.509959,-0.131241
1.98184,-0.509587,-0.0833685
1.90601,-0.590739,-0.0464332
1.9813,-0.517197,-0.0357425
1.89672,-0.595486,0
1.97382,-0.515246,0.0118563
1.90765,-0.598919,0.0465263
1.96915,-0.514027,0.0592283
1.97754,-0.516217,-0.130985
1.97609,-0.515837,-0.0832057
1.97579,-0.522397,-0.0356727
1.89484,-0.601442,0
1.96833,-0.520422,0.0118331
1.90195,-0.603699,0.0464332
1.97205,-0.521406,-0.130729
1.96673,-0.52,-0.08288
1.96623,-0.527219,-0.0355331
1.89273,-0.608053,0
1.95491,-0.524182,0.0117633
1.89983,-0.610334,0.0464332
1.95798,-0.525005,0.0589956
1.96251,-0.526219,-0.130218
1.96104,-0.525827,-0.0827172
1.95657,-0.532322,-0.0353935
1.88668,-0.613748,0
1.95298,-0.531344,0.0117633
1.95218,-0.531128,0.0588792
1.96296,-0.53406,-0.08288
1.95846,-0.540553,-0.0354633
1.95101,-0.538498,0.0117633
1.94251,-0.536152,0.0586465
1.95714,-0.540188,-0.0827172
1.95271,-0.546309,-0.0353935
1.87845,-0.625969,0
1.94912,-0.545305,0.0117633
1.94448,-0.544006,0.0587629
1.94754,-0.544862,-0.0823915
1.95098,-0.552441,-0.0353935
1.9397,-0.549246,0.0117168
1.93507,-0.547934,0.0585302
1.94197,-0.549889,-0.0822287
1.94136,-0.557042,-0.0352539
1.93393,-0.554911,0.0116936
1.9293,-0.553582,0.0584138
1.9362,-0.555562,-0.0820659
1.9394,-0.563815,-0.0352539
1.93198,-0.561658,0.0116936
1.92657,-0.560086,-0.0817402
1.92198,-0.566397,-0.0349746
1.92607,-0.567604,0.0116703
1.92145,-0.566244,0.0582974
1.91999,-0.573103,-0.0349746
1.92408,-0.574324,0.0116703
1.91808,-0.579466,-0.0349746
1.91833,-0.579545,0.0116471
1.90839,-0.583818,-0.034835
1.91248,-0.585067,0.0116238
1.90405,-0.58249,0.0579483
1.90242,-0.589625,-0.0347652
1.91032,-0.592073,0.0116238
1.89808,-0.588281,0.057832
1.90035,-0.596262,-0.0347652
1.90442,-0.59754,0.0116006
1.89983,-0.5961,0.0579483
1.90599,-0.60498,-0.0349048
1.90243,-0.603852,0.0116006
1.89259,-0.608373,0.0115541
1.89045,-0.614975,0.0115541
1.8884,-0.621241,0.0115541
1.88243,-0.626566,0.0115308
