2.4326,0.870995,-0.0300806
2.44239,0.855313,0.0301271
2.44536,0.846783,-0.0301271
2.44536,0.846783,0.0301271
2.45209,0.839538,0.0301737
2.45107,0.830118,-0.0301271
2.45865,0.832684,0.0302203
2.46154,0.824097,-0.0302203
2.46154,0.824097,0.0302203
2.46805,0.817188,-0.0302668
2.47185,0.818445,0.0303134
2.47469,0.809811,0.0303134
2.46688,0.807254,-0.151161
2.47003,0.798276,-0.0302203
2.47384,0.799506,0.0302668
2.4728,0.789648,-0.0302203
2.47661,0.790865,0.0302668
2.48317,0.783419,-0.0303134
2.42706,0.898279,-0.0150412
2.48317,0.783419,0.0303134
2.47153,0.779744,-0.150929
2.48971,0.775936,-0.0303599
2.42642,0.888425,-0.015018
2.48589,0.774746,0.0303134
2.47804,0.7723,-0.151161
2.48858,0.766063,-0.0303134
2.42951,0.87995,-0.015018
2.48476,0.764886,0.0302668
2.48073,0.763644,-0.151161
2.49111,0.757807,-0.0303134
2.44371,0.875938,-0.0150877
2.49876,0.760135,0.0304065
2.49387,0.748672,-0.0303134
2.43559,0.862968,-0.015018
2.50153,0.750972,0.0304065
2.50414,0.742236,-0.0304065
2.44237,0.855784,-0.0150412
2.51181,0.744509,0.0304996
2.50007,0.741031,-0.151859
2.50671,0.73349,-0.0304065
2.44912,0.848562,-0.0150645
2.51055,0.734613,0.0304531
2.45634,0.851066,0.0453763
2.44828,0.838711,-0.0150412
2.51694,0.726954,0.0304996
2.4593,0.842486,0.0453763
2.46227,0.834869,-0.015111
2.51537,0.717946,0.0304531
2.46572,0.836041,0.0454461
2.50744,0.715684,-0.151859
2.51811,0.708282,-0.0304531
2.45787,0.822868,-0.0150645
2.51888,0.708499,-0.244257
2.52196,0.709365,0.0304996
2.46891,0.826566,0.0454461
2.51671,0.69842,-0.0304065
2.46452,0.815542,-0.0150877
2.51366,0.697574,-0.243513
2.53213,0.702698,0.0305928
2.47558,0.819201,0.0455159
2.53456,0.693854,-0.0305928
2.47496,0.80942,-0.0151342
2.52376,0.690898,-0.244257
2.52685,0.691742,0.0304996
2.48223,0.811797,0.0455857
2.47295,0.808763,0.106002
2.46781,0.807083,-0.136073
2.53311,0.68396,-0.0305462
2.47777,0.800776,-0.0151342
2.52616,0.682083,-0.244257
2.53697,0.685002,0.0305928
2.52129,0.680767,-0.152092
2.47442,0.799692,-0.136283
2.41646,0.903957,0
2.48436,0.793339,-0.0151575
2.53237,0.674287,-0.244629
2.53935,0.676143,0.0305928
2.48402,0.793232,0.0455159
2.48615,0.793911,0.106327
2.47719,0.79105,-0.136283
2.53759,0.667144,-0.0305462
2.48303,0.784325,-0.0151342
2.53833,0.667339,-0.245001
2.54146,0.668161,0.0305928
2.49032,0.786628,0.0455857
2.48863,0.786096,0.106327
2.47586,0.78206,-0.136073
2.54002,0.65784,-0.0305462
2.48588,0.775219,-0.0151342
2.53691,0.657034,-0.244629
2.55163,0.660848,0.0306859
2.497,0.778686,0.0456555
2.4915,0.776969,0.106327
2.48252,0.77417,-0.136283
2.5423,0.64897,-0.0305462
2.4924,0.767715,-0.0151575
2.55076,0.65113,-0.245744
2.55392,0.651938,0.0306859
2.49588,0.768789,0.0455857
2.49419,0.768268,0.106327
2.48902,0.766676,-0.136492
2.49506,0.75901,-0.0151575
2.54915,0.64125,-0.245372
2.55619,0.643018,0.0306859
2.50068,0.76072,0.10649
2.48786,0.75682,-0.136283
2.55065,0.632166,-0.0305928
2.50536,0.752597,-0.015204
2.55524,0.633305,-0.245744
2.55841,0.634091,0.0306859
2.50502,0.752495,0.0456555
2.55038,0.632101,-0.153022
2.50715,0.753135,0.106653
2.49814,0.750429,-0.136702
2.43859,0.864509,-0.060205
2.55673,0.624208,-0.0306393
2.50797,0.743847,-0.015204
2.55744,0.624382,-0.245744
2.56838,0.627054,0.030779
2.4997,0.741393,-0.212849
2.51147,0.744884,0.0457253
2.55645,0.624142,-0.153254
2.5136,0.745516,0.106816
2.50075,0.741705,-0.136702
2.4416,0.855992,-0.060205
2.55889,0.615281,-0.0306393
2.50671,0.733965,-0.0151807
2.5596,0.615452,-0.245744
2.57445,0.619021,0.0308256
2.5061,0.733784,-0.213175
2.51789,0.737237,0.0457951
2.55473,0.614281,-0.153022
2.50851,0.734492,0.10649
2.50332,0.732971,-0.136702
2.44835,0.848774,-0.0602981
2.5647,0.608161,-0.0306859
2.51285,0.727197,-0.015204
2.5654,0.608326,-0.246116
2.57249,0.610006,0.030779
2.50839,0.725907,-0.213175
2.52019,0.729322,0.0457951
2.56054,0.607173,-0.153254
2.51849,0.728829,0.106816
2.50177,0.723992,-0.136492
2.45479,0.842376,-0.0603911
2.56691,0.598757,-0.0306859
2.5155,0.717983,-0.015204
2.57149,0.599824,-0.246488
2.5747,0.600574,0.030779
2.5072,0.715614,-0.212849
2.52669,0.721179,0.0458649
2.57052,0.599599,-0.15372
2.52114,0.719594,0.106816
2.50825,0.715915,-0.136702
2.46543,0.835942,-0.0605772
2.57289,0.590687,-0.0307325
2.52569,0.711366,-0.0152505
2.57745,0.591735,-0.246859
2.46454,0.826059,0.0604842
2.58458,0.593372,0.0308722
2.51736,0.709019,-0.2135
2.5215,0.710185,0.0457253
2.56871,0.589728,-0.153487
2.52748,0.711872,0.106979
2.51458,0.708237,-0.136911
2.46833,0.82733,-0.0605772
2.57503,0.581254,-0.0307325
2.52828,0.702105,-0.0152505
2.58349,0.583162,-0.247231
2.47135,0.818278,0.0605772
2.58674,0.583896,0.0308722
2.5161,0.698722,-0.213175
2.52794,0.70201,0.0457951
2.53778,0.704743,0.107304
2.52101,0.700085,-0.13712
2.47135,0.818278,-0.0605772
2.58466,0.574899,-0.0308256
2.53047,0.694159,-0.0152505
2.5853,0.575043,-0.247231
2.48151,0.813001,0.0607633
2.59246,0.576636,0.0309187
2.52212,0.691869,-0.2135
2.53399,0.695123,0.0458649
2.57656,0.573098,-0.15372
2.53227,0.694652,0.106979
2.52319,0.692163,-0.13712
2.47771,0.811756,-0.0606703
2.53686,0.685923,-0.0152737
2.5835,0.564713,-0.246859
2.48447,0.803899,0.0607633
2.59065,0.566275,0.0308722
2.52849,0.68366,-0.213826
2.54424,0.687918,0.0460045
2.58255,0.564503,-0.153952
2.53866,0.686409,0.107142
2.52571,0.682909,-0.13712
2.53619,0.685741,0.214477
2.47686,0.801437,-0.0605772
2.59261,0.557229,-0.0308722
2.53924,0.677064,-0.0152737
2.59325,0.557365,-0.247603
2.49107,0.79644,0.0608564
2.59652,0.55807,0.0309187
2.52701,0.673803,-0.2135
2.59231,0.557163,-0.154417
2.5449,0.678574,0.107304
2.53194,0.675118,-0.13733
2.48345,0.794005,-0.0606703
2.54932,0.67023,-0.0153202
2.49384,0.787739,0.0608564
2.59846,0.549002,0.0309187
2.5332,0.665991,-0.213826
2.54124,0.668105,0.0458649
2.59424,0.54811,-0.154417
2.55112,0.670702,0.107467
2.47276,0.781082,-0.120795
2.53042,0.66526,-0.13712
2.54091,0.668019,0.214477
2.60026,0.540383,-0.0309187
2.53115,0.656487,-0.332843
2.54379,0.659764,-0.0152737
2.60088,0.540511,-0.247975
2.61201,0.542824,0.0310584
2.54312,0.65959,-0.214477
2.55119,0.661683,0.0460045
2.59995,0.540318,-0.15465
2.54946,0.661235,0.107304
2.54035,0.658871,-0.137539
2.54312,0.65959,0.214477
2.4888,0.777082,-0.0606703
2.42511,0.879315,-0.0450272
2.48466,0.765806,0
2.60223,0.530848,-0.0309187
2.4292,0.880798,0.015018
2.55782,0.653406,-0.0153435
2.60284,0.530974,-0.247975
2.49545,0.769132,0.0607633
2.61006,0.532447,0.0310118
2.47861,0.76394,-0.181367
2.54552,0.650263,-0.214477
2.55747,0.653317,0.0460744
2.60191,0.530784,-0.15465
2.55187,0.651886,0.107304
2.48197,0.764976,-0.120981
2.54661,0.650544,-0.137748
2.49545,0.769132,-0.0607633
2.48732,0.757129,0
2.60799,0.522547,-0.0309653
2.43226,0.872313,0.015018
2.5562,0.643497,-0.0153202
2.60859,0.522668,-0.248347
2.50195,0.761582,0.0608564
2.60799,0.522547,0.0309653
2.54777,0.641375,-0.214477
2.56361,0.645363,0.0461442
2.60767,0.522483,-0.154882
2.558,0.64395,0.107467
2.48463,0.756308,-0.120981
2.54887,0.641651,-0.137748
2.55164,0.642348,0.214802
2.49812,0.760417,-0.0607633
2.43481,0.864125,-0.045097
2.43514,0.864242,0.015018
2.56221,0.63598,-0.0153435
2.61421,0.514784,-0.248718
2.50446,0.75328,0.0608564
2.61363,0.514668,0.0310118
2.54988,0.632922,-0.214477
2.56962,0.637821,0.046214
2.61722,0.515376,-0.155347
2.50855,0.75451,0.152557
2.56012,0.635464,0.107467
2.54711,0.632232,-0.137539
2.50063,0.752128,-0.0607633
2.44159,0.856946,-0.0451668
2.61541,0.505542,-0.0310118
2.56441,0.627033,-0.0153435
2.6199,0.506412,-0.24909
2.51091,0.745672,0.0609494
2.61934,0.506302,0.0310584
2.55208,0.624018,-0.214477
2.56795,0.627898,0.0461442
2.61508,0.505479,-0.155115
2.50351,0.743476,0.152092
2.57009,0.628422,0.107793
2.49355,0.740516,-0.121167
2.55706,0.625235,-0.137958
2.51091,0.745672,-0.0609494
2.44456,0.848417,-0.0451668
2.61716,0.496409,-0.0310118
2.56658,0.618077,-0.0153435
2.62557,0.498005,-0.249462
2.62502,0.4979,0.031105
2.50039,0.733061,-0.182204
2.56199,0.616971,-0.215128
2.57012,0.61893,0.0461442
2.61683,0.496347,-0.155115
2.57227,0.619447,0.107793
2.49612,0.731807,-0.121167
2.55922,0.616305,-0.137958
2.56587,0.617905,0.215453
2.5135,0.736902,-0.0609494
2.45115,0.841605,-0.0452366
2.50508,0.725423,0
2.57251,0.610487,-0.0153667
2.63112,0.490025,-0.249834
2.51593,0.728564,0.0609494
2.49898,0.723656,-0.181925
2.5679,0.609393,-0.215453
2.57994,0.612251,0.0462838
2.63024,0.489861,-0.155813
2.51235,0.727528,0.152324
2.57431,0.610914,0.107793
2.56903,0.60966,-0.138376
2.44571,0.839738,-0.10535
2.51977,0.729676,-0.0610425
2.45043,0.831332,-0.0451668
2.51157,0.717336,0
2.45076,0.831444,0.0150412
2.58252,0.602873,-0.0154132
2.52242,0.720436,0.0610425
2.62843,0.479563,0.031105
2.574,0.600884,-0.215779
2.58607,0.6037,0.0463536
2.62809,0.479501,-0.15558
2.51884,0.719412,0.152557
2.58432,0.603292,0.108119
2.50885,0.716559,-0.121539
2.57513,0.601149,-0.138586
2.44877,0.830769,-0.10535
2.52242,0.720436,-0.0610425
2.45711,0.824044,-0.0452366
2.45744,0.824156,0.0150645
2.58461,0.593854,-0.0154132
2.6424,0.472587,-0.250577
2.52877,0.712711,0.0611355
2.63796,0.471793,0.0311981
2.56831,0.590109,-0.215128
2.58816,0.594669,0.0463536
2.63368,0.471027,-0.155813
2.52133,0.710615,0.152557
2.5903,0.595162,0.108281
2.51518,0.70888,-0.121725
2.57332,0.591261,-0.138376
2.45165,0.822216,-0.10535
2.52492,0.711626,-0.0610425
2.46362,0.81715,-0.0453064
2.46396,0.817261,0.0150877
2.58656,0.585279,-0.0154132
2.64395,0.463821,-0.250577
2.53112,0.704321,0.0611355
2.64345,0.463733,0.0312447
2.58192,0.584228,-0.216104
2.46295,0.816928,0.075519
2.58621,0.5852,0.0462838
2.63916,0.46298,-0.156045
2.52368,0.702249,0.152557
2.59226,0.586568,0.108281
2.51752,0.700535,-0.121725
2.58696,0.585368,-0.139004
2.53112,0.704321,-0.0611355
2.4628,0.80687,-0.0452366
2.5228,0.692053,0
2.46693,0.808225,0.0150877
2.58869,0.575795,-0.0154132
2.51596,0.690177,-0.281023
2.5205,0.691423,-0.182762
2.58015,0.573896,-0.215779
2.59225,0.576586,0.0463536
2.64084,0.453304,-0.156045
2.53394,0.695108,0.153022
2.59439,0.577063,0.108281
2.52777,0.693418,-0.122098
2.58909,0.575883,-0.139004
2.53754,0.696098,-0.0612286
2.4656,0.798269,-0.0452366
2.5252,0.683243,0
2.65459,0.446132,-0.0313378
2.46974,0.799609,0.0150877
2.59459,0.567611,-0.0154364
2.64721,0.444891,-0.250577
2.5361,0.686192,0.0611355
2.65459,0.446132,0.0313378
2.52675,0.683663,-0.183041
2.59382,0.567443,-0.216755
2.47634,0.801747,0.0757518
2.60206,0.569244,0.0464932
2.64634,0.444746,-0.156278
2.52864,0.684173,0.152557
2.59249,0.56715,0.108119
2.52632,0.683547,-0.121912
2.59498,0.567696,-0.139214
2.46773,0.79896,-0.105676
2.53996,0.687236,-0.0612286
2.47204,0.791308,-0.0453064
2.58759,0.557094,-0.0770317
2.65211,0.436677,-0.0312912
2.47619,0.792635,0.015111
2.59646,0.559004,-0.0154364
2.6526,0.436758,-0.250949
2.54222,0.67881,0.0612286
2.59179,0.558,-0.21643
2.47899,0.793532,0.0757518
2.60393,0.560612,0.0464932
2.65568,0.437266,-0.156743
2.53475,0.676815,0.152789
2.59826,0.559392,0.108281
2.52857,0.675166,-0.121912
2.59295,0.558248,-0.139004
2.47037,0.790773,-0.105676
2.54609,0.679842,-0.0613216
2.4786,0.783879,-0.0453763
2.53366,0.667057,0
2.48275,0.785192,0.0151342
2.60622,0.551593,-0.0154829
2.52678,0.665246,-0.281451
2.66197,0.428762,-0.251693
2.54458,0.669931,0.0612286
2.65757,0.428052,0.0313378
2.53135,0.666448,-0.183041
2.59763,0.549774,-0.216755
2.47793,0.783667,0.0756354
2.60587,0.551519,0.0464932
2.47771,0.783597,-0.166545
2.65719,0.427992,-0.156743
2.5371,0.667962,0.152789
2.6002,0.550318,0.108281
2.59488,0.549193,-0.139004
2.54844,0.670949,-0.0613216
2.47751,0.774029,-0.0453064
2.53985,0.659213,0
2.60422,0.541677,-0.0154597
2.52909,0.656421,-0.281451
2.66738,0.420086,-0.252064
2.5469,0.661044,0.0612286
2.66299,0.419395,0.0313844
2.53366,0.657608,-0.183041
2.59953,0.540702,-0.216755
2.48829,0.777397,0.0758681
2.6117,0.543233,0.046563
2.48043,0.774943,-0.166545
2.66261,0.419335,-0.156975
2.54714,0.661108,0.153254
2.61384,0.543679,0.10877
2.54096,0.659503,-0.122284
2.6046,0.541758,-0.139423
2.47583,0.773506,-0.105676
2.55464,0.663054,-0.0614147
2.54213,0.650344,0
2.66444,0.410097,-0.0313844
2.48817,0.76784,0.0151342
2.60609,0.532584,-0.0154597
2.67277,0.411379,-0.252436
2.55694,0.654133,0.0614147
2.6684,0.410705,0.0314309
2.5398,0.649749,-0.18332
2.60921,0.533222,-0.217406
2.49098,0.768707,0.0758681
2.61358,0.534114,0.046563
2.47931,0.765104,-0.16629
2.66801,0.410646,-0.157208
2.54944,0.652213,0.153254
2.61572,0.534553,0.10877
2.54325,0.65063,-0.122284
2.61039,0.533463,-0.139632
2.55694,0.654133,-0.0614147
2.48668,0.757882,-0.0453763
2.66981,0.401389,-0.0314309
2.49849,0.761483,0.0151807
2.61578,0.525059,-0.0155062
2.53746,0.639722,-0.281879
2.67025,0.401455,-0.252064
2.55533,0.644226,0.0613216
2.54206,0.64088,-0.18332
2.61497,0.524896,-0.217731
2.49365,0.760008,0.0758681
2.61542,0.524988,0.046563
2.48578,0.757609,-0.166545
2.67337,0.401925,-0.15744
2.61365,0.524633,0.108607
2.61615,0.525134,-0.139842
2.61106,0.524112,0.217406
2.55921,0.645204,-0.0614147
2.55049,0.633546,0
2.67515,0.392649,-0.0314775
2.50113,0.752757,0.0151807
2.62152,0.516699,-0.0155294
2.5474,0.632779,-0.282736
2.67558,0.392711,-0.252436
2.56532,0.637231,0.0615077
2.6207,0.516537,-0.218057
2.49629,0.751299,0.0758681
2.62116,0.516629,0.0466328
2.48841,0.748928,-0.166545
2.68266,0.393751,-0.157906
2.56168,0.636325,0.15372
2.61939,0.51628,0.10877
2.55161,0.633824,-0.12247
2.61797,0.516,-0.139842
2.56532,0.637231,-0.0615077
2.49944,0.743217,-0.0455159
2.55646,0.626036,0
2.67644,0.383775,-0.0314775
2.60616,0.504699,-0.337894
2.49978,0.743318,0.0151575
2.61536,0.506481,-0.0154829
2.54949,0.624327,-0.282736
2.68475,0.384966,-0.25318
2.57131,0.629671,0.0616008
2.61848,0.507084,-0.217731
2.49877,0.743016,0.0758681
2.62679,0.508694,0.0467026
2.49471,0.741809,-0.166801
2.67605,0.383718,-0.15744
2.5599,0.626877,0.153487
2.62109,0.50759,0.10877
2.55758,0.626308,-0.122656
2.62359,0.508074,-0.140051
2.57131,0.629671,-0.0616008
2.50189,0.734925,-0.0455159
2.68166,0.375452,-0.0315241
2.50223,0.735025,0.0151575
2.62882,0.500049,-0.0155527
2.55541,0.616803,-0.283165
2.68601,0.376061,-0.25318
2.57727,0.62208,0.0616939
2.68166,0.375452,0.0315241
2.62015,0.498399,-0.217731
2.50889,0.73698,0.0761008
2.62453,0.499233,0.0466328
2.49715,0.733532,-0.166801
2.68522,0.37595,-0.157906
2.63061,0.500389,0.109096
2.55964,0.617824,-0.122656
2.62526,0.499372,-0.140051
2.57338,0.621142,-0.0616008
2.5047,0.725313,-0.0455159
2.56477,0.60865,0
2.51272,0.727636,0.015204
2.62679,0.489218,-0.0155294
2.69533,0.366818,-0.253923
2.57575,0.611255,0.0616008
2.68705,0.365691,0.0315706
2.55852,0.607167,-0.183878
2.62988,0.489794,-0.218382
2.51554,0.728453,0.0762172
2.63036,0.489884,0.0467026
2.49995,0.723938,-0.166801
2.6906,0.366174,-0.158138
2.63644,0.491016,0.109258
2.56977,0.609836,-0.123028
2.57575,0.611255,-0.0616008
2.56677,0.600142,0
2.69221,0.357305,-0.0316172
2.51128,0.7182,0.0151807
2.63233,0.481224,-0.0155527
2.69653,0.357879,-0.253923
2.57387,0.6018,0.0615077
2.69617,0.357832,0.0316637
2.56441,0.599589,-0.184157
2.63149,0.481071,-0.218382
2.51794,0.720107,0.0762172
2.63984,0.482598,0.0468423
2.50618,0.716742,-0.167057
2.69575,0.357776,-0.158371
2.5741,0.601854,0.153952
2.63806,0.482271,0.109258
2.57177,0.601311,-0.123028
2.64055,0.482728,-0.140679
2.59403,0.606515,0.327097
2.58165,0.603621,-0.0616939
2.5133,0.709772,-0.0455857
2.69735,0.348888,-0.0316637
2.51749,0.710955,0.015204
2.63785,0.473198,-0.0155759
2.6977,0.348934,-0.253923
2.57975,0.594159,0.0616008
2.64092,0.473749,-0.219033
2.52417,0.71284,0.0763336
2.6493,0.475253,0.0469819
2.51622,0.710596,-0.167569
2.70089,0.349346,-0.158603
2.57997,0.594211,0.154185
2.64357,0.474225,0.109421
2.57376,0.592779,-0.123028
2.63821,0.473263,-0.14047
2.58364,0.595056,-0.0616939
2.52347,0.703141,-0.0457253
2.63447,0.463106,-0.0778463
2.69855,0.33947,-0.0316637
2.63013,0.462342,-0.339914
2.64342,0.464679,-0.0155992
2.56765,0.581941,-0.283593
2.71076,0.341006,-0.255039
2.5857,0.586033,0.0616939
2.69855,0.33947,0.0316637
2.57232,0.583,-0.184436
2.63863,0.463837,-0.218708
2.52664,0.704024,0.0763336
2.647,0.465309,0.0469121
2.511,0.699665,-0.167057
2.70605,0.340414,-0.158836
2.58592,0.586083,0.154417
2.57191,0.582907,-0.122842
2.64378,0.464742,-0.140679
2.5896,0.586917,-0.0617869
2.58063,0.575421,0
2.52625,0.694424,0.0152272
2.64503,0.455451,-0.0155992
2.57355,0.573842,-0.284021
2.58773,0.577006,0.0616939
2.64416,0.455302,-0.219033
2.52908,0.695201,0.0763336
2.64467,0.455389,0.0468423
2.52112,0.693014,-0.167569
2.71119,0.331452,-0.159068
2.65076,0.456438,0.109584
2.58173,0.575667,-0.123214
2.65326,0.456868,-0.141098
2.59164,0.577876,-0.0617869
2.64166,0.444908,-0.0779626
2.59053,0.56767,0
2.71282,0.321564,-0.0318034
2.63728,0.444169,-0.340419
2.5365,0.687251,0.0152737
2.57563,0.564405,-0.284021
2.59764,0.569229,0.06188
2.70885,0.321094,0.0317569
2.58812,0.567142,-0.185273
2.65368,0.446931,-0.219684
2.53161,0.685927,0.0763336
2.65027,0.446357,0.0469121
2.51979,0.682724,-0.167313
2.71238,0.321512,-0.159068
2.6603,0.448046,0.10991
2.59163,0.567911,-0.123587
2.65098,0.446476,-0.140888
2.59449,0.568538,0.326122
2.52287,0.683558,-0.10649
2.58983,0.567517,-0.0616939
2.5924,0.559077,0
2.71387,0.312567,-0.0318034
2.64265,0.436068,-0.340924
2.5349,0.677804,0.0152505
2.64814,0.436974,-0.0155992
2.59952,0.560612,0.06188
2.71785,0.313025,0.03185
2.59389,0.559398,-0.185552
2.65908,0.438778,-0.22001
2.53387,0.677528,0.0763336
2.65962,0.438868,0.0470517
2.5259,0.675396,-0.167569
2.72137,0.31343,-0.159533
2.59192,0.558973,0.154417
2.65388,0.437921,0.109584
2.58959,0.558472,-0.123401
2.66032,0.438984,-0.141307
2.59952,0.560612,-0.06188
2.53691,0.66886,-0.0457951
2.7229,0.303979,-0.0318966
2.64808,0.427472,-0.341429
2.54499,0.67099,0.015297
2.65755,0.429002,-0.0156457
2.60146,0.551534,0.06188
2.71892,0.303535,0.03185
2.58802,0.548684,-0.184994
2.66453,0.430128,-0.220335
2.54395,0.670717,0.0765663
2.66509,0.430218,0.0471215
2.5321,0.667592,-0.167825
2.73038,0.304814,-0.159999
2.60167,0.551578,0.154882
2.65934,0.42929,0.109747
2.59543,0.550257,-0.123587
2.66184,0.429694,-0.141307
2.53133,0.667388,-0.106653
2.60537,0.552363,-0.061973
2.53934,0.659558,-0.0457951
2.60025,0.541327,0
2.65746,0.419,-0.342439
2.54743,0.661658,0.015297
2.66306,0.419882,-0.0156689
2.59308,0.539835,-0.285307
2.60738,0.542811,0.061973
2.66215,0.419739,-0.22001
2.54252,0.660384,0.0764499
2.6706,0.421071,0.0471913
2.53839,0.659311,-0.16808
2.72751,0.294377,-0.159766
2.60367,0.542039,0.154882
2.66484,0.420164,0.10991
2.60135,0.541555,-0.123773
2.6634,0.419936,-0.141307
2.61129,0.543626,-0.0620661
2.54528,0.652569,-0.0458649
2.66328,0.411346,-0.0784281
2.60586,0.533958,0
2.72888,0.285854,-0.0319431
2.54562,0.652658,0.0152737
2.67227,0.412734,-0.0157154
2.59477,0.531685,-0.285307
2.6169,0.536222,0.0621591
2.72888,0.285854,0.0319431
2.5956,0.531856,-0.185273
2.66739,0.411981,-0.220335
2.54459,0.652392,0.0764499
2.67191,0.412678,0.0471913
2.54045,0.651332,-0.16808
2.73637,0.286638,-0.160231
2.61318,0.53546,0.155347
2.66615,0.411789,0.10991
2.60303,0.53338,-0.123773
2.66865,0.412176,-0.141516
2.6169,0.536222,-0.0621591
2.66879,0.401712,-0.0785444
2.61181,0.524737,0
2.72996,0.275375,-0.0319431
2.55199,0.643857,0.015297
2.59679,0.521719,-0.285307
2.61894,0.52617,0.0621591
2.73792,0.276178,0.0320363
2.60545,0.523458,-0.185831
2.66896,0.401737,-0.220335
2.55095,0.643596,0.0765663
2.67347,0.402416,0.0471913
2.54293,0.641574,-0.16808
2.73347,0.275729,-0.159999
2.67166,0.402144,0.110073
2.6129,0.524955,-0.124145
2.67811,0.403115,-0.141935
2.6157,0.525518,0.327585
2.54216,0.641379,-0.106816
2.61502,0.525382,-0.0620661
2.61755,0.51639,0
2.74285,0.267006,-0.0320828
2.59807,0.512547,-0.41199
2.5581,0.63591,0.0153202
2.60249,0.51342,-0.285735
2.61684,0.51625,0.0620661
2.73887,0.266618,0.0320363
2.61117,0.515132,-0.18611
2.67823,0.393576,-0.220986
2.55706,0.635651,0.0766826
2.67882,0.393663,0.0472611
2.54516,0.632692,-0.16808
2.73839,0.266572,-0.160231
2.61079,0.515057,-0.123959
2.67951,0.393764,-0.141935
2.54827,0.633465,-0.106979
2.62076,0.517024,-0.0621591
2.55197,0.62588,-0.0458649
2.61916,0.508165,0
2.74766,0.258763,-0.0321294
2.56397,0.628823,0.0153435
2.67644,0.384729,-0.0157154
2.6119,0.506757,-0.286592
2.62238,0.508789,0.0621591
2.73969,0.258013,0.0320363
2.60886,0.506167,-0.185831
2.68735,0.386296,-0.221637
2.56293,0.628568,0.076799
2.68796,0.386384,0.0474007
2.55489,0.626596,-0.168592
2.74717,0.258717,-0.160696
2.63041,0.510348,0.156045
2.67823,0.384985,0.110235
2.62024,0.508375,-0.124331
2.68864,0.386481,-0.142354
2.55413,0.626409,-0.107142
2.63023,0.510312,-0.0623452
2.56192,0.618846,-0.0460045
2.67668,0.37523,-0.0786608
2.62485,0.499767,0
2.74456,0.248808,-0.0320828
2.57393,0.621747,0.0153899
2.68569,0.376494,-0.0157619
2.61366,0.497636,-0.286592
2.61453,0.497803,-0.18611
2.68078,0.375805,-0.220986
2.56122,0.618678,0.0766826
2.69721,0.378108,0.0475404
2.56482,0.619547,-0.169104
2.63217,0.501162,0.156045
2.68351,0.376188,0.110398
2.622,0.499225,-0.124331
2.68601,0.376538,-0.142144
2.5563,0.617489,-0.107142
2.63199,0.501127,-0.0623452
2.56427,0.609005,-0.0460045
2.68207,0.36549,-0.0787772
2.62675,0.489685,0
2.74948,0.238615,-0.0321294
2.56851,0.610012,0.0153435
2.69505,0.367259,-0.0158084
2.61946,0.488326,-0.28702
2.63783,0.491751,0.0624383
2.74948,0.238615,0.0321294
2.62427,0.489223,-0.186668
2.69406,0.367124,-0.221962
2.56747,0.609764,0.076799
2.69468,0.36721,0.0474705
2.5633,0.608773,-0.168848
2.63015,0.49032,0.155813
2.6889,0.366421,0.110561
2.62783,0.489887,-0.124517
2.69536,0.367301,-0.142563
2.6339,0.491018,-0.0623452
2.56617,0.600946,-0.0460045
2.68716,0.357591,-0.0788935
2.63221,0.482151,0
2.7542,0.23031,-0.032176
2.57431,0.602852,0.0153667
2.68826,0.357736,-0.0157619
2.63936,0.483462,0.0624383
2.7542,0.23031,0.032176
2.63757,0.483134,-0.187505
2.6952,0.358659,-0.221962
2.57326,0.602607,0.0769154
2.69582,0.358743,0.0474705
2.5652,0.600718,-0.168848
2.69796,0.359027,0.110887
2.63722,0.483069,-0.12489
2.70046,0.359359,-0.142773
2.56444,0.60054,-0.107304
2.63543,0.482742,-0.0623452
2.57215,0.592883,-0.0460744
2.63387,0.47296,0
2.75897,0.221013,-0.0322225
2.5764,0.593862,0.0153667
2.70139,0.349891,-0.0158317
2.62655,0.471645,-0.287448
2.6371,0.473538,0.0623452
2.76296,0.221332,0.0322691
2.63531,0.473218,-0.187226
2.70039,0.349761,-0.222288
2.70896,0.350871,0.04768
2.57117,0.592656,-0.169104
2.63495,0.473154,-0.124703
2.70169,0.34993,-0.142773
2.57041,0.592482,-0.107467
2.63316,0.472832,-0.0622522
2.57421,0.583901,-0.0460744
2.69753,0.339821,-0.0791263
2.63551,0.463763,0
2.7677,0.211992,-0.0323156
2.58236,0.58575,0.0153899
2.70656,0.340959,-0.0158549
2.63602,0.463853,-0.288305
2.64661,0.465717,0.0625313
2.76372,0.211687,0.0322691
2.63302,0.463325,-0.186947
2.7095,0.34133,-0.222939
2.58131,0.585512,0.0770317
2.7062,0.340913,0.0476102
2.57322,0.583678,-0.169104
2.7004,0.340183,0.110887
2.64446,0.465339,-0.125076
2.70686,0.340997,-0.142982
2.57636,0.58439,-0.10763
2.64661,0.465717,-0.0625313
2.64507,0.455458,0
2.58839,0.577151,0.0154132
2.71176,0.331522,-0.0158782
2.64162,0.454863,-0.288734
2.65618,0.45737,0.0627174
2.63863,0.454348,-0.187226
2.70678,0.330912,-0.222613
2.58344,0.576046,0.0770317
2.71537,0.331962,0.0477498
2.57924,0.57511,-0.16936
2.64453,0.455365,0.156278
2.7056,0.330768,0.111049
2.65008,0.45632,-0.125262
2.71602,0.332043,-0.143401
2.65224,0.456692,-0.0626244
2.58613,0.567179,-0.046214
2.70783,0.321452,-0.079359
2.65059,0.446887,0
2.77314,0.192459,-0.0323622
2.59039,0.568113,0.0154132
2.71688,0.322526,-0.0159014
2.64711,0.446301,-0.289162
2.6617,0.448761,0.0628105
2.652,0.447126,-0.188063
2.71583,0.322402,-0.223264
2.71651,0.322482,0.0477498
2.65398,0.447459,0.156743
2.64772,0.446403,-0.125076
2.58438,0.566796,-0.107793
2.65382,0.447431,-0.0626244
2.70888,0.31247,-0.079359
2.65995,0.439398,0
2.77776,0.183524,-0.0324088
2.59226,0.559519,0.0154132
2.71793,0.313514,-0.0159014
2.64465,0.436871,-0.288734
2.66712,0.440583,0.0629035
2.65347,0.438328,-0.188063
2.59511,0.560135,0.0772645
2.71756,0.313472,0.0477498
2.58309,0.557541,-0.16936
2.7197,0.313717,0.111538
2.65313,0.438271,-0.125262
2.72219,0.314005,-0.14361
2.65529,0.438628,-0.0626244
2.71398,0.302984,-0.0794753
2.66154,0.429647,0
2.59821,0.550844,0.0154364
2.71906,0.303551,-0.0159014
2.65016,0.42781,-0.289162
2.66477,0.430168,0.0628105
2.659,0.429236,-0.188342
2.72267,0.303953,0.0478196
2.59293,0.549726,-0.169871
2.66098,0.429556,0.156975
2.72083,0.303748,0.111538
2.65866,0.429181,-0.125448
2.73126,0.304913,-0.144029
2.59219,0.549568,-0.107956
2.65293,0.428256,-0.0625313
2.59584,0.540882,-0.0462838
2.72298,0.294367,-0.0797081
2.65908,0.419729,0
2.78698,0.164113,-0.0325019
2.60011,0.541771,0.0154364
2.72011,0.294057,-0.0159014
2.6595,0.419796,-0.290019
2.67021,0.421486,0.0629035
2.65654,0.419329,-0.188063
2.59906,0.541551,0.0772645
2.73564,0.295737,0.048029
2.60265,0.542299,-0.170383
2.67036,0.42151,0.15744
2.72584,0.294677,0.111701
2.66014,0.419898,-0.125448
2.73628,0.295806,-0.144238
2.59409,0.540516,-0.107956
2.66626,0.420863,-0.0628105
2.60928,0.535135,-0.0464932
2.72389,0.285812,-0.0797081
2.66829,0.412596,0
2.79148,0.15558,-0.0325485
2.60572,0.534404,0.0154597
2.73693,0.28718,-0.0159944
2.6608,0.411439,-0.290019
2.67942,0.414318,0.0630896
2.65785,0.410982,-0.188063
2.74054,0.287559,0.0480988
2.60825,0.534923,-0.170639
2.67561,0.413729,0.157673
2.6654,0.41215,-0.125634
2.7372,0.287208,-0.144238
2.67152,0.413096,-0.0629035
2.61123,0.525567,-0.0464932
2.72889,0.276228,-0.0798244
2.67374,0.40341,0
2.61158,0.525638,0.0154829
2.73796,0.277146,-0.0159944
2.66623,0.402277,-0.290447
2.67117,0.403023,-0.188901
2.6066,0.524636,0.0773808
2.74157,0.277512,0.0480988
2.61019,0.525359,-0.170639
2.68501,0.405111,0.158138
2.66689,0.402377,-0.125634
2.60554,0.524423,-0.108281
2.67301,0.403301,-0.0629035
2.68311,0.394773,0
2.61349,0.516064,0.0154829
2.73498,0.266722,-0.0159711
2.66768,0.392502,-0.290447
2.68634,0.395248,0.0631827
2.67658,0.393811,-0.18918
2.74257,0.267462,0.0480988
2.60818,0.515016,-0.170383
2.67462,0.393524,0.15744
2.68021,0.394345,-0.126192
2.74718,0.267911,-0.144657
2.61137,0.515645,-0.108444
2.67052,0.39292,-0.0628105
2.61885,0.507631,-0.046563
2.68448,0.385405,0
2.61528,0.506938,0.0154829
2.74386,0.257922,-0.0160176
2.67297,0.383754,-0.290876
2.68771,0.385869,0.0631827
2.68189,0.385033,-0.189459
2.74747,0.258262,0.0481686
2.61388,0.506668,-0.170639
2.68389,0.385321,0.157906
2.67761,0.38442,-0.126006
2.621,0.508048,-0.10877
2.68771,0.385869,-0.0631827
2.62043,0.4994,-0.046563
2.68171,0.376413,0
2.62471,0.500216,0.0155294
2.75262,0.250024,-0.0160641
2.69683,0.378534,0.0633688
2.68703,0.37716,-0.189738
2.75225,0.24999,0.0482385
2.61546,0.498453,-0.170639
2.69299,0.377996,0.158371
2.68276,0.376561,-0.126192
2.75685,0.250408,-0.145075
2.62651,0.500558,-0.108933
2.68495,0.376867,-0.0630896
2.62216,0.490251,-0.046563
2.68697,0.367592,0
2.62644,0.491052,0.0155294
2.75746,0.240762,-0.0160874
2.69813,0.369119,0.0633688
2.68043,0.366697,-0.18918
2.62538,0.490852,0.0777299
2.7531,0.240382,0.0482385
2.62504,0.490789,-0.17115
2.70221,0.369677,0.158836
2.68802,0.367736,-0.126379
2.75771,0.240784,-0.145075
2.62824,0.491388,-0.108933
2.69021,0.368035,-0.0631827
2.6318,0.482077,-0.0467026
2.69227,0.358269,0
2.63216,0.482142,0.0155527
2.76231,0.230987,-0.0161106
2.68966,0.357922,-0.189738
2.76194,0.230956,0.0483781
2.62289,0.480444,-0.170895
2.69331,0.358408,-0.126565
2.63002,0.481751,-0.108933
2.69947,0.359227,-0.0633688
2.62945,0.47264,-0.0466328
2.70137,0.350368,0
2.63375,0.473412,0.0155527
2.71254,0.351817,0.0636479
2.70271,0.350541,-0.190575
2.63268,0.473219,0.0778463
2.76269,0.221796,0.0483781
2.63233,0.473157,-0.171406
2.70472,0.350803,0.158836
2.69448,0.349475,-0.126565
2.63554,0.473734,-0.109096
2.69668,0.349759,-0.0632757
2.63896,0.464845,-0.0467725
2.70655,0.341437,0
2.63932,0.464908,0.0155759
2.76781,0.212485,-0.0161339
2.71375,0.342345,0.0636479
2.70391,0.341104,-0.190575
2.63825,0.46472,0.0779626
2.63789,0.464657,-0.171662
2.71386,0.342358,0.159301
2.69569,0.340066,-0.126565
2.64111,0.465224,-0.109258
2.70185,0.340844,-0.0633688
2.70381,0.331029,0
2.64495,0.455912,0.0155992
2.78054,0.203214,-0.0162036
2.71499,0.332397,0.0636479
2.70119,0.330707,-0.190296
2.64387,0.455727,0.078079
2.64745,0.456342,-0.172174
2.71906,0.332895,0.159533
2.70882,0.331641,-0.127123
2.6428,0.455542,-0.109258
2.70705,0.331425,-0.0634618
2.64609,0.447078,-0.0468423
2.70887,0.322534,0
2.64645,0.447139,0.0155992
2.77721,0.193715,-0.0161804
2.72799,0.324811,0.0639271
2.71019,0.322692,-0.190854
2.64501,0.446896,-0.171918
2.71221,0.322933,0.159068
2.71387,0.32313,-0.127309
2.6443,0.446776,-0.109258
2.70813,0.322447,-0.0634618
2.65158,0.438491,-0.0469121
2.71395,0.313535,0
2.65194,0.43855,0.0156224
2.77786,0.184019,-0.0161804
2.71527,0.313687,-0.191133
2.65049,0.438311,-0.172174
2.72292,0.314571,-0.127681
2.65767,0.439498,-0.109747
2.71719,0.313909,-0.0636479
2.66099,0.43051,-0.0470517
2.72298,0.30495,0
2.65345,0.429291,0.0156224
2.72031,0.304652,-0.191412
2.65595,0.429694,-0.17243
2.724,0.305065,-0.127681
2.66313,0.430857,-0.10991
2.72224,0.304868,-0.063741
2.65853,0.420594,-0.0469819
2.72005,0.295012,0
2.65889,0.420651,0.0156457
2.73919,0.297088,0.0641132
2.72136,0.295153,-0.191412
2.65743,0.42042,-0.17243
2.72505,0.295554,-0.127681
2.66462,0.421558,-0.10991
2.72329,0.295363,-0.063741
2.66393,0.411921,-0.0470517
2.74021,0.287524,0.0641132
2.73031,0.286484,-0.19197
2.66677,0.412361,-0.172941
2.73004,0.286456,-0.127868
2.67003,0.412864,-0.110073
2.73623,0.287106,-0.0640202
2.66931,0.403219,-0.0471215
2.73,0.276823,0
2.66571,0.402676,0.0156689
2.74916,0.278765,0.0642993
2.67214,0.403647,-0.173197
2.73897,0.277733,-0.12824
2.6754,0.40414,-0.110235
2.73324,0.277152,-0.0639271
2.68645,0.396702,-0.0474007
2.74285,0.268939,0
2.67099,0.394418,0.0156922
2.67386,0.394842,0.0786608
2.67346,0.394783,-0.173197
2.74385,0.269038,-0.128426
2.67278,0.394682,-0.110073
2.74608,0.269256,-0.0642063
2.67991,0.38618,-0.0472611
2.74377,0.259362,0
2.67631,0.385662,0.0157154
2.75497,0.260421,0.0643924
2.67878,0.386017,-0.173453
2.7408,0.259081,-0.12824
2.68205,0.386489,-0.110398
2.74303,0.259292,-0.0641132
2.6813,0.376356,-0.0472611
2.7447,0.249305,0
2.68167,0.376407,0.0157387
2.75989,0.250684,0.0644854
2.68413,0.376752,-0.173709
2.6874,0.377212,-0.110561
2.75192,0.249961,-0.0642993
2.68656,0.367535,-0.0473309
2.74954,0.24007,0
2.68693,0.367585,0.0157619
2.76473,0.241396,0.0645785
2.68584,0.367436,0.0788935
2.69729,0.369003,-0.174476
2.69266,0.36837,-0.110724
2.75676,0.2407,-0.0643924
2.69173,0.359154,-0.0474007
2.69606,0.359731,0.0158084
2.77349,0.232896,0.0647646
2.6985,0.360057,-0.174476
2.75132,0.231035,-0.128612
2.69783,0.359968,-0.110887
2.76552,0.232227,-0.0645785
2.70487,0.351302,-0.0476102
2.75908,0.221991,0
2.69333,0.349804,0.0157852
2.69182,0.349608,-0.173965
2.70304,0.351064,-0.111049
2.7703,0.222893,-0.0646715
2.69814,0.340854,-0.0474705
2.69851,0.340901,0.0158084
2.70491,0.341709,-0.174732
2.70425,0.341626,-0.111049
2.76707,0.212914,-0.0645785
2.71122,0.332897,-0.04768
2.76854,0.20331,0
2.70365,0.331967,0.0158317
2.70652,0.332319,0.079359
2.71401,0.333239,-0.175244
2.70939,0.332672,-0.111212
2.76381,0.202962,-0.0644854
2.71634,0.323904,-0.0477498
2.70876,0.323,0.0158549
2.71163,0.323343,0.0794753
2.71516,0.323763,-0.175244
2.7145,0.323685,-0.111375
2.78046,0.194428,-0.0648576
2.72143,0.314879,-0.0478196
2.71385,0.314002,0.0158782
2.72023,0.314741,-0.1755
2.71562,0.314207,-0.111375
2.79309,0.185516,-0.0651368
2.7224,0.306328,-0.0478196
2.71769,0.305798,0.0795917
2.72121,0.306194,-0.1755
2.72453,0.306568,-0.111701
2.78967,0.176488,-0.0650437
2.72356,0.295873,-0.0478196
2.71995,0.295482,0.0159014
2.72237,0.295744,-0.1755
2.73364,0.296968,-0.112026
2.72855,0.286783,-0.0478894
2.72892,0.286822,0.0159479
2.72781,0.286706,0.0798244
2.73529,0.287492,-0.176267
2.73068,0.287007,-0.111864
2.7374,0.27902,-0.048029
2.73777,0.279058,0.0159944
2.73268,0.278539,0.0799408
2.74015,0.279301,-0.176523
2.73952,0.279237,-0.112189
2.74234,0.269855,-0.0480988
2.74271,0.269892,0.0160176
2.7365,0.269281,-0.112026
2.75122,0.261036,-0.0482385
2.74538,0.260482,-0.112352
2.74415,0.250704,-0.0480988
2.74452,0.250738,0.0160176
2.75026,0.251261,-0.112515
2.74899,0.241473,-0.0481686
2.74937,0.241505,0.0160409
2.75112,0.241659,-0.112515
2.75783,0.232067,-0.0483083
2.75821,0.232098,0.0160874
2.75597,0.23191,-0.112678
2.75859,0.222921,-0.0483083
2.75896,0.222951,0.0160874
2.75672,0.22277,-0.112678
2.76732,0.213906,-0.0484479
2.76371,0.213626,0.0161106
2.76805,0.204245,-0.0484479
2.77274,0.194861,-0.0485177
2.78138,0.185714,-0.0486573
2.786,0.176257,-0.0487271
2.7866,0.166531,-0.0487271
