2.1441,0.188339,-0.125348
2.14073,0.180891,-0.125115
2.14135,0.173418,-0.125115
2.14592,0.166251,-0.125348
2.14649,0.158758,-0.125348
2.15451,0.151792,-0.0251447
2.14703,0.151265,-0.125348
2.14356,0.143502,-0.125115
2.14754,0.136241,-0.0250516
2.15202,0.136525,-0.12558
2.15199,0.128982,-0.0250982
2.16046,0.12949,-0.126045
2.15642,0.121695,-0.0251447
2.15519,0.121625,-0.201503
2.14495,0.121047,-0.125115
2.14934,0.113772,-0.125348
2.15322,0.106441,-0.0250982
2.15598,0.106577,-0.201503
2.14523,0.106046,0.025005
2.14973,0.106268,-0.125348
2.16032,0.0992337,-0.201875
2.15407,0.0989468,-0.12558
2.15791,0.0915752,-0.0251447
2.1527,0.0913538,-0.201131
2.15392,0.0914056,0.0250982
2.15441,0.0914265,-0.12558
2.16096,0.0841483,-0.201875
2.15822,0.0840415,0.0251447
2.1587,0.0840604,-0.125813
2.1585,0.0765089,-0.0251447
2.16522,0.0767472,-0.202246
2.1505,0.0762255,0.0250516
2.15499,0.0763847,-0.12558
2.16275,0.069101,-0.0251913
2.16946,0.0693153,-0.202618
2.15875,0.0689733,0.0251447
2.15525,0.0688613,-0.12558
2.16571,0.0612502,-0.202246
2.15899,0.0610601,0.0251447
2.15948,0.0610738,-0.125813
2.1659,0.0544466,-0.202246
2.15517,0.054177,0.0250982
2.15966,0.0542897,-0.125813
2.16607,0.0468853,-0.202246
2.15135,0.0465666,0.0250516
2.16383,0.0468366,-0.126045
2.1675,0.0393486,-0.0252379
2.17021,0.0393978,-0.202618
2.1595,0.0392034,0.0251447
2.16398,0.0392847,-0.126045
2.17033,0.0318215,-0.202618
2.16362,0.0317231,0.0251913
2.1485,0.136678,-0.175747
2.15611,0.0316131,-0.12558
2.14472,0.136438,-0.112627
2.16772,0.0242146,-0.0252379
2.16645,0.0242004,-0.202246
2.16372,0.0241699,0.0251913
2.15294,0.129416,-0.176073
2.16819,0.0242199,-0.126278
2.14366,0.121351,-0.0624865
2.14852,0.121626,-0.0125072
2.17846,0.0167302,-0.203362
2.16779,0.0166482,0.0252379
2.15338,0.121901,-0.176073
2.16427,0.0166211,-0.126045
2.17183,0.00909724,-0.0252844
2.15692,0.114549,-0.0125537
2.17453,0.00910852,-0.20299
2.16783,0.00908049,0.0252379
2.14981,0.114172,-0.175747
2.16831,0.00908247,-0.126278
2.14249,0.219137,-0.100321
2.14445,0.106382,-0.0624865
2.14932,0.106624,-0.0125072
2.17853,0.0015212,-0.203362
2.16785,0.00151374,0.0252379
2.15418,0.106865,-0.176073
2.16433,0.00151129,-0.126045
2.14641,0.106479,-0.112627
2.17184,-0.00644429,-0.0252844
2.1457,0.0985613,-0.012484
2.17454,-0.00645228,-0.20299
2.16784,-0.00643242,0.0252379
2.15455,0.0989679,-0.176073
2.16832,-0.00643383,-0.126278
2.14679,0.0986112,-0.112627
2.14514,0.0914086,-0.0624865
2.15001,0.0916161,-0.0125072
2.17052,-0.0136378,-0.202618
2.16381,-0.0135956,0.0251913
2.15487,0.091823,-0.176073
2.16828,-0.0136237,-0.126278
2.15109,0.0916621,-0.112836
2.17175,-0.0212264,-0.0252844
2.15032,0.084111,-0.0125072
2.18241,-0.0213306,-0.203733
2.16775,-0.0211873,0.0252379
2.16822,-0.0211919,-0.126278
2.14973,0.0765728,-0.0626028
2.17166,-0.0288077,-0.0252844
2.15859,0.0768887,-0.0125537
2.1863,-0.0290019,-0.204105
2.17166,-0.0288077,0.0252844
2.15501,0.182476,-0.151232
2.15546,0.076777,-0.176073
2.15431,0.0767359,0.0376274
2.17213,-0.0288138,-0.126511
2.13802,0.181038,-0.0999489
2.14998,0.0690688,-0.0626028
2.17155,-0.0363875,-0.0252844
2.15885,0.0693538,-0.0125537
2.18619,-0.0366328,-0.204105
2.17155,-0.0363875,0.0252844
2.1597,0.069381,-0.176398
2.15456,0.069216,0.0376274
2.18,-0.0365292,-0.126976
2.13864,0.173574,-0.0999489
2.15194,0.0691316,-0.112836
2.1502,0.0619393,-0.0626028
2.15507,0.0620796,-0.0125305
2.17809,-0.043722,-0.203362
2.17142,-0.043588,0.0252844
2.15593,0.0621044,-0.176073
2.15878,0.0621864,0.0376972
2.17587,-0.0436775,-0.126743
2.15615,0.0621106,-0.113046
2.1504,0.0544327,-0.0626028
2.17525,-0.0512622,-0.025331
2.16327,0.0547585,-0.012577
2.18191,-0.0514191,-0.203733
2.17525,-0.0512622,0.025331
2.14483,0.159389,-0.150395
2.16012,0.0546788,-0.176398
2.16298,0.0547511,0.037767
2.17571,-0.0512731,-0.126743
2.14376,0.159309,-0.100135
2.1455,0.159439,-0.0500623
2.17905,-0.0589637,-0.0253776
2.17791,0.0475218,-0.277285
2.15945,0.0471191,-0.0125537
2.18171,-0.0590356,-0.203733
2.17506,-0.0588555,0.025331
2.14538,0.151901,-0.150395
2.1603,0.0471376,-0.176398
2.17951,-0.058976,-0.126976
2.1443,0.151824,-0.100135
2.15003,0.15223,-0.0501553
2.17884,-0.0665692,-0.0253776
2.1636,0.0396547,-0.012577
2.18946,-0.0668937,-0.204477
2.17484,-0.0664471,0.025331
2.14589,0.144411,-0.150395
2.16331,0.0396493,0.037767
2.17929,-0.0665831,-0.126976
2.14083,0.144071,-0.0999489
2.15055,0.144725,-0.0501553
2.17818,0.032316,-0.277285
2.15573,0.0319829,-0.0125305
2.15037,0.137173,-0.150674
2.16057,0.0320548,-0.176398
2.15144,0.0319192,0.0375576
2.18303,-0.0743262,-0.127208
2.14998,0.0318976,0.0876021
2.15328,0.137359,-0.100507
2.1568,0.0319988,-0.113046
2.15504,0.137471,-0.0502484
2.15495,0.0244493,-0.0627192
2.15609,0.129985,0
2.17832,-0.0817777,-0.0253776
2.17828,0.0247141,-0.277285
2.15582,0.0244592,-0.0125305
2.19291,-0.0823257,-0.204849
2.17832,-0.0817777,0.0253776
2.1588,0.130148,-0.151232
2.16466,0.0245595,-0.176724
2.17478,-0.0816449,-0.126743
2.15008,0.024394,0.0876021
2.14976,0.129603,-0.100321
2.1569,0.0244715,-0.113046
2.1555,0.129949,-0.0502484
2.15502,0.0169264,-0.0627192
2.18202,-0.0895455,-0.0254241
2.17836,0.0171097,-0.277285
2.1599,0.0169647,-0.0125537
2.18466,-0.0896539,-0.204105
2.15127,0.122159,-0.150674
2.17271,0.0170653,-0.177375
2.1676,0.0170252,0.0378368
2.18246,-0.0895639,-0.127208
2.15015,0.0168881,0.0876021
2.1502,0.122098,-0.100321
2.15697,0.0169417,-0.113046
2.15594,0.122424,-0.0502484
2.15507,0.0094033,-0.0627192
2.14096,0.114077,0
2.18169,-0.0971622,-0.0254241
2.18237,0.00952244,-0.27779
2.19229,-0.0976342,-0.204849
2.1737,-0.0968063,0.025331
2.15169,0.114648,-0.150674
2.17275,0.00948047,-0.177375
2.16765,0.0094582,0.0378368
2.18214,-0.0971821,-0.127208
2.1502,0.00938205,0.0876021
2.15061,0.114591,-0.100321
2.16035,0.11511,-0.0503414
2.15909,0.0018846,-0.0628356
2.14534,0.106802,0
2.18134,-0.104777,-0.0254241
2.17842,0.00190148,-0.277285
2.16796,0.00189235,-0.0126002
2.19591,-0.105477,-0.205221
2.17734,-0.104585,0.0253776
2.15606,0.107335,-0.150953
2.16878,0.00189307,-0.177049
2.18577,-0.10499,-0.127441
2.15421,0.00188035,0.0877649
2.15499,0.107282,-0.100507
2.16103,0.0018863,-0.113255
2.15674,0.10737,-0.0502484
2.15908,-0.0056526,-0.0628356
2.1497,0.099497,0
2.18238,-0.00571361,-0.27779
2.17196,-0.00568631,-0.0126235
2.19553,-0.113142,-0.205221
2.17696,-0.112185,0.0253776
2.15243,0.0996236,-0.150674
2.16878,-0.00567799,-0.177049
2.16766,-0.00567507,0.0378368
2.18539,-0.112619,-0.127441
2.1622,-0.00566076,0.0880906
2.16334,0.100128,-0.100879
2.16902,-0.00567861,-0.113674
2.15711,0.0998399,-0.0502484
2.15905,-0.0131887,-0.0628356
2.14604,0.091822,0
2.18055,-0.120003,-0.0254241
2.18235,-0.0133311,-0.27779
2.16792,-0.0132429,-0.0126002
2.19512,-0.120804,-0.205221
2.18055,-0.120003,0.0254241
2.15277,0.0921101,-0.150674
2.17273,-0.0132723,-0.177375
2.16763,-0.0132411,0.0378368
2.18499,-0.120247,-0.127441
2.15817,-0.0131834,0.0879277
2.1517,0.0920642,-0.100321
2.16898,-0.0132494,-0.113674
2.14945,0.0919681,-0.0500623
2.16298,-0.0207641,-0.0629519
2.14634,0.0843298,0
2.18626,-0.0209875,-0.278295
2.16786,-0.0208109,-0.0126002
2.18673,-0.128001,-0.204477
2.18012,-0.127614,0.0254241
2.16105,0.0849077,-0.151232
2.17666,-0.0208953,-0.1777
2.16757,-0.0208081,0.0378368
2.18455,-0.127874,-0.127441
2.15411,-0.0206789,0.0877649
2.152,0.0845522,-0.100321
2.16493,-0.0207827,-0.113464
2.15775,0.084778,-0.0502484
2.1629,-0.0283137,-0.0629519
2.14663,0.0768376,0
2.18765,-0.135718,-0.0255173
2.18617,-0.0286184,-0.278295
2.17578,-0.0284823,-0.0126467
2.1982,-0.136373,-0.205592
2.17966,-0.135223,0.0254241
2.17259,-0.0284405,-0.177375
2.16748,-0.0283737,0.0378368
2.19206,-0.135992,-0.127906
2.15802,-0.0282499,0.0879277
2.15628,0.0771832,-0.100507
2.16484,-0.0283392,-0.113464
2.15803,0.077246,-0.0502484
2.1628,-0.0351091,-0.0629519
2.14686,0.0700928,0
2.18721,-0.142591,-0.0255173
2.18607,-0.0354869,-0.278295
2.17568,-0.0353182,-0.0126467
2.15836,0.0704684,-0.232615
2.19776,-0.143279,-0.205592
2.15027,0.0702044,0.0500623
2.18322,-0.142331,0.0254707
2.15359,0.0703127,-0.150674
2.17647,-0.0353311,-0.1777
2.17138,-0.0352485,0.0379066
2.19163,-0.142879,-0.127906
2.15793,-0.03503,0.0879277
2.15252,0.0702777,-0.100321
2.16474,-0.0351407,-0.113464
2.16226,0.0705958,-0.0503414
2.16665,-0.043115,-0.0630683
2.1471,0.0622242,0
2.18268,-0.150331,-0.0254707
2.18593,-0.0434985,-0.278295
2.17153,-0.0432121,-0.0126235
2.16258,0.0626728,-0.233043
2.15851,0.0625549,0.0502484
2.18667,-0.150606,0.0255173
2.18031,-0.0433868,-0.178025
2.17124,-0.0432063,0.0379066
2.19507,-0.151185,-0.128138
2.16178,-0.043018,0.0880906
2.16474,0.0627356,-0.100879
2.16859,-0.0431536,-0.113674
2.1564,-0.0429109,0.176073
2.15851,0.0625549,-0.0502484
2.16649,-0.0506784,-0.0630683
2.1513,0.0548304,0
2.18214,-0.15795,-0.0254707
2.18576,-0.0511292,-0.278295
2.17537,-0.050886,-0.0126467
2.16676,0.0552244,-0.233472
2.15072,0.0548156,0.0500623
2.18214,-0.15795,0.0254707
2.18015,-0.0509979,-0.178025
2.17507,-0.0508791,0.0379764
2.19453,-0.158846,-0.128138
2.16162,-0.0505643,0.0880906
2.15297,0.0548728,-0.100321
2.17642,-0.0509106,-0.114092
2.15624,-0.0504385,0.176073
2.16271,0.0551212,-0.0503414
2.14228,0.152058,-0.0374878
2.15148,0.0473211,0
2.18954,-0.0588647,-0.2788
2.17518,-0.0584787,-0.0126467
2.16296,0.0475737,-0.233043
2.20008,-0.16697,-0.205964
2.1549,0.0473963,0.0501553
2.18557,-0.165868,0.0255173
2.1622,0.0475569,-0.151232
2.18394,-0.0587143,-0.178351
2.17089,-0.0583633,0.0379066
2.18998,-0.166203,-0.127906
2.16143,-0.0581089,0.0880906
2.16513,0.0476213,-0.100879
2.16824,-0.0582921,-0.113674
2.16003,-0.0580715,0.176398
2.14482,0.152238,-0.0876021
2.16689,0.0476601,-0.0504345
2.1428,0.144579,-0.0374878
2.16608,-0.0658014,-0.0630683
2.14763,0.0397368,0
2.19295,-0.174129,-0.0256104
2.18535,-0.0663868,-0.278295
2.17896,-0.0661925,-0.01267
2.16709,0.0400968,-0.233472
2.20345,-0.174964,-0.206336
2.16304,0.0400219,0.0503414
2.18497,-0.173496,0.0255173
2.15836,0.0399353,-0.150953
2.18373,-0.0663374,-0.178351
2.17467,-0.0660621,0.0379764
2.14272,0.144573,-0.137637
2.19735,-0.174479,-0.128371
2.16121,-0.0656534,0.0880906
2.16928,0.0401373,-0.101066
2.16802,-0.0658604,-0.113674
2.15583,-0.06549,0.176073
2.14135,0.144481,-0.0874392
2.16704,0.0400959,-0.0504345
2.14327,0.137472,-0.0374878
2.16585,-0.0729841,-0.0630683
2.15175,0.0326755,0
2.19236,-0.1814,-0.0256104
2.18909,-0.0737669,-0.2788
2.17119,0.0329707,-0.2339
2.20286,-0.18227,-0.206336
2.16317,0.0328488,0.0503414
2.18837,-0.181071,0.0255638
2.16247,0.0328383,-0.151232
2.17951,-0.0734442,-0.178025
2.17843,-0.0734079,0.0380462
2.16098,-0.0728198,0.0880906
2.1654,0.0328828,-0.100879
2.16779,-0.0730494,-0.113674
2.1556,-0.0726386,0.176073
2.13977,0.129374,-0.037418
2.17356,-0.0812204,-0.063301
2.15986,0.0248809,0
2.18483,-0.0816416,-0.278295
2.18244,-0.0815522,-0.0126932
2.17129,0.0250126,-0.2339
2.16327,0.0249202,0.0503414
2.18769,-0.18909,0.0255638
2.16657,0.0249582,-0.151511
2.18719,-0.0817298,-0.178676
2.17415,-0.0812424,0.0379764
2.20006,-0.190159,-0.128604
2.1602,0.0248848,0.125813
2.16869,-0.0810382,0.0884162
2.1735,0.025038,-0.101252
2.17949,-0.0814418,-0.114302
2.15931,-0.0806877,0.176398
2.1463,0.129769,-0.0876021
2.16727,0.0249663,-0.0504345
2.1402,0.121904,-0.037418
2.17726,-0.0889703,-0.0634174
2.15993,0.0173414,0
2.19499,-0.197442,-0.0256569
2.1885,-0.0894297,-0.2788
2.17815,-0.0890065,-0.01267
2.16342,0.0173694,-0.233043
2.16334,0.0173688,0.0503414
2.17462,0.0174593,-0.152069
2.18291,-0.0892012,-0.178351
2.17385,-0.0888311,0.0379764
2.1481,0.122354,-0.137892
2.19938,-0.197837,-0.128604
2.16839,-0.0886079,0.0884162
2.16558,0.0173868,-0.100879
2.1752,-0.088886,-0.114092
2.16299,-0.0883873,0.176724
2.16734,0.0174009,-0.0504345
2.14461,0.114646,-0.0374878
2.16895,-0.0962155,-0.0631846
2.15598,0.00978359,0
2.19214,-0.0972442,-0.279305
2.18182,-0.0967864,-0.0126932
2.16744,0.0098356,-0.233472
2.20476,-0.206082,-0.206708
2.15939,0.00979908,0.0502484
2.1903,-0.204731,0.0256104
2.17068,0.00985029,-0.15179
2.19055,-0.0971738,-0.179002
2.17753,-0.096596,0.0380462
2.1947,-0.205142,-0.128371
2.16807,-0.0961764,0.0884162
2.16563,0.00982739,-0.100879
2.17487,-0.0964783,-0.114092
2.16665,-0.0961137,0.177049
2.14715,0.114782,-0.0876021
2.16739,0.00983538,-0.0504345
2.14498,0.107534,-0.0374878
2.16862,-0.103407,-0.0631846
2.152,0.00262917,0
2.19757,-0.212764,-0.0257035
2.19181,-0.104513,-0.279305
2.14926,0.107749,0.0125072
2.17144,0.00265291,-0.2339
2.20407,-0.213392,-0.206708
2.16341,0.00264311,0.0503414
2.18961,-0.211993,0.0256104
2.16272,0.00264226,-0.151232
2.18623,-0.104248,-0.178676
2.17719,-0.103816,0.0380462
2.14889,0.10773,-0.137892
2.15634,0.00263448,0.12558
2.17173,-0.103556,0.0885791
2.17454,-0.10369,-0.114092
2.16632,-0.103298,0.177049
2.16741,0.002648,-0.0504345
2.14935,0.0998571,-0.0375576
2.17621,-0.111765,-0.0634174
2.15999,-0.00527787,0
2.18484,-0.219617,-0.0255638
2.19141,-0.112546,-0.279305
2.14565,0.099685,0.012484
2.17939,-0.00532526,-0.234757
2.16741,-0.00529599,0.0504345
2.18882,-0.220017,0.0256104
2.1667,-0.00529427,-0.151511
2.18584,-0.11226,-0.178676
2.1768,-0.111796,0.0380462
2.14927,0.0998531,-0.137892
2.20513,-0.221656,-0.129069
2.15235,-0.00525919,0.125348
2.17133,-0.111515,0.0885791
2.16964,-0.00530144,-0.101066
2.17814,-0.111864,-0.114302
2.16195,-0.111033,0.176724
2.17141,-0.00530576,-0.0505275
2.14569,0.0921822,-0.0374878
2.1798,-0.11958,-0.0635337
2.15996,-0.0128176,0
2.19997,-0.228898,-0.0257501
2.191,-0.120195,-0.279305
2.14998,0.0923664,0.0125072
2.17538,-0.0129091,-0.234328
2.21041,-0.229983,-0.207451
2.18804,-0.227656,0.0256104
2.16667,-0.0128574,-0.151511
2.19339,-0.120326,-0.179327
2.1764,-0.119393,0.0380462
2.20435,-0.229352,-0.129069
2.15631,-0.0127959,0.12558
2.17492,-0.119313,0.0887419
2.1776,-0.0129223,-0.101438
2.17773,-0.119467,-0.114302
2.16951,-0.119016,0.177375
2.17137,-0.0128853,-0.0505275
2.14998,0.0852248,-0.0375576
2.17939,-0.126808,-0.0635337
2.15591,-0.0199432,0
2.1992,-0.236192,-0.0257501
2.18561,-0.020218,-0.340045
2.19455,-0.12769,-0.27981
2.15427,0.0853947,0.0125305
2.17532,-0.0201228,-0.234328
2.20963,-0.237312,-0.207451
2.16732,-0.0200488,0.0504345
2.19523,-0.235765,0.0257035
2.17859,-0.020153,-0.152348
2.19298,-0.127599,-0.179327
2.15739,0.0855184,0.0628356
2.17998,-0.126842,0.0381161
2.1996,-0.236235,-0.128836
2.15226,-0.0199095,0.125348
2.17053,-0.126292,0.0885791
2.17355,-0.0201064,-0.101252
2.18929,-0.127384,-0.11493
2.1691,-0.126209,0.177375
2.15252,0.0853254,-0.0877649
2.17132,-0.0200858,-0.0505275
2.15828,0.0776316,-0.0376972
2.17891,-0.134795,-0.0635337
2.16382,-0.0279482,0
2.19832,-0.244251,-0.0257501
2.19803,-0.135978,-0.280315
2.15057,0.0773546,0.0125072
2.18319,-0.0281984,-0.235185
2.20875,-0.245409,-0.207451
2.16323,-0.0279407,0.0503414
2.1864,-0.242926,0.0256104
2.17451,-0.0280863,-0.152069
2.19648,-0.135882,-0.179653
2.18349,-0.135078,0.0381859
2.20666,-0.245177,-0.129301
2.16016,-0.0279009,0.125813
2.17404,-0.134493,0.0887419
2.17346,-0.0280728,-0.101252
2.18482,-0.13516,-0.11472
2.17261,-0.134405,0.1777
2.15282,0.0774354,-0.0877649
2.17523,-0.0280956,-0.0506206
2.15851,0.0708508,-0.0376972
2.17848,-0.141639,-0.0635337
2.15972,-0.0346817,0
2.19754,-0.251156,-0.0257501
2.20155,-0.14314,-0.280821
2.1628,0.0709916,0.012577
2.17514,-0.0349292,-0.234328
2.21192,-0.252799,-0.207823
2.16713,-0.0348007,0.0504345
2.18562,-0.249793,0.0256104
2.16643,-0.0347894,-0.151511
2.19206,-0.142523,-0.179327
2.14993,0.0705693,0.0626028
2.18306,-0.141937,0.0381859
2.15841,0.0708475,-0.138404
2.20588,-0.252108,-0.129301
2.16006,-0.0346871,0.125813
2.1736,-0.141323,0.0887419
2.17736,-0.0349649,-0.101438
2.18837,-0.142283,-0.11493
2.17217,-0.141229,0.1777
2.14906,0.0705407,-0.0876021
2.17113,-0.0348649,-0.0505275
2.15874,0.0633158,-0.0376972
2.18595,-0.149789,-0.0637664
2.21093,-0.151501,-0.443225
2.16759,-0.0423767,0
2.19665,-0.258825,-0.0257501
2.18529,-0.0427228,-0.340045
2.19708,-0.150552,-0.280315
2.15104,0.0630898,0.0125072
2.17898,-0.0425994,-0.234757
2.21498,-0.260984,-0.208195
2.167,-0.0423652,0.0504345
2.18871,-0.257889,0.0256569
2.17826,-0.0425854,-0.152348
2.19155,-0.150174,-0.179327
2.14617,0.062947,0.0624865
2.15864,0.0633128,-0.138404
2.20895,-0.260274,-0.129534
2.15993,-0.042227,0.125813
2.1731,-0.148909,0.0887419
2.17722,-0.0425651,-0.101438
2.18786,-0.149921,-0.11493
2.16371,-0.148266,0.177049
2.171,-0.0424434,-0.0505275
2.15495,0.0556767,-0.0376274
2.1894,-0.157706,-0.0638828
2.20647,-0.158936,-0.442441
2.16742,-0.0499427,0
2.20368,-0.267455,-0.0258432
2.18908,-0.0504417,-0.34066
2.20446,-0.158791,-0.281326
2.15524,0.0556842,0.0125305
2.17484,-0.0501136,-0.234328
2.21406,-0.268715,-0.208195
2.17483,-0.0501135,0.0506206
2.19574,-0.266491,0.0257501
2.1781,-0.0501888,-0.152348
2.19897,-0.158396,-0.179978
2.15437,0.0556616,0.0627192
2.18201,-0.157174,0.0381859
2.15885,0.0557773,-0.138404
2.20803,-0.267983,-0.129534
2.15577,-0.0496743,0.12558
2.18054,-0.157068,0.0890675
2.17706,-0.0501648,-0.101438
2.18732,-0.157557,-0.11493
2.17113,-0.156391,0.1777
2.15749,0.0557422,-0.0879277
2.17483,-0.0501135,-0.0506206
2.15515,0.0474019,-0.0376274
2.18479,-0.165809,-0.0637664
2.21367,-0.168001,-0.44401
2.17122,-0.0583721,0
2.18887,-0.0588467,-0.34066
2.19987,-0.166954,-0.280821
2.15544,0.0474083,0.0125305
2.18967,-0.166179,-0.012763
2.17463,-0.0584639,-0.234328
2.21696,-0.277709,-0.208567
2.17463,-0.0584638,0.0506206
2.1947,-0.27492,0.0257501
2.17789,-0.0585517,-0.152348
2.19437,-0.166536,-0.179653
2.15457,0.047389,0.0627192
2.18937,-0.166157,0.0383255
2.15506,0.0473998,-0.138148
2.21095,-0.276955,-0.129766
2.15956,-0.0580588,0.125813
2.17593,-0.165137,0.0889047
2.17685,-0.0585237,-0.101438
2.19069,-0.166257,-0.115139
2.17449,-0.165028,0.178025
2.15769,0.0474577,-0.0879277
2.17463,-0.0584638,-0.0506206
2.1593,0.0399527,-0.0376972
2.18021,-0.173118,-0.0636501
2.20525,-0.175106,-0.442441
2.167,-0.0658293,0
2.18865,-0.0664869,-0.34066
2.20323,-0.174946,-0.281326
2.15959,0.0399581,0.0125537
2.19306,-0.174138,-0.0127862
2.18236,-0.066296,-0.235185
2.20808,-0.284428,-0.207823
2.17441,-0.0660543,0.0506206
2.19769,-0.28309,0.0257966
2.17369,-0.0660324,-0.152069
2.15472,0.0398679,0.0627192
2.18878,-0.173798,0.0383255
2.1592,0.0399508,-0.138404
2.16334,-0.0657179,0.126045
2.17534,-0.172731,0.0889047
2.17663,-0.066122,-0.101438
2.18213,-0.17327,-0.11472
2.1739,-0.172617,0.178025
2.15384,0.0398517,-0.0877649
2.17041,-0.0659329,-0.0505275
2.16342,0.0332303,-0.037767
2.18364,-0.180295,-0.0637664
2.20469,-0.182033,-0.442441
2.17078,-0.0727708,0
2.20472,-0.29104,-0.0258898
2.19633,-0.0736273,-0.34189
2.19872,-0.18154,-0.280821
2.15571,0.0331119,0.0125305
2.18214,-0.0731517,-0.235185
2.21902,-0.292927,-0.208938
2.17419,-0.0728851,0.0506206
2.19283,-0.28947,0.0257501
2.18543,-0.073262,-0.152906
2.15883,0.0331599,0.0628356
2.16331,0.0332286,-0.13866
2.20906,-0.291613,-0.129766
2.16711,-0.0726477,0.126278
2.17877,-0.179893,0.0890675
2.17642,-0.0729597,-0.101438
2.18555,-0.180453,-0.11493
2.16938,-0.179118,0.1777
2.15396,0.033085,-0.0877649
2.18218,-0.073153,-0.0508067
2.16752,0.0257258,-0.0378368
2.18698,-0.18826,-0.0638828
2.20795,-0.190064,-0.443225
2.17451,-0.0804958,0
2.20766,-0.299272,-0.0259363
2.18421,-0.0808548,-0.340045
2.20598,-0.189895,-0.281831
2.16381,0.0256818,0.012577
2.18982,-0.0810626,-0.236042
2.21404,-0.300136,-0.208567
2.19973,-0.298197,0.0258432
2.18516,-0.0808901,-0.152906
2.15494,0.0255765,0.0627192
2.18758,-0.188311,0.0383255
2.16341,0.0256771,-0.13866
2.16684,-0.0802119,0.126278
2.18889,-0.188424,-0.115139
2.17271,-0.187031,0.178025
2.15806,0.0256136,-0.0879277
2.18191,-0.0807698,-0.0508067
2.16759,0.0181596,-0.0378368
2.19428,-0.196606,-0.0641155
2.21118,-0.19812,-0.44401
2.17422,-0.0880858,0
2.19576,-0.0889587,-0.34189
2.20135,-0.19724,-0.281326
2.15589,0.0180615,0.0125305
2.19517,-0.196686,-0.0128095
2.18555,-0.0885451,-0.235614
2.19471,-0.305323,0.0257966
2.18487,-0.0885173,-0.152906
2.20381,-0.19746,-0.180629
2.16301,0.0181212,0.0629519
2.1869,-0.195946,0.0383255
2.15949,0.0180917,-0.138404
2.16256,-0.0876135,0.126045
2.18543,-0.195813,0.0893932
2.17985,-0.0883138,-0.101624
2.18822,-0.196063,-0.115139
2.17602,-0.19497,0.178351
2.15813,0.0180804,-0.0879277
2.16365,0.0098184,-0.037767
2.18554,-0.204286,-0.0638828
2.2143,-0.206974,-0.444794
2.17786,-0.0966107,0
2.20936,-0.316013,-0.0259829
2.19146,-0.0972139,-0.341275
2.20058,-0.205691,-0.281326
2.16394,0.00981973,0.012577
2.1852,-0.0969363,-0.235614
2.21966,-0.317486,-0.20931
2.17727,-0.0965846,0.0507136
2.19353,-0.313747,0.0257966
2.1885,-0.0970827,-0.153185
2.20701,-0.206292,-0.180955
2.16306,0.00981574,0.0629519
2.19012,-0.204713,0.0383953
2.16753,0.00983602,-0.138916
2.20973,-0.316065,-0.129999
2.16221,-0.0959164,0.126045
2.18068,-0.203831,0.0892304
2.19938,-0.205579,-0.115767
2.17128,-0.202953,0.178025
2.15819,0.00979362,-0.0879277
2.18526,-0.096939,-0.0508998
2.15967,0.00301546,-0.0376972
2.18489,-0.211151,-0.0638828
2.20974,-0.213552,-0.44401
2.17355,-0.103262,0
2.19509,-0.104286,-0.34189
2.20387,-0.212985,-0.281831
2.16396,0.00302146,0.012577
2.19374,-0.212006,-0.0128095
2.18488,-0.103801,-0.235614
2.22259,-0.325034,-0.209682
2.20044,-0.321795,0.0258898
2.1842,-0.103768,-0.152906
2.15908,0.00301465,0.0628356
2.19345,-0.211978,0.0384651
2.16755,0.00302647,-0.138916
2.21663,-0.324161,-0.130464
2.16588,-0.102898,0.126278
2.18401,-0.211065,0.0893932
2.18317,-0.103719,-0.10181
2.19475,-0.212104,-0.115558
2.18254,-0.210923,0.179002
2.1662,0.00302459,-0.0882534
2.18095,-0.103614,-0.0508067
2.16766,-0.0049183,-0.0378368
2.19604,-0.220355,-0.0642319
2.20894,-0.22165,-0.44401
2.17316,-0.111228,0
2.21112,-0.331637,-0.0260295
2.19469,-0.11233,-0.34189
2.21097,-0.221853,-0.282841
2.16396,-0.00490989,0.012577
2.18846,-0.112011,-0.236042
2.19529,-0.329264,0.0258432
2.18779,-0.111977,-0.153185
2.15908,-0.00489882,0.0628356
2.19265,-0.220015,0.0384651
2.16755,-0.00491803,-0.138916
2.17746,-0.111448,0.126976
2.18322,-0.219069,0.0893932
2.19075,-0.112129,-0.102182
2.18998,-0.219747,-0.115348
2.16092,-0.110602,0.265675
2.18175,-0.218921,0.179002
2.1622,-0.0049059,-0.0880906
2.18055,-0.111607,-0.0508067
2.16764,-0.0121065,-0.0378368
2.19927,-0.228049,-0.0643483
2.20819,-0.228974,-0.44401
2.17277,-0.118434,0
2.21396,-0.339574,-0.026076
2.19431,-0.119608,-0.34189
2.20233,-0.228365,-0.281831
2.16793,-0.0121081,0.0126002
2.19602,-0.119701,-0.236899
2.2021,-0.337755,0.0259363
2.19139,-0.119449,-0.153464
2.2048,-0.228622,-0.180955
2.15905,-0.0120585,0.0628356
2.19589,-0.227698,0.0385349
2.17151,-0.0121281,-0.139172
2.17309,-0.118451,0.126743
2.19043,-0.227132,0.0897188
2.19719,-0.227832,-0.115767
2.18101,-0.226155,0.179002
2.16617,-0.0120983,-0.0882534
2.17158,-0.0197092,-0.0379066
2.20244,-0.23615,-0.0644646
2.21518,-0.237517,-0.445579
2.18033,-0.126481,0
2.20486,-0.34606,-0.0259829
2.18993,-0.127038,-0.341275
2.20941,-0.236898,-0.282841
2.16787,-0.0196755,0.0126002
2.18765,-0.126905,-0.236042
2.223,-0.348908,-0.210054
2.20486,-0.34606,0.0259829
2.19096,-0.127097,-0.153464
2.159,-0.019595,0.0628356
2.19111,-0.234935,0.0384651
2.16746,-0.0196718,-0.138916
2.21706,-0.347975,-0.130697
2.17665,-0.126267,0.126976
2.18962,-0.234776,0.0897188
2.20035,-0.235927,-0.115976
2.16012,-0.125308,0.265675
2.17624,-0.233342,0.178676
2.16611,-0.0196596,-0.0882534
2.18374,-0.126678,-0.0508998
2.1675,-0.027239,-0.0378368
2.2016,-0.243837,-0.0644646
2.21824,-0.245679,-0.446363
2.18387,-0.134337,0
2.21548,-0.355656,-0.0261226
2.19342,-0.134924,-0.34189
2.21251,-0.245045,-0.283346
2.16379,-0.0271924,0.012577
2.19513,-0.135029,-0.236899
2.2257,-0.357297,-0.210425
2.21153,-0.355022,0.026076
2.21108,-0.244887,-0.181606
2.16691,-0.0272316,0.0630683
2.19425,-0.243022,0.0385349
2.17137,-0.0272877,-0.139172
2.21977,-0.356344,-0.130929
2.17221,-0.133619,0.126743
2.19276,-0.242858,0.0898817
2.19951,-0.243606,-0.115976
2.16363,-0.133091,0.266163
2.17938,-0.241376,0.179002
2.16603,-0.0272206,-0.0882534
2.18328,-0.1343,-0.0508998
2.17138,-0.035248,-0.0379066
2.19672,-0.25145,-0.0643483
2.21343,-0.253362,-0.445579
2.17937,-0.14208,0
2.2008,-0.143476,-0.34312
2.20766,-0.252702,-0.282841
2.16768,-0.0351879,0.0126002
2.19065,-0.142815,-0.23647
2.20232,-0.361828,0.0259829
2.19397,-0.143032,-0.153743
2.1668,-0.0351736,0.0630683
2.18937,-0.250608,0.0384651
2.16727,-0.0351812,-0.138916
2.22239,-0.365125,-0.131162
2.1717,-0.14158,0.126743
2.17995,-0.24953,0.0893932
2.18499,-0.142446,-0.101996
2.20257,-0.25212,-0.116186
2.16709,-0.141279,0.26665
2.1864,-0.250269,0.179653
2.16991,-0.0352242,-0.0884162
2.18676,-0.142562,-0.0509928
2.17526,-0.0421469,-0.0379764
2.19592,-0.25835,-0.0643483
2.21651,-0.260773,-0.446363
2.18291,-0.149198,0
2.21301,-0.370728,-0.0261226
2.21473,-0.260563,-0.283851
2.17156,-0.0420751,0.0126235
2.20209,-0.15051,-0.237755
2.22322,-0.372438,-0.210425
2.20512,-0.369406,0.0260295
2.19351,-0.149923,-0.153743
2.16668,-0.0419806,0.0630683
2.20049,-0.258887,0.0386745
2.17912,-0.0422217,-0.139683
2.17523,-0.148674,0.126976
2.19106,-0.257778,0.0898817
2.20177,-0.259038,-0.116186
2.16664,-0.148086,0.26665
2.18165,-0.256671,0.179327
2.17379,-0.0421184,-0.0885791
2.1903,-0.149703,-0.0510859
2.17509,-0.0501194,-0.0379764
2.22333,-0.26984,-0.447932
2.18634,-0.157486,0
2.21558,-0.379512,-0.0261692
2.19583,-0.158169,-0.342505
2.2177,-0.269157,-0.284356
2.17139,-0.050034,0.0126235
2.20379,-0.267469,-0.0129024
2.20153,-0.15858,-0.237755
2.22577,-0.381257,-0.210797
2.20769,-0.378161,0.026076
2.19295,-0.157962,-0.153743
2.21235,-0.268508,-0.181931
2.16251,-0.0498295,0.0629519
2.19952,-0.266951,0.0386745
2.17097,-0.0500244,-0.139172
2.17865,-0.156932,0.127208
2.19407,-0.266288,0.0900445
2.19592,-0.158176,-0.102555
2.20477,-0.267588,-0.116395
2.17004,-0.156312,0.267138
2.18069,-0.264665,0.179327
2.16962,-0.0499934,-0.0884162
2.17489,-0.0580912,-0.0379764
2.21844,-0.2775,-0.447147
2.18574,-0.165498,0
2.21276,-0.276791,-0.283851
2.16719,-0.0578854,0.0126002
2.20093,-0.166648,-0.237755
2.20629,-0.38625,0.026076
2.19633,-0.1663,-0.154022
2.21135,-0.276614,-0.181931
2.16631,-0.0578619,0.0630683
2.19853,-0.27501,0.0386745
2.17476,-0.0580877,-0.139427
2.17806,-0.164916,0.127208
2.19308,-0.274328,0.0900445
2.20774,-0.276163,-0.116605
2.16945,-0.164264,0.267138
2.18762,-0.273645,0.179978
2.17342,-0.0580519,-0.0885791
2.18914,-0.165755,-0.0510859
2.1747,-0.0649235,-0.0379764
2.20896,-0.283366,-0.0648137
2.21755,-0.284468,-0.447147
2.20258,-0.173734,-0.343735
2.21975,-0.284751,-0.284861
2.17899,-0.0650516,0.01267
2.20589,-0.282972,-0.0129257
2.19643,-0.173249,-0.237327
2.22312,-0.396398,-0.210797
2.21294,-0.394584,0.0261692
2.16612,-0.0646673,0.0630683
2.17856,-0.0650387,-0.139683
2.17355,-0.171444,0.126976
2.1922,-0.281217,0.0900445
2.21082,-0.283605,-0.116814
2.17288,-0.171391,0.267625
2.18279,-0.280009,0.179653
2.17323,-0.0648795,-0.0885791
2.19259,-0.172946,-0.0511789
2.18245,-0.0727808,-0.0381161
2.20399,-0.290552,-0.0646974
2.22432,-0.293233,-0.448716
2.19257,-0.180647,0
2.20196,-0.181421,-0.343735
2.21875,-0.292497,-0.284861
2.17475,-0.072524,0.0126467
2.20092,-0.290147,-0.0129024
2.19978,-0.181241,-0.237755
2.22564,-0.404869,-0.211169
2.18799,-0.18027,0.0510859
2.21155,-0.402306,0.0261692
2.19916,-0.18119,-0.154301
2.17387,-0.0724946,0.063301
2.20062,-0.290108,0.0387443
2.17034,-0.0723768,-0.139172
2.22761,-0.405226,-0.131859
2.17294,-0.17903,0.126976
2.19121,-0.288867,0.0900445
2.19816,-0.181108,-0.102741
2.20982,-0.291321,-0.116814
2.16831,-0.178649,0.267138
2.18971,-0.288669,0.180304
2.18098,-0.0727315,-0.0889047
2.19198,-0.180598,-0.0511789
2.17418,-0.0804835,-0.0379764
2.20687,-0.299165,-0.0648137
2.21546,-0.300329,-0.447147
2.19189,-0.188682,0
2.22186,-0.4126,-0.0263088
2.20128,-0.18949,-0.343735
2.21766,-0.300628,-0.284861
2.20777,-0.299287,-0.0129489
2.20306,-0.189644,-0.238184
2.22806,-0.41375,-0.211541
2.21006,-0.410409,0.0261692
2.20246,-0.189592,-0.15458
2.17359,-0.0804617,0.063301
2.18203,-0.0807739,-0.139939
2.19806,-0.29797,0.0903702
2.20874,-0.299418,-0.116814
2.18863,-0.296693,0.180304
2.1767,-0.0805769,-0.0887419
2.1913,-0.188631,-0.0511789
2.20587,-0.306482,-0.0648137
2.18329,-0.195237,0
2.21655,-0.419222,-0.0262623
2.20064,-0.196789,-0.343735
2.22058,-0.308526,-0.285366
2.23059,-0.421877,-0.211912
2.21262,-0.418479,0.0262157
2.20182,-0.196894,-0.15458
2.21528,-0.30779,-0.182582
2.17331,-0.0876691,0.063301
2.2025,-0.306015,0.0388142
2.18175,-0.0880094,-0.139939
2.22865,-0.42151,-0.132092
2.18357,-0.195263,0.127673
2.19706,-0.305257,0.0903702
2.20773,-0.306741,-0.116814
2.17097,-0.194136,0.267625
2.18764,-0.303949,0.180304
2.18042,-0.0879557,-0.0889047
2.19465,-0.196253,-0.051272
2.18156,-0.0960118,-0.0381161
2.20869,-0.315129,-0.0649301
2.19052,-0.20398,0
2.22285,-0.428859,-0.0263554
2.20384,-0.20522,-0.344349
2.22336,-0.317223,-0.285871
2.18185,-0.0960247,0.0126932
2.20959,-0.315258,-0.0129722
2.20564,-0.205388,-0.238612
2.23294,-0.430804,-0.212284
2.215,-0.427344,0.0262623
2.20505,-0.205333,-0.154859
2.21808,-0.31647,-0.182907
2.17298,-0.0956341,0.063301
2.19741,-0.31352,0.0387443
2.17343,-0.0956543,-0.139427
2.17887,-0.202894,0.127441
2.19592,-0.313308,0.0903702
2.21055,-0.315395,-0.117023
2.17024,-0.202091,0.267625
2.1944,-0.313091,0.180955
2.17609,-0.0957711,-0.0887419
2.19391,-0.204296,-0.051272
2.18121,-0.103626,-0.0381161
2.20362,-0.322259,-0.0648137
2.22527,-0.437387,-0.026402
2.20704,-0.213292,-0.344964
2.21832,-0.324408,-0.285366
2.20451,-0.32239,-0.0129489
2.20491,-0.213086,-0.238612
2.23533,-0.439364,-0.212656
2.21742,-0.435844,0.0263088
2.21697,-0.324211,-0.182907
2.17662,-0.103408,0.0634174
2.20422,-0.322346,0.038884
2.18505,-0.103809,-0.140195
2.22949,-0.438217,-0.132324
2.17814,-0.210499,0.127441
2.19481,-0.320971,0.0903702
2.19936,-0.212549,-0.102927
2.21339,-0.323687,-0.117233
2.18138,-0.210811,0.269088
2.1933,-0.320749,0.180955
2.18372,-0.103746,-0.0890675
2.19319,-0.211952,-0.051272
2.17684,-0.111036,-0.0380462
2.20643,-0.330541,-0.0649301
2.18905,-0.219268,0
2.20235,-0.220601,-0.344349
2.22502,-0.333325,-0.286376
2.21129,-0.331268,-0.0129954
2.20416,-0.220781,-0.238612
2.22987,-0.446382,-0.212284
2.19243,-0.219607,0.051272
2.21588,-0.443582,0.0263088
2.18024,-0.111209,0.0635337
2.18069,-0.111232,-0.139939
2.18137,-0.218499,0.127673
2.19368,-0.328631,0.0903702
2.20258,-0.220623,-0.103113
2.21224,-0.331412,-0.117233
2.17273,-0.217633,0.268113
2.20005,-0.329585,0.181606
2.18734,-0.111571,-0.0892304
2.19641,-0.220005,-0.051365
2.18444,-0.118688,-0.0381859
2.20533,-0.337856,-0.0649301
2.19229,-0.226937,0
2.20554,-0.22831,-0.344964
2.21998,-0.340101,-0.285871
2.20341,-0.228089,-0.238612
2.22838,-0.453774,-0.212284
2.19567,-0.227288,0.051365
2.21832,-0.451726,0.0263554
2.20282,-0.228028,-0.154859
2.22259,-0.340501,-0.183558
2.17188,-0.118005,0.063301
2.20988,-0.338553,0.0390236
2.18429,-0.118679,-0.140195
2.19653,-0.336509,0.090533
2.21113,-0.338746,-0.117233
2.17594,-0.225246,0.2686
2.195,-0.336275,0.18128
2.18297,-0.118607,-0.0890675
2.19965,-0.227699,-0.0514581
2.18801,-0.126543,-0.0382557
2.21203,-0.346791,-0.0651628
2.19546,-0.235014,0
2.22848,-0.461902,-0.0264951
2.20473,-0.236007,-0.344964
2.2227,-0.348463,-0.286376
2.21293,-0.346932,-0.0130187
2.20656,-0.236202,-0.239041
2.23068,-0.462358,-0.212656
2.21673,-0.459466,0.0263554
2.20598,-0.236141,-0.155138
2.17943,-0.126047,0.0635337
2.18785,-0.126534,-0.140451
2.1838,-0.233767,0.127906
2.19929,-0.344793,0.0906958
2.205,-0.236036,-0.103299
2.21783,-0.347699,-0.117651
2.17909,-0.233263,0.269088
2.19382,-0.343935,0.18128
2.17855,-0.125996,-0.0889047
2.20282,-0.235802,-0.0515511
2.18356,-0.133935,-0.0381859
2.21476,-0.355143,-0.0652792
2.1986,-0.243116,0
2.22685,-0.469678,-0.0264951
2.20782,-0.244136,-0.345579
2.22147,-0.356219,-0.286376
2.17587,-0.133463,0.01267
2.21171,-0.354654,-0.0130187
2.20177,-0.243466,-0.238612
2.23685,-0.471786,-0.2134
2.21903,-0.468027,0.026402
2.17499,-0.133409,0.0634174
2.21141,-0.354606,0.0390934
2.18341,-0.133926,-0.140195
2.23496,-0.471387,-0.133022
2.18694,-0.241827,0.128138
2.20202,-0.353101,0.0908587
2.2166,-0.355439,-0.117651
2.19006,-0.134334,-0.0893932
2.198,-0.24305,-0.0514581
2.18311,-0.141175,-0.0381859
2.21357,-0.362486,-0.0652792
2.19778,-0.250406,0
2.22919,-0.477898,-0.0265417
2.20307,-0.251008,-0.344964
2.22811,-0.364866,-0.287386
2.21052,-0.361986,-0.0130187
2.2049,-0.251216,-0.239041
2.23138,-0.478366,-0.213028
2.22137,-0.476221,0.0264485
2.17853,-0.140879,0.0635337
2.18694,-0.141423,-0.140451
2.22948,-0.477959,-0.13279
2.18613,-0.249078,0.128138
2.19689,-0.359755,0.0906958
2.21935,-0.363433,-0.117861
2.18534,-0.248988,0.270062
2.18961,-0.141595,-0.0893932
2.19719,-0.250338,-0.0514581
2.18257,-0.149176,-0.0381859
2.21617,-0.371257,-0.0653955
2.19288,-0.257992,0
2.20999,-0.260005,-0.346194
2.23067,-0.373686,-0.287892
2.20791,-0.259761,-0.239469
2.22961,-0.486541,-0.213028
2.19625,-0.258389,0.0514581
2.2157,-0.483507,0.026402
2.20735,-0.259694,-0.155417
2.18198,-0.149135,0.0636501
2.19437,-0.149982,-0.140962
2.23552,-0.48783,-0.133255
2.1852,-0.257089,0.128138
2.19556,-0.367804,0.0906958
2.20637,-0.25958,-0.103485
2.21801,-0.371565,-0.117861
2.18442,-0.256996,0.270062
2.18907,-0.14962,-0.0893932
2.20023,-0.258856,-0.0515511
2.19002,-0.157367,-0.0383255
2.21486,-0.37899,-0.0653955
2.19196,-0.265645,0
2.20514,-0.267242,-0.345579
2.22935,-0.38147,-0.287892
2.21576,-0.379144,-0.0130652
2.20699,-0.267466,-0.239469
2.2279,-0.494321,-0.213028
2.19931,-0.266535,0.0515511
2.21791,-0.492105,0.0264485
2.20643,-0.267398,-0.155417
2.22417,-0.380583,-0.184209
2.18145,-0.156751,0.0636501
2.19383,-0.157641,-0.140962
2.2338,-0.49563,-0.133255
2.19222,-0.265676,0.128604
2.1982,-0.37614,0.0908587
2.21276,-0.378631,-0.117651
2.18854,-0.15726,-0.0893932
2.19931,-0.266535,-0.0515511
2.21359,-0.386333,-0.0653955
2.19901,-0.273901,0
2.23198,-0.389543,-0.288397
2.21399,-0.275766,-0.240326
2.23402,-0.503457,-0.213771
2.19841,-0.273827,0.0515511
2.21236,-0.498577,0.026402
2.20949,-0.275206,-0.155696
2.22289,-0.387957,-0.184209
2.18092,-0.163984,0.0636501
2.1933,-0.164915,-0.140962
2.19133,-0.272944,0.128604
2.20482,-0.384802,0.0911843
2.21936,-0.38734,-0.11807
2.188,-0.164517,-0.0893932
2.19288,-0.172584,-0.0383953
2.2201,-0.39546,-0.0656282
2.19407,-0.281067,0
2.21111,-0.28325,-0.346809
2.23061,-0.397332,-0.288397
2.21301,-0.283493,-0.240326
2.21841,-0.508083,0.0264951
2.18432,-0.17191,0.0637664
2.21283,-0.394164,0.039233
2.18873,-0.172257,-0.140707
2.19432,-0.281099,0.128836
2.20346,-0.392496,0.0911843
2.218,-0.395085,-0.11807
2.19538,-0.17278,-0.0897188
2.20141,-0.282007,-0.0516442
2.21398,-0.291869,-0.347424
2.23304,-0.406215,-0.288902
2.19253,-0.180644,0.0127862
2.2156,-0.403042,-0.0130884
2.2159,-0.292122,-0.240754
2.20036,-0.290074,0.0516442
2.22822,-0.518932,0.0266348
2.2279,-0.405281,-0.18486
2.18766,-0.180243,0.0638828
2.21137,-0.402272,0.039233
2.19206,-0.180605,-0.140962
2.23238,-0.519901,-0.133487
2.18932,-0.288618,0.128604
2.20594,-0.401285,0.0913472
2.22046,-0.403927,-0.118279
2.19075,-0.180498,-0.089556
2.20829,-0.291119,-0.0518303
2.19558,-0.188613,-0.0384651
2.22114,-0.412066,-0.0657446
2.19993,-0.297833,0
2.21686,-0.300126,-0.348039
2.23161,-0.414007,-0.288902
2.21881,-0.300389,-0.241183
2.21861,-0.524865,0.0265417
2.21434,-0.299784,-0.156255
2.18702,-0.187878,0.0638828
2.19539,-0.188598,-0.141218
2.23443,-0.528609,-0.13372
2.1883,-0.296258,0.128604
2.20452,-0.408982,0.0913472
2.21339,-0.299655,-0.104044
2.21511,-0.410947,-0.11807
2.19409,-0.188486,-0.0897188
2.19934,-0.297753,-0.0516442
2.19494,-0.195893,-0.0384651
2.21977,-0.419429,-0.0657446
2.19893,-0.305127,0
2.21586,-0.307476,-0.348039
2.23802,-0.422879,-0.289912
2.2178,-0.307745,-0.241183
2.21685,-0.532219,0.0265417
2.21334,-0.307126,-0.156255
2.22901,-0.421176,-0.185186
2.18638,-0.195129,0.0638828
2.19873,-0.196232,-0.141474
2.23655,-0.536948,-0.133952
2.1873,-0.303513,0.128604
2.21101,-0.417775,0.0916728
2.22159,-0.419773,-0.118489
2.19345,-0.195761,-0.0897188
2.2023,-0.305594,-0.0517372
2.22221,-0.427931,-0.065861
2.20577,-0.313928,0
2.21086,-0.314652,-0.347424
2.22065,-0.316045,-0.241611
2.20518,-0.313843,0.0518303
2.2162,-0.315412,-0.156534
2.22753,-0.428954,-0.185186
2.1817,-0.202391,0.0637664
2.21496,-0.426534,0.0393726
2.19803,-0.203905,-0.141474
2.23854,-0.545698,-0.134185
2.21346,-0.426246,0.0918356
2.21525,-0.315277,-0.10423
2.22403,-0.428281,-0.118698
2.19276,-0.203416,-0.0897188
2.20914,-0.314406,-0.0519233
2.1975,-0.211595,-0.0385349
2.22463,-0.436455,-0.0659773
2.20862,-0.322203,0
2.21757,-0.323508,-0.348654
2.23112,-0.437729,-0.289407
2.19382,-0.21124,0.0128095
2.20773,-0.322072,-0.240326
2.21904,-0.323722,-0.156813
2.23384,-0.438262,-0.185836
2.18496,-0.210388,0.0638828
2.22131,-0.435803,0.0395123
2.19731,-0.211577,-0.141474
2.2405,-0.554468,-0.134417
2.20093,-0.321082,0.129534
2.21196,-0.43397,0.0918356
2.22644,-0.43681,-0.118907
2.19601,-0.211452,-0.0898817
2.20011,-0.320961,-0.0517372
2.19277,-0.218867,-0.0384651
2.22309,-0.444218,-0.0659773
2.20748,-0.329911,0
2.22033,-0.331831,-0.349269
2.19705,-0.219294,0.0128327
2.224,-0.444398,-0.0131814
2.21445,-0.330952,-0.241183
2.20689,-0.329821,0.0519233
2.2045,-0.220038,-0.141986
2.23468,-0.561312,-0.134185
2.1998,-0.328762,0.129534
2.21435,-0.442471,0.0919985
2.21695,-0.331325,-0.104416
2.19924,-0.219513,-0.0900445
2.20293,-0.32923,-0.0518303
2.22545,-0.452772,-0.0660937
2.20236,-0.337009,0
2.22307,-0.340177,-0.349884
2.22243,-0.452159,-0.0131814
2.22508,-0.340485,-0.242468
2.21672,-0.339206,-0.156813
2.1914,-0.226459,0.0641155
2.19975,-0.227322,-0.14173
2.20259,-0.337043,0.129766
2.22725,-0.45314,-0.119117
2.20572,-0.337523,-0.0519233
2.19914,-0.23502,-0.0386047
2.21602,-0.458916,-0.065861
2.20908,-0.345932,0
2.21406,-0.346712,-0.348654
2.21995,-0.347635,-0.242039
2.21552,-0.346942,-0.156813
2.23694,-0.463247,-0.186487
2.18662,-0.233682,0.0639992
2.20291,-0.235423,-0.141986
2.2014,-0.34473,0.129766
2.21853,-0.347412,-0.104602
2.22957,-0.461721,-0.119326
2.19765,-0.234861,-0.0900445
2.21243,-0.346458,-0.0521094
2.22223,-0.468298,-0.0660937
2.19996,-0.352376,0
2.1986,-0.242728,0.012856
2.22705,-0.469313,-0.0132279
2.22265,-0.35601,-0.242468
2.22218,-0.355935,-0.157371
2.23531,-0.471053,-0.186487
2.18579,-0.241313,0.0639992
2.20208,-0.243111,-0.141986
2.20079,-0.24297,-0.0902073
2.21121,-0.354178,-0.0521094
2.2284,-0.477728,-0.0663264
2.21056,-0.361993,0
2.21939,-0.363438,-0.349884
2.22149,-0.476245,-0.0132047
2.22139,-0.363767,-0.242468
2.22092,-0.36369,-0.157371
2.23365,-0.478853,-0.186487
2.19288,-0.249847,0.0642319
2.20518,-0.251249,-0.142242
2.20682,-0.36138,0.130231
2.21999,-0.363538,-0.104788
2.2341,-0.47895,-0.119745
2.2039,-0.251103,-0.0903702
2.21391,-0.362541,-0.0522025
2.2045,-0.25897,-0.0387443
2.22281,-0.484652,-0.0662101
2.20533,-0.369046,0
2.222,-0.371835,-0.350499
2.21619,-0.370862,-0.242039
2.21263,-0.370267,0.0522025
2.22358,-0.372099,-0.15765
2.23975,-0.488345,-0.187138
2.19199,-0.2575,0.0642319
2.22732,-0.485635,0.0397915
2.20825,-0.25941,-0.142497
2.20554,-0.369081,0.130231
2.23632,-0.487596,-0.119954
2.20698,-0.259261,-0.090533
2.20474,-0.368947,-0.0520164
2.22892,-0.494139,-0.0664428
2.20403,-0.376742,0
2.2188,-0.379266,-0.242468
2.22226,-0.379858,-0.15765
2.24193,-0.497023,-0.187464
2.20733,-0.267117,-0.142497
2.2174,-0.379027,-0.104788
2.2307,-0.494535,-0.119745
2.21132,-0.377988,-0.0522025
2.23108,-0.502795,-0.0665591
2.21453,-0.386497,0
2.22138,-0.387693,-0.242896
2.22092,-0.387613,-0.15765
2.19808,-0.273785,0.0644646
2.20243,-0.274327,-0.142242
2.21606,-0.386765,-0.104788
2.22896,-0.502319,-0.119745
2.20512,-0.274662,-0.090533
2.21787,-0.38708,-0.0523886
2.2255,-0.509299,-0.0664428
2.20536,-0.392437,0
2.20202,-0.281694,0.0129024
2.22008,-0.395057,-0.242896
2.22748,-0.396374,-0.158208
2.23849,-0.512272,-0.187464
2.18923,-0.280058,0.0642319
2.20547,-0.282135,-0.142497
2.22264,-0.395512,-0.10516
2.23507,-0.51149,-0.120163
2.20419,-0.281973,-0.090533
2.21657,-0.394432,-0.0523886
2.20469,-0.289861,-0.0388142
2.2315,-0.518875,-0.0666755
2.21184,-0.401561,0
2.20499,-0.289901,0.0129257
2.23241,-0.519086,-0.0133209
2.21869,-0.402804,-0.242896
2.22609,-0.404147,-0.158208
2.24446,-0.521889,-0.188115
2.1922,-0.288219,0.0643483
2.21652,-0.515393,0.0397217
2.20447,-0.289832,-0.142497
2.2081,-0.400882,0.130697
2.22517,-0.403981,-0.105346
2.23327,-0.519288,-0.120163
2.20716,-0.290186,-0.0906958
2.21125,-0.401453,-0.0522955
2.20763,-0.29809,-0.038884
2.22189,-0.524823,-0.0664428
2.2,-0.29706,0.0129024
2.22859,-0.412642,-0.158487
2.20307,-0.297475,0.0646974
2.2074,-0.29806,-0.142753
2.22375,-0.411746,-0.105346
2.21009,-0.298424,-0.0908587
2.21376,-0.409897,-0.0523886
2.21053,-0.306344,-0.0389538
2.22782,-0.534442,-0.0666755
2.21292,-0.417735,0
2.20687,-0.305836,0.0129489
2.23651,-0.536525,-0.0133674
2.22755,-0.420496,-0.244181
2.23105,-0.421158,-0.158766
2.21425,-0.306859,-0.143265
2.22623,-0.420247,-0.105533
2.23348,-0.535799,-0.120373
2.21625,-0.418364,-0.0524816
2.20549,-0.313495,-0.038884
2.22983,-0.543161,-0.0667919
2.2193,-0.426968,0
2.20579,-0.313538,0.0129489
2.22606,-0.428269,-0.244181
2.19302,-0.311722,0.0644646
2.21317,-0.314586,-0.143265
2.22082,-0.427261,-0.105346
2.23936,-0.545482,-0.120791
2.2187,-0.426853,-0.0525747
2.22792,-0.550941,-0.0667919
2.21387,-0.433943,0
2.20468,-0.321235,0.0129489
2.22846,-0.436802,-0.24461
2.22806,-0.436724,-0.158766
2.19983,-0.320528,0.0646974
2.21206,-0.32231,-0.143265
2.23356,-0.552337,-0.120582
2.21476,-0.322703,-0.0911843
2.23384,-0.560272,-0.0670246
2.21634,-0.442065,0
2.2036,-0.328545,0.0129489
2.23862,-0.561473,-0.0134139
2.2192,-0.442634,-0.243753
2.23051,-0.44489,-0.159045
2.19876,-0.327822,0.0646974
2.21887,-0.330821,-0.143777
2.23559,-0.560713,-0.120791
2.21574,-0.441945,-0.0525747
2.21395,-0.338386,-0.0390934
2.23564,-0.569442,-0.067141
2.21029,-0.337828,0.0129954
2.23655,-0.569674,-0.0134139
2.20544,-0.337086,0.0649301
2.20975,-0.337745,-0.143265
2.22014,-0.451289,-0.105533
2.24126,-0.570875,-0.12121
2.2164,-0.338761,-0.0913472
2.22195,-0.451656,-0.0527608
2.21275,-0.346112,-0.0390934
2.2259,-0.575242,-0.0669082
2.21704,-0.458724,0
2.2091,-0.345541,0.0129954
2.22376,-0.460114,-0.24461
2.23509,-0.462457,-0.159603
2.20425,-0.344783,0.0649301
2.21645,-0.34669,-0.143777
2.22246,-0.459846,-0.105719
2.24313,-0.579694,-0.121419
2.22427,-0.46022,-0.0528539
2.21554,-0.354079,-0.0391632
2.23171,-0.584646,-0.067141
2.22334,-0.46772,0
2.22222,-0.467486,-0.24461
2.22963,-0.469045,-0.159324
2.20705,-0.352721,0.0650464
2.22875,-0.468858,-0.106091
2.21799,-0.35447,-0.09151
2.22665,-0.468417,-0.0529469
2.22956,-0.592822,-0.067141
2.20664,-0.360955,0.0129954
2.2318,-0.47805,-0.159603
2.20179,-0.360163,0.0649301
2.22185,-0.363444,-0.144288
2.23483,-0.478698,-0.106463
2.20879,-0.361307,-0.0911843
2.2354,-0.601903,-0.0673737
2.22792,-0.484543,0
2.20944,-0.368544,0.0130187
2.23419,-0.485907,-0.159882
2.20854,-0.368394,0.0651628
2.2207,-0.370422,-0.144288
2.22941,-0.484867,-0.106277
2.21553,-0.36956,-0.09151
2.2195,-0.482712,-0.0528539
2.22922,-0.609427,-0.0672573
2.22995,-0.493959,0
2.21195,-0.377698,0.0130419
2.23231,-0.494482,-0.159882
2.20711,-0.376871,0.0651628
2.21926,-0.378946,-0.144288
2.23533,-0.495152,-0.106649
2.21803,-0.378736,-0.0916728
2.22544,-0.49296,-0.05304
2.22821,-0.50174,0
2.23446,-0.503147,-0.160161
2.21792,-0.386691,-0.144288
2.23749,-0.50383,-0.106835
2.22761,-0.501604,-0.053133
2.22644,-0.509515,0
2.21713,-0.394532,0.0130884
2.23269,-0.510944,-0.160161
2.2123,-0.393671,0.0653955
2.22442,-0.395829,-0.1448
2.22793,-0.509854,-0.106463
2.2232,-0.395612,-0.0919985
2.22974,-0.510269,-0.0532261
2.23244,-0.519095,0
2.20787,-0.40084,0.0130419
2.23089,-0.518734,-0.160161
2.21091,-0.401391,0.0653955
2.23781,-0.520343,-0.107022
2.21788,-0.402656,-0.0918356
2.22794,-0.518049,-0.0532261
2.22691,-0.525188,0
2.21447,-0.409228,0.0130884
2.23314,-0.526656,-0.16044
2.20964,-0.408335,0.0653955
2.22175,-0.410573,-0.1448
2.23616,-0.527371,-0.107022
2.22446,-0.411075,-0.0921613
2.2302,-0.525964,-0.0533191
2.22886,-0.534279,0
2.21688,-0.418083,0.0131117
2.23895,-0.536698,-0.160998
2.21205,-0.417172,0.0655119
2.22415,-0.419453,-0.145056
2.23422,-0.535563,-0.107022
2.22687,-0.419966,-0.0923241
2.22826,-0.534134,-0.0533191
2.22304,-0.426883,-0.0395123
2.22319,-0.540722,0
2.21156,-0.424678,0.0130884
2.23716,-0.54412,-0.160998
2.21851,-0.426013,0.0657446
2.22275,-0.426827,-0.145056
2.23243,-0.542969,-0.107022
2.22647,-0.54152,-0.0533191
2.22896,-0.550786,0
2.22176,-0.435087,0.0131582
2.21301,-0.433373,0.0656282
2.2343,-0.552106,-0.107208
2.22388,-0.435502,-0.0923241
2.23612,-0.552555,-0.0535983
2.21631,-0.442057,0.0131349
2.21933,-0.44266,0.065861
2.23624,-0.560874,-0.107394
2.23018,-0.444825,-0.0926498
2.23805,-0.56133,-0.0536913
2.21875,-0.4502,0.0131582
2.21393,-0.449222,0.0657446
2.2338,-0.453255,-0.146079
2.23049,-0.567302,-0.107208
2.2287,-0.452218,-0.0926498
2.23231,-0.567763,-0.0535983
2.22853,-0.460696,-0.0397217
2.22492,-0.459948,0.0132047
2.21618,-0.458143,0.065861
2.22822,-0.460631,-0.145823
2.23613,-0.577471,-0.10758
2.23094,-0.461193,-0.0928126
2.23408,-0.576941,-0.0536913
2.2233,-0.467712,0.0132047
2.22239,-0.467522,0.0660937
2.23441,-0.470049,-0.146335
2.23797,-0.586286,-0.107766
2.23323,-0.469801,-0.0929754
2.23592,-0.585749,-0.0537844
2.22474,-0.475725,0.0662101
2.23674,-0.478291,-0.146591
2.23166,-0.477204,-0.0929754
2.23397,-0.593161,-0.0537844
2.22006,-0.482834,0.0132047
2.23116,-0.485247,-0.146335
2.22998,-0.484991,-0.0929754
2.23575,-0.601995,-0.0538774
2.21845,-0.490194,0.0132047
2.23343,-0.493505,-0.146591
2.23616,-0.494107,-0.0933011
2.24531,-0.612563,-0.0541566
2.23195,-0.501763,-0.0399311
2.22444,-0.500076,0.0132512
2.23551,-0.502563,-0.146847
2.23434,-0.5023,-0.0933011
2.22658,-0.508729,0.0132744
2.23763,-0.511252,-0.147102
2.23259,-0.518307,0.0133209
2.23467,-0.51879,-0.0934639
2.23789,-0.527778,-0.147358
2.23284,-0.526587,-0.0934639
2.22502,-0.532949,0.0132977
2.23992,-0.536516,-0.147614
2.23488,-0.535309,-0.0936268
2.2346,-0.543085,-0.0401405
2.23812,-0.543941,-0.147614
2.24086,-0.544605,-0.0939524
2.24273,-0.553773,-0.0941152
2.237,-0.560236,-0.0939524
2.23503,-0.568041,-0.0939524
2.24078,-0.577835,-0.0942781
2.23649,-0.584648,-0.04035
2.24271,-0.586274,-0.0944409
