2.2718,0.406305,-0.0268676
2.27714,0.399063,-0.0269142
2.27057,0.390156,-0.0268211
2.26409,0.380505,-0.0267279
2.26146,0.371951,-0.0266814
2.26275,0.364054,-0.0266814
2.25604,0.355303,-0.0265882
2.24541,0.345601,-0.0264485
2.24936,0.346209,0.0264951
2.2466,0.337761,-0.0264485
2.24264,0.337167,0.026402
2.24776,0.329918,-0.0264485
2.24381,0.329337,0.026402
2.24098,0.320935,-0.0263554
2.23306,0.319801,0.0262623
2.23021,0.31145,-0.0262157
2.23845,0.312601,-0.131627
2.22732,0.303125,0.0261692
2.23557,0.304248,-0.131394
2.22836,0.295347,-0.0261692
2.23233,0.295873,0.0262157
2.2287,0.295392,-0.130929
2.22139,0.286932,-0.026076
2.22536,0.287444,0.0261226
2.22571,0.287489,-0.130697
2.21444,0.27818,-0.0259829
2.28106,0.400571,-0.0134604
2.21444,0.27818,0.0259829
2.23066,0.280216,-0.130929
2.2233,0.271806,-0.026076
2.21777,0.271131,-0.208567
2.21139,0.27035,0.0259363
2.21969,0.271364,-0.130231
2.21232,0.262628,-0.0259363
2.27584,0.383705,-0.0134139
2.20834,0.262157,0.0258898
2.21665,0.263143,-0.129999
2.26053,0.372607,-0.0666755
2.22121,0.255431,-0.0260295
2.27723,0.37536,-0.0134139
2.20929,0.25406,0.0258898
2.21364,0.25456,-0.129766
2.2578,0.364472,-0.0665591
2.20614,0.246289,-0.0258432
2.27057,0.366532,-0.0133674
2.21653,0.247449,-0.208195
2.21012,0.246733,0.0258898
2.2105,0.246776,-0.129534
2.25116,0.355341,-0.0663264
2.21494,0.239446,-0.0259363
2.26788,0.35798,-0.0133442
2.20947,0.238854,-0.207451
2.20301,0.238157,0.0257966
2.19547,0.237341,-0.128604
2.25628,0.348484,-0.0664428
2.19981,0.230434,-0.0257501
2.26115,0.349237,-0.0132977
2.20232,0.230696,-0.206708
2.19584,0.230017,0.0257035
2.19624,0.230059,-0.128604
2.24958,0.339414,-0.0662101
2.2006,0.222754,-0.0257501
2.2584,0.340745,-0.0132744
2.20312,0.223008,-0.206708
2.2006,0.222754,0.0257501
2.25414,0.340103,0.0397915
2.201,0.222794,-0.128836
2.23888,0.329811,-0.065861
2.19739,0.214681,-0.0257035
2.25166,0.331693,-0.0132279
2.19992,0.214928,-0.206336
2.19341,0.214293,0.0256569
2.2474,0.331066,0.0396519
2.19779,0.214721,-0.128604
2.24071,0.33008,-0.118698
2.24013,0.321211,-0.065861
2.1982,0.206242,-0.0257035
2.245,0.321909,-0.0131814
2.19279,0.205735,-0.205592
2.1982,0.206242,0.0257035
2.24866,0.322433,0.0396519
2.19065,0.205534,-0.128138
2.24592,0.32204,-0.118907
2.23321,0.313062,-0.0656282
2.19087,0.198613,-0.0256104
2.24204,0.3143,-0.0131582
2.1855,0.198127,-0.204849
2.19087,0.198613,0.0256104
2.2457,0.314813,0.0395821
2.19526,0.199012,-0.128371
2.23109,0.312765,-0.11807
2.23043,0.303946,-0.0655119
2.18763,0.189854,-0.0255638
2.24323,0.305689,-0.0131582
2.18227,0.18939,-0.204477
2.18364,0.189508,0.0255173
2.23896,0.305108,0.0394424
2.18408,0.189546,-0.127673
2.22436,0.303118,-0.117651
2.22741,0.29641,-0.0653955
2.18024,0.182315,-0.0254707
2.23625,0.297586,-0.0131117
2.18286,0.182533,-0.204477
2.18024,0.182315,0.0254707
2.23595,0.297545,0.0393726
2.18068,0.182351,-0.127441
2.2253,0.296129,-0.117651
2.22447,0.288119,-0.0652792
2.18087,0.174702,-0.0254707
2.23331,0.289264,-0.0130884
2.17554,0.174276,-0.203733
2.18485,0.175022,0.0255173
2.22904,0.288711,0.039233
2.17334,0.1741,-0.126976
2.22357,0.288002,0.0913472
2.22632,0.288359,-0.117651
2.28286,0.409929,-0.0539705
2.21753,0.279353,-0.0650464
2.17349,0.166478,-0.0253776
2.2224,0.279967,-0.0130187
2.17614,0.166681,-0.203733
2.17747,0.166784,0.0254241
2.23003,0.280929,0.039233
2.16199,0.165598,-0.126278
2.21663,0.27924,0.0910215
2.22732,0.280586,-0.117651
2.21055,0.270639,-0.0648137
2.26657,0.390691,0
2.17804,0.159181,-0.0254241
2.22336,0.272207,-0.0130187
2.16479,0.158213,-0.202618
2.17405,0.15889,0.0253776
2.22394,0.272278,-0.182907
2.21909,0.271684,0.0390236
2.16654,0.158341,-0.126511
2.21639,0.271353,-0.117023
2.21153,0.262535,-0.0648137
2.17063,0.150644,-0.025331
2.2164,0.263113,-0.0129722
2.16138,0.150002,-0.202246
2.17462,0.150921,0.0253776
2.22097,0.263655,-0.182582
2.22007,0.263549,0.0390236
2.16711,0.150399,-0.126511
2.21063,0.262429,0.0906958
2.20943,0.262286,-0.116605
2.20842,0.254741,-0.0646974
2.25741,0.372902,0
2.16713,0.143181,-0.0252844
2.21329,0.255303,-0.0129489
2.16187,0.142833,-0.202246
2.17112,0.143444,0.025331
2.21391,0.255375,-0.181931
2.21299,0.255269,0.038884
2.16759,0.143211,-0.126511
2.21149,0.255096,0.0906958
2.20632,0.2545,-0.116395
2.26074,0.373453,-0.0533191
2.20134,0.246142,-0.0644646
2.25475,0.364381,0
2.20621,0.246686,-0.0129024
2.15043,0.134539,-0.201131
2.16761,0.135615,0.0252844
2.20686,0.246758,-0.18128
2.20989,0.247097,0.0388142
2.16011,0.135145,-0.126045
2.20442,0.246486,0.0903702
2.20323,0.246352,-0.116186
2.25414,0.364282,-0.053133
2.20223,0.238072,-0.0644646
2.25607,0.356115,0
2.2071,0.238599,-0.0129024
2.15488,0.126891,-0.201503
2.1641,0.127434,0.0252379
2.20775,0.238669,-0.18128
2.2068,0.238567,0.0387443
2.15262,0.126758,-0.12558
2.19736,0.237546,0.0900445
2.20014,0.237847,-0.115976
2.19104,0.229901,-0.0641155
2.24927,0.347804,0
2.20386,0.231247,-0.0128792
2.15129,0.1199,-0.201131
2.1605,0.120413,0.0251913
2.20452,0.231316,-0.180955
2.20357,0.231216,0.0386745
2.153,0.119995,-0.12558
2.1981,0.230642,0.0900445
2.19294,0.2301,-0.115558
2.24471,0.347098,-0.0528539
2.19978,0.223058,-0.0643483
2.24256,0.338755,0
2.20068,0.223148,-0.012856
2.14375,0.111973,-0.200387
2.15292,0.112453,0.0250982
2.19739,0.222815,-0.180304
2.20436,0.223522,0.0386745
2.14942,0.11227,-0.125348
2.19492,0.222564,0.0898817
2.24408,0.338984,-0.105719
2.18975,0.22204,-0.115348
2.24195,0.338663,-0.0527608
2.18869,0.213446,-0.0639992
2.24384,0.330142,0
2.15333,0.104186,-0.0250982
2.20152,0.214697,-0.012856
2.14416,0.103742,-0.200387
2.15333,0.104186,0.0250982
2.19029,0.213602,-0.179653
2.19724,0.21428,0.0385349
2.14585,0.103824,-0.125115
2.19178,0.213747,0.0897188
2.24537,0.330366,-0.105719
2.19059,0.213631,-0.115348
2.23928,0.32947,-0.0526678
2.18544,0.205431,-0.0638828
2.24102,0.321739,0
2.19429,0.206263,-0.0128095
2.14451,0.0962571,-0.200387
2.25229,0.323357,0.0529469
2.14969,0.0964897,0.0250516
2.18308,0.20521,-0.179002
2.19001,0.205861,0.0383953
2.13822,0.0959749,-0.12465
2.18853,0.205722,0.089556
2.24255,0.321959,-0.105533
2.18734,0.20561,-0.115139
2.18705,0.205583,0.179327
2.2325,0.320516,-0.0524816
2.17818,0.19708,-0.0636501
2.24213,0.313914,0
2.19101,0.198241,-0.0127862
2.13289,0.0882761,-0.199272
2.24549,0.314384,0.0527608
2.18379,0.197587,-0.179002
2.18275,0.197494,0.0382557
2.13854,0.0885099,-0.12465
2.18127,0.19736,0.0892304
2.23575,0.31302,-0.10516
2.18407,0.197613,-0.11493
2.18776,0.197947,0.179327
2.17487,0.189128,-0.0635337
2.23925,0.305544,0
2.18771,0.190245,-0.012763
2.12921,0.080679,-0.1989
2.24261,0.306002,0.0526678
2.13832,0.0810243,0.0249119
2.18843,0.190308,-0.179327
2.18741,0.190219,0.0383255
2.13884,0.0810439,-0.12465
2.18593,0.19009,0.0893932
2.23682,0.305213,-0.10516
2.17679,0.189295,-0.114511
2.18049,0.189617,0.178676
2.23227,0.297452,0
2.17872,0.18257,-0.278295
2.18431,0.183037,-0.0127397
2.12945,0.07399,-0.1989
2.23563,0.297899,0.0524816
2.1771,0.182434,-0.178351
2.188,0.183347,0.0383255
2.13509,0.0741859,-0.124418
2.17855,0.182555,0.0890675
2.23381,0.297657,-0.104974
2.17737,0.182456,-0.114511
2.1771,0.182434,0.178351
2.22374,0.296315,-0.0522025
2.16415,0.173363,-0.0631846
2.22541,0.288241,0
2.17147,0.17395,-0.277285
2.12573,0.0660614,-0.198529
2.23274,0.28919,0.0523886
2.13482,0.0663441,0.0248654
2.2279,0.288564,-0.157092
2.17378,0.174135,-0.178025
2.17669,0.174368,0.0381161
2.17522,0.17425,0.0889047
2.23093,0.288955,-0.104788
2.17802,0.174475,-0.114511
2.16981,0.173817,0.1777
2.21688,0.287136,-0.0520164
2.16471,0.166185,-0.0631846
2.22239,0.280358,0
2.16412,0.16614,-0.276275
2.11797,0.0587903,-0.197785
2.22575,0.280783,0.0522025
2.13103,0.0591528,0.0248188
2.22093,0.280175,-0.156534
2.16242,0.16601,-0.177049
2.17726,0.167149,0.0381161
2.12757,0.0590568,-0.123952
2.1718,0.16673,0.0887419
2.22394,0.280555,-0.104416
2.17063,0.166639,-0.114092
2.17435,0.166925,0.178025
2.21385,0.279282,-0.0519233
2.2701,0.391707,-0.0402103
2.16129,0.158336,-0.0630683
2.22335,0.2726,0
2.16864,0.158875,-0.27678
2.26647,0.39108,0.0133674
2.11817,0.0513972,-0.197785
2.22275,0.272526,0.0521094
2.13123,0.0517142,0.0248188
2.2219,0.272421,-0.156534
2.16696,0.158752,-0.177375
2.16985,0.158964,0.0379764
2.12777,0.0516302,-0.123952
2.17237,0.159148,0.0887419
2.22491,0.272791,-0.104416
2.16721,0.15877,-0.113883
2.16696,0.158752,0.177375
2.25969,0.381387,-0.0400009
2.15787,0.150136,-0.0629519
2.21639,0.263504,0
2.15734,0.150099,-0.275265
2.11436,0.0435509,-0.197413
2.21579,0.263432,0.0519233
2.12341,0.0437372,0.0247257
2.21892,0.263804,-0.156255
2.16355,0.150531,-0.177049
2.16643,0.150732,0.0379066
2.21661,0.263529,0.129999
2.16497,0.15063,0.0884162
2.22193,0.264162,-0.10423
2.16379,0.150548,-0.113674
2.16753,0.150808,0.177375
2.2621,0.381794,-0.0934639
2.20785,0.262488,-0.0517372
2.257,0.373239,-0.0399311
2.15436,0.142715,-0.0628356
2.21328,0.255694,0
2.16178,0.143207,-0.27577
2.11051,0.0364708,-0.197041
2.21665,0.256084,0.0519233
2.11954,0.0366268,0.0246791
2.20789,0.255071,-0.155417
2.15609,0.142829,-0.176398
2.16293,0.143283,0.0378368
2.12009,0.0366364,-0.123487
2.2135,0.25572,0.129766
2.15748,0.142921,0.0880906
2.21882,0.256334,-0.104044
2.16029,0.143108,-0.113464
2.16006,0.143093,0.176724
2.20474,0.254707,-0.0516442
2.26224,0.365998,-0.0400009
2.15086,0.134944,-0.0627192
2.21813,0.248412,0
2.15039,0.134915,-0.274255
2.10266,0.0289941,-0.196298
2.21356,0.2479,0.0518303
2.11965,0.0292285,0.0246791
2.2167,0.248251,-0.155975
2.14861,0.134803,-0.175747
2.15942,0.135482,0.037767
2.21041,0.247548,0.129534
2.15796,0.13539,0.0880906
2.21573,0.248143,-0.103857
2.15679,0.135317,-0.113255
2.16055,0.135552,0.176724
2.20164,0.246565,-0.0515511
2.25165,0.356223,-0.0397915
2.15531,0.127671,-0.0628356
2.20308,0.238942,0
2.15085,0.127407,-0.274255
2.10275,0.0216537,-0.196298
2.21044,0.23974,0.0517372
2.11174,0.0217464,0.024586
2.20565,0.239221,-0.155138
2.14111,0.126831,-0.175096
2.15988,0.127943,0.037767
2.20332,0.238969,0.129069
2.15842,0.127856,0.0880906
2.15327,0.12755,-0.113046
2.14907,0.127302,0.175747
2.24497,0.347139,-0.0396519
2.14376,0.119479,-0.0624865
2.2039,0.23125,0
2.15128,0.119898,-0.274255
2.10281,0.0143131,-0.196298
2.20728,0.231605,0.0516442
2.11181,0.0143744,0.024586
2.20647,0.231519,-0.155138
2.14154,0.119355,-0.175096
2.16032,0.120402,0.037767
2.10838,0.014351,-0.12279
2.20017,0.230859,0.128836
2.15487,0.120098,0.0879277
2.20549,0.231416,-0.103299
2.14572,0.119588,-0.112627
2.15348,0.120021,0.176073
2.19933,0.23077,-0.0514581
2.14018,0.111788,-0.0623701
2.19674,0.22275,0
2.14376,0.111975,-0.273244
2.09886,0.00696106,-0.195926
2.20012,0.223093,0.0514581
2.09985,0.00696432,0.0244463
2.19535,0.22261,-0.154301
2.14593,0.112089,-0.175422
2.15274,0.112444,0.0376274
2.19699,0.222776,0.128604
2.14729,0.11216,0.0876021
2.20231,0.223315,-0.103113
2.14613,0.112099,-0.112627
2.14991,0.112297,0.175747
2.18818,0.221883,-0.0511789
2.23943,0.330291,-0.0395123
2.14055,0.104316,-0.0623701
2.18954,0.214301,0
2.09091,-0.000364552,-0.195183
2.20088,0.215411,0.0514581
2.09586,-0.000365415,0.0243997
2.19215,0.214556,-0.154022
2.13834,0.104209,-0.174771
2.15312,0.104929,0.0376274
2.10443,-0.00036691,-0.122557
2.19378,0.214716,0.128371
2.14368,0.104469,0.0874392
2.1991,0.215236,-0.102927
2.13852,0.104218,-0.112208
2.1463,0.104597,0.175422
2.18497,0.213853,-0.0510859
2.23655,0.322292,-0.0394424
2.1329,0.0968542,-0.0621374
2.18625,0.206662,0
2.14447,0.0973796,-0.273244
2.08691,-0.00728493,-0.194811
2.19362,0.207358,0.051272
2.10384,-0.00734403,0.0244928
2.19285,0.207285,-0.154022
2.13071,0.0967547,-0.17412
2.14946,0.0976061,0.0375576
2.19448,0.207439,0.128371
2.14401,0.0973587,0.0874392
2.19582,0.207566,-0.102741
2.14285,0.097306,-0.112418
2.13867,0.0971164,0.174771
2.18566,0.206606,-0.0510859
2.12923,0.0892414,-0.062021
2.19095,0.199392,0
2.1329,0.0893954,-0.271729
2.23005,0.313413,0.0130884
2.19023,0.199326,-0.236899
2.09086,-0.0145969,-0.195183
2.09181,-0.0146036,0.0243531
2.18163,0.198545,-0.153185
2.13502,0.089484,-0.174445
2.14579,0.0899355,0.0374878
2.22947,0.313332,-0.144288
2.0964,-0.0146356,-0.122092
2.19122,0.199417,0.128138
2.14034,0.0897072,0.0872764
2.18857,0.199176,-0.102368
2.13519,0.0894913,-0.111999
2.13502,0.089484,0.174445
2.23219,0.313715,-0.0918356
2.18637,0.198976,-0.0510859
2.23479,0.306128,-0.0393726
2.12553,0.0816554,-0.0619047
2.18764,0.191395,0
2.12924,0.0817977,-0.271224
2.22716,0.305084,0.0130652
2.17506,0.190294,-0.235185
2.08283,-0.0218115,-0.194439
2.18705,0.191343,0.0510859
2.09574,-0.0219467,0.0243997
2.18231,0.190929,-0.153185
2.12735,0.0817252,-0.173795
2.14209,0.0822916,0.037418
2.23055,0.305548,-0.144288
2.17997,0.190723,0.127441
2.12866,0.0817757,0.0867879
2.18925,0.191536,-0.102368
2.1315,0.0818847,-0.11179
2.13532,0.0820313,0.174445
2.22931,0.305379,-0.0916728
2.17908,0.190646,-0.0508998
2.12582,0.0738638,-0.0619047
2.18036,0.182707,0
2.12952,0.0739926,-0.271224
2.2243,0.29639,0.0130419
2.17971,0.182652,-0.235614
2.07875,-0.0293895,-0.194067
2.18375,0.182991,0.0509928
2.08765,-0.0295153,0.0243066
2.17505,0.182262,-0.152627
2.12763,0.073927,-0.173795
2.21979,0.295788,-0.143521
2.18463,0.183065,0.127673
2.12495,0.0738339,0.0866251
2.178,0.182509,-0.10181
2.12779,0.0739325,-0.11158
2.12763,0.073927,0.173795
2.2225,0.29615,-0.0913472
2.13155,0.0740631,0.388872
2.17578,0.182323,-0.0508067
2.21704,0.287944,-0.0390236
2.12205,0.0666888,-0.0617883
2.16899,0.174513,0
2.08754,-0.0364376,-0.0243066
2.12976,0.0669309,-0.271224
2.22527,0.289013,0.0130419
2.17237,0.174786,-0.234757
2.07466,-0.0362128,-0.193695
2.18435,0.175749,0.0509928
2.08354,-0.0363678,0.02426
2.17564,0.175048,-0.152627
2.12388,0.0667463,-0.173469
2.13462,0.0670837,0.0372783
2.2168,0.287912,-0.143265
2.17726,0.175179,0.127208
2.12519,0.0667873,0.0866251
2.17859,0.175286,-0.10181
2.12803,0.0668765,-0.11158
2.12388,0.0667463,0.173469
2.2195,0.288264,-0.0911843
2.13179,0.0669947,0.388872
2.18036,0.175428,-0.0508998
2.21803,0.280202,-0.0390236
2.12227,0.0592805,-0.0617883
2.16959,0.166941,0
2.0794,-0.0435573,-0.0242135
2.12601,0.0593849,-0.270719
2.21436,0.279739,0.0129722
2.17297,0.167201,-0.234757
2.07851,-0.0435385,-0.194067
2.17697,0.167509,0.0508067
2.0794,-0.0435573,0.0242135
2.1643,0.166534,-0.15179
2.12012,0.0592203,-0.173144
2.13484,0.0596316,0.0372783
2.21779,0.280172,-0.143265
2.17786,0.167577,0.127208
2.12541,0.059368,0.0866251
2.1752,0.167373,-0.101624
2.12825,0.0594474,-0.11158
2.1241,0.0593316,0.173469
2.22049,0.280514,-0.0911843
2.13201,0.0595524,0.388872
2.17299,0.167202,-0.0507136
2.21503,0.271971,-0.0389538
2.11847,0.0517748,-0.0616719
2.1135,0.0516533,-0.422829
2.17016,0.159367,0
2.1143,0.0516729,-0.269204
2.21533,0.272008,0.0129722
2.16164,0.158741,-0.233472
2.07436,-0.0506958,-0.193695
2.17356,0.159617,0.0507136
2.06724,-0.0505219,0.0240738
2.16089,0.158686,-0.151511
2.11633,0.0517224,-0.172818
2.13104,0.0520819,0.0372085
2.20687,0.270969,-0.142497
2.07985,-0.0508301,-0.121162
2.17047,0.15939,0.126743
2.1256,0.051949,0.0866251
2.17578,0.159779,-0.101624
2.12445,0.0519209,-0.111371
2.11633,0.0517224,0.172818
2.20956,0.2713,-0.0906958
2.12827,0.0520142,0.388154
2.16558,0.159031,-0.0505275
2.21199,0.263764,-0.038884
2.11864,0.044379,-0.0616719
2.11367,0.0442749,-0.422829
2.16272,0.151232,0
2.07505,-0.0579615,-0.0241669
2.11844,0.0443749,-0.269709
2.21229,0.263799,0.0129489
2.15822,0.150917,-0.233043
2.07019,-0.0578257,-0.193324
2.17011,0.151749,0.0506206
2.06705,-0.0577381,0.0240738
2.15745,0.150864,-0.151232
2.11251,0.0442506,-0.172493
2.12721,0.0445586,0.0371387
2.17101,0.151812,0.126743
2.11378,0.0442773,0.0861366
2.16038,0.151068,-0.100879
2.12462,0.0445043,-0.111371
2.11649,0.0443341,0.172818
2.21049,0.263585,-0.0906958
2.12844,0.0445843,0.388154
2.16612,0.15147,-0.0505275
2.2129,0.25604,-0.038884
2.10679,0.0367734,-0.0613228
2.09812,0.0366222,-0.419691
2.15126,0.142886,0
2.07484,-0.065205,-0.0241669
2.11858,0.0369793,-0.269709
2.20922,0.255615,0.0129257
2.15873,0.143382,-0.233043
2.06997,-0.0650522,-0.193324
2.17063,0.144172,0.0506206
2.06284,-0.0648281,0.0240272
2.15398,0.143067,-0.150953
2.11265,0.0368758,-0.172493
2.20833,0.255511,0.0646974
2.12335,0.0370626,0.0370689
2.16356,0.143703,0.126278
2.11392,0.036898,0.0861366
2.16089,0.143526,-0.100879
2.11278,0.036878,-0.110743
2.16692,0.143926,0.26665
2.11265,0.0368758,0.172493
2.20743,0.255408,-0.090533
2.12465,0.0370851,0.387437
2.15866,0.143377,-0.0503414
2.20185,0.246978,-0.0386745
2.1029,0.0293648,-0.0612065
2.09824,0.0292996,-0.419691
2.14775,0.135126,0
2.11473,0.0295299,-0.269204
2.2101,0.247904,0.0129257
2.15922,0.135847,-0.233043
2.06575,-0.072137,-0.192952
2.16713,0.136345,0.0505275
2.0626,-0.0720269,0.0240272
2.15845,0.135799,-0.151232
2.10878,0.0294468,-0.172167
2.20165,0.246955,-0.141986
2.16405,0.136151,0.126278
2.11004,0.0294645,0.0859738
2.15739,0.135732,-0.100693
2.1089,0.0294485,-0.110534
2.16344,0.136113,0.266163
2.10878,0.0294468,0.172167
2.20036,0.246811,-0.0902073
2.12476,0.02967,0.387437
2.16314,0.136094,-0.0504345
2.20668,0.239722,-0.0387443
2.10699,0.0220654,-0.0613228
2.09833,0.0219747,-0.419691
2.14821,0.127628,0
2.06634,-0.0793804,-0.0240738
2.10688,0.0220643,-0.268194
2.20698,0.239755,0.0129024
2.15571,0.128073,-0.232615
2.06151,-0.079195,-0.19258
2.05834,-0.0790733,0.0239806
2.15095,0.12779,-0.150674
2.10488,0.0220433,-0.171842
2.19853,0.238837,-0.14173
2.06697,-0.0794048,-0.120464
2.16052,0.128359,0.126045
2.10614,0.0220564,0.085811
2.15785,0.1282,-0.100693
2.11298,0.0221281,-0.110743
2.15598,0.128089,0.265188
2.1009,0.0220015,0.171516
2.19327,0.238265,-0.0898817
2.12092,0.0222112,0.386719
2.1636,0.128542,-0.0504345
2.19159,0.230346,-0.0384651
2.10306,0.014683,-0.0612065
2.09839,0.0146504,-0.419691
2.14465,0.119905,0
2.06605,-0.0865923,-0.0240738
2.13889,0.119583,-0.333281
2.09901,0.0146548,-0.267184
2.19189,0.230378,0.0128095
2.14423,0.119882,-0.23133
2.05724,-0.0862233,-0.192208
2.16004,0.120766,0.0503414
2.05406,-0.0860898,0.0239341
2.14341,0.119836,-0.150116
2.10893,0.014724,-0.172167
2.19498,0.230702,0.0642319
2.11163,0.0147428,0.0368595
2.06269,-0.0864517,-0.120232
2.16096,0.120817,0.126045
2.1102,0.0147329,0.0859738
2.15829,0.120668,-0.100693
2.10506,0.014697,-0.110324
2.15641,0.120563,0.265188
2.10096,0.0146684,0.171516
2.19408,0.230608,-0.0898817
2.10918,0.0147257,0.384567
2.15605,0.120543,-0.0502484
2.1884,0.22229,-0.0383953
2.1031,0.00734132,-0.0612065
2.09451,0.00731134,-0.418907
2.14905,0.112627,0
2.06174,-0.0936228,-0.0240272
2.1314,0.111702,-0.332051
2.09508,0.00731335,-0.266678
2.19666,0.223129,0.0128327
2.13272,0.111771,-0.230044
2.05693,-0.0934045,-0.192208
2.15646,0.113015,0.0502484
2.05774,-0.0934413,0.0239806
2.1478,0.112562,-0.150395
2.101,0.007334,-0.171516
2.19179,0.222634,0.0641155
2.05839,-0.0934707,-0.119999
2.15339,0.112855,0.12558
2.09825,0.00732439,0.0854853
2.14672,0.112505,-0.100135
2.1051,0.00734831,-0.110324
2.15286,0.112827,0.2647
2.09302,0.00730616,0.170865
2.18692,0.22214,-0.089556
2.14448,0.112387,-0.0499692
2.18909,0.215414,-0.0383953
2.09511,0.000731831,-0.0609738
2.08275,0.000727513,-0.416553
2.1414,0.105482,0
2.05744,-0.099905,-0.0239806
2.13174,0.105006,-0.332051
2.0951,0.000731825,-0.266678
2.19337,0.215835,0.0128095
2.13703,0.105267,-0.230473
2.04867,-0.0994793,-0.191465
2.1568,0.10624,0.0502484
2.04945,-0.0995171,0.0238875
2.14416,0.105618,-0.150116
2.09304,0.000731106,-0.170865
2.10768,0.00073622,0.0367897
2.18892,0.215397,-0.140962
2.05011,-0.0995491,-0.119534
2.15374,0.106089,0.12558
2.09426,0.000731534,0.0853225
2.14308,0.105564,-0.0999489
2.09712,0.000732533,-0.109906
2.14527,0.105672,0.263725
2.09304,0.000731106,0.170865
2.18363,0.214877,-0.0893932
2.14482,0.10565,-0.0499692
2.0911,-0.00693343,-0.0608574
2.04907,-0.107028,-0.0238875
2.12816,0.0970125,-0.331436
2.09112,-0.00693347,-0.266173
2.18618,0.207041,0.012763
2.13343,0.0972526,-0.230044
2.04829,-0.106987,-0.191465
2.14919,0.0979708,0.0500623
2.04108,-0.10661,0.0237944
2.13656,0.0973952,-0.149558
2.08904,-0.00692658,-0.17054
2.18572,0.206997,-0.140707
2.05372,-0.10727,-0.119766
2.15411,0.0981953,0.12558
2.09825,-0.00695712,0.0854853
2.14744,0.0978912,-0.100135
2.09312,-0.0069401,-0.109696
2.14961,0.0979901,0.264213
2.08904,-0.00692658,0.17054
2.18043,0.206496,-0.0892304
2.14919,0.0979708,-0.0500623
2.18656,0.199762,-0.0383255
2.09107,-0.0138683,-0.0608574
2.08271,-0.0138129,-0.416553
2.1341,0.0901917,0
2.0487,-0.113822,-0.0238875
2.12452,0.0897872,-0.330821
2.08711,-0.0138421,-0.265668
2.19084,0.200153,0.0127862
2.09992,-0.013927,-0.012205
2.12977,0.0900089,-0.229616
2.04395,-0.113558,-0.191093
2.04071,-0.113379,0.0237944
2.13288,0.0901405,-0.149279
2.089,-0.0138546,-0.17054
2.09963,-0.0139251,0.0366501
2.17844,0.199021,-0.140195
2.14644,0.0907136,0.125115
2.08622,-0.0138362,0.0849968
2.14376,0.0906002,-0.0999489
2.09308,-0.0138817,-0.109696
2.14199,0.0905253,0.263238
2.1811,0.199264,-0.0892304
2.1455,0.0906739,-0.0499692
2.18326,0.191778,-0.0382557
2.08701,-0.0211275,-0.060741
2.07872,-0.0210436,-0.415769
2.1264,0.0824313,0
2.04829,-0.120974,-0.0238875
2.12087,0.082217,-0.330207
2.07912,-0.0210476,-0.264658
2.18356,0.191804,0.0127397
2.13007,0.0825735,-0.229616
2.04752,-0.120928,-0.191465
2.04829,-0.120974,0.0238875
2.13319,0.0826943,-0.149279
2.08496,-0.0211067,-0.170214
2.17868,0.191376,0.0636501
2.09557,-0.0212142,0.0365802
2.17117,0.190716,-0.139683
2.04098,-0.120542,-0.119069
2.14276,0.0830653,0.124883
2.09416,-0.0211998,0.0853225
2.14007,0.0829612,-0.0997627
2.08903,-0.0211479,-0.109487
2.13832,0.0828935,0.26275
2.08097,-0.0210664,0.169889
2.1778,0.191299,-0.0890675
2.13382,0.0827189,-0.0496901
2.08692,-0.028412,-0.060741
2.08256,-0.0283526,-0.416553
2.12668,0.0750087,0
2.03987,-0.127623,-0.0237944
2.1172,0.0746744,-0.329592
2.083,-0.0283585,-0.265163
2.18023,0.183845,0.0127165
2.09177,-0.028478,-0.0121585
2.11842,0.0747175,-0.228331
2.03516,-0.127328,-0.190349
2.03987,-0.127623,0.0237944
2.12947,0.0751073,-0.149
2.08487,-0.028384,-0.170214
2.17536,0.183435,0.0635337
2.09149,-0.0284741,0.0365104
2.17182,0.183137,-0.139683
2.03656,-0.127416,-0.118836
2.13505,0.0753041,0.124418
2.08208,-0.028346,0.084834
2.12837,0.0750684,-0.0992044
2.08495,-0.028385,-0.109277
2.13463,0.0752893,0.262263
2.0769,-0.0282755,0.169564
2.17447,0.18336,-0.0889047
2.1301,0.0751294,-0.049597
2.17657,0.175888,-0.0381161
2.07482,-0.0354909,-0.060392
2.12293,0.0674582,0
2.1135,0.0671585,-0.328977
2.06702,-0.0353575,-0.263143
2.17687,0.175912,0.0126932
2.11867,0.0673229,-0.228331
2.03867,-0.134693,-0.190721
2.03143,-0.134215,0.0237012
2.12573,0.0675474,-0.148721
2.08476,-0.035661,-0.170214
2.17598,0.175841,0.0635337
2.09138,-0.0357741,0.0365104
2.16449,0.174912,-0.139172
2.13131,0.0677246,0.124185
2.12462,0.0675121,-0.0990182
2.08084,-0.0355939,-0.109068
2.13885,0.0679641,0.26275
2.0728,-0.0354564,0.169238
2.17112,0.175447,-0.0887419
2.13035,0.067694,-0.049597
2.17717,0.168289,-0.0381161
2.08268,-0.0428984,-0.0606247
2.11515,0.0598207,0
2.03893,-0.141861,-0.0237944
2.11372,0.05978,-0.328977
2.17348,0.168003,0.01267
2.08352,-0.0429158,-0.012112
2.11889,0.0599263,-0.228331
2.02627,-0.14098,-0.189606
2.02297,-0.14075,0.0236081
2.11798,0.0599006,-0.148163
2.07665,-0.0427743,-0.169564
2.16861,0.167627,0.063301
2.08324,-0.04291,0.0363708
2.16111,0.167047,-0.138916
2.13153,0.0602839,0.124185
2.11686,0.0598688,-0.098646
2.07671,-0.0427755,-0.108859
2.12717,0.0601605,0.261288
2.12657,0.0601436,-0.049504
2.16977,0.1601,-0.0379764
2.07452,-0.049975,-0.060392
2.11135,0.0523384,0
2.03444,-0.148685,-0.0237478
2.07465,-0.0499783,-0.264153
2.16607,0.159827,0.0126235
2.11909,0.0525301,-0.228331
2.01782,-0.147471,-0.188862
2.02247,-0.14781,0.0236081
2.11818,0.0525075,-0.148163
2.0725,-0.0499264,-0.169238
2.16519,0.159762,0.0631846
2.08308,-0.0501812,0.0363708
2.16168,0.159503,-0.138916
2.02715,-0.148153,-0.118371
2.06968,-0.0498585,0.0843455
2.11705,0.0524797,-0.098646
2.07255,-0.0499277,-0.108649
2.12737,0.0527353,0.261288
2.12677,0.0527206,-0.049504
2.16234,0.151964,-0.0378368
2.06634,-0.0569962,-0.0601592
2.11152,0.0449675,0
2.0339,-0.155786,-0.0237478
2.0705,-0.057111,-0.263648
2.17061,0.152545,0.0126467
2.07917,-0.0573503,-0.0120888
2.11131,0.0449629,-0.227474
2.02127,-0.154818,-0.189234
2.02194,-0.15487,0.0236081
2.11835,0.0451128,-0.148163
2.0763,-0.057271,-0.169564
2.16574,0.152203,0.0631846
2.07489,-0.0572322,0.0362312
2.02264,-0.154923,-0.118138
2.12392,0.0452315,0.12372
2.0655,-0.0569731,0.0841827
2.11722,0.0450889,-0.098646
2.06837,-0.0570524,-0.10844
2.12357,0.045224,0.2608
2.06833,-0.0570512,0.168913
2.16087,0.151861,-0.0882534
2.11895,0.0451256,-0.0493179
2.15487,0.143882,-0.0376972
2.07012,-0.0643329,-0.0602756
2.10767,0.0375254,0
2.02139,-0.161927,-0.0236081
2.05839,-0.0639683,-0.262133
2.16315,0.144434,0.0126002
2.07097,-0.0643591,-0.0120423
2.10747,0.037522,-0.227046
2.02071,-0.161873,-0.189234
2.02139,-0.161927,0.0236081
2.11849,0.0377181,-0.148163
2.06812,-0.0642706,-0.168913
2.16227,0.144376,0.0630683
2.07068,-0.0643504,0.0361614
2.15477,0.143875,-0.138404
2.02209,-0.161983,-0.118138
2.12406,0.0378173,0.12372
2.06529,-0.0641827,0.0841827
2.10938,0.0375559,-0.0982737
2.06816,-0.064272,-0.10844
2.12371,0.0378111,0.2608
2.15341,0.143785,-0.0879277
2.11509,0.0376576,-0.0492248
2.15137,0.136107,-0.0376274
2.06189,-0.0712823,-0.0600429
2.10778,0.030168,0
2.0248,-0.169315,-0.0236547
2.10249,0.0300923,-0.327132
2.05419,-0.0710159,-0.261628
2.16364,0.136883,0.0126002
2.07073,-0.0715877,-0.0120423
2.09566,0.0299945,-0.225761
2.01617,-0.168594,-0.188862
2.02081,-0.168982,0.0236081
2.11063,0.0302088,-0.147605
2.15877,0.136575,0.0629519
2.07444,-0.0717162,0.0362312
2.15128,0.136101,-0.138148
2.02151,-0.16904,-0.118138
2.12019,0.0303456,0.123487
2.1055,0.0301354,-0.0980876
2.07192,-0.0716288,-0.108649
2.11986,0.0303409,0.260313
2.14991,0.136015,-0.0877649
2.11121,0.0302171,-0.0491318
2.15582,0.128835,-0.0376972
2.05764,-0.0783272,-0.0599265
2.09588,0.0226805,0
2.01622,-0.175687,-0.0235616
2.09073,0.0226247,-0.325287
2.04996,-0.078035,-0.261123
2.15612,0.128852,0.0125537
2.06647,-0.0786633,-0.012019
2.09575,0.0226791,-0.225761
2.0116,-0.175285,-0.188491
2.01224,-0.17534,0.023515
2.10673,0.0227979,-0.147326
2.06364,-0.0785555,-0.168587
2.15524,0.1288,0.0628356
2.06619,-0.0786527,0.0360916
2.14377,0.128114,-0.137637
2.02091,-0.176095,-0.118138
2.12028,0.0229446,0.123487
2.05281,-0.0781434,0.0836942
2.1016,0.0227424,-0.0979015
2.05968,-0.0784049,-0.108021
2.11201,0.0228551,0.259338
2.1424,0.128032,-0.0874392
2.10731,0.0228041,-0.0490387
2.14828,0.120859,-0.0375576
2.05336,-0.0853432,-0.0598101
2.09594,0.0153643,0
2.01161,-0.182363,-0.023515
2.04571,-0.0850255,-0.260618
2.14857,0.120876,0.0125072
2.06618,-0.0858762,-0.012019
2.08787,0.0153051,-0.224904
2.01098,-0.182305,-0.188491
2.01161,-0.182363,0.023515
2.1068,0.0154439,-0.147326
2.0514,-0.0852618,-0.167611
2.14769,0.120827,0.0626028
2.0659,-0.0858645,0.0360916
2.1442,0.12063,-0.137637
2.01232,-0.182428,-0.117673
2.05652,-0.0854745,0.083857
2.09767,0.015377,-0.0977154
2.0554,-0.0854282,-0.107812
2.11208,0.0154826,0.259338
2.14283,0.120553,-0.0874392
2.10337,0.0154188,-0.0489456
2.14471,0.112775,-0.0374878
2.05702,-0.0930492,-0.0599265
2.09599,0.00768223,0
2.01093,-0.189735,-0.023515
2.08688,0.00764886,-0.324672
2.04142,-0.0923435,-0.260113
2.149,0.113,0.0125072
2.06186,-0.0932678,-0.0119958
2.01029,-0.189675,-0.188491
2.01093,-0.189735,0.023515
2.10684,0.00772201,-0.147326
2.05506,-0.0929601,-0.167936
2.14812,0.112954,0.0626028
2.05758,-0.0930744,0.035952
2.13666,0.112351,-0.137125
2.00767,-0.189427,-0.117441
2.11241,0.00774241,0.123022
2.0522,-0.0928308,0.0836942
2.09771,0.00768855,-0.0977154
2.05508,-0.092961,-0.107812
2.11212,0.00774138,0.259338
2.04709,-0.0925998,0.167285
2.14326,0.112699,-0.0874392
2.09942,0.00769481,-0.0488526
2.14106,0.105839,-0.037418
2.04474,-0.0989314,-0.0595774
2.096,0.00109746,0
2.04509,-0.0989481,-0.260618
2.14934,0.106248,0.0125072
2.05356,-0.0993582,-0.0119493
2.00572,-0.195603,-0.188119
2.01431,-0.19644,0.0235616
2.09887,0.00109897,-0.146768
2.04679,-0.0990304,-0.167285
2.14447,0.106008,0.0624865
2.06127,-0.0997313,0.0360218
2.137,0.105638,-0.137125
2.00706,-0.195733,-0.117441
2.10443,0.00110188,0.122557
2.0479,-0.0990844,0.0835313
2.09373,0.00109627,-0.0975292
2.05477,-0.0994168,-0.107812
2.10817,0.00110383,0.258851
2.13961,0.105767,-0.0872764
2.09143,0.00109507,-0.0486665
2.13742,0.0981812,-0.0373482
2.04039,-0.105861,-0.0594611
2.09199,-0.00620708,0
2.00963,-0.203068,-0.023515
2.07898,-0.00616848,-0.323443
2.04473,-0.106086,-0.260618
2.14171,0.098378,0.0124607
2.0532,-0.106526,-0.0119493
2.07996,-0.00617138,-0.224047
1.9971,-0.201802,-0.187375
2.00565,-0.202666,0.0234684
2.09089,-0.0062038,-0.14621
2.05041,-0.106381,-0.167611
2.14483,0.0985215,0.0624865
2.04893,-0.106304,0.0358123
2.12938,0.0978119,-0.136613
2.00239,-0.202336,-0.117208
2.10443,-0.00624397,0.122557
2.03956,-0.105818,0.0832057
2.08973,-0.00620035,-0.0973431
2.05042,-0.106382,-0.107603
2.10816,-0.00625505,0.258851
2.13597,0.0981147,-0.0871136
2.09942,-0.00622913,-0.0488526
2.14175,0.0908892,-0.037418
2.03602,-0.112762,-0.0593447
2.08796,-0.0134836,0
1.99697,-0.208833,-0.0233753
2.07499,-0.0133999,-0.322828
2.03642,-0.112784,-0.259607
2.14603,0.0910711,0.012484
2.04883,-0.113471,-0.011926
2.07595,-0.0134061,-0.223619
1.98846,-0.207943,-0.186632
2.00095,-0.209249,0.0234219
2.08686,-0.0134765,-0.145931
2.04605,-0.113317,-0.167285
2.14117,0.0908645,0.0623701
2.04855,-0.113456,0.0358123
2.12971,0.0903784,-0.136613
1.98976,-0.208079,-0.116511
2.09241,-0.0135124,0.121859
2.08969,-0.0134948,-0.0973431
2.03808,-0.112876,-0.106975
2.09621,-0.0135369,0.257388
2.13231,0.0904888,-0.0869508
2.08739,-0.01348,-0.0485734
2.13406,0.0831013,-0.0372783
2.03561,-0.119868,-0.0593447
2.0839,-0.0207321,0
1.99226,-0.215373,-0.0233287
2.07098,-0.0206036,-0.322213
2.0281,-0.119425,-0.258597
2.13834,0.0832682,0.0124375
2.04043,-0.120152,-0.0118796
2.07589,-0.0206524,-0.223619
1.99565,-0.215739,-0.187375
1.99623,-0.215803,0.0233753
2.08281,-0.0207213,-0.145652
2.03768,-0.11999,-0.166634
2.13747,0.0832343,0.0622537
2.04015,-0.120136,0.0356727
2.12602,0.0827884,-0.136357
1.99696,-0.215882,-0.116976
2.03478,-0.119819,0.0830429
2.08564,-0.0207494,-0.097157
2.03767,-0.119989,-0.106975
2.10012,-0.0208935,0.257876
2.09133,-0.020806,-0.0486665
2.12634,0.0753682,-0.0371387
2.03119,-0.126724,-0.0592283
2.07581,-0.0278986,0
1.99944,-0.223213,-0.0234219
2.02371,-0.126257,-0.258092
2.13063,0.0755201,0.012391
2.03601,-0.127024,-0.0118563
1.99488,-0.222704,-0.187375
1.98752,-0.221882,0.0232822
2.08273,-0.0279915,-0.145652
2.03327,-0.126854,-0.166309
2.12976,0.0754894,0.062021
2.03573,-0.127007,0.0356029
2.11832,0.0750839,-0.135846
1.98826,-0.221965,-0.116511
2.08827,-0.0280661,0.121627
2.03036,-0.126672,0.08288
2.08555,-0.0280295,-0.097157
2.02926,-0.126604,-0.106556
2.0921,-0.0281175,0.256901
2.12091,0.0751756,-0.0864623
2.09125,-0.028106,-0.0486665
2.12659,0.0679454,-0.0371387
2.0757,-0.0351444,0
1.98673,-0.228818,-0.0232822
2.06684,-0.0349943,-0.321598
2.03117,-0.133842,-0.259102
2.13088,0.0680824,0.012391
2.03156,-0.133868,-0.0118331
1.98222,-0.228299,-0.18626
1.99468,-0.229734,0.0233753
2.07863,-0.0351939,-0.145372
2.02486,-0.133426,-0.165658
2.13401,0.0681824,0.0621374
2.03927,-0.134375,0.0356727
2.11857,0.0676892,-0.135846
1.98747,-0.228904,-0.116511
2.08816,-0.0353553,0.121627
2.02991,-0.133759,0.08288
2.08144,-0.0352416,-0.0969709
2.0328,-0.133949,-0.106765
2.09596,-0.0354873,0.257388
2.03281,-0.13395,0.166309
2.12116,0.0677718,-0.0864623
2.07914,-0.0352026,-0.0483873
2.12282,0.060408,-0.0370689
2.07957,-0.0424714,0
1.98989,-0.236224,-0.0233287
2.02673,-0.140657,-0.258597
2.1351,0.0607576,0.0124142
2.03507,-0.141235,-0.0118563
2.06761,-0.0422271,-0.222762
1.98592,-0.235752,0.0232822
2.08248,-0.0425309,-0.145652
2.03631,-0.141321,-0.166634
2.13024,0.0606191,0.062021
2.0348,-0.141216,0.0356029
2.1148,0.06018,-0.13559
1.99063,-0.236311,-0.116743
2.02943,-0.140844,0.08288
2.08131,-0.042507,-0.0969709
2.02435,-0.140491,-0.106347
2.09185,-0.0427223,0.256901
2.02836,-0.140769,0.165984
2.11739,0.0602535,-0.0862994
2.07101,-0.0422966,-0.0482012
2.12302,0.0529976,-0.0370689
2.02178,-0.147406,-0.0589956
2.06741,-0.0494433,0
1.98509,-0.242683,-0.0232822
2.02227,-0.147442,-0.258092
2.1273,0.0531046,0.0123678
2.02659,-0.147756,-0.0118098
2.05949,-0.049254,-0.221905
1.97714,-0.241712,0.023189
2.07434,-0.049609,-0.145093
2.0199,-0.147269,-0.165333
2.11844,0.0528835,0.0616719
2.0303,-0.148027,0.0355331
2.11899,0.0528972,-0.135846
1.98186,-0.242289,-0.116278
2.08387,-0.049837,0.121394
2.02494,-0.147636,0.0827172
2.06916,-0.0494852,-0.0964125
2.01986,-0.147266,-0.106137
2.08772,-0.049929,0.256413
2.02388,-0.147559,0.165658
2.10959,0.0526626,-0.0859738
2.07085,-0.0495255,-0.0482012
2.11919,0.0455008,-0.0369991
2.02524,-0.154767,-0.059112
2.07522,-0.0568787,0
1.98026,-0.249111,-0.0232356
2.00988,-0.153593,-0.256577
2.11948,0.045507,0.0123213
2.02606,-0.15483,-0.0118098
2.06329,-0.0565516,-0.222334
1.98026,-0.249111,0.0232356
2.07017,-0.0567402,-0.144814
2.02335,-0.154623,-0.165658
2.11462,0.0454026,0.0615556
2.0218,-0.154504,0.0353935
2.11517,0.0454146,-0.13559
1.97704,-0.248707,-0.116045
2.06898,-0.0567077,-0.0964125
2.01535,-0.154011,-0.105928
2.0796,-0.0569987,0.255438
2.01938,-0.154319,0.165333
2.06666,-0.0566442,-0.0481082
2.11534,0.0376621,-0.0369293
2.0127,-0.161231,-0.0587629
2.071,-0.0643602,0
1.97933,-0.256368,-0.0232356
2.05823,-0.0639635,-0.320368
2.11563,0.0376672,0.012298
2.02149,-0.161935,-0.0117866
1.97933,-0.256368,0.0232356
2.06994,-0.0643274,-0.144814
2.02277,-0.162038,-0.165658
2.11077,0.0375807,0.0614392
2.01324,-0.161274,0.0352539
2.11532,0.0376617,-0.13559
1.9682,-0.254926,-0.11558
2.0675,-0.0642513,0.120464
2.07275,-0.0644146,-0.0965986
2.01477,-0.161397,-0.105928
2.10592,0.0374943,-0.085811
2.05845,-0.0639701,-0.0479221
2.11146,0.0305892,-0.0368595
2.01215,-0.167904,-0.0587629
2.06678,-0.07109,0
1.97451,-0.262403,-0.023189
2.05011,-0.0705167,-0.319138
2.11574,0.0306513,0.012298
2.01297,-0.167972,-0.0117401
2.05092,-0.0705444,-0.221048
1.98243,-0.263457,0.0232822
2.0103,-0.16775,-0.164682
2.11088,0.0305809,0.0614392
2.0127,-0.16795,0.0352539
2.10745,0.0305312,-0.135078
1.96338,-0.260925,-0.115348
2.06727,-0.071107,0.120464
2.01532,-0.168168,0.0823915
2.06454,-0.071013,-0.0962264
2.01821,-0.168409,-0.106137
2.07915,-0.0715155,0.255438
2.01428,-0.168081,0.165007
2.10603,0.0305106,-0.085811
2.05423,-0.0706584,-0.047829
2.11155,0.0232187,-0.0368595
2.00757,-0.17458,-0.0586465
2.06252,-0.0781525,0
1.97754,-0.269835,-0.0232356
2.04985,-0.0776725,-0.319138
2.10784,0.0231778,0.0122515
2.01237,-0.174998,-0.0117401
2.05066,-0.077703,-0.221048
1.96961,-0.268753,0.0231425
2.0575,-0.0779621,-0.143977
2.0097,-0.174766,-0.164682
2.10698,0.0231684,0.0613228
2.00811,-0.174628,0.0351841
2.10356,0.0231308,-0.134823
1.96642,-0.268317,-0.11558
2.06701,-0.0783227,0.120464
2.01074,-0.174856,0.0822287
2.06428,-0.0782192,-0.0962264
2.00567,-0.174415,-0.105509
2.07095,-0.078472,0.254463
2.01765,-0.175457,0.165333
2.10213,0.0231151,-0.0856481
2.05397,-0.0778285,-0.047829
2.10762,0.0158178,-0.0367897
2.05824,-0.0851862,0
1.97263,-0.276181,-0.023189
2.04562,-0.0846639,-0.318523
2.10791,0.0158199,0.0122515
2.01972,-0.182742,-0.0117866
2.05037,-0.0848607,-0.221048
1.9647,-0.275072,0.0230959
2.05721,-0.0851437,-0.143977
2.00511,-0.181421,-0.164356
2.09905,0.0157535,0.0610901
2.01148,-0.181997,0.0352539
2.10362,0.0157878,-0.134823
1.96547,-0.275179,-0.11558
2.06274,-0.0853724,0.120232
2.00613,-0.181513,0.0820659
2.05601,-0.0850939,-0.0958541
2.00107,-0.181055,-0.1053
2.07066,-0.0857005,0.254463
2.00908,-0.18178,0.164682
2.1022,0.0157771,-0.0856481
2.05369,-0.0849978,-0.047829
2.10366,0.00881187,-0.0367199
2.05395,-0.0918324,0
1.9717,-0.282721,-0.023189
2.04533,-0.091447,-0.318523
2.10395,0.00881307,0.0122283
2.01113,-0.188692,-0.0117401
2.04611,-0.0914819,-0.22062
1.9717,-0.282721,0.023189
2.05692,-0.0919651,-0.143977
2.0045,-0.188069,-0.164356
2.09909,0.00879274,0.0610901
2.01484,-0.18904,0.0353237
2.09967,0.00879517,-0.134567
1.96454,-0.281695,-0.11558
2.00154,-0.187792,0.0819031
2.05572,-0.0919114,-0.0958541
2.0664,-0.0923892,0.253976
2.09025,0.00875569,-0.0851596
2.0494,-0.0916289,-0.047736
2.09568,0.00146308,-0.0365802
2.04562,-0.0986162,0
1.96279,-0.288439,-0.0230959
2.09596,0.00146328,0.0121818
2.00648,-0.195323,-0.0117168
2.0418,-0.098432,-0.220192
2.06105,-0.0993598,0.0480151
1.96279,-0.288439,0.0230959
2.04861,-0.0987603,-0.143419
1.99589,-0.194292,-0.163705
2.09911,0.00146548,0.0610901
1.99825,-0.194522,0.0350444
2.09171,0.00146031,-0.134055
2.05413,-0.0990263,0.119766
2.00485,-0.195164,0.0820659
2.05538,-0.0990866,-0.0958541
1.99581,-0.194285,-0.105091
2.0621,-0.0994105,0.253488
1.99986,-0.194679,0.164031
2.09027,0.0014593,-0.0851596
2.04507,-0.0985895,-0.0476429
2.09167,-0.00584108,-0.0365104
2.05326,-0.106169,0
1.96177,-0.295289,-0.0230959
2.04859,-0.105928,-0.319138
2.09196,-0.00584187,0.0121585
2.00181,-0.201924,-0.0116936
2.0335,-0.105148,-0.219335
2.05669,-0.106347,0.0479221
1.96572,-0.295884,0.0231425
2.04826,-0.105911,-0.143419
1.99124,-0.200858,-0.16338
2.0991,-0.00586183,0.0610901
2.00154,-0.201897,0.0351142
2.0917,-0.00584116,-0.134055
2.04978,-0.10599,0.119534
2.00018,-0.20176,0.0819031
2.05502,-0.106261,-0.0958541
1.99512,-0.20125,-0.105091
2.06174,-0.106608,0.253488
2.08626,-0.00582597,-0.0849968
2.03673,-0.105315,-0.0474568
2.09964,-0.0131926,-0.0366501
2.04888,-0.113115,0
1.96072,-0.302135,-0.0230959
2.08792,-0.013119,0.0121353
2.00507,-0.209326,-0.0117168
2.04107,-0.112684,-0.220192
2.05232,-0.113305,0.047829
1.95677,-0.301525,0.0230493
2.03991,-0.11262,-0.142861
1.99449,-0.208222,-0.163705
2.09107,-0.0131388,0.0608574
1.99286,-0.208052,0.0349746
2.09167,-0.0131425,-0.134055
2.04541,-0.112924,0.119301
1.99947,-0.208741,0.0819031
2.05065,-0.113213,-0.095668
2.05343,-0.113367,0.252513
2.08623,-0.0131083,-0.0849968
2.03635,-0.112423,-0.0474568
2.08758,-0.0204044,-0.0364406
2.04448,-0.120032,0
1.95571,-0.308354,-0.0230493
2.09186,-0.0204462,0.0121585
1.99637,-0.215465,-0.0116703
2.02875,-0.119109,-0.218906
2.05191,-0.120468,0.047829
1.95176,-0.307731,0.0230028
2.0395,-0.11974,-0.142861
1.98979,-0.214755,-0.16338
2.07902,-0.0203207,0.0605083
1.99213,-0.215007,0.0349746
2.08762,-0.0204047,-0.133799
2.04501,-0.120063,0.119301
1.99475,-0.21529,0.0817402
2.04625,-0.120136,-0.0954819
1.9897,-0.214745,-0.104881
2.08217,-0.0203515,-0.084834
2.03195,-0.119297,-0.0473638
2.0875,-0.0276913,-0.0364406
2.04006,-0.12692,0
1.95067,-0.314542,-0.0230028
2.08378,-0.027642,0.012112
1.99561,-0.222433,-0.0116703
2.03229,-0.126437,-0.219335
2.03509,-0.12661,-0.142582
1.98506,-0.221257,-0.163054
2.07894,-0.0275777,0.0605083
1.99136,-0.22196,0.0349746
2.07955,-0.0275858,-0.133288
2.04059,-0.126953,0.119069
1.99399,-0.222252,0.0817402
2.04582,-0.127278,-0.0954819
2.03551,-0.126637,-0.0474568
2.08339,-0.0349108,-0.0363708
2.04359,-0.134302,0
1.95351,-0.322,-0.0230493
2.07967,-0.0348485,0.0120888
1.99085,-0.22894,-0.0116471
2.0239,-0.133008,-0.218478
2.04304,-0.134266,0.0476429
1.94561,-0.320699,0.0229562
2.0426,-0.134237,-0.14314
1.98032,-0.22773,-0.162729
2.07883,-0.0348344,0.0605083
2.07545,-0.0347778,-0.133032
2.03615,-0.133813,0.118836
1.9932,-0.229211,0.0817402
2.04138,-0.134157,-0.0952957
1.98418,-0.228174,-0.104672
2.07399,-0.0347533,-0.0845083
2.02708,-0.133217,-0.0472707
2.07526,-0.042021,-0.0362312
2.03114,-0.140606,0
1.94843,-0.328153,-0.0230028
2.07554,-0.0420267,0.0120655
1.98606,-0.235417,-0.0116238
2.01946,-0.139797,-0.21805
2.03857,-0.14112,0.0475499
1.94448,-0.327488,0.0229562
2.03017,-0.140539,-0.142303
1.97555,-0.234172,-0.162403
2.0707,-0.0419287,0.0602756
1.98182,-0.234915,0.034835
2.06733,-0.0418606,-0.13252
2.0277,-0.140368,0.118371
1.98842,-0.235697,0.0815774
2.03691,-0.141006,-0.0951096
2.06986,-0.0419117,-0.0843455
2.0751,-0.0492648,-0.0362312
2.02665,-0.147405,0
1.93938,-0.333596,-0.0229097
2.07138,-0.0491765,0.0120423
1.9892,-0.242833,-0.0116471
2.01896,-0.146846,-0.21805
2.03408,-0.147945,0.0474568
2.02569,-0.147336,-0.142024
1.97472,-0.241066,-0.162403
2.06654,-0.0490617,0.0601592
1.97702,-0.241347,0.0347652
2.06318,-0.0489819,-0.132264
2.0272,-0.147446,0.118371
2.02445,-0.147246,-0.0945512
1.97461,-0.241053,-0.104253
2.0697,-0.0491366,-0.0843455
2.01812,-0.146785,-0.0470846
2.07491,-0.056508,-0.0362312
2.01814,-0.15387,0
1.94609,-0.341747,-0.0230028
2.0712,-0.0564067,0.0120423
1.98437,-0.249277,-0.0116238
2.01843,-0.153892,-0.21805
2.02956,-0.154741,0.0473638
2.02118,-0.154102,-0.141745
2.07036,-0.0563838,0.0602756
1.98013,-0.248745,0.034835
2.07098,-0.0564009,-0.132776
2.02667,-0.154521,0.118371
1.97879,-0.248576,0.0812517
2.02791,-0.154615,-0.0947374
2.06153,-0.0561433,-0.0840198
2.02158,-0.154133,-0.0471777
2.0747,-0.0637504,-0.0362312
2.02158,-0.161232,0
1.94095,-0.347833,-0.0229562
2.06699,-0.0635133,0.012019
1.97952,-0.25569,-0.0116006
2.01788,-0.160937,-0.21805
2.02901,-0.161824,0.0473638
2.02063,-0.161157,-0.141745
2.05816,-0.0632419,0.0599265
1.97529,-0.255143,0.0347652
2.06279,-0.0633844,-0.132264
2.02214,-0.161277,0.118138
2.02736,-0.161693,-0.0947374
2.05732,-0.0632163,-0.083857
2.02103,-0.161188,-0.0471777
2.06248,-0.0705817,-0.0360218
2.01303,-0.167624,0
1.93578,-0.353886,-0.0229097
2.05476,-0.0703177,0.0119493
1.97862,-0.262598,-0.0116006
2.00542,-0.16699,-0.216764
2.01211,-0.167547,-0.141187
2.06192,-0.0705626,0.0600429
2.05458,-0.0703114,-0.131753
2.0228,-0.168437,-0.0945512
1.96406,-0.260666,-0.103835
2.05709,-0.0703973,-0.083857
2.0085,-0.167247,-0.0468985
2.05824,-0.0772707,-0.035952
2.02442,-0.175334,0
1.9346,-0.360304,-0.0229097
2.05452,-0.0771311,0.0119493
1.97377,-0.268619,-0.0115773
2.00485,-0.173639,-0.216764
2.01591,-0.174596,0.0470846
2.01551,-0.174562,-0.141466
2.05368,-0.0770998,0.0598101
2.05035,-0.0769745,-0.131497
2.01304,-0.174348,0.117673
2.01029,-0.17411,-0.0939929
2.05285,-0.0770685,-0.0836942
2.00794,-0.173906,-0.0468985
2.05396,-0.0842909,-0.0358821
2.00388,-0.180604,0
1.96886,-0.274953,-0.0115541
2.00027,-0.180279,-0.216336
2.01927,-0.181991,0.0471777
2.00297,-0.180522,-0.140629
2.0574,-0.084432,0.0599265
1.96067,-0.27381,0.0345558
2.05405,-0.0842948,-0.131753
2.01242,-0.181374,0.117673
2.01365,-0.181484,-0.094179
2.05656,-0.0843977,-0.083857
2.00732,-0.180914,-0.0468985
2.04566,-0.0911041,-0.0357425
1.99925,-0.187225,0
2.04993,-0.0912944,0.011926
1.97185,-0.282391,-0.0115773
1.99567,-0.18689,-0.215908
2.01862,-0.189039,0.0471777
2.00233,-0.187513,-0.140629
1.96366,-0.281219,0.0346256
2.05375,-0.0914643,-0.131753
2.00382,-0.187653,0.117208
2.00504,-0.187767,-0.0938067
2.04428,-0.0910425,-0.0833685
1.99871,-0.187174,-0.0467124
2.04932,-0.0984361,-0.0358123
2.0496,-0.0984495,0.011926
1.96689,-0.288692,-0.0115541
2.00293,-0.194624,-0.216764
2.01397,-0.195697,0.0470846
2.00166,-0.194501,-0.140629
1.95871,-0.287491,0.0345558
2.04544,-0.0982496,-0.131241
2.00713,-0.195033,0.117441
2.00438,-0.194765,-0.0938067
2.03995,-0.097986,-0.0832057
1.99805,-0.19415,-0.0467124
2.04098,-0.105177,-0.0356727
2.00586,-0.201979,0
2.04525,-0.105397,0.0119028
1.96192,-0.294961,-0.0115308
2.00097,-0.201487,-0.140629
2.04043,-0.105149,0.0594611
1.95374,-0.293732,0.034486
2.03711,-0.104978,-0.130729
2.00644,-0.202038,0.117441
1.99971,-0.20136,-0.0936206
2.03561,-0.1049,-0.0830429
1.99736,-0.201123,-0.0467124
2.03661,-0.112081,-0.0356029
2.00116,-0.208565,0
2.03688,-0.112096,0.0118563
1.95692,-0.301199,-0.0115076
2.00422,-0.208884,-0.140908
2.03606,-0.112051,0.0593447
1.94875,-0.299942,0.0344161
2.03673,-0.112088,-0.130729
1.99778,-0.208212,0.116976
1.99105,-0.207511,-0.0932484
2.03523,-0.112005,-0.0830429
1.99266,-0.207679,-0.0466193
2.03221,-0.118956,-0.0355331
1.99247,-0.214692,0
2.03648,-0.119206,0.0118563
1.95191,-0.307406,-0.0114843
2.00386,-0.215919,0.0468985
1.98761,-0.214169,-0.139792
2.03234,-0.118964,-0.130473
1.99704,-0.215184,0.116976
1.99428,-0.214888,-0.0934345
2.03483,-0.119109,-0.0830429
1.98795,-0.214206,-0.0465263
2.03178,-0.126049,-0.0355331
1.98773,-0.221203,0
2.03605,-0.126314,0.0118563
1.94687,-0.313582,-0.0114611
1.99514,-0.222028,0.0467124
1.98289,-0.220664,-0.139513
2.03123,-0.126015,0.0592283
1.94661,-0.313539,0.0344161
2.03989,-0.126552,-0.130985
1.98955,-0.221406,-0.0932484
2.03041,-0.125964,-0.08288
1.98719,-0.221143,-0.0465263
2.03133,-0.13314,-0.0355331
1.98695,-0.22814,0
2.03161,-0.133158,0.0118331
1.95366,-0.321675,-0.0115076
1.99833,-0.229447,0.0468054
1.98211,-0.227585,-0.139513
2.02679,-0.132843,0.059112
2.02748,-0.132888,-0.130218
1.98358,-0.227755,0.116278
1.98876,-0.228349,-0.0932484
2.02597,-0.132789,-0.0827172
1.98641,-0.228079,-0.0465263
2.02686,-0.139955,-0.0354633
1.98614,-0.235075,0
2.02315,-0.139698,0.0117866
1.95253,-0.328493,-0.0115076
1.99354,-0.235951,0.0467124
1.9813,-0.234502,-0.139513
2.02632,-0.139917,0.059112
2.01904,-0.139415,-0.129706
1.98399,-0.23482,-0.0930622
2.02151,-0.139585,-0.0825544
2.02237,-0.14674,-0.0353935
1.9853,-0.242006,0
2.02664,-0.147049,0.0118098
1.94348,-0.333952,-0.0114611
1.9808,-0.241457,0.0464332
1.97651,-0.240934,-0.139234
1.97919,-0.241261,-0.0928761
2.02101,-0.14664,-0.0825544
2.01786,-0.153495,-0.0353237
2.02212,-0.153819,0.0117866
1.93443,-0.339351,-0.0114146
1.97597,-0.247872,0.0463402
1.97169,-0.247335,-0.138955
2.0213,-0.153756,0.0589956
2.01404,-0.153204,-0.12945
1.97833,-0.248168,-0.0928761
2.0165,-0.153391,-0.0823915
1.97201,-0.247374,-0.0462471
2.01333,-0.16022,-0.0352539
1.97167,-0.254325,0
2.02157,-0.160877,0.0117866
1.93323,-0.346102,-0.0114146
1.97113,-0.254256,0.0462471
1.97746,-0.255072,-0.0928761
2.01196,-0.160112,-0.0822287
2.00883,-0.166215,-0.0351841
1.93607,-0.352891,-0.0114378
1.97429,-0.260972,0.0463402
1.97268,-0.260759,-0.09269
2.00747,-0.166102,-0.0820659
1.97032,-0.260448,-0.0462471
2.01246,-0.173944,0.0117401
1.97728,-0.268744,0.0464332
2.00766,-0.173529,0.0586465
1.9638,-0.266912,-0.0923178
2.00685,-0.173459,-0.0820659
2.0036,-0.180227,-0.0351142
2.00786,-0.18061,0.0117168
1.96841,-0.27454,0.0462471
1.95889,-0.273213,-0.0921316
1.96049,-0.273435,-0.046061
2.00722,-0.187617,0.0117168
1.96348,-0.280843,0.0461541
2.00242,-0.187169,0.0585302
1.95952,-0.280277,-0.046061
2.00658,-0.194272,0.0117168
1.95858,-0.286773,0.046061
1.99781,-0.193423,0.0584138
1.99456,-0.193109,-0.128427
1.95462,-0.286194,-0.045968
1.99368,-0.20005,-0.0349746
1.99793,-0.200477,0.0116703
1.96152,-0.294202,0.0461541
1.95203,-0.292777,-0.0919455
1.95361,-0.293015,-0.045968
1.99321,-0.207384,0.0116471
1.95648,-0.300781,0.046061
1.95094,-0.29993,-0.0919455
1.98853,-0.213566,0.0116238
1.95152,-0.306647,0.045968
1.98692,-0.213392,-0.0814146
1.98349,-0.220381,-0.034835
1.99171,-0.221294,0.0116471
1.98693,-0.220763,0.0581811
1.99093,-0.228245,0.0116471
1.97797,-0.233408,-0.0347652
1.98221,-0.233909,0.0116006
1.94031,-0.325742,-0.0457819
1.97741,-0.240344,0.0115773
1.97661,-0.240246,0.0579483
1.97656,-0.247245,0.0115773
1.97564,-0.254488,0.0115773
1.97087,-0.253874,0.057832
1.96655,-0.260298,-0.0346256
1.97474,-0.261382,0.0115773
1.96985,-0.267735,0.0115541
1.96504,-0.273371,0.0115308
1.96398,-0.280914,0.0115308
1.95517,-0.285926,0.0114843
1.95833,-0.286388,0.0575993
1.96207,-0.293934,0.0115308
1.95698,-0.300858,0.0115076
1.94812,-0.305764,0.0114611
1.94309,-0.311928,0.0114378
1.93692,-0.324824,0.0114146
1.93545,-0.331876,-0.0342765
