3.01632,-0.144884,-0.0351561
3.01979,-0.155618,-0.0352026
3.01523,-0.165938,-0.0351561
3.01064,-0.176229,-0.0351095
3.01001,-0.186736,-0.0351095
3.00934,-0.197242,-0.0351095
3.01262,-0.208021,-0.0351561
3.00789,-0.218246,-0.0351095
3.06275,-0.222226,-0.178836
3.00312,-0.228441,-0.0350629
2.96324,-0.225408,0.0345973
3.05797,-0.232614,-0.178603
3.0023,-0.238923,-0.0350629
3.06112,-0.243603,-0.178836
3.00145,-0.249401,-0.0350629
2.97754,-0.247414,0.0347836
3.00455,-0.260222,-0.0351095
2.97267,-0.257461,0.034737
3.05139,-0.264279,-0.178371
2.99565,-0.26999,-0.0350164
2.9598,-0.266759,0.0345973
3.05045,-0.274928,-0.178371
2.98673,-0.2797,-0.0349233
2.96682,-0.277835,0.0346904
3.04947,-0.285575,-0.178371
2.98972,-0.29051,-0.0349698
3.084,-0.299672,-0.289242
2.96583,-0.288189,0.0346904
3.04448,-0.295832,-0.178138
2.99266,-0.301345,-0.0350164
3.01595,-0.15542,-0.017552
2.96481,-0.29854,0.0346904
3.04343,-0.306457,-0.178138
2.98772,-0.310332,-0.0349698
3.09383,-0.321354,-0.290357
3.04642,-0.316429,-0.178371
2.99049,-0.32223,-0.0350164
3.0807,-0.331951,-0.289242
2.95867,-0.318802,0.0346439
3.04121,-0.327696,-0.178138
2.98151,-0.330742,-0.0349233
3.00623,-0.185449,-0.0175055
3.08756,-0.342506,-0.289986
2.95766,-0.328096,0.0346439
3.04017,-0.337249,-0.178138
2.98034,-0.341147,-0.0349233
3.00956,-0.196202,-0.0175287
3.08634,-0.353281,-0.289986
2.95649,-0.338418,0.0346439
3.04294,-0.348313,-0.178371
3.05731,-0.199315,-0.160567
2.98304,-0.352538,-0.0349698
3.00084,-0.206682,-0.0174822
3.08503,-0.364591,-0.289986
3.02975,-0.358058,-0.177673
3.05655,-0.210519,-0.160567
2.97782,-0.362465,-0.0349233
3.00409,-0.217444,-0.0175055
3.07583,-0.374395,-0.289242
2.95002,-0.359082,0.0345973
3.03244,-0.369114,-0.177905
3.05978,-0.221475,-0.160776
3.00335,-0.227405,-0.0175055
3.07852,-0.385087,-0.289614
2.94882,-0.368863,0.0345973
3.02328,-0.378177,-0.17744
3.05107,-0.231018,-0.160357
2.97528,-0.382726,-0.0349233
2.99855,-0.237571,-0.0174822
3.06926,-0.394814,-0.28887
2.94355,-0.378643,0.0345507
3.02986,-0.389746,-0.177905
3.04626,-0.241351,-0.160148
3.07174,-0.406584,-0.289242
2.94214,-0.38943,0.0345507
3.02841,-0.400849,-0.177905
3.04934,-0.252844,-0.160357
2.97247,-0.404007,-0.0349233
2.94472,-0.400236,0.0345973
2.96848,-0.256576,0.0520082
3.02304,-0.41088,-0.177673
3.04843,-0.263487,-0.160357
2.97104,-0.41438,-0.0349233
2.99585,-0.269481,-0.0174822
3.06882,-0.428018,-0.289242
2.96757,-0.266937,0.0520082
3.01763,-0.420878,-0.17744
3.0475,-0.274126,-0.160357
3.03664,-0.124088,-0.0707199
2.96569,-0.423664,-0.0348767
3.06739,-0.438193,-0.289242
2.93797,-0.419705,0.0345507
3.08827,-0.288121,-0.253206
3.01622,-0.430883,-0.17744
3.04259,-0.28386,-0.160148
3.03222,-0.13398,-0.0706269
2.96412,-0.434531,-0.0348767
2.93246,-0.42989,0.0345042
3.08323,-0.299054,-0.252881
3.01857,-0.442514,-0.177673
3.03756,-0.294624,-0.159939
3.03171,-0.145093,-0.0706269
2.96266,-0.444358,-0.0348767
2.93497,-0.440205,0.0345507
3.08222,-0.309276,-0.252881
2.96068,-0.297081,0.0519384
3.01313,-0.451929,-0.17744
3.04054,-0.305094,-0.160148
3.03121,-0.155146,-0.0706269
2.96101,-0.455214,-0.0348767
2.93334,-0.45096,0.0345507
3.08106,-0.320571,-0.252881
3.00751,-0.462363,-0.177208
3.04337,-0.316649,-0.160357
3.03062,-0.166255,-0.0706269
2.95545,-0.464926,-0.0348301
3.05695,-0.480893,-0.28887
3.00982,-0.473479,-0.17744
3.05149,-0.178086,-0.142385
3.03033,-0.325989,-0.159729
3.03002,-0.176832,-0.0706269
2.9816,-0.331279,-0.0174357
2.92617,-0.470792,0.0345042
3.01209,-0.484616,-0.177673
3.05085,-0.188736,-0.142385
3.03315,-0.337006,-0.159939
3.0254,-0.187161,-0.0705338
2.94836,-0.483869,-0.0347836
3.05763,-0.501801,-0.289242
2.92073,-0.479334,0.0344576
3.0737,-0.351291,-0.252555
2.94835,-0.336965,0.0517987
3.00268,-0.492783,-0.177208
3.05423,-0.198579,-0.142571
3.0281,-0.34608,-0.159729
3.02479,-0.196665,-0.0705338
2.94648,-0.495186,-0.0347836
2.97524,-0.351617,-0.0174125
3.07233,-0.36309,-0.252555
3.0047,-0.504971,-0.17744
2.91726,-0.344764,0.119679
3.04548,-0.209756,-0.142199
3.03072,-0.358173,-0.159939
3.02801,-0.208553,-0.0706269
2.9847,-0.363302,-0.0875043
2.98419,-0.216004,0
2.94473,-0.505468,-0.0347836
2.97003,-0.361517,-0.0173892
2.92108,-0.501408,0.0345042
2.99505,-0.514105,-0.176975
2.91207,-0.354463,0.119517
3.04472,-0.220385,-0.142199
3.02945,-0.36875,-0.159939
3.02327,-0.218832,-0.0705338
2.9835,-0.225378,0
2.96888,-0.370846,-0.0173892
2.9407,-0.367326,0.0517289
2.99342,-0.523512,-0.176975
2.89905,-0.362123,0.119028
3.04003,-0.229648,-0.142013
3.02828,-0.378266,-0.159939
3.02257,-0.228329,-0.0705338
2.94516,-0.526204,-0.0348301
2.96353,-0.381214,-0.017366
3.04631,-0.544276,-0.28887
2.91366,-0.520576,0.0344576
2.99934,-0.535884,-0.17744
2.90563,-0.373766,0.119354
3.03917,-0.240789,-0.142013
3.01895,-0.388343,-0.15952
3.02171,-0.239406,-0.0705338
2.97388,-0.245543,0
2.9434,-0.535967,-0.0348301
3.11561,-0.411285,-0.400018
3.04448,-0.554375,-0.28887
2.91192,-0.530235,0.0344576
3.06605,-0.253153,-0.215129
3.06315,-0.404359,-0.25223
2.99755,-0.545828,-0.17744
2.90041,-0.382876,0.119191
3.03836,-0.250866,-0.142013
3.0216,-0.398875,-0.159729
3.0209,-0.249425,-0.0705338
2.97301,-0.255922,0
2.93758,-0.545508,-0.0347836
3.11023,-0.421625,-0.399513
3.04253,-0.564998,-0.28887
2.90218,-0.538936,0.0343645
3.06913,-0.264196,-0.215408
3.05777,-0.414513,-0.251904
2.9917,-0.555559,-0.177208
2.90302,-0.393535,0.119354
3.03746,-0.26147,-0.142013
3.01623,-0.408883,-0.15952
3.02001,-0.259968,-0.0705338
2.96806,-0.266459,0
2.93556,-0.556271,-0.0347836
3.10866,-0.433022,-0.399513
2.95542,-0.411675,-0.0173428
2.90412,-0.550314,0.034411
3.06416,-0.275087,-0.215129
2.93125,-0.408309,0.0516591
2.98572,-0.565777,-0.176975
2.90156,-0.404173,0.119354
3.04046,-0.272959,-0.142199
3.01867,-0.420487,-0.159729
3.01107,-0.27032,-0.0703477
2.9338,-0.565491,-0.0347836
3.10729,-0.442786,-0.399513
2.96203,-0.422086,-0.0173892
3.03861,-0.585695,-0.28887
2.95845,-0.274967,0.0691381
2.9063,-0.560192,0.0344576
3.06329,-0.284712,-0.215129
2.93391,-0.41808,0.0517289
2.99177,-0.576665,-0.17744
3.02765,-0.2814,-0.141641
3.01338,-0.429404,-0.15952
3.01021,-0.279778,-0.0703477
2.96618,-0.286656,0
3.10172,-0.453597,-0.399008
2.95254,-0.431782,-0.0173428
3.03254,-0.59606,-0.288498
2.89638,-0.569297,0.0343645
3.06222,-0.295937,-0.215129
2.98572,-0.586857,-0.177208
2.88687,-0.422178,0.118865
3.03058,-0.292879,-0.141827
3.01179,-0.440446,-0.15952
3.01314,-0.291194,-0.0704408
2.96113,-0.297126,0
2.92957,-0.586981,-0.0347836
3.10003,-0.464963,-0.399008
2.9549,-0.443194,-0.017366
2.89427,-0.579909,0.0343645
3.06112,-0.307159,-0.215129
3.0516,-0.457699,-0.251904
2.97963,-0.597011,-0.176975
2.88531,-0.432757,0.118865
3.02949,-0.303985,-0.141827
3.0062,-0.450889,-0.159311
2.96008,-0.307461,0
2.92359,-0.596404,-0.034737
3.09055,-0.474576,-0.397997
3.0282,-0.617745,-0.288498
2.89615,-0.590808,0.034411
3.05606,-0.31743,-0.21485
2.92526,-0.449196,0.0516591
2.98144,-0.608207,-0.177208
2.88378,-0.442826,0.118865
3.03238,-0.314971,-0.142013
3.00856,-0.461986,-0.15952
3.007,-0.312335,-0.0703477
2.95909,-0.316758,0
3.1008,-0.486127,-0.399513
2.89428,-0.599904,0.034411
3.05901,-0.327454,-0.215129
3.04456,-0.47731,-0.251579
2.96387,-0.614328,-0.176278
2.88632,-0.452502,0.119028
3.03138,-0.324496,-0.142013
3.00315,-0.470817,-0.159311
3.00601,-0.32178,-0.0703477
2.96592,-0.327965,0
3.09125,-0.495691,-0.398503
3.02403,-0.637815,-0.288498
2.89217,-0.610003,0.034411
3.05785,-0.33813,-0.215129
2.96562,-0.625495,-0.17651
2.88078,-0.461942,0.118865
3.01831,-0.333758,-0.141455
3.00148,-0.481297,-0.159311
2.95675,-0.337925,0
2.9212,-0.627318,-0.0347836
3.09724,-0.508303,-0.399513
3.02168,-0.648894,-0.288498
2.94403,-0.336471,0.0689519
2.886,-0.619759,0.0343645
3.0447,-0.347976,-0.214292
2.97502,-0.638875,-0.177208
2.87512,-0.47185,0.118702
3.02104,-0.345272,-0.141641
2.99182,-0.491001,-0.158892
2.99966,-0.342828,-0.0702547
2.95164,-0.347261,0
2.9152,-0.636148,-0.034737
3.09163,-0.517916,-0.399008
2.98499,-0.204019,0.0173892
2.88393,-0.629326,0.0343645
3.03956,-0.357604,-0.214013
2.91493,-0.488315,0.0515893
2.96508,-0.647034,-0.176743
2.87748,-0.482042,0.118865
3.02384,-0.355755,-0.141827
2.99411,-0.50158,-0.159101
2.95183,-0.505096,-0.0871552
2.95438,-0.358043,0
2.91686,-0.647187,-0.0347836
3.08589,-0.528035,-0.398503
2.98426,-0.214438,0.0173892
3.09532,-0.375122,-0.335856
3.01719,-0.669447,-0.288498
2.88172,-0.639389,0.0343645
3.0383,-0.368212,-0.214013
3.02974,-0.518427,-0.250928
2.91321,-0.498487,0.0515893
3.06181,-0.22001,-0.196733
2.9667,-0.658246,-0.176975
3.01465,-0.365347,-0.141455
2.98841,-0.511354,-0.158892
2.94908,-0.368373,0
3.08002,-0.538658,-0.397997
2.97148,-0.22447,0.0173195
3.08997,-0.385972,-0.335428
2.88326,-0.650828,0.034411
3.0488,-0.380829,-0.21485
2.91136,-0.509161,0.0515893
2.96038,-0.668235,-0.176743
2.87396,-0.50262,0.118865
3.01329,-0.376393,-0.141455
2.99045,-0.522992,-0.159101
2.81968,-0.493127,0.233679
2.94784,-0.37815,0
2.91227,-0.667534,-0.0347836
3.07822,-0.548869,-0.397997
2.97471,-0.234637,0.0173428
3.09262,-0.396723,-0.335856
3.00856,-0.689605,-0.288127
2.92721,-0.375504,0.0686728
2.88108,-0.660385,0.034411
3.03961,-0.389922,-0.214292
3.0602,-0.24138,-0.196733
2.95814,-0.678049,-0.176743
2.86441,-0.510745,0.11854
3.0041,-0.385367,-0.141082
2.99263,-0.533607,-0.159311
2.81803,-0.502475,0.233679
2.94254,-0.387915,0
2.90992,-0.677696,-0.0347836
3.08019,-0.560321,-0.398503
2.97786,-0.245348,0.017366
3.09122,-0.407515,-0.335856
3.00613,-0.700102,-0.288127
2.92985,-0.386242,0.0687658
2.87097,-0.668624,0.0343179
3.03427,-0.400008,-0.214013
3.02807,-0.550839,-0.251254
3.05934,-0.252061,-0.196733
2.95965,-0.689276,-0.176975
2.86261,-0.52074,0.11854
3.01066,-0.396895,-0.141455
2.98682,-0.543335,-0.159101
2.99252,-0.257076,-0.052427
2.9491,-0.399258,0
2.90365,-0.686929,-0.034737
3.07822,-0.571069,-0.398503
2.973,-0.255399,0.0173428
3.08978,-0.418303,-0.335856
2.92452,-0.395931,0.0686728
2.8803,-0.681404,0.0344576
3.03681,-0.411133,-0.214292
3.02613,-0.561406,-0.251254
3.05844,-0.262738,-0.196733
2.95334,-0.698684,-0.176743
2.86863,-0.532187,0.118865
3.00925,-0.407402,-0.141455
2.9849,-0.553758,-0.159101
2.98793,-0.404514,-0.0701616
2.94365,-0.409513,0
2.90111,-0.697566,-0.034737
3.0722,-0.58161,-0.397997
2.96806,-0.265937,0.0173195
3.08428,-0.429077,-0.335428
2.87778,-0.691956,0.0344576
3.03529,-0.422261,-0.214292
3.02405,-0.572493,-0.251254
2.89611,-0.548273,0.0514497
3.0495,-0.273234,-0.196222
2.95464,-0.710437,-0.176975
2.86274,-0.541954,0.118702
3.00774,-0.418429,-0.141455
2.98285,-0.564694,-0.159101
2.94624,-0.419836,0
2.90267,-0.708131,-0.0347836
3.06636,-0.591043,-0.397492
2.96318,-0.275407,0.0172963
3.07891,-0.438742,-0.335
2.8677,-0.699599,0.0343645
3.03387,-0.432324,-0.214292
3.02213,-0.582518,-0.251254
2.8982,-0.558631,0.0515195
3.05255,-0.283714,-0.196478
2.94839,-0.719285,-0.176743
2.87405,-0.409549,0.169068
2.86092,-0.551445,0.118702
3.00238,-0.427837,-0.141268
2.98096,-0.574583,-0.159101
3.02047,-0.280732,-0.123587
2.9408,-0.42954,0
2.90018,-0.718259,-0.0347836
3.07207,-0.603272,-0.398503
2.9622,-0.285749,0.0172963
3.07736,-0.449486,-0.335
2.99993,-0.742964,-0.288498
2.873,-0.711528,0.0344576
3.02839,-0.442335,-0.214013
3.01617,-0.592296,-0.250928
2.93314,-0.282946,0.0857589
2.90016,-0.569514,0.0515893
3.05155,-0.294368,-0.196478
2.94586,-0.729572,-0.176743
2.87655,-0.420156,0.169301
2.85506,-0.560658,0.11854
2.99296,-0.43716,-0.140896
2.97894,-0.584985,-0.159101
3.01549,-0.29089,-0.123424
2.97561,-0.434625,-0.0699755
2.98466,-0.298435,-0.0523572
2.93137,-0.438619,0
2.89378,-0.727403,-0.034737
3.06994,-0.613992,-0.398503
2.96118,-0.296087,0.0172963
3.08364,-0.461403,-0.335856
2.99732,-0.753431,-0.288498
2.92266,-0.437317,0.0687658
2.86662,-0.720578,0.034411
3.01894,-0.451722,-0.213455
3.01408,-0.60282,-0.250928
2.93611,-0.29358,0.0858753
2.89815,-0.579634,0.0515893
3.0505,-0.305018,-0.196478
2.94329,-0.739851,-0.176743
2.87507,-0.430195,0.169301
2.857,-0.571404,0.118702
2.99537,-0.448196,-0.141082
2.96905,-0.593813,-0.158683
3.01843,-0.301812,-0.123587
2.97803,-0.445601,-0.0700686
2.9299,-0.448337,0
2.89135,-0.736995,-0.034737
3.06789,-0.624169,-0.398503
2.96416,-0.306317,0.0173195
3.07816,-0.471024,-0.335428
2.86034,-0.729092,0.0343645
3.01742,-0.461731,-0.213455
3.01207,-0.612812,-0.250928
2.92717,-0.302493,0.0856425
2.8923,-0.588444,0.0515195
2.93696,-0.748621,-0.17651
2.86968,-0.439122,0.169068
2.85509,-0.580875,0.118702
2.99387,-0.458126,-0.141082
2.97097,-0.604452,-0.158892
3.00946,-0.310998,-0.123262
2.97654,-0.455474,-0.0700686
2.97858,-0.318319,-0.0522874
2.93227,-0.45918,0
2.88488,-0.746082,-0.0346904
3.06569,-0.634874,-0.398503
2.95512,-0.315812,0.017273
3.07649,-0.481766,-0.335428
2.86165,-0.740073,0.034411
3.01579,-0.472261,-0.213455
3.00991,-0.623322,-0.250928
2.93007,-0.313134,0.0857589
2.88631,-0.597726,0.0514497
3.04041,-0.324927,-0.195966
2.94206,-0.760868,-0.176975
2.87602,-0.450372,0.169533
2.85305,-0.590838,0.118702
2.9962,-0.469192,-0.141268
2.97276,-0.615629,-0.159101
2.9774,-0.329234,-0.0522874
2.93056,-0.469925,0
2.886,-0.757666,-0.034737
3.06334,-0.646106,-0.398503
2.95792,-0.32708,0.0172963
3.06293,-0.49115,-0.334143
2.86666,-0.752588,0.0345042
3.01404,-0.483311,-0.213455
3.01151,-0.635173,-0.251254
2.92493,-0.323432,0.0856425
2.8841,-0.608301,0.0514497
3.03524,-0.335629,-0.19571
2.93925,-0.771646,-0.176975
2.86646,-0.459646,0.169068
2.84695,-0.600466,0.11854
2.99051,-0.479538,-0.141082
2.97048,-0.62652,-0.159101
2.96925,-0.476129,-0.0699755
2.92504,-0.478994,0
2.88347,-0.767232,-0.034737
2.95682,-0.336887,0.0172963
3.06128,-0.501304,-0.334143
2.85641,-0.760033,0.034411
3.01636,-0.493948,-0.213734
2.93178,-0.334034,0.0858753
2.88207,-0.617861,0.0514497
3.03411,-0.345693,-0.19571
2.93667,-0.781388,-0.176975
2.8728,-0.47044,0.169533
2.98496,-0.488806,-0.140896
2.97229,-0.637204,-0.159311
3.01001,-0.342948,-0.123424
2.97509,-0.349492,-0.0522874
2.92335,-0.489201,0
2.88464,-0.778335,-0.0347836
2.95165,-0.34674,0.017273
3.06344,-0.512643,-0.334571
2.84988,-0.768957,0.0343645
3.00711,-0.655657,-0.251254
2.92266,-0.343333,0.0856425
2.8838,-0.62877,0.0515195
3.03684,-0.356747,-0.195966
2.93007,-0.790594,-0.176743
2.85933,-0.478487,0.168836
2.8428,-0.61983,0.11854
2.98324,-0.499223,-0.140896
2.95834,-0.645023,-0.158683
2.96988,-0.359395,-0.0522176
2.92163,-0.499402,0
2.87804,-0.787344,-0.034737
2.94645,-0.35656,0.0172498
3.05379,-0.521993,-0.333714
2.84332,-0.777845,0.0343179
2.99702,-0.664424,-0.250603
2.91747,-0.353053,0.0855262
3.03558,-0.367346,-0.195966
2.935,-0.802925,-0.177208
2.86158,-0.489138,0.169068
2.84062,-0.62975,0.11854
2.98542,-0.510306,-0.141082
2.95607,-0.655345,-0.158683
2.9686,-0.369759,-0.0522176
2.91986,-0.509598,0
2.87913,-0.798454,-0.0347836
2.94519,-0.366843,0.0172498
3.05586,-0.533334,-0.334143
3.00316,-0.524136,-0.213176
2.99468,-0.674881,-0.250603
2.91225,-0.36274,0.0854098
2.87934,-0.648887,0.0515195
3.02636,-0.376953,-0.195454
2.92833,-0.812098,-0.176975
2.85592,-0.498438,0.168836
2.8423,-0.64054,0.118702
2.97968,-0.520037,-0.140896
2.95766,-0.666538,-0.158892
2.80411,-0.631934,0.234655
2.91807,-0.519787,0
2.88018,-0.809582,-0.0348301
2.94389,-0.377121,0.0172498
3.05007,-0.5433,-0.333714
3.00524,-0.535315,-0.213455
2.9962,-0.686221,-0.250928
2.91097,-0.372904,0.0854098
2.87706,-0.658934,0.0515195
3.02502,-0.387514,-0.195454
2.85416,-0.508404,0.168836
2.83615,-0.649565,0.11854
2.98178,-0.531136,-0.141082
2.95921,-0.67775,-0.159101
3.00097,-0.384433,-0.123262
2.96058,-0.52736,-0.0699755
2.96992,-0.390997,-0.0522874
2.92017,-0.530685,0
2.87349,-0.818535,-0.0347836
2.94652,-0.387917,0.017273
3.05598,-0.555366,-0.334571
3.00335,-0.545802,-0.213455
2.99378,-0.696675,-0.250928
3.03157,-0.399113,-0.195966
2.91875,-0.831427,-0.176743
2.84844,-0.517649,0.168603
2.97205,-0.540112,-0.14071
2.96072,-0.688981,-0.159311
2.99961,-0.394906,-0.123262
2.96061,-0.40029,-0.0521478
2.91437,-0.540146,0
2.86677,-0.827451,-0.034737
2.94119,-0.397664,0.0172498
3.05402,-0.566029,-0.334571
3.00143,-0.556282,-0.213455
2.99521,-0.708038,-0.251254
2.9083,-0.393217,0.0854098
3.0262,-0.409158,-0.19571
2.91583,-0.841611,-0.176743
2.85054,-0.528317,0.168836
2.83155,-0.66935,0.11854
2.978,-0.55194,-0.141082
2.95052,-0.697474,-0.158892
2.99821,-0.405374,-0.123262
2.96315,-0.411171,-0.0522176
2.9046,-0.548831,0
2.86387,-0.837453,-0.034737
2.93978,-0.407929,0.0172498
3.04812,-0.575948,-0.334143
2.99555,-0.566015,-0.213176
2.98497,-0.716628,-0.250603
2.90691,-0.403366,0.0854098
3.02475,-0.419719,-0.19571
2.92054,-0.854025,-0.177208
2.85653,-0.539747,0.169301
2.82919,-0.679229,0.11854
2.96428,-0.560106,-0.140524
2.94807,-0.707769,-0.158892
2.9617,-0.421512,-0.0522176
2.91445,-0.561235,0
2.93042,-0.417061,0.0172033
3.05,-0.587337,-0.334571
2.99747,-0.577223,-0.213455
2.98632,-0.727987,-0.250928
2.87146,-0.699987,0.0515893
3.01932,-0.429713,-0.195454
2.91754,-0.864214,-0.177208
2.84234,-0.692887,0.119191
2.96623,-0.571205,-0.14071
2.94946,-0.719001,-0.159101
2.98739,-0.425169,-0.122936
2.90855,-0.570635,0
2.93686,-0.428442,0.0172498
3.04012,-0.596448,-0.333714
2.99544,-0.587682,-0.213455
2.98376,-0.738407,-0.250928
2.90006,-0.423073,0.0852934
2.869,-0.710006,0.0515893
3.02175,-0.440826,-0.19571
2.90686,-0.872098,-0.176743
2.85269,-0.559676,0.169301
2.96422,-0.581556,-0.14071
2.95081,-0.730252,-0.159311
2.98985,-0.436171,-0.123099
2.95473,-0.441587,-0.0521478
2.90654,-0.580784,0
2.93535,-0.438691,0.0172498
3.04192,-0.607836,-0.334143
2.98946,-0.597353,-0.213176
2.98117,-0.748818,-0.250928
2.86651,-0.720016,0.0515893
3.0123,-0.450191,-0.195198
2.90761,-0.883401,-0.176975
2.84289,-0.568065,0.168836
2.96609,-0.592682,-0.140896
2.94437,-0.739575,-0.159101
2.98831,-0.446605,-0.123099
2.95317,-0.451898,-0.0521478
2.90058,-0.590129,0
2.9338,-0.448935,0.0172498
3.04368,-0.619243,-0.334571
2.98736,-0.607784,-0.213176
2.9824,-0.760204,-0.251254
2.89704,-0.443309,0.0852934
2.8601,-0.72903,0.0515195
3.01465,-0.461307,-0.195454
2.90833,-0.894719,-0.177208
2.84871,-0.579577,0.169301
2.96008,-0.602236,-0.14071
2.9379,-0.748861,-0.158892
2.97883,-0.455824,-0.122773
2.95561,-0.462307,-0.0522176
2.89469,-0.598934,0
2.92834,-0.458043,0.0172265
3.03382,-0.627722,-0.333714
2.88607,-0.597152,0.0685797
2.98532,-0.617687,-0.213176
2.976,-0.769092,-0.250928
2.89555,-0.452914,0.0852934
2.86154,-0.739511,0.0515893
3.01311,-0.471301,-0.195454
2.90535,-0.904358,-0.177208
2.83505,-0.586594,0.168603
2.95416,-0.611239,-0.140524
2.93153,-0.7576,-0.158683
2.9773,-0.4657,-0.122773
2.95011,-0.471475,-0.0521478
2.90051,-0.610177,0
2.91891,-0.466488,0.01718
3.0395,-0.639416,-0.334571
2.97935,-0.626762,-0.212897
2.96958,-0.777947,-0.250603
2.89403,-0.462513,0.0852934
2.85133,-0.746969,0.0514497
3.00364,-0.48003,-0.194943
2.82918,-0.59517,0.168371
2.96384,-0.623499,-0.141082
2.93287,-0.76833,-0.158892
2.94441,-0.481639,-0.052078
2.89826,-0.620804,0
2.92113,-0.477829,0.0172033
3.03714,-0.650552,-0.334571
2.98094,-0.638514,-0.213176
2.96671,-0.788825,-0.250603
2.88837,-0.472472,0.0851771
2.84471,-0.756387,0.0513799
3.0058,-0.491681,-0.195198
2.82307,-0.604699,0.168138
2.95763,-0.633521,-0.140896
2.93389,-0.7801,-0.159101
2.98186,-0.487765,-0.123099
2.9428,-0.4914,-0.052078
2.89227,-0.62956,0
2.91953,-0.487514,0.0172033
2.87347,-0.774245,-0.0172963
3.02719,-0.658928,-0.333714
2.87977,-0.626838,0.0685797
2.9788,-0.648395,-0.213176
2.96792,-0.799696,-0.250928
2.89073,-0.482706,0.0852934
3.00416,-0.501645,-0.195198
2.83276,-0.616605,0.168836
2.95161,-0.642476,-0.14071
2.93129,-0.789825,-0.159101
2.98023,-0.49765,-0.123099
2.94501,-0.502342,-0.0521478
2.88615,-0.638788,0
2.92175,-0.498374,0.0172265
2.87461,-0.785325,-0.0173195
3.02876,-0.670351,-0.334143
2.87756,-0.636887,0.0685797
2.97263,-0.657927,-0.212897
2.96896,-0.811102,-0.251254
2.88509,-0.492121,0.0851771
3.00632,-0.5128,-0.195454
2.82669,-0.625627,0.168603
2.95325,-0.653639,-0.140896
2.92081,-0.797947,-0.158683
2.97847,-0.50805,-0.123099
2.94324,-0.512619,-0.0521478
2.88781,-0.649737,0
2.91211,-0.507197,0.01718
2.8757,-0.796422,-0.0173428
3.02252,-0.680046,-0.333714
2.87532,-0.646928,0.0685797
2.97031,-0.668299,-0.212897
2.96227,-0.820397,-0.250928
3.00058,-0.522606,-0.195198
2.82838,-0.636366,0.168836
2.94705,-0.663066,-0.14071
2.92186,-0.809204,-0.158892
2.96881,-0.517072,-0.122773
2.94134,-0.523403,-0.0521478
2.88541,-0.660317,0
2.91023,-0.517867,0.01718
2.86891,-0.805875,-0.0173195
3.01613,-0.690232,-0.333286
2.97562,-0.680962,-0.213455
2.87756,-0.512053,0.0850607
2.99865,-0.5336,-0.195198
2.83382,-0.64851,0.169301
2.9485,-0.674755,-0.140896
2.92272,-0.820988,-0.159101
2.96689,-0.52795,-0.122773
2.93162,-0.532238,-0.0520082
2.88698,-0.671291,0
2.90841,-0.528023,0.01718
2.85454,-0.812599,-0.0172498
3.01758,-0.701657,-0.333714
2.97323,-0.691345,-0.213455
2.87969,-0.522809,0.0851771
2.99676,-0.544064,-0.195198
2.94612,-0.685043,-0.140896
2.92752,-0.833372,-0.15952
2.96503,-0.538303,-0.122773
2.93378,-0.542684,-0.052078
2.88474,-0.68086,0
2.91451,-0.53912,0.0172265
3.01523,-0.71166,-0.333714
2.8645,-0.676083,0.0684867
2.96315,-0.699367,-0.212897
2.88187,-0.533082,0.0852934
2.99494,-0.553999,-0.195198
2.93995,-0.693891,-0.14071
2.91706,-0.840863,-0.159101
2.96716,-0.548859,-0.122936
2.91899,-0.688944,-0.0697894
2.93177,-0.553433,-0.052078
2.87445,-0.689563,0
2.90858,-0.549056,0.0172033
3.02421,-0.725489,-0.335
2.96057,-0.710223,-0.212897
2.87204,-0.542158,0.0850607
2.98897,-0.564232,-0.194943
2.93739,-0.704661,-0.14071
2.90629,-0.849308,-0.158683
2.9612,-0.55899,-0.122773
2.93394,-0.563395,-0.0521478
2.87615,-0.699535,0
2.91077,-0.558945,0.0172265
2.95832,-0.71952,-0.212897
2.99502,-0.575124,-0.195454
2.93904,-0.71483,-0.140896
2.90744,-0.859567,-0.158892
2.95943,-0.56829,-0.122773
2.92391,-0.573118,-0.0520082
2.86956,-0.709613,0
2.90075,-0.568579,0.01718
2.95941,-0.731832,-0.213176
2.86818,-0.562195,0.0850607
2.98104,-0.584317,-0.194687
2.93627,-0.72611,-0.140896
2.90794,-0.871871,-0.159101
2.95331,-0.57888,-0.12261
2.92189,-0.583321,-0.0520082
2.86707,-0.719626,0
2.89875,-0.578701,0.01718
2.95684,-0.742158,-0.213176
2.8662,-0.572204,0.0850607
2.9829,-0.5955,-0.194943
2.9376,-0.737328,-0.141082
2.90488,-0.882017,-0.159101
2.95519,-0.589968,-0.122773
2.92375,-0.594313,-0.052078
2.86841,-0.730616,0
2.89671,-0.588816,0.01718
2.85214,-0.726471,0.0684867
2.96196,-0.754444,-0.213734
2.87203,-0.583798,0.0852934
2.9808,-0.605909,-0.194943
2.93113,-0.746591,-0.140896
2.90178,-0.892151,-0.159101
2.95702,-0.601076,-0.122936
2.92568,-0.604815,-0.0521478
2.86598,-0.740124,0
2.89866,-0.599229,0.0172033
2.85358,-0.736925,0.0685797
2.95172,-0.762267,-0.213176
2.86616,-0.59251,0.0851771
2.98268,-0.616599,-0.195198
2.9209,-0.754309,-0.140524
2.89881,-0.901769,-0.159101
2.95502,-0.610879,-0.122936
2.92355,-0.615024,-0.0521478
2.86337,-0.750124,0
2.89655,-0.609343,0.0172033
2.94904,-0.772566,-0.213176
2.98051,-0.627006,-0.195198
2.92985,-0.767538,-0.141082
2.89564,-0.911882,-0.159101
2.94504,-0.619544,-0.12261
2.92139,-0.625225,-0.0521478
2.8646,-0.761142,0
2.89049,-0.618613,0.01718
2.95018,-0.78388,-0.213455
2.85804,-0.611668,0.0850607
2.9744,-0.636571,-0.194943
2.92329,-0.776734,-0.140896
2.89244,-0.921984,-0.159101
2.94286,-0.629821,-0.12261
2.91528,-0.634568,-0.052078
2.86193,-0.771137,0
2.89223,-0.62955,0.0172033
2.95128,-0.795211,-0.213734
2.85589,-0.62164,0.0850607
2.97216,-0.64695,-0.194943
2.92442,-0.787974,-0.141082
2.89301,-0.933302,-0.159311
2.94455,-0.640939,-0.122773
2.90363,-0.782372,-0.0699755
2.90937,-0.642861,-0.0520082
2.89023,-0.638633,0.0172033
2.95262,-0.805529,-0.214013
2.85783,-0.631472,0.0851771
2.97012,-0.656284,-0.194943
2.91807,-0.796105,-0.140896
2.94252,-0.650187,-0.122773
2.90116,-0.79149,-0.0699755
2.91858,-0.656661,-0.0522176
2.85262,-0.79003,0
2.88776,-0.649726,0.0172033
2.94181,-0.814731,-0.213455
2.85928,-0.643318,0.0852934
2.97147,-0.66856,-0.195198
2.91499,-0.807304,-0.140896
2.94,-0.66148,-0.122773
2.89424,-0.801557,-0.0698825
2.90848,-0.665062,-0.052078
2.88547,-0.659802,0.0172033
2.93895,-0.824994,-0.213455
2.85312,-0.652404,0.0851771
2.96912,-0.678928,-0.195198
2.91216,-0.817474,-0.140896
2.93768,-0.671739,-0.122773
2.91003,-0.676115,-0.0521478
2.87536,-0.66806,0.0171568
2.93989,-0.83634,-0.213734
2.85083,-0.662359,0.0851771
2.95895,-0.687481,-0.194687
2.90544,-0.826541,-0.14071
2.93532,-0.681989,-0.122773
2.90376,-0.68535,-0.052078
2.87691,-0.679011,0.01718
2.93695,-0.846597,-0.213734
2.85239,-0.673225,0.0852934
2.96042,-0.698723,-0.194943
2.90638,-0.837785,-0.140896
2.93681,-0.693149,-0.122936
2.88569,-0.83182,-0.0698825
2.89771,-0.693539,-0.0520082
2.87865,-0.688977,0.0172033
2.93811,-0.856937,-0.214013
2.84637,-0.681252,0.0851771
2.95821,-0.70802,-0.194943
2.8999,-0.845793,-0.14071
2.93461,-0.702372,-0.122936
2.87922,-0.839763,-0.0697894
2.89514,-0.704154,-0.0520082
2.87999,-0.700468,0.0172265
2.9273,-0.865437,-0.213455
2.84774,-0.692625,0.0852934
2.95947,-0.719801,-0.195198
2.92814,-0.712179,-0.122773
2.87996,-0.851443,-0.0698825
2.90056,-0.715667,-0.0521478
2.87765,-0.710015,0.0172265
2.96095,-0.730567,-0.195454
2.92188,-0.720928,-0.12261
2.87712,-0.860989,-0.0698825
2.89792,-0.726294,-0.0521478
2.86727,-0.718613,0.01718
2.95438,-0.740444,-0.195198
2.89073,-0.876618,-0.14071
2.92309,-0.732603,-0.122773
2.88761,-0.734433,-0.0520082
2.86087,-0.727631,0.0171568
2.94791,-0.749768,-0.194943
2.89147,-0.887876,-0.140896
2.92052,-0.742803,-0.122773
2.88903,-0.745003,-0.052078
2.86619,-0.739112,0.0172033
2.95313,-0.761533,-0.195454
2.92191,-0.753481,-0.122936
2.88642,-0.755083,-0.052078
2.86359,-0.749112,0.0172033
2.95046,-0.771837,-0.195454
2.88536,-0.907537,-0.140896
2.91926,-0.763676,-0.122936
2.88763,-0.76618,-0.0521478
2.86096,-0.759103,0.0172033
2.94775,-0.782131,-0.195454
2.88598,-0.918815,-0.141082
2.91271,-0.772836,-0.122773
2.87708,-0.774679,-0.0520082
2.85815,-0.769584,0.0172033
2.941,-0.791892,-0.195198
2.8826,-0.929387,-0.141082
2.906,-0.782468,-0.12261
2.87835,-0.785268,-0.052078
2.85559,-0.779058,0.0172033
2.94221,-0.802691,-0.195454
2.90725,-0.793152,-0.122773
2.87559,-0.795311,-0.052078
2.93555,-0.811892,-0.195198
2.91217,-0.805426,-0.123099
2.93654,-0.823212,-0.195454
2.91319,-0.816665,-0.123262
2.87766,-0.817552,-0.0522176
2.94133,-0.835639,-0.195966
2.90263,-0.824645,-0.122936
2.87095,-0.826486,-0.0521478
2.92688,-0.842588,-0.195198
2.89589,-0.833666,-0.122773
2.86421,-0.835383,-0.052078
2.92776,-0.853918,-0.195454
2.8968,-0.844889,-0.122936
2.87676,-0.849406,-0.0523572
2.92491,-0.863622,-0.195454
2.89398,-0.85449,-0.122936
2.92937,-0.876625,-0.195966
2.89083,-0.865091,-0.122936
2.91483,-0.883372,-0.195198
2.88779,-0.875177,-0.122936
2.88854,-0.886425,-0.123099
2.88559,-0.895998,-0.123099
