2.33145,0.339291,-0.137208
2.32082,0.329062,-0.13651
2.31014,0.318915,-0.135813
2.31113,0.311656,-0.135813
2.3108,0.302993,-0.0813856
2.30934,0.294605,-0.13558
2.30238,0.28596,-0.135115
2.2994,0.277444,-0.134883
2.30437,0.269477,-0.135115
2.2992,0.260742,-0.216002
2.29736,0.260532,-0.13465
2.29605,0.253081,-0.21563
2.29816,0.253314,-0.13465
2.293,0.244242,-0.215258
2.29908,0.244889,-0.13465
2.29193,0.236444,-0.134185
2.29069,0.227834,-0.214887
2.29676,0.228437,-0.134417
2.28751,0.219455,-0.214515
2.29357,0.220036,-0.134185
2.27814,0.210535,-0.0266348
2.28429,0.211104,-0.214143
2.29432,0.212031,-0.134185
2.28679,0.203688,-0.0267279
2.28895,0.203881,-0.214515
2.2791,0.203003,-0.133255
2.28354,0.194966,-0.0266814
2.27777,0.194474,-0.2134
2.28779,0.195329,-0.13372
2.28417,0.187393,-0.0266814
2.27841,0.18692,-0.2134
2.28046,0.187088,-0.133255
2.28082,0.179105,-0.0266348
2.27507,0.178653,-0.213028
2.30943,0.295436,-0.190067
2.27314,0.178501,-0.13279
2.27745,0.170843,-0.0265882
2.27966,0.171009,-0.2134
2.31045,0.287374,-0.190067
2.27773,0.170865,-0.133022
2.27005,0.162321,-0.0264951
2.27229,0.162482,-0.212656
2.25808,0.161466,0.0263554
2.30352,0.27835,-0.189416
2.27433,0.162627,-0.13279
2.29612,0.277455,-0.12121
2.27459,0.154667,-0.0265417
2.27285,0.154548,-0.212656
2.26661,0.154124,0.0264485
2.30052,0.269842,-0.189091
2.2709,0.154416,-0.132557
2.26711,0.146608,-0.0264485
2.26937,0.146754,-0.212284
2.25514,0.145833,0.0263088
2.30141,0.262212,-0.189091
2.26343,0.14637,-0.132092
2.29796,0.26182,-0.12121
2.29707,0.253599,-0.0672573
2.26362,0.138449,-0.026402
2.26987,0.138832,-0.212284
2.25563,0.137961,0.0263088
2.29834,0.25374,-0.188766
2.2719,0.138956,-0.132557
2.29092,0.25292,-0.120791
2.29003,0.24433,-0.0670246
2.26411,0.130152,-0.026402
2.26639,0.130284,-0.211912
2.26012,0.129923,0.0263554
2.29133,0.244469,-0.188115
2.26442,0.13017,-0.132092
2.29183,0.244523,-0.120791
2.2948,0.237145,-0.067141
2.25654,0.12221,-0.0263088
2.27476,0.123197,-0.212656
2.24855,0.121778,0.0262157
2.29609,0.237279,-0.18844
2.25686,0.122228,-0.131627
2.29263,0.236921,-0.120791
2.28766,0.228339,-0.0669082
2.25695,0.114332,-0.0263088
2.26722,0.114853,-0.211912
2.26095,0.114535,0.0263554
2.29294,0.228866,-0.188115
2.25728,0.114349,-0.131627
2.29344,0.228916,-0.120791
2.2845,0.21957,-0.0667919
2.25736,0.10606,-0.0263088
2.25967,0.106169,-0.211169
2.24537,0.105497,0.0261692
2.29376,0.220461,-0.188115
2.25369,0.105888,-0.131394
2.29029,0.220127,-0.120582
2.28127,0.211226,-0.0666755
2.24573,0.0976577,-0.0261692
2.26401,0.0984527,-0.211541
2.24173,0.0974839,0.0261226
2.28658,0.211717,-0.187464
2.25405,0.0980195,-0.131394
2.28309,0.211394,-0.120163
2.282,0.203262,-0.0666755
2.25005,0.0899783,-0.0262157
2.29631,0.204536,-0.293447
2.27097,0.20228,-0.0132512
2.26036,0.0903906,-0.211169
2.24206,0.0896587,0.0261226
2.3122,0.320434,-0.16323
2.28731,0.203735,-0.187464
2.25438,0.0901513,-0.131394
2.28779,0.203778,-0.120373
2.27867,0.195352,-0.0665591
2.25034,0.0825168,-0.0262157
2.28511,0.195904,-0.291932
2.28359,0.195773,-0.0133209
2.26065,0.0828949,-0.211169
2.24234,0.0822237,0.0261226
2.284,0.195808,-0.187138
2.25067,0.0825291,-0.131162
2.28447,0.195849,-0.120163
2.27934,0.187396,-0.0665591
2.23862,0.0742628,-0.026076
2.28974,0.188251,-0.292437
2.27628,0.187145,-0.0132744
2.25694,0.0748706,-0.210797
2.24661,0.074528,0.0261692
2.30642,0.303646,-0.162672
2.28069,0.187507,-0.186813
2.23897,0.0742746,-0.130464
2.28514,0.187873,-0.120163
2.27998,0.179438,-0.0665591
2.28642,0.179945,-0.291932
2.27692,0.179197,-0.0132744
2.25321,0.0668732,-0.210425
2.23486,0.0663288,0.0260295
2.28928,0.18017,-0.187464
2.25119,0.0668134,-0.131162
2.2818,0.179581,-0.119954
2.27262,0.170879,-0.0663264
2.24708,0.0588418,-0.0261692
2.291,0.172261,-0.292437
2.27753,0.171249,-0.0132744
2.24945,0.0589039,-0.210054
2.23508,0.0585277,0.0260295
2.28195,0.17158,-0.186813
2.25141,0.0589553,-0.131162
2.27445,0.171017,-0.119535
2.2732,0.162946,-0.0663264
2.27575,0.163128,-0.290417
2.27812,0.163298,-0.0132744
2.24167,0.0508713,-0.20931
2.23527,0.050726,0.0260295
2.2706,0.162759,-0.185836
2.24362,0.0509154,-0.130697
2.27105,0.162791,-0.119326
2.27775,0.155282,-0.0664428
2.23544,0.0429236,-0.0260295
2.27235,0.154914,-0.289912
2.2667,0.154529,-0.0132047
2.25378,0.0432759,-0.210425
2.23144,0.0428468,0.0259829
2.27116,0.154833,-0.185836
2.2358,0.0429305,-0.130231
2.2716,0.154863,-0.119326
2.27027,0.14721,-0.0662101
2.23557,0.0355098,-0.0260295
2.27681,0.147634,-0.290417
2.2672,0.147011,-0.0132047
2.24197,0.0356115,-0.20931
2.22757,0.0353827,0.0259363
2.29546,0.261941,-0.161556
2.26768,0.147042,-0.185511
2.2629,0.146732,0.0395821
2.23992,0.0355789,-0.130464
2.27609,0.147587,-0.119535
2.26678,0.139039,-0.0660937
2.23968,0.0277549,-0.026076
2.27335,0.139442,-0.289912
2.26371,0.138851,-0.0131814
2.24208,0.0277847,-0.20931
2.22768,0.0276062,0.0259363
2.29636,0.253926,-0.161556
2.27216,0.139369,-0.185836
2.2634,0.138832,0.0395821
2.23604,0.0277098,-0.130231
2.26463,0.138907,-0.118907
2.27126,0.130961,-0.0662101
2.23576,0.0195115,-0.0260295
2.27781,0.131338,-0.290417
2.2642,0.130553,-0.0131814
2.23818,0.0195326,-0.208938
2.22776,0.0194417,0.0259363
2.29331,0.245084,-0.161277
2.26469,0.130582,-0.185186
2.25591,0.130075,0.0394424
2.23213,0.0194798,-0.129999
2.28847,0.244568,-0.107208
2.26512,0.130607,-0.118907
2.26372,0.122599,-0.0659773
2.22382,0.0116437,-0.0258898
2.27033,0.122956,-0.289407
2.26464,0.122648,-0.0131814
2.30631,0.238333,-0.24975
2.23426,0.0116983,-0.208567
2.22382,0.0116437,0.0258898
2.29018,0.236667,-0.160998
2.26513,0.122675,-0.185186
2.26034,0.122415,0.0395123
2.24017,0.0117293,-0.130464
2.28931,0.236577,-0.107208
2.26158,0.122482,-0.118698
2.29515,0.237181,-0.0536913
2.26012,0.114889,-0.065861
2.22784,0.00427729,-0.0259363
2.25883,0.114823,-0.287892
2.26104,0.114935,-0.0131582
2.2303,0.004282,-0.208195
2.22385,0.00426961,0.0258898
2.28698,0.228675,-0.160719
2.26155,0.114961,-0.18486
2.25275,0.114514,0.0393726
2.32529,0.347932,-0.150684
2.23221,0.00428567,-0.129999
2.29009,0.228985,-0.107208
2.25798,0.11478,-0.118489
2.28399,0.228375,-0.0534122
2.24853,0.106432,-0.0655119
2.26319,0.107126,-0.288397
2.25344,0.106664,-0.0131117
2.28808,0.220721,-0.247608
2.2303,-0.00350276,-0.208195
2.22385,-0.00349262,0.0258898
2.29174,0.221074,-0.160998
2.25795,0.106878,-0.184535
2.25313,0.10665,0.0393726
2.22024,-0.00348695,-0.129301
2.29087,0.22099,-0.107208
2.25837,0.106898,-0.118489
2.28079,0.220018,-0.0533191
2.24489,0.0984067,-0.0653955
2.22382,-0.0112559,-0.0258898
2.26751,0.0993981,-0.288902
2.2538,0.098797,-0.0131117
2.28488,0.212364,-0.24718
2.22629,-0.0112684,-0.207823
2.21582,-0.0112154,0.0257966
2.28455,0.212334,-0.16044
2.25831,0.0989949,-0.184535
2.25349,0.0987837,0.0393726
2.22021,-0.0112376,-0.129301
2.236,0.0980167,0.0911843
2.28367,0.212252,-0.106835
2.25873,0.0990132,-0.118489
2.24522,0.0905705,-0.0653955
2.21177,-0.0189153,-0.0257501
2.26784,0.0914829,-0.288902
2.25413,0.0909297,-0.0131117
2.22226,-0.019005,-0.207451
2.21577,-0.0189495,0.0257966
2.27733,0.203647,-0.159882
2.25068,0.0907905,-0.183884
2.25382,0.0909174,0.0393726
2.21616,-0.0189529,-0.129069
2.23632,0.0902115,0.0911843
2.28042,0.203924,-0.106649
2.25108,0.0908066,-0.11807
2.31186,0.321208,-0.0950922
2.27431,0.203377,-0.053133
2.2535,0.0834208,-0.0656282
2.21169,-0.0262492,-0.0257501
2.2602,0.0836689,-0.287892
2.25042,0.0833067,-0.0130884
2.22218,-0.0263737,-0.207451
2.21169,-0.0262492,0.0257501
2.28197,0.196437,-0.160161
2.24698,0.0831794,-0.183558
2.24612,0.0831475,0.039233
2.21609,-0.0263014,-0.129069
2.23661,0.0827955,0.0911843
2.2771,0.196018,-0.106463
2.24737,0.083194,-0.117861
2.2458,0.0748936,-0.0653955
2.2723,0.187217,0
2.20358,-0.0342316,-0.0256569
2.26049,0.0753837,-0.287892
2.24671,0.0749241,-0.0130652
2.22605,-0.0345807,-0.207823
2.21558,-0.034418,0.0257966
2.2787,0.187744,-0.159882
2.24329,0.0748098,-0.183233
2.24641,0.0749139,0.039233
2.21598,-0.0344241,-0.129069
2.2369,0.0745968,0.0911843
2.2778,0.18767,-0.106463
2.24367,0.0748227,-0.117651
2.30216,0.303494,-0.0946037
2.27169,0.187166,-0.05304
2.24205,0.066935,-0.0652792
2.26895,0.17897,0
2.21545,-0.0421512,-0.0257966
2.25678,0.0673747,-0.287386
2.24296,0.0669622,-0.0130419
2.21795,-0.0421988,-0.207079
2.21145,-0.0420751,0.0257501
2.27934,0.179789,-0.159882
2.24752,0.0670982,-0.183558
2.24266,0.0669532,0.0391632
2.20786,-0.0420067,-0.128604
2.22516,0.0664308,0.0906958
2.27845,0.179718,-0.106463
2.24791,0.06711,-0.117861
2.26435,0.178607,-0.0528539
2.2695,0.171841,0
2.20331,-0.0488446,-0.0256569
2.25301,0.0601789,-0.286881
2.23916,0.0598091,-0.0130187
2.21383,-0.0490778,-0.206708
2.20731,-0.0489333,0.0257035
2.27193,0.172025,-0.159324
2.24772,0.0600376,-0.183558
2.23486,0.0596942,0.0390236
2.21171,-0.0490308,-0.128836
2.22935,0.0595471,0.0908587
2.26705,0.171655,-0.105905
2.24013,0.0598348,-0.117442
2.2649,0.171493,-0.0528539
2.23045,0.0517852,-0.0649301
2.25081,0.0522577,-0.450285
2.26211,0.163341,0
2.20313,-0.0565359,-0.0256569
2.24924,0.0522214,-0.286376
2.24336,0.0520848,-0.0130419
2.2729,0.16412,-0.245466
2.21364,-0.0568058,-0.206708
2.20313,-0.0565359,0.0256569
2.27252,0.164093,-0.159324
2.24393,0.0520981,-0.183233
2.24305,0.0520778,0.0391632
2.29834,0.279351,-0.148382
2.20753,-0.056649,-0.128604
2.22955,0.0517642,0.0908587
2.26763,0.16374,-0.105905
2.24032,0.0520143,-0.117442
2.26549,0.163585,-0.0528539
2.23863,0.0433749,-0.0651628
2.25491,0.0436903,-0.45107
2.26272,0.154654,0
2.20689,-0.0651134,-0.0257035
2.24546,0.0435071,-0.285871
2.23954,0.0433925,-0.0130187
2.26955,0.15512,-0.245038
2.21341,-0.0653057,-0.206708
2.25812,0.154339,0.0526678
2.19889,-0.0648774,0.0256104
2.26915,0.155093,-0.159045
2.24013,0.0434038,-0.182907
2.23524,0.0433092,0.0390236
2.2073,-0.0651254,-0.128604
2.22574,0.043125,0.0906958
2.27223,0.155304,-0.106091
2.23651,0.0433338,-0.117233
2.27009,0.155157,-0.0529469
2.23876,0.0363422,-0.0651628
2.2632,0.147545,0
2.20667,-0.0720458,-0.0257035
2.24558,0.036453,-0.285871
2.23967,0.036357,-0.0130187
2.21319,-0.0722586,-0.206708
2.19868,-0.0717847,0.0256104
2.26963,0.147964,-0.159045
2.24025,0.0363665,-0.182907
2.23137,0.0362223,0.0389538
2.20309,-0.0719288,-0.128371
2.22586,0.0361329,0.0906958
2.26872,0.147905,-0.105905
2.24063,0.0363726,-0.117442
2.28572,0.252751,-0.0401405
2.22689,0.0275977,-0.0648137
2.2434,0.0278023,-0.448716
2.25975,0.138609,0
2.20238,-0.0803718,-0.0256569
2.24174,0.0277817,-0.285366
2.23179,0.0276585,-0.0129722
2.20892,-0.0806103,-0.206336
2.19839,-0.080226,0.0256104
2.27018,0.139249,-0.159045
2.23639,0.0277154,-0.182582
2.23149,0.0276547,0.0389538
2.19482,-0.0800957,-0.127906
2.21799,0.0274874,0.0903702
2.26927,0.139193,-0.105905
2.23276,0.0276705,-0.117023
2.28814,0.253019,-0.0937896
2.22297,0.019788,-0.0646974
2.26022,0.13072,0
2.19809,-0.0878999,-0.0256104
2.23785,0.0199205,-0.284861
2.23187,0.0198673,-0.0129722
2.26311,0.130887,-0.244181
2.19809,-0.0878999,0.0256104
2.26667,0.131093,-0.158766
2.23157,0.0198646,0.0389538
2.19851,-0.0879167,-0.128138
2.21408,0.0197088,0.0902073
2.25778,0.130578,-0.105346
2.23285,0.0198759,-0.117023
2.28504,0.244604,-0.0936268
2.25961,0.130685,-0.0526678
2.25263,0.123182,0
2.19381,-0.0946322,-0.0255638
2.24187,0.0129133,-0.285366
2.22393,0.0128099,-0.0129257
2.25953,0.123559,-0.243753
2.20038,-0.0949155,-0.205592
2.19781,-0.0948045,0.0256104
2.26308,0.123754,-0.158487
2.23254,0.0128595,-0.182256
2.22362,0.0128082,0.0388142
2.21812,0.0127765,0.0903702
2.25817,0.123485,-0.105346
2.22491,0.0128156,-0.116605
2.2858,0.237425,-0.0936268
2.25602,0.123367,-0.0525747
2.28418,0.2292,-0.0400707
2.26104,0.115727,0
2.19347,-0.10229,-0.0255638
2.23794,0.005078,-0.284861
2.23196,0.00506443,-0.0129722
2.25995,0.115671,-0.243753
2.20003,-0.102596,-0.205592
2.19347,-0.10229,0.0255638
2.25952,0.115649,-0.158208
2.22858,0.00505677,-0.181931
2.22366,0.00504559,0.0388142
2.28382,0.229164,-0.147102
2.19788,-0.102496,-0.128138
2.21815,0.00503311,0.0903702
2.26258,0.115805,-0.105533
2.22494,0.00504851,-0.116605
2.20865,0.00501154,0.180304
2.25244,0.115286,-0.0524816
2.285,0.220827,-0.0400707
2.22306,-0.00310321,-0.0646974
2.24946,0.10687,0
2.19707,-0.110529,-0.0256104
2.23397,-0.00311845,-0.284356
2.22796,-0.00311006,-0.0129489
2.25639,0.107199,-0.243325
2.19964,-0.110659,-0.205592
2.19308,-0.110328,0.0255638
2.25993,0.107367,-0.158208
2.2246,-0.00310536,-0.181606
2.22366,-0.00310405,0.0388142
2.18952,-0.110149,-0.127673
2.21816,-0.00309637,0.0903702
2.259,0.107323,-0.105346
2.22894,-0.00311142,-0.116814
2.20865,-0.0030831,0.180304
2.27948,0.220293,-0.0933011
2.24885,0.106841,-0.0523886
2.28576,0.212849,-0.0400707
2.21104,-0.0108051,-0.0643483
2.2357,-0.0109256,-0.447147
2.25781,0.0993681,0
2.19268,-0.117983,-0.0255638
2.22601,-0.0108783,-0.283346
2.21594,-0.010829,-0.0128792
2.25278,0.0991463,-0.242896
2.19129,-0.117909,-0.204849
2.18869,-0.117769,0.0255173
2.2563,0.0993015,-0.157929
2.22059,-0.0108517,-0.18128
2.21964,-0.0108471,0.0387443
2.28143,0.212445,-0.146847
2.18513,-0.117577,-0.127441
2.21014,-0.0108007,0.0900445
2.25537,0.0992605,-0.10516
2.22492,-0.0108729,-0.116605
2.21261,-0.0108128,0.180629
2.27626,0.211963,-0.0931383
2.27849,0.204553,-0.0399311
2.21099,-0.0181367,-0.0643483
2.25014,0.0915556,0
2.19228,-0.125254,-0.0255638
2.22596,-0.0182595,-0.283346
2.21989,-0.0182096,-0.0129024
2.25309,0.0916758,-0.242896
2.19089,-0.125174,-0.204849
2.18429,-0.124797,0.0254707
2.25263,0.091657,-0.15765
2.22452,-0.0182477,-0.181606
2.21559,-0.0181744,0.0386745
2.27815,0.204522,-0.146591
2.2061,-0.0180965,0.0898817
2.25169,0.0916189,-0.104974
2.21289,-0.0181522,-0.115976
2.20459,-0.0180842,0.179978
2.28093,0.204772,-0.0933011
2.24154,0.0912057,-0.0522025
2.28321,0.196543,-0.0400009
2.21091,-0.0262408,-0.0643483
2.24246,0.0830113,0
2.18382,-0.132803,-0.0254707
2.22588,-0.0264185,-0.283346
2.21581,-0.0262989,-0.0128792
2.25341,0.0834166,-0.242896
2.19041,-0.133204,-0.204849
2.18382,-0.132803,0.0254707
2.25295,0.0833995,-0.15765
2.21551,-0.0262954,0.0386745
2.27888,0.19617,-0.146591
2.18824,-0.133072,-0.127673
2.20202,-0.0261353,0.0897188
2.25201,0.0833648,-0.104974
2.20052,-0.0261175,0.179653
2.2737,0.195724,-0.0929754
2.24186,0.0829888,-0.0522025
2.27989,0.188243,-0.0399311
2.24674,0.0753176,0
2.17935,-0.140168,-0.0254241
2.22181,-0.0341267,-0.282841
2.2197,-0.0340943,-0.0129024
2.24972,0.0754174,-0.242468
2.18199,-0.140337,-0.204105
2.24613,0.0752973,0.0522955
2.18733,-0.140681,0.0255173
2.24525,0.0752678,-0.157092
2.2114,-0.0339669,0.0386047
2.27557,0.187886,-0.146335
2.1798,-0.140196,-0.127208
2.20591,-0.0338825,0.0898817
2.2483,0.0753699,-0.104788
2.20871,-0.0339255,-0.115767
2.20042,-0.0337982,0.179653
2.27038,0.187458,-0.0928126
2.23814,0.0750293,-0.0521094
2.2725,0.180446,-0.0397915
2.21468,-0.0409775,-0.0644646
2.24297,0.0681368,0
2.1789,-0.147014,-0.0254241
2.21772,-0.0410338,-0.282336
2.26085,0.179521,0.0131814
2.21558,-0.0409942,-0.0128792
2.24597,0.068228,-0.242039
2.18948,-0.147728,-0.204849
2.18289,-0.147284,0.0254707
2.24548,0.0682132,-0.157092
2.20729,-0.0408407,0.0385349
2.27217,0.18042,-0.146079
2.18333,-0.147313,-0.127441
2.23119,0.0677791,0.129999
2.20579,-0.040813,0.0898817
2.25252,0.068427,-0.104974
2.21258,-0.0409387,-0.115976
2.20429,-0.0407852,0.179978
2.27495,0.18064,-0.0929754
2.27315,0.172116,-0.0397915
2.20253,-0.0488281,-0.0641155
2.2432,0.059916,0
2.22153,-0.0492493,-0.282841
2.26548,0.171535,0.0132047
2.21142,-0.0490253,-0.012856
2.24223,0.05989,-0.241611
2.18098,-0.155186,-0.204105
2.24571,0.0599831,-0.157092
2.21608,-0.0491286,-0.180955
2.20312,-0.0488414,0.0384651
2.27282,0.172091,-0.146079
2.17481,-0.154747,-0.126976
2.23142,0.0596014,0.129999
2.20563,-0.0488969,0.0898817
2.24077,0.0598511,-0.104416
2.21242,-0.0490475,-0.115976
2.19615,-0.0486868,0.179327
2.26762,0.171698,-0.0926498
2.2306,0.0595795,-0.0519233
2.27769,0.164865,-0.0398613
2.20635,-0.0562339,-0.0642319
2.23539,0.0522895,0
2.18181,-0.162519,-0.0254707
2.21738,-0.0565152,-0.282336
2.26204,0.163733,0.0131814
2.21124,-0.0563587,-0.012856
2.24241,0.0524538,-0.241611
2.17648,-0.162123,-0.203733
2.24278,0.0524624,0.0522025
2.17782,-0.162222,0.0254241
2.24191,0.0524421,-0.156813
2.21192,-0.056376,-0.180629
2.20295,-0.0561473,0.0384651
2.2694,0.164265,-0.145823
2.17428,-0.161959,-0.126976
2.2356,0.0522944,0.130231
2.19746,-0.0560075,0.089556
2.23297,0.0522329,-0.104044
2.19598,-0.0559696,0.179327
2.27217,0.164465,-0.0928126
2.23478,0.0522753,-0.0520164
2.27033,0.155572,-0.0397217
2.19812,-0.0644708,-0.0639992
2.23557,0.0437059,0
2.17319,-0.170271,-0.0253776
2.21715,-0.0650289,-0.282336
2.26266,0.155046,0.0131814
2.20302,-0.0646143,-0.0128095
2.2426,0.0438432,-0.241611
2.17584,-0.170478,-0.203733
2.17718,-0.170583,0.0254241
2.23811,0.0437554,-0.156534
2.20372,-0.0646349,-0.179978
2.20672,-0.0647228,0.0385349
2.27001,0.15555,-0.145823
2.16966,-0.169994,-0.126743
2.2278,0.0435539,0.129766
2.19324,-0.0643275,0.0893932
2.23715,0.0437366,-0.10423
2.20003,-0.0645268,-0.115348
2.18778,-0.0641674,0.178676
2.26082,0.15492,-0.0923241
2.22697,0.0435377,-0.0518303
2.27086,0.147646,-0.0397217
2.19789,-0.0721433,-0.0639992
2.23571,0.035902,0
2.17657,-0.178182,-0.0254241
2.20898,-0.0725074,-0.281326
2.2552,0.146628,0.0131349
2.21077,-0.0725663,-0.012856
2.23876,0.0359509,-0.241183
2.17524,-0.178072,-0.203733
2.17258,-0.177855,0.0253776
2.23825,0.0359427,-0.156534
2.19848,-0.0721629,0.0383953
2.26257,0.147107,-0.145312
2.17304,-0.177892,-0.126976
2.19699,-0.0721141,0.089556
2.24128,0.0359914,-0.104416
2.19979,-0.072206,-0.115348
2.18754,-0.0718038,0.178676
2.25736,0.146768,-0.0921613
2.23111,0.0358281,-0.0519233
2.25934,0.13977,-0.0395123
2.19365,-0.0789041,-0.0638828
2.22781,0.0287748,0
2.176,-0.185019,-0.0254241
2.25166,0.139295,0.0131117
2.20254,-0.0792237,-0.0128095
2.17466,-0.184905,-0.203733
2.17201,-0.18468,0.0253776
2.23436,0.0288593,-0.156255
2.19926,-0.0791057,-0.179653
2.25473,0.139485,0.0657446
2.19824,-0.0790692,0.0383953
2.25904,0.139752,-0.145056
2.22804,0.0287777,0.129766
2.19676,-0.0790157,0.089556
2.24138,0.0289501,-0.104416
2.1873,-0.0786758,0.178676
2.23121,0.0288187,-0.0519233
2.25983,0.131488,-0.0395123
2.19335,-0.0869437,-0.0638828
2.22791,0.0206093,0
2.17132,-0.19264,-0.0253776
2.23699,0.0206933,-0.348039
2.25215,0.131041,0.0131117
2.20223,-0.0872959,-0.0128095
2.231,0.0206379,-0.240326
2.17001,-0.192523,-0.203362
2.2313,0.0206407,0.0519233
2.23445,0.0206698,-0.156255
2.24725,0.130756,0.0655119
2.19394,-0.0869673,0.0383255
2.25954,0.131471,-0.145056
2.22414,0.0205744,0.129534
2.19246,-0.0869084,0.0893932
2.24147,0.0207348,-0.104416
2.19925,-0.0871777,-0.115348
2.18302,-0.0865342,0.178351
2.2583,0.131399,-0.0921613
2.2273,0.0206037,-0.0518303
2.26427,0.123818,-0.0395821
2.18904,-0.0944271,-0.0637664
2.22396,0.0128093,0
2.17064,-0.200218,-0.0253776
2.20019,-0.094908,-0.280315
2.2526,0.123179,0.0131117
2.19792,-0.0948102,-0.0127862
2.23503,0.012873,-0.240754
2.16535,-0.19973,-0.20299
2.17064,-0.200218,0.0253776
2.23052,0.012847,-0.155975
2.19863,-0.0948411,-0.179653
2.25168,0.123129,0.0656282
2.20162,-0.0949697,0.0384651
2.25599,0.123365,-0.1448
2.16314,-0.199526,-0.126511
2.2202,0.0127876,0.129301
2.18416,-0.0942165,0.0890675
2.22955,0.0128414,-0.103857
2.19095,-0.0945097,-0.11493
2.18669,-0.0943257,0.178676
2.25875,0.123516,-0.0921613
2.22336,0.0128058,-0.0517372
2.2567,0.115504,-0.0394424
2.22399,0.00504609,0
2.25301,0.115315,0.0131117
2.19757,-0.102482,-0.0127862
2.22711,0.00505317,-0.239897
2.16464,-0.207288,-0.20299
2.16196,-0.207031,0.0252844
2.22656,0.00505191,-0.155696
2.19431,-0.102329,-0.179327
2.24411,0.11486,0.0653955
2.19328,-0.102282,0.0383255
2.2604,0.115693,-0.145056
2.16243,-0.207075,-0.126511
2.21624,0.0050285,0.129069
2.18781,-0.102026,0.0892304
2.23357,0.00506783,-0.104044
2.18236,-0.101772,0.178351
2.25917,0.11563,-0.0921613
2.21939,0.00503566,-0.0516442
2.25707,0.10802,-0.0394424
2.18435,-0.109126,-0.0636501
2.22,-0.00232478,0
2.16524,-0.214594,-0.025331
2.2414,0.10727,0.0130419
2.19323,-0.109569,-0.012763
2.22712,-0.00233223,-0.239897
2.2274,-0.00233253,0.0518303
2.16524,-0.214594,0.025331
2.23055,-0.00233583,-0.155975
2.18997,-0.109407,-0.179002
2.24448,0.107417,0.0653955
2.18494,-0.109155,0.0381859
2.25279,0.107815,-0.144544
2.16173,-0.214245,-0.126511
2.21225,-0.00231666,0.128836
2.18746,-0.109281,0.0892304
2.22958,-0.00233481,-0.103857
2.18627,-0.109221,-0.11472
2.17803,-0.10881,0.178025
2.2154,-0.00231996,-0.0515511
2.25745,0.0997468,-0.0394424
2.18793,-0.117345,-0.0637664
2.21198,-0.0104238,0
2.16444,-0.222528,-0.025331
2.24577,0.0992306,0.0130652
2.19281,-0.117607,-0.012763
2.22312,-0.0104763,-0.239469
2.22337,-0.0104775,0.0517372
2.16444,-0.222528,0.025331
2.22654,-0.0104924,-0.155696
2.18956,-0.117432,-0.179002
2.24486,0.0991903,0.0653955
2.18852,-0.117377,0.0382557
2.24919,0.0993816,-0.144288
2.15696,-0.221758,-0.126278
2.21223,-0.0104249,0.128836
2.18704,-0.117297,0.0892304
2.22956,-0.0105066,-0.103857
2.18585,-0.117234,-0.11472
2.17762,-0.116792,0.178025
2.24395,0.0991501,-0.09151
2.21937,-0.0104586,-0.0516442
2.2458,0.0913784,-0.039233
2.18351,-0.124754,-0.0636501
2.21593,-0.0181777,0
2.15968,-0.229659,-0.0252844
2.24211,0.0912282,0.0130419
2.19239,-0.125261,-0.012763
2.22307,-0.0182363,-0.239469
2.15839,-0.229523,-0.202618
2.21533,-0.0181728,0.0515511
2.16365,-0.230082,0.025331
2.23447,-0.0183299,-0.156255
2.2372,0.0910286,0.0651628
2.1881,-0.125015,0.0382557
2.24952,0.0915298,-0.144288
2.20818,-0.0181142,0.128604
2.18263,-0.124703,0.0890675
2.22551,-0.0182564,-0.103671
2.18144,-0.124635,-0.114511
2.1772,-0.124393,0.178025
2.24827,0.0914791,-0.0916728
2.21533,-0.0181728,-0.0515511
2.24609,0.0839306,-0.039233
2.1791,-0.131752,-0.0635337
2.21185,-0.0254799,0
2.16288,-0.237256,-0.025331
2.1903,-0.132429,-0.279305
2.24639,0.083942,0.0130652
2.18797,-0.132289,-0.0127397
2.21925,-0.0255651,0.0516442
2.21844,-0.0255557,-0.155138
2.19269,-0.132574,-0.179327
2.24548,0.0839079,0.0653955
2.18368,-0.132029,0.0381859
2.24981,0.0840696,-0.144288
2.20811,-0.0254368,0.128604
2.18619,-0.132181,0.0892304
2.21745,-0.0255443,-0.103299
2.18102,-0.131869,-0.114511
2.17279,-0.131371,0.1777
2.25256,0.0841723,-0.0918356
2.21125,-0.025473,-0.0514581
2.23837,0.075819,-0.0390934
2.17463,-0.139103,-0.0634174
2.21575,-0.0332605,0
2.16204,-0.244804,-0.025331
2.18982,-0.140074,-0.279305
2.24268,0.0759647,0.0130419
2.18749,-0.139925,-0.0127397
2.22289,-0.0333677,-0.239469
2.21115,-0.0331915,0.0514581
2.14614,-0.243004,0.0251447
2.21833,-0.0332993,-0.155138
2.23377,0.0756631,0.0650464
2.17921,-0.139396,0.0381161
2.24211,0.0759456,-0.143777
2.20801,-0.0331443,0.128604
2.18173,-0.139557,0.0890675
2.22134,-0.0333445,-0.103485
2.19527,-0.032953,0.269575
2.17232,-0.138955,0.1777
2.24085,0.075903,-0.0913472
2.21115,-0.0331915,-0.0514581
2.25062,0.0683695,-0.0393028
2.20362,-0.0407728,0
2.15322,-0.251422,-0.0252379
2.23093,0.0677714,0.0129722
2.21481,-0.0409797,-0.238612
2.21102,-0.0409097,0.0514581
2.14925,-0.250958,0.0251913
2.21022,-0.0408949,-0.15458
2.17472,-0.146733,0.0380462
2.24236,0.0681187,-0.143777
2.1959,-0.0406299,0.127906
2.18123,-0.147171,0.0890675
2.22121,-0.0410982,-0.103485
2.16387,-0.146,0.177049
2.20703,-0.0408357,-0.051365
2.23884,0.0605812,-0.0390934
2.17364,-0.153902,-0.0634174
2.19948,-0.0479927,0
2.15635,-0.259038,-0.0252844
2.23514,0.0604812,0.0129954
2.21466,-0.048324,-0.238612
2.21487,-0.0483287,0.0515511
2.15238,-0.258561,0.0252379
2.20609,-0.048137,-0.154301
2.22624,0.0602403,0.0648137
2.17024,-0.153661,0.0379764
2.19975,-0.0479987,0.128138
2.17674,-0.154121,0.0889047
2.22106,-0.0484638,-0.103485
2.18705,-0.0477216,0.2686
2.16735,-0.153456,0.177375
2.23732,0.0605402,-0.0911843
2.21088,-0.0482415,-0.0514581
2.24304,0.0524686,-0.0391632
2.20728,-0.0562577,0
2.14745,-0.265956,-0.0251913
2.23135,0.0521951,0.0129722
2.17793,-0.16223,-0.0126932
2.21049,-0.0563395,-0.238184
2.15142,-0.266448,0.0252379
2.20988,-0.056324,-0.15458
2.17472,-0.161991,-0.178025
2.22645,0.0520804,0.0648137
2.17365,-0.161911,0.0380462
2.2348,0.0522758,-0.143265
2.19956,-0.0560608,0.128138
2.17218,-0.161802,0.0887419
2.21688,-0.0565022,-0.103299
2.171,-0.161714,-0.114092
2.1948,-0.0559396,0.269575
2.17472,-0.161991,0.178025
2.23753,0.0523396,-0.0911843
2.19869,-0.0560387,-0.0511789
2.22722,0.0443203,-0.038884
2.20307,-0.0638464,0
2.14254,-0.272945,-0.0251447
2.23152,0.0444059,0.0129722
2.17735,-0.169832,-0.0126932
2.21028,-0.0640552,-0.238184
2.21047,-0.0640608,0.0514581
2.14651,-0.273451,0.0251913
2.21366,-0.0641532,-0.154859
2.17414,-0.169582,-0.178025
2.23061,0.0443878,0.0649301
2.17706,-0.169809,0.0381161
2.19137,-0.063507,0.127673
2.1716,-0.169383,0.0887419
2.20868,-0.0640087,-0.102927
2.19459,-0.0636005,0.269575
2.2377,0.0445289,-0.0911843
2.23536,0.0366768,-0.0390236
2.19484,-0.0712765,0
2.1495,-0.281461,-0.0252379
2.17913,-0.177626,-0.278295
2.23166,0.0366161,0.0129722
2.18073,-0.177756,-0.0127165
2.20607,-0.071641,-0.237755
2.14157,-0.280422,0.0251447
2.17354,-0.17717,-0.178025
2.22276,0.0364701,0.0646974
2.17246,-0.177082,0.0380462
2.23511,0.0366728,-0.143265
2.19512,-0.0712855,0.127906
2.16701,-0.176638,0.0885791
2.20844,-0.0717181,-0.102927
2.23385,0.036652,-0.0910215
2.20224,-0.0715168,-0.051272
2.23547,0.0288737,-0.0390236
2.19458,-0.0789375,0
2.14058,-0.287896,-0.0251447
2.22378,0.0287226,0.0129257
2.20183,-0.0791983,-0.237327
2.20198,-0.0792036,0.051272
2.14058,-0.287896,0.0251447
2.2012,-0.0791755,-0.154022
2.21888,0.0286593,0.064581
2.16785,-0.184326,0.0379764
2.22724,0.0287674,-0.142753
2.1371,-0.287429,-0.12558
2.19486,-0.0789475,0.127906
2.1624,-0.183862,0.0884162
2.20019,-0.0791393,-0.102555
2.19798,-0.0790599,-0.0511789
2.22756,0.0213837,-0.038884
2.19431,-0.0862145,0
2.13961,-0.294993,-0.0251447
2.22386,0.0213482,0.0129257
2.17549,-0.192243,-0.0126932
2.20156,-0.0864994,-0.237327
2.2017,-0.0865052,0.051272
2.13961,-0.294993,0.0251447
2.20092,-0.0864745,-0.154022
2.21896,0.0213011,0.064581
2.16722,-0.191513,0.0379764
2.22733,0.0213815,-0.142753
2.13614,-0.294514,-0.12558
2.19459,-0.0862255,0.127906
2.16178,-0.191032,0.0884162
2.20391,-0.0865918,-0.102741
2.22205,0.0213308,-0.090533
2.19371,-0.0861912,-0.0510859
2.22362,0.0131954,-0.0388142
2.19398,-0.0942565,0
2.14248,-0.303394,-0.0251913
2.21992,0.0131734,0.0129024
2.17078,-0.199849,-0.01267
2.20137,-0.0945743,0.051272
2.13852,-0.302833,0.0251447
2.20059,-0.0945407,-0.154022
2.21502,0.0131444,0.0644646
2.16651,-0.199455,0.0379764
2.19027,-0.0940971,0.127673
2.16902,-0.199687,0.0887419
2.20757,-0.0948404,-0.102927
2.22611,0.0132102,-0.0906958
2.19338,-0.094231,-0.0510859
2.22365,0.00582155,-0.0388142
2.18566,-0.101162,0
2.14146,-0.310497,-0.0251913
2.22396,0.00582233,0.0129257
2.17011,-0.207046,-0.01267
2.19693,-0.101683,-0.236899
2.19306,-0.101504,0.0510859
2.12959,-0.308775,0.0250516
2.16295,-0.206363,-0.177375
2.21505,0.00579903,0.0644646
2.16185,-0.206259,0.0379066
2.22343,0.00582096,-0.142497
2.18595,-0.101175,0.127441
2.16039,-0.206119,0.0884162
2.22215,0.00581761,-0.090533
2.18906,-0.101319,-0.0509928
2.22766,-0.001944,-0.038884
2.18529,-0.10879,0
2.14036,-0.31797,-0.0251913
2.21996,-0.00193728,0.0129024
2.16539,-0.214227,-0.0126467
2.19259,-0.109153,-0.23647
2.19269,-0.109159,0.0510859
2.18794,-0.108922,-0.153185
2.21106,-0.00192952,0.0643483
2.1651,-0.214198,0.0379764
2.22743,-0.0019438,-0.142753
2.1816,-0.108606,0.127208
2.15966,-0.213659,0.0884162
2.19091,-0.10907,-0.102182
2.1887,-0.10896,-0.0509928
2.22764,-0.00971997,-0.038884
2.1889,-0.116631,0
2.12738,-0.323635,-0.0250516
2.21594,-0.00966892,0.0128792
2.16861,-0.222192,-0.01267
2.1923,-0.116812,0.0510859
2.19552,-0.116983,-0.153743
2.20704,-0.0096301,0.0642319
2.16434,-0.221754,0.0379764
2.21943,-0.00968413,-0.142242
2.12787,-0.32371,-0.125348
2.18519,-0.116433,0.127441
2.1589,-0.221196,0.0884162
2.19849,-0.117142,-0.102555
2.21414,-0.00966107,-0.0902073
2.18431,-0.116386,-0.0508998
2.21559,-0.0174016,-0.0386745
2.15104,-0.227981,-0.0629519
2.18049,-0.123817,0
2.13019,-0.331674,-0.0250982
2.21989,-0.0174354,0.0129024
2.16384,-0.229339,-0.0126467
2.19187,-0.124464,0.0510859
2.15671,-0.228582,-0.177049
2.203,-0.0173027,0.0641155
2.1556,-0.228464,0.0378368
2.21539,-0.0174,-0.141986
2.1768,-0.123608,0.126976
2.15016,-0.227889,0.0880906
2.19807,-0.124816,-0.102555
2.21409,-0.0173898,-0.0902073
2.1799,-0.123784,-0.0508067
2.21152,-0.02509,-0.0386047
2.18004,-0.131428,0
2.12902,-0.339108,-0.0250982
2.21582,-0.0251388,0.0128792
2.15905,-0.236455,-0.0126235
2.18344,-0.131633,0.0508998
2.1827,-0.131588,-0.152906
2.20692,-0.0250378,0.0642319
2.15479,-0.235987,0.0378368
2.21132,-0.0250877,-0.14173
2.16838,-0.130725,0.126511
2.15333,-0.235828,0.0882534
2.18566,-0.131766,-0.101996
2.21002,-0.025073,-0.0900445
2.18344,-0.131633,-0.0508998
2.21142,-0.0328095,-0.0386047
2.17957,-0.139037,0
2.12387,-0.345895,-0.0250516
2.21172,-0.0328139,0.012856
2.15822,-0.24399,-0.0126235
2.17898,-0.138999,0.0508067
2.18621,-0.13946,-0.153185
2.20682,-0.0327413,0.0642319
2.14998,-0.243058,0.037767
2.21122,-0.0328065,-0.14173
2.16791,-0.138293,0.126511
2.15646,-0.243792,0.0884162
2.1812,-0.13914,-0.10181
2.21392,-0.0328466,-0.0902073
2.18297,-0.139254,-0.0508998
2.20729,-0.0404553,-0.0385349
2.17109,-0.146107,0
2.15983,-0.251811,-0.27678
2.20759,-0.0404608,0.0128327
2.15735,-0.251522,-0.0126235
2.18241,-0.146869,-0.235614
2.17848,-0.146604,0.0508067
2.14911,-0.250562,0.037767
2.2071,-0.0404518,-0.141474
2.17539,-0.146396,0.126976
2.18468,-0.147022,-0.101996
2.2058,-0.0404279,-0.0898817
2.18646,-0.147141,-0.0509928
2.20714,-0.0481599,-0.0385349
2.17456,-0.153967,0
2.20744,-0.0481665,0.0128327
2.15646,-0.259051,-0.0126235
2.18188,-0.154486,-0.235614
2.17796,-0.154208,0.0508067
2.19855,-0.0479724,0.0639992
2.14823,-0.258062,0.037767
2.17486,-0.153988,0.126976
2.17619,-0.154082,-0.101624
2.18593,-0.154772,-0.0509928
2.20296,-0.0557628,-0.0384651
2.17002,-0.16126,0
2.19926,-0.0556691,0.0127862
2.15157,-0.266086,-0.0126002
2.18139,-0.162106,0.0508998
2.19437,-0.0555453,0.0638828
2.13937,-0.264577,0.0376274
2.16635,-0.160987,0.126511
2.17564,-0.161678,-0.101624
2.17741,-0.161809,-0.0508067
2.20275,-0.0634522,-0.0384651
2.16545,-0.168523,0
2.20305,-0.0634608,0.0128095
2.14666,-0.27309,-0.012577
2.17683,-0.169409,0.0508067
2.17211,-0.169042,-0.152348
2.19016,-0.0630896,0.0637664
2.14637,-0.273053,0.037767
2.15781,-0.167929,0.126045
2.13979,-0.272216,-0.113046
2.20126,-0.0634093,-0.0897188
2.16885,-0.168788,-0.0506206
2.19854,-0.0702443,-0.0383953
2.16491,-0.175326,0
2.19884,-0.0702538,0.0127862
2.14976,-0.28035,-0.0126002
2.1723,-0.175924,0.0507136
2.14267,-0.279425,-0.176398
2.19395,-0.0700976,0.0638828
2.14154,-0.279277,0.0376972
2.15727,-0.174707,0.126045
2.17452,-0.176103,-0.101624
2.19706,-0.0701968,-0.089556
2.16831,-0.175601,-0.0506206
2.19429,-0.0777766,-0.0383255
2.19858,-0.0779288,0.0127862
2.1448,-0.287321,-0.012577
2.16769,-0.183169,0.0506206
2.16697,-0.183108,-0.152069
2.1897,-0.0776139,0.0637664
2.14451,-0.287282,0.037767
2.19811,-0.077912,-0.140962
2.16461,-0.182908,0.126511
2.16991,-0.183356,-0.101438
2.1968,-0.0778655,-0.089556
2.16769,-0.183169,-0.0506206
2.19798,-0.0859748,-0.0383953
2.15962,-0.190461,0
2.19428,-0.0858301,0.012763
2.13977,-0.294635,-0.0125537
2.17097,-0.191462,-0.234757
2.167,-0.191112,0.0506206
2.1894,-0.085639,0.0637664
2.19382,-0.0858119,-0.140707
2.16392,-0.190841,0.126511
2.16524,-0.190957,-0.101252
2.1965,-0.0859167,-0.089556
2.17098,-0.191464,-0.0507136
2.1897,-0.092924,-0.0382557
2.19399,-0.0931062,0.012763
2.14275,-0.302287,-0.012577
2.16635,-0.198297,0.0506206
2.16564,-0.198232,-0.152069
2.1891,-0.0928988,0.0637664
2.15532,-0.197288,0.126045
2.17255,-0.198865,-0.101624
2.16635,-0.198297,-0.0506206
2.18936,-0.100567,-0.0382557
2.15429,-0.204778,0
2.19365,-0.100764,0.012763
2.1298,-0.308048,-0.0125072
2.16963,-0.206237,0.0507136
2.16493,-0.20579,-0.152069
2.18876,-0.10054,0.0637664
2.15462,-0.20481,0.126045
2.16389,-0.205691,-0.101252
2.19187,-0.100682,-0.0893932
2.16167,-0.20548,-0.0505275
2.19327,-0.108804,0.012763
2.13657,-0.317026,-0.0125537
2.1609,-0.213401,0.0505275
2.18039,-0.108165,0.0635337
2.15914,-0.213228,-0.101066
2.18749,-0.108517,-0.0892304
2.1609,-0.213401,-0.0505275
2.18459,-0.116019,-0.0381859
2.18888,-0.116247,0.0127397
2.13545,-0.324482,-0.0125537
2.16412,-0.22135,0.0506206
2.18799,-0.116199,0.0637664
2.18842,-0.116222,-0.140451
2.15441,-0.220357,-0.100879
2.18311,-0.11594,-0.0890675
2.15616,-0.220536,-0.0504345
2.18821,-0.123106,-0.0382557
2.14809,-0.226531,0
2.18052,-0.122673,0.0126932
2.15944,-0.227728,0.0505275
2.17963,-0.122623,0.0635337
2.15768,-0.227543,-0.101066
2.15944,-0.227728,-0.0505275
2.18377,-0.130505,-0.0381859
2.14728,-0.234028,0
2.18407,-0.130523,0.0127165
2.11745,-0.336129,-0.0124607
2.17919,-0.130231,0.0635337
2.15688,-0.235073,-0.101066
2.18229,-0.130417,-0.0890675
2.15465,-0.234831,-0.0504345
2.17527,-0.138381,-0.0380462
2.15034,-0.24272,0
2.17956,-0.138654,0.0126932
2.15374,-0.243103,0.0504345
2.18266,-0.138851,0.0636501
2.15199,-0.242905,-0.100879
2.18178,-0.138795,-0.0890675
2.14976,-0.242654,-0.0503414
2.18281,-0.145747,-0.0381859
2.17911,-0.1455,0.0126932
2.14899,-0.249407,0.0503414
2.17823,-0.145441,0.0635337
2.14724,-0.249204,-0.100693
2.18532,-0.145915,-0.0892304
2.14502,-0.248946,-0.0502484
2.17032,-0.152525,-0.0379764
2.18258,-0.153386,0.0127165
2.15208,-0.257382,0.0504345
2.16973,-0.152483,0.063301
2.17815,-0.153075,-0.139939
2.14811,-0.256907,-0.0503414
2.1737,-0.161153,-0.0380462
2.174,-0.161174,0.01267
2.15107,-0.265643,0.0504345
2.16913,-0.160813,0.063301
2.17356,-0.161142,-0.139683
2.14536,-0.264937,-0.100693
2.14314,-0.264663,-0.0502484
2.17313,-0.168739,-0.0380462
2.13484,-0.271208,0
2.17342,-0.168762,0.01267
2.15013,-0.27315,0.0504345
2.16855,-0.168384,0.063301
2.15235,-0.273432,-0.101066
2.14617,-0.272646,-0.0503414
2.16461,-0.174921,-0.0379066
2.13398,-0.277913,0
2.17288,-0.175589,0.01267
2.16801,-0.175196,0.063301
2.13959,-0.278644,-0.100507
2.14133,-0.278871,-0.0502484
2.16794,-0.18319,-0.0379764
2.17621,-0.183889,0.0126932
2.16337,-0.182804,0.0631846
2.17046,-0.183403,-0.0887419
2.13633,-0.286186,-0.0501553
2.16729,-0.190757,-0.0379764
2.16758,-0.190783,0.0126467
2.15874,-0.190004,0.0630683
2.16184,-0.190277,-0.0884162
2.13532,-0.293642,-0.0501553
2.17461,-0.198671,-0.0381161
2.12699,-0.299686,0
2.16296,-0.197606,0.0126235
2.15411,-0.196798,0.0629519
2.1383,-0.301279,-0.0502484
2.16196,-0.205127,-0.0379066
2.16225,-0.205155,0.0126235
2.15341,-0.204316,0.0629519
2.13154,-0.307919,-0.100321
2.15725,-0.212281,-0.0378368
2.12485,-0.314528,0
2.16152,-0.212701,0.0126235
2.13151,-0.315515,-0.150674
2.15269,-0.211831,0.0629519
2.12823,-0.315028,-0.0500623
2.16044,-0.220592,-0.0379066
2.11973,-0.321714,0
2.16073,-0.220622,0.0126235
2.15587,-0.220126,0.0630683
2.13101,-0.323427,-0.0501553
2.15174,-0.226916,-0.037767
2.15999,-0.227786,0.0126235
2.15116,-0.226855,0.0629519
2.12993,-0.330492,-0.0501553
2.15884,-0.235669,-0.0379066
2.15118,-0.234833,0.012577
2.14236,-0.23387,0.0627192
2.14944,-0.234642,-0.0880906
2.12475,-0.337668,-0.0500623
2.15412,-0.242004,-0.0378368
2.15044,-0.24159,0.012577
2.14956,-0.241492,0.0629519
2.14929,-0.249061,-0.037767
2.14958,-0.249095,0.012577
2.14871,-0.248994,0.0629519
2.14046,-0.255614,-0.0376274
2.1487,-0.256597,0.012577
2.14782,-0.256493,0.0629519
2.11334,-0.357824,-0.0498762
2.14348,-0.263946,-0.0376972
2.15171,-0.264959,0.0126002
2.14255,-0.271426,-0.0376972
2.14284,-0.271463,0.0125537
2.13762,-0.278387,-0.0376274
2.13394,-0.277908,0.0125072
2.13272,-0.284945,-0.0375576
2.14094,-0.286043,0.0125537
2.13568,-0.292931,-0.0376274
2.13993,-0.293514,0.0125537
2.13459,-0.300757,-0.0376274
2.1428,-0.301913,0.012577
2.13353,-0.308206,-0.0376274
2.12986,-0.307676,0.0125072
2.12458,-0.314109,-0.0374878
2.10082,-0.416354,-0.0997627
2.12485,-0.329324,-0.0876021
2.12117,-0.33634,-0.0374878
2.11999,-0.343742,-0.0374878
2.11883,-0.350771,-0.0374878
