2.15502,0.195363,-0.0251913
2.14772,0.187145,-0.0250982
2.15616,0.187881,-0.126045
2.14042,0.178607,-0.025005
2.15286,0.179645,-0.125813
2.141,0.171508,-0.025005
2.1415,0.171549,-0.125115
2.12967,0.162374,0.0248654
2.14612,0.163628,-0.125348
2.1222,0.1551,0.0247722
2.14265,0.156594,-0.125115
2.11873,0.147413,-0.0247257
2.11474,0.147135,0.0246791
2.12724,0.148005,-0.124185
2.11128,0.139121,-0.0246325
2.11128,0.139121,0.0246325
2.11582,0.13942,-0.123487
2.10374,0.131619,-0.0245394
2.11465,0.132301,-0.197785
2.11627,0.132402,-0.123487
2.09223,0.123202,-0.0243997
2.1191,0.124784,-0.198157
2.09223,0.123202,0.0243997
2.11674,0.124645,-0.123487
2.11157,0.116945,-0.197413
2.08866,0.115676,0.0243531
2.09723,0.116151,-0.122325
2.08502,0.108906,-0.0243066
2.10795,0.110104,-0.197041
2.08502,0.108906,0.0243066
2.09359,0.109354,-0.122092
2.08139,0.101434,-0.02426
2.08843,0.101777,-0.195183
2.08538,0.101629,0.0243066
2.08599,0.101658,-0.121627
2.07376,0.093443,-0.0241669
2.08879,0.0941205,-0.195183
2.07775,0.093623,0.0242135
2.08236,0.0938305,-0.121394
2.06208,0.0857068,-0.0240272
2.08513,0.0866647,-0.194811
2.07007,0.086039,0.0241203
2.07469,0.0862309,-0.120929
2.16414,0.196192,-0.113883
2.05838,0.0779954,-0.0239806
2.15981,0.187819,-0.0126002
2.08145,0.0788694,-0.194439
2.06638,0.0782982,0.0240738
2.071,0.0784735,-0.120697
2.15689,0.187565,-0.113464
2.05062,0.071251,-0.0238875
2.07771,0.0721921,-0.194067
2.06262,0.0716677,0.0240272
2.06326,0.0716899,-0.120232
2.15349,0.180455,-0.113255
2.05087,0.063735,-0.0238875
2.07,0.0643294,-0.193324
2.05887,0.0639835,0.0239806
2.05552,0.0638796,-0.119766
2.15812,0.17288,-0.113464
2.04307,0.0567113,-0.0237944
2.12571,0.163191,-0.012391
2.05427,0.0570221,-0.191837
2.04707,0.0568222,0.0238409
2.05173,0.0569516,-0.119534
2.13876,0.164193,-0.112418
2.03926,0.0494826,-0.0237478
2.12627,0.15577,-0.012391
2.05048,0.0497548,-0.191465
2.04326,0.0495797,0.0237944
2.13516,0.156422,-0.174771
2.04393,0.049596,-0.119069
2.13534,0.156435,-0.112208
2.11399,0.147083,-0.0616719
2.03143,0.0418428,-0.0236547
2.12682,0.147976,-0.012391
2.05065,0.0422386,-0.191465
2.03943,0.0420075,0.0237478
2.13174,0.148318,-0.174445
2.11855,0.1474,0.0370689
2.0441,0.0421038,-0.119069
2.13191,0.14833,-0.111999
2.03156,0.0351065,-0.0236547
2.03883,0.0352321,-0.190349
2.03556,0.0351756,0.0237012
2.12824,0.140985,-0.17412
2.11504,0.14011,0.0369991
2.02826,0.0350495,-0.118138
2.12044,0.140468,-0.111371
2.03167,0.0280152,-0.0236547
2.10383,0.131994,-0.0122515
2.02699,0.0279508,-0.189234
2.12076,0.133056,-0.173469
2.10753,0.132226,0.0368595
2.03236,0.0280248,-0.118371
2.11294,0.132565,-0.110952
2.09943,0.124361,-0.0612065
2.01976,0.0207991,-0.023515
2.0923,0.123939,-0.0121818
2.02708,0.0208745,-0.189234
2.01976,0.0207991,0.023515
2.10927,0.124945,-0.172493
2.10399,0.124632,0.0367897
2.02846,0.0208887,-0.118138
2.10143,0.12448,-0.110324
2.01982,0.0137482,-0.023515
2.09272,0.116634,-0.0121818
2.01917,0.0137438,-0.188491
2.01582,0.013721,0.0234684
2.09377,0.116693,-0.171191
2.10042,0.117063,0.0367199
2.02452,0.0137802,-0.117906
2.09786,0.116921,-0.110115
2.08426,0.109231,-0.060741
2.01585,0.00703661,-0.0234684
2.08111,0.109066,-0.012112
2.01921,0.00704833,-0.188491
2.09017,0.109541,-0.170865
2.08083,0.109051,0.0363708
2.02056,0.00705306,-0.117673
2.08341,0.109187,0.0849968
2.09026,0.109546,-0.109696
2.00786,-0.000350073,-0.0233753
2.0775,0.101244,-0.0120888
2.01524,-0.000351359,-0.188119
2.00786,-0.000350073,0.0233753
2.09056,0.10188,-0.170865
2.08121,0.101425,0.0363708
2.0086,-0.000350201,-0.116976
2.0798,0.101356,0.084834
2.08666,0.10169,-0.109487
2.00385,-0.00699498,-0.0233287
2.07383,0.0941718,-0.0120655
1.99531,-0.00696517,-0.18626
2.0869,0.0947654,-0.17054
2.08154,0.0945219,0.0363708
1.9966,-0.00696968,-0.116278
2.06416,0.0937327,0.0841827
2.08698,0.0947691,-0.109487
2.07344,0.0869029,-0.264153
2.07015,0.0867651,-0.0120423
1.99129,-0.0139018,-0.185888
1.98782,-0.0138776,0.0231425
2.07129,0.0868128,-0.169238
2.06987,0.0867534,0.0361614
2.00056,-0.0139665,-0.116511
2.06447,0.0865273,0.0841827
2.07533,0.0869822,-0.108859
2.05761,0.0790461,-0.0599265
1.98776,-0.0208158,-0.0231425
2.0658,0.0793606,-0.263143
2.06644,0.0793853,-0.012019
1.98725,-0.0208106,-0.185516
2.06361,0.0792765,-0.168587
2.06616,0.0793746,0.0360916
1.99651,-0.0209075,-0.116278
2.05278,0.0788606,0.0836942
2.06764,0.0794312,-0.10844
2.05789,0.0715035,-0.0599265
2.06272,0.0716715,-0.0119958
1.97521,-0.0279257,-0.184401
1.97567,-0.0279321,0.0230028
2.06388,0.0717119,-0.168587
2.05445,0.071384,0.0358821
1.98843,-0.0281125,-0.115813
2.05705,0.0714745,0.083857
2.05594,0.0714358,-0.107812
2.04213,0.064177,-0.0594611
2.13709,0.171947,0
1.97956,-0.0345529,-0.0230493
2.05495,0.06458,-0.0119493
1.98308,-0.0346142,-0.185145
1.97157,-0.0344133,0.0229562
2.13984,0.172168,-0.150116
2.05614,0.0646174,-0.167936
2.05867,0.0646969,0.035952
1.98433,-0.0346362,-0.11558
2.04529,0.0642765,0.0833685
2.06015,0.0647435,-0.108021
2.13369,0.164179,0
2.05117,0.0572943,-0.011926
1.97498,-0.0413699,-0.184401
1.97143,-0.0412956,0.0229562
2.13645,0.164391,-0.149837
2.05237,0.0573279,-0.167611
2.04689,0.0571748,0.0357425
2.03751,0.056913,0.0830429
2.13138,0.164001,-0.0995766
2.05638,0.0574398,-0.107812
2.12229,0.155851,0
1.96728,-0.0480788,-0.0229097
2.03894,0.0498309,-0.259607
2.04735,0.0500367,-0.0119028
1.96686,-0.0480686,-0.183657
1.95528,-0.0477857,0.02277
2.04857,0.0500665,-0.167285
2.03908,0.0498345,0.0356029
2.03371,0.0497031,0.08288
2.12397,0.155975,-0.0992044
2.04458,0.049969,-0.107184
2.02864,0.0495794,0.165658
2.11484,0.147884,0
1.95111,-0.0544994,-0.0227234
2.03513,0.0426298,-0.259102
2.04752,0.0428893,-0.0119028
1.95872,-0.054712,-0.182914
1.95111,-0.0544994,0.0227234
2.03279,0.0425808,-0.165984
2.02587,0.0424359,0.0825544
2.1245,0.14856,-0.0992044
2.04075,0.0427475,-0.106975
2.01286,0.0421633,0.164356
2.11825,0.148123,-0.0494109
2.01884,0.0352383,-0.0587629
2.11135,0.140235,0
1.9549,-0.0614359,-0.02277
2.0313,0.0354558,-0.258597
1.95453,-0.0614243,-0.182542
1.94691,-0.0611846,0.0226768
2.02495,0.0353451,-0.165333
2.03138,0.0354572,0.0354633
2.02201,0.0352938,0.0823915
2.11703,0.140613,-0.0988321
2.03689,0.0355535,-0.106765
2.00901,0.0350668,0.164031
2.11078,0.140197,-0.0492248
2.01095,0.0280808,-0.0585302
2.10783,0.132614,0
1.94668,-0.0679789,-0.0226768
2.02348,0.0282556,-0.257587
2.03177,0.0283714,-0.0118098
1.95431,-0.0682452,-0.182542
2.11924,0.133332,0.0494109
1.94268,-0.0678393,0.0226303
2.10668,0.132542,-0.147605
2.02507,0.0282778,-0.165333
2.02749,0.0283117,0.0353935
1.95549,-0.0682866,-0.113952
2.01813,0.028181,0.0822287
2.11353,0.132973,-0.098646
2.03301,0.0283888,-0.106556
2.00115,0.0279438,0.16338
2.10327,0.132327,-0.0490387
2.10425,0.125754,0
1.94246,-0.0739417,-0.0226303
2.01959,0.021856,-0.257082
2.01985,0.0218588,-0.0117401
1.9501,-0.0742326,-0.18217
2.09968,0.125481,0.0489456
1.93846,-0.0737896,0.0225837
2.1031,0.125685,-0.147326
2.01318,0.0217867,-0.164356
2.02357,0.0218992,0.0353237
2.01021,0.0217546,0.0819031
2.10197,0.125617,-0.0980876
2.0291,0.0219589,-0.106347
1.99724,0.0216142,0.163054
2.09968,0.125481,-0.0489456
2.0031,0.0143338,-0.0582974
2.09271,0.117367,0
1.93818,-0.0808953,-0.0225837
2.01965,0.0144522,-0.257082
2.01991,0.0144541,-0.0117401
1.94186,-0.0810489,-0.181427
2.09215,0.117335,0.0487595
1.9222,-0.0802281,0.0223974
2.09558,0.117528,-0.146768
2.01724,0.014435,-0.164682
2.01964,0.0144521,0.0352539
2.00229,0.014328,0.0815774
2.09443,0.117463,-0.0977154
2.02117,0.0144631,-0.105928
1.98933,0.0142353,0.162403
2.08815,0.117111,-0.0486665
1.99514,0.00766088,-0.0580647
2.0851,0.110005,0
1.92592,-0.0867816,-0.022444
2.01572,0.00773991,-0.256577
2.09694,0.11063,-0.226189
1.9376,-0.0873082,-0.181055
2.08454,0.109976,0.0485734
1.91792,-0.0864215,0.0223509
2.00531,0.00769995,-0.163705
1.99833,0.00767312,0.0814146
2.08683,0.110097,-0.0973431
2.01322,0.00773031,-0.105509
2.08454,0.109976,-0.0485734
1.99516,0.000696915,-0.0580647
2.07748,0.102333,0
2.0078,0.000701332,-0.255567
2.00397,0.000699993,-0.0116471
2.08937,0.102919,-0.225332
2.07692,0.102306,0.0483873
1.91362,-0.0929214,0.0223043
2.00533,0.000700469,-0.163705
1.9997,0.000698501,0.0349048
1.99435,0.000696632,0.0812517
2.08321,0.102616,-0.097157
2.00924,0.000701836,-0.1053
2.08091,0.102502,-0.0484804
1.99115,-0.00625545,-0.0579483
2.06983,0.0947146,0
1.91727,-0.099809,-0.0223509
1.99589,-0.00627034,-0.254052
1.99596,-0.00627056,-0.0116006
2.07779,0.0950788,-0.224047
2.07726,0.0950545,0.0483873
1.90529,-0.0991852,0.0222112
2.07276,0.0948487,-0.145093
1.99336,-0.0062624,-0.162729
1.99569,-0.00626971,0.034835
1.98634,-0.00624036,0.0809261
2.07957,0.0951599,-0.0969709
2.00524,-0.00629972,-0.105091
2.06927,0.0946889,-0.0482012
1.97912,-0.0131258,-0.0575993
2.07015,0.0874894,0
1.91292,-0.106279,-0.0223043
1.99188,-0.0132105,-0.253547
2.16296,0.197606,0.0126235
2.07414,0.0876579,-0.223619
2.06959,0.0874657,0.0482012
1.90893,-0.106057,0.0222578
1.99332,-0.0132201,-0.162729
1.99565,-0.0132355,0.034835
2.05867,0.0870041,0.119999
1.97432,-0.013094,0.0804376
2.0719,0.0875633,-0.0965986
1.99722,-0.0132459,-0.104672
2.0656,0.0872968,-0.0481082
1.97906,-0.0200347,-0.0575993
1.98459,-0.0200907,-0.396941
2.06245,0.0799522,0
1.90455,-0.112484,-0.0222112
1.98786,-0.0201238,-0.253042
2.07046,0.0802626,-0.22319
1.91632,-0.113179,-0.179196
2.06189,0.0799306,0.0480151
1.89657,-0.112013,0.0221181
1.98928,-0.0201382,-0.162403
2.05896,0.079817,0.119999
1.97426,-0.0199861,0.0804376
2.06421,0.0800204,-0.0962264
1.99316,-0.0201775,-0.104463
2.06189,0.0799306,-0.0480151
1.97098,-0.0268335,-0.0573665
2.05472,0.0724709,0
1.90016,-0.118882,-0.0221646
1.99174,-0.0271162,-0.253547
2.06278,0.072755,-0.222334
1.91193,-0.119618,-0.178824
2.05816,0.0725922,0.0479221
1.89217,-0.118382,0.0220715
2.05371,0.072435,-0.143698
1.97724,-0.0269187,-0.161427
2.05524,0.072489,0.119766
1.97018,-0.0268226,0.0802748
2.05649,0.0725332,-0.0958541
1.98509,-0.0270256,-0.104044
2.05816,0.0725922,-0.0479221
1.96687,-0.0339888,-0.0572502
1.98048,-0.0342238,-0.396157
2.05098,0.0648126,0
1.88773,-0.125052,-0.0220249
1.97179,-0.0340738,-0.251021
1.97567,-0.0341408,-0.0114843
2.05906,0.0650679,-0.221905
2.05442,0.0649213,0.047829
1.89971,-0.125846,0.0221646
2.05396,0.0649068,-0.143698
1.97713,-0.034166,-0.161427
2.04352,0.0645768,0.119069
1.96208,-0.0339059,0.0799491
2.04875,0.0647424,-0.0954819
1.98498,-0.0343016,-0.104044
2.05442,0.0649213,-0.047829
1.95876,-0.0403459,-0.0570174
1.96859,-0.0405484,-0.393804
2.04318,0.0577852,0
1.88332,-0.131034,-0.0219784
1.97167,-0.0406119,-0.251021
1.96355,-0.0404447,-0.0114146
2.04733,0.0579026,-0.22062
1.90311,-0.13241,-0.178081
2.04263,0.0577696,0.0475499
1.88332,-0.131034,0.0219784
2.04618,0.05787,-0.14314
1.96903,-0.0405576,-0.160776
1.97128,-0.0406039,0.0344161
1.90018,-0.132207,-0.110929
2.03574,0.0575746,0.118604
1.94997,-0.0401649,0.0794606
2.04496,0.0578356,-0.0952957
1.97687,-0.040719,-0.103625
2.04263,0.0577696,-0.0475499
1.95461,-0.0470863,-0.0569011
1.96451,-0.047325,-0.393019
2.03138,0.0503558,0
1.87487,-0.137023,-0.0218852
1.96755,-0.0473981,-0.250516
1.9634,-0.0472981,-0.0114146
2.03957,0.050559,-0.219763
2.03482,0.0504413,0.0473638
1.87886,-0.137315,0.0219318
2.03839,0.0505298,-0.142582
1.97286,-0.0475261,-0.161102
1.88776,-0.137965,-0.110232
2.02395,0.0501717,0.117906
1.94183,-0.0467784,0.079135
2.03716,0.0504993,-0.0949235
2.04682,0.0507386,-0.0476429
1.95043,-0.0537991,-0.0567847
1.87039,-0.143262,-0.0218387
1.95944,-0.0540476,-0.249506
1.95522,-0.0539313,-0.0113681
2.03576,0.043354,-0.219335
2.03499,0.0433376,0.0473638
1.87438,-0.143568,0.0218852
2.03058,0.0432437,-0.142024
1.96471,-0.0541931,-0.160451
2.0281,0.043191,0.118138
1.94165,-0.0535569,0.079135
2.03733,0.0433874,-0.0949235
1.96456,-0.0541887,-0.102997
1.93535,-0.053383,0.352998
2.03899,0.0434227,-0.0474568
1.95023,-0.0606071,-0.0567847
2.02368,0.0360301,0
1.8659,-0.149471,-0.0217921
1.9632,-0.0610102,-0.250011
1.95502,-0.060756,-0.0113681
2.03192,0.0361768,-0.218906
1.88573,-0.15106,-0.176594
2.03513,0.0362339,0.0473638
1.86988,-0.14979,0.0218387
2.02274,0.0360133,-0.141466
1.95654,-0.0608032,-0.1598
1.88277,-0.150823,-0.109999
2.02026,0.0359691,0.117673
1.92947,-0.0599618,0.0786465
2.03347,0.0362044,-0.0947374
1.91942,-0.0596494,0.350128
2.03513,0.0362339,-0.0473638
1.94602,-0.0669365,-0.0566684
1.94432,-0.0668779,-0.389097
2.01579,0.0292032,0
1.8614,-0.155325,-0.0217455
1.94713,-0.0669745,-0.247991
1.95081,-0.0671012,-0.0113449
2.03601,0.0294961,-0.219335
2.03124,0.029427,0.0472707
1.86539,-0.155658,0.0217921
2.01886,0.0292477,-0.141187
1.94836,-0.0670169,-0.159149
2.02036,0.0292695,0.117673
1.93325,-0.0664972,0.0788093
2.0216,0.0292874,-0.094179
1.95616,-0.067285,-0.102578
2.02324,0.0293112,-0.0470846
1.93379,-0.0732748,-0.0563193
1.94016,-0.073516,-0.388312
2.00388,0.0220347,0
1.85687,-0.161475,-0.021699
1.94292,-0.0736206,-0.247486
1.93058,-0.0731532,-0.0112286
2.01621,0.0221703,-0.217193
1.87673,-0.163202,-0.17585
1.86484,-0.162168,0.0217921
1.94812,-0.0738176,-0.159149
2.00448,0.0220413,0.116743
1.92901,-0.0730938,0.0786465
2.01769,0.0221866,-0.0939929
1.90717,-0.072266,0.347976
2.01933,0.0222046,-0.0469915
1.92953,-0.0798592,-0.0562029
1.94381,-0.0804501,-0.389097
1.99994,0.0150097,0
1.85231,-0.167595,-0.0216524
1.93868,-0.0802381,-0.246981
1.93431,-0.0800571,-0.0112519
2.0123,0.0151024,-0.216764
1.86821,-0.169034,-0.175107
2.0194,0.0151557,0.0469915
2.00305,0.015033,-0.140071
1.93988,-0.0802876,-0.158498
1.93805,-0.0802117,0.0338577
1.85725,-0.168043,-0.108604
1.99656,0.0149843,0.116278
1.91677,-0.079331,0.078158
2.00177,0.0150234,-0.0932484
1.94367,-0.0804443,-0.10195
2.0114,0.0150957,-0.0468054
2.08079,0.109778,-0.0363708
1.92124,-0.0865708,-0.0559702
1.92783,-0.0868678,-0.385959
1.84372,-0.173633,-0.0215593
1.93441,-0.0871646,-0.246476
1.93001,-0.0869661,-0.0112286
2.00837,0.00771162,-0.216336
1.86362,-0.175507,-0.174735
2.00744,0.00770806,0.0467124
1.85168,-0.174383,0.0216524
1.93957,-0.0873971,-0.158498
1.92975,-0.0869543,0.033718
1.9966,0.00766644,0.116278
1.90848,-0.085996,0.0778323
2.00581,0.0077018,-0.0934345
1.93538,-0.087208,-0.101532
1.89481,-0.08538,0.345823
2.01144,0.00772342,-0.0468054
1.91695,-0.0927482,-0.0558538
1.992,0.00104301,0
1.83915,-0.179358,-0.0215127
1.93015,-0.0933871,-0.245971
2.07343,0.102496,0.0120655
1.99645,0.00104534,-0.215051
1.84711,-0.180134,0.0216059
1.92733,-0.0932505,-0.157522
1.85604,-0.181005,-0.108604
2.00061,0.00104752,0.116511
1.98984,0.00104188,-0.09269
1.89845,-0.0918531,0.346541
2.00746,0.0010511,-0.0467124
1.91262,-0.0992318,-0.0557375
1.91936,-0.0995815,-0.38439
1.98799,-0.0058985,0
1.83851,-0.185777,-0.0215127
1.91396,-0.0993016,-0.24395
2.06579,0.0948907,0.012019
1.91739,-0.0994794,-0.0111589
1.99247,-0.00591178,-0.214623
1.99945,-0.0059325,0.0465263
1.84249,-0.186179,0.0215593
1.92699,-0.0999775,-0.157522
1.91314,-0.0992587,0.0334388
1.99661,-0.00592407,0.116278
1.89987,-0.0985703,0.0775067
1.99783,-0.00592768,-0.0930622
1.98905,-0.00590166,0.244226
2.00345,-0.00594437,-0.0466193
1.90028,-0.105244,-0.0553884
1.91508,-0.106064,-0.383605
1.98396,-0.012812,0
1.8299,-0.191361,-0.0214196
1.9136,-0.105982,-0.24395
1.91703,-0.106172,-0.0111589
1.98448,-0.0128154,-0.213766
1.84983,-0.193445,-0.17362
1.84183,-0.192609,0.0215593
1.97913,-0.0127808,-0.138397
1.92265,-0.106483,-0.157196
1.90878,-0.105715,0.033369
1.8309,-0.191466,-0.107208
1.97262,-0.0127388,0.114883
1.89552,-0.10498,0.0773438
1.98581,-0.0128239,-0.0925039
1.97711,-0.0127678,0.242764
1.98742,-0.0128344,-0.0462471
1.8999,-0.111877,-0.0553884
1.9147,-0.112748,-0.383605
1.9799,-0.0196975,0
1.83717,-0.198607,-0.0215127
1.90926,-0.112428,-0.243445
1.89668,-0.111687,-0.0110426
1.84122,-0.199045,-0.172876
1.98736,-0.0197717,0.0462471
1.97508,-0.0196495,-0.138118
1.9143,-0.112725,-0.156545
1.83419,-0.198285,-0.107441
1.97655,-0.0196641,0.115115
1.88716,-0.111127,0.0770182
1.91405,-0.11271,-0.100485
1.97705,-0.0196691,0.242764
1.97937,-0.0196921,-0.046061
2.0504,0.0726765,-0.0358123
1.90255,-0.118698,-0.381252
1.97182,-0.026501,0
1.82852,-0.204132,-0.0214196
1.91282,-0.119339,-0.24395
2.04668,0.0725446,0.0119028
1.89628,-0.118307,-0.0110426
1.98328,-0.026655,0.0461541
2.04984,0.0726568,0.0596938
1.90002,-0.11854,0.0332294
1.82952,-0.204243,-0.107208
1.96849,-0.0264561,0.11465
1.88277,-0.117464,0.0768554
1.96569,-0.0264186,-0.0915733
1.90567,-0.118893,-0.100066
1.96506,-0.0264101,0.241301
1.97529,-0.0265475,-0.045968
2.04664,0.0653911,-0.0357425
1.88312,-0.124086,-0.0549229
1.90212,-0.125339,-0.381252
1.96772,-0.033316,0
1.81985,-0.209598,-0.0213265
1.90051,-0.125232,-0.242435
2.05092,0.0655277,0.011926
1.89187,-0.124663,-0.0110194
1.82382,-0.210055,0.021373
1.96292,-0.0332349,-0.137281
1.90154,-0.1253,-0.155569
1.89161,-0.124646,0.0330898
1.82482,-0.210171,-0.106976
1.97238,-0.0333949,0.114883
1.88235,-0.124036,0.0768554
1.96159,-0.0332123,-0.0913871
1.90525,-0.125544,-0.100066
1.96099,-0.0332021,0.240814
2.03886,0.058019,-0.0356029
1.87868,-0.130382,-0.0548066
1.95959,-0.0400211,0
1.81513,-0.215477,-0.0212799
1.88423,-0.130767,-0.240415
1.89541,-0.131543,-0.0110426
1.96025,-0.0400346,-0.211195
1.89313,-0.131385,-0.154918
1.89116,-0.131248,0.0330898
1.82408,-0.21654,-0.106976
1.95228,-0.0398719,0.11372
1.87792,-0.130329,0.0766925
1.96146,-0.0400594,-0.0913871
1.94895,-0.0398039,0.239351
1.86529,-0.129453,0.15264
1.97106,-0.0402552,-0.0458749
1.87423,-0.136648,-0.0546902
1.95944,-0.0468611,0
1.81437,-0.221812,-0.0212799
1.88376,-0.137343,-0.240415
2.03133,0.0507089,0.0118098
1.87898,-0.136995,-0.0109496
1.95612,-0.0467818,-0.210767
1.82245,-0.2228,-0.171389
1.95467,-0.046747,-0.136723
1.88869,-0.137702,-0.154593
1.87873,-0.136976,0.0328803
1.81539,-0.221936,-0.106511
1.94415,-0.0464954,0.113255
1.86948,-0.136302,0.0763669
1.95332,-0.0467148,-0.0910149
1.9488,-0.0466067,0.239351
1.95891,-0.0468484,-0.0455958
2.02323,0.0434404,-0.0353237
1.88897,-0.144354,-0.378899
1.95527,-0.053591,0
1.87931,-0.143615,-0.23991
2.0275,0.0435321,0.0117866
1.87051,-0.142943,-0.0109032
1.948,-0.0533917,-0.20991
1.81771,-0.228663,-0.171017
1.9505,-0.0534604,-0.136444
2.01868,0.0433428,0.0587629
1.87026,-0.142924,0.0327407
1.8146,-0.228272,-0.106511
1.94397,-0.0532815,0.113255
1.86501,-0.142522,0.076204
1.94516,-0.053314,-0.0906426
1.8879,-0.144271,-0.099229
1.94863,-0.053409,0.239351
1.85639,-0.141864,0.151989
2.02585,0.0434968,-0.0825544
1.95873,-0.053686,-0.0455958
2.01937,0.0363058,-0.0352539
1.86127,-0.148774,-0.0543411
1.88064,-0.150322,-0.37733
1.94307,-0.0600451,0
1.80088,-0.232934,-0.0211402
1.87089,-0.149542,-0.238899
2.01564,0.0362389,0.0117168
1.87399,-0.14979,-0.0109264
1.9478,-0.0601911,-0.20991
1.81295,-0.234496,-0.170645
1.95454,-0.0603994,0.0455027
1.80484,-0.233447,0.0211868
1.94233,-0.0600221,-0.135886
1.87973,-0.150249,-0.153942
1.87374,-0.14977,0.0328105
1.80983,-0.234093,-0.106278
1.93979,-0.0599436,0.113022
1.85653,-0.148395,0.0758784
1.94097,-0.0599801,-0.0904565
1.87544,-0.149906,-0.0986009
1.92859,-0.0595976,0.236914
1.95454,-0.0603994,-0.0455027
2.01148,0.0294919,-0.0351142
1.86475,-0.155277,-0.0544575
1.93887,-0.0663515,0
1.79216,-0.237852,-0.0210471
1.87038,-0.155746,-0.238899
2.01175,0.0294959,0.0116936
1.86551,-0.15534,-0.0108799
1.93964,-0.0663779,-0.209053
1.79613,-0.238378,0.0210936
1.94212,-0.0664628,-0.135886
1.87922,-0.156482,-0.153942
2.00693,0.0294253,0.0584138
1.87323,-0.155983,0.0328105
1.94357,-0.0665124,0.113255
1.85603,-0.154551,0.0758784
1.94475,-0.0665529,-0.0906426
1.87095,-0.155793,-0.0983916
1.92441,-0.0658569,0.236427
1.84744,-0.153835,0.151338
1.86019,-0.161764,-0.0543411
1.86391,-0.162088,-0.374192
1.93461,-0.0733059,0
1.79128,-0.244419,-0.0210471
1.86189,-0.161912,-0.237889
2.00384,0.0220343,0.0116471
1.86095,-0.16183,-0.0108567
1.94336,-0.0736372,-0.209482
1.79524,-0.24496,0.0210936
1.93389,-0.0732784,-0.135328
1.87069,-0.162678,-0.153291
2.00303,0.0220254,0.0582974
1.86069,-0.161808,0.0326011
1.93932,-0.0734843,0.113022
1.85545,-0.161352,0.0758784
1.9405,-0.073529,-0.0904565
1.86639,-0.162303,-0.0981823
1.92416,-0.0729098,0.236427
1.94608,-0.0737403,-0.0453166
1.99964,0.0150074,-0.0349048
1.85943,-0.16824,-0.373407
1.93434,-0.0800585,0
1.78645,-0.250116,-0.0210005
1.85737,-0.168053,-0.237384
1.99991,0.0150094,0.0116238
1.85639,-0.167964,-0.0108334
1.93117,-0.0799269,-0.208197
1.79856,-0.251811,-0.16953
1.93362,-0.0800285,-0.135328
1.86614,-0.168847,-0.152965
1.9991,0.0150033,0.0581811
1.85613,-0.167942,0.0325313
1.91511,-0.0792625,0.111627
1.85488,-0.167828,0.0758784
1.93225,-0.0799718,-0.0900843
1.86581,-0.168817,-0.0981823
1.92786,-0.0797901,0.236914
1.83438,-0.165973,0.150362
1.92983,-0.0798714,-0.0449444
1.83914,-0.172555,-0.0537593
1.85105,-0.173672,-0.371838
1.92608,-0.0861152,0
1.78561,-0.256039,-0.0210005
1.8489,-0.17347,-0.236374
1.99995,0.00837744,0.0116238
1.84785,-0.173372,-0.0107869
1.92692,-0.0861528,-0.207768
1.78983,-0.256643,-0.168786
1.92936,-0.0862619,-0.135049
1.85367,-0.173917,-0.151989
1.8476,-0.173349,0.0323917
1.79062,-0.256756,-0.105348
1.91883,-0.0857912,0.111859
1.83839,-0.172485,0.0752271
1.92399,-0.0860219,-0.089712
1.91172,-0.0854733,0.234964
1.82985,-0.171683,0.150036
1.92555,-0.0860919,-0.0448513
1.9877,0.00138769,-0.0346954
1.83455,-0.178586,-0.0536429
1.91777,-0.0924527,0
1.7768,-0.261107,-0.0209074
1.84038,-0.179154,-0.235364
1.99197,0.00139067,0.0115773
1.85122,-0.180209,-0.0108102
1.9266,-0.0928785,-0.207768
1.78499,-0.262311,-0.168415
1.92524,-0.0928128,0.0448513
1.7768,-0.261107,0.0209074
1.91709,-0.0924197,-0.134211
1.85305,-0.180387,-0.151989
1.98316,0.00138453,0.0577156
1.85097,-0.180184,0.0324615
1.99191,0.00139064,-0.127659
1.78181,-0.261844,-0.104883
1.91054,-0.092104,0.111394
1.83778,-0.178901,0.0752271
1.91969,-0.092545,-0.0895259
1.85269,-0.180352,-0.0975542
1.90348,-0.0917636,0.233989
1.92125,-0.0926203,-0.0447583
1.98769,-0.0055507,-0.0346954
1.82994,-0.184587,-0.0535266
1.90945,-0.0987333,0
1.76796,-0.266117,-0.0208143
1.85159,-0.186772,-0.236879
1.98796,-0.00555146,0.0115541
1.8466,-0.186268,-0.0107869
1.92627,-0.099603,-0.207768
1.78012,-0.267947,-0.168043
1.77192,-0.266712,0.0208608
1.91675,-0.099111,-0.134211
1.85241,-0.186854,-0.151989
1.97915,-0.00552687,0.0575993
1.84635,-0.186243,0.0323917
1.98791,-0.00555133,-0.127403
1.9142,-0.0989787,0.111627
1.83317,-0.184914,0.0750642
1.91935,-0.0992454,-0.0895259
1.84807,-0.186417,-0.0973449
1.89918,-0.0982024,0.233502
1.92091,-0.0993261,-0.0447583
1.98366,-0.0124639,-0.0346256
1.82133,-0.190144,-0.0532939
1.84133,-0.192232,-0.370269
1.90909,-0.105398,0
1.77098,-0.272896,-0.0208608
1.83119,-0.191174,-0.234354
1.97593,-0.0124153,0.0114843
1.83798,-0.191882,-0.0107404
1.914,-0.105669,-0.206483
1.77917,-0.274159,-0.168043
1.90843,-0.105361,-0.133653
1.84381,-0.192491,-0.151338
1.97512,-0.0124102,0.0574829
1.83773,-0.191856,0.032252
1.9799,-0.0124402,-0.126892
1.89789,-0.104779,0.110697
1.82854,-0.190896,0.0749014
1.915,-0.105724,-0.0893398
1.84741,-0.192867,-0.0973449
1.89486,-0.104612,0.233014
1.81606,-0.189593,0.14906
1.97832,-0.0124303,-0.0806004
1.91257,-0.10559,-0.0445722
1.97161,-0.0192708,-0.0344161
1.8286,-0.197358,-0.0535266
1.83285,-0.197816,-0.368701
1.90871,-0.112061,0
1.83051,-0.197565,-0.234354
1.96787,-0.0192343,0.0114378
1.83332,-0.197868,-0.0107172
1.90965,-0.112116,-0.206055
1.76606,-0.278453,0.0208143
1.90406,-0.111788,-0.133374
1.83917,-0.198498,-0.151012
1.96707,-0.0192265,0.0572502
1.83307,-0.197841,0.0321822
1.97585,-0.0193123,-0.126636
1.76714,-0.278623,-0.104185
1.88954,-0.110936,0.110232
1.82786,-0.197278,0.0749014
1.91063,-0.112174,-0.0891536
1.83878,-0.198457,-0.0969262
1.89052,-0.110993,0.232527
1.9042,-0.111797,-0.0443861
1.97153,-0.0261529,-0.0344161
1.81201,-0.201968,-0.0530611
1.83215,-0.204213,-0.368701
1.90033,-0.118226,0
1.76113,-0.283979,-0.0207677
1.82587,-0.203514,-0.233849
1.96379,-0.0260503,0.0114146
1.82467,-0.20338,-0.0106707
1.90527,-0.118534,-0.205626
1.76542,-0.284671,-0.166928
1.89582,-0.117946,0.0442
1.90366,-0.118434,-0.133374
1.8345,-0.204475,-0.150687
1.963,-0.0260397,0.0571338
1.8284,-0.203795,0.0321124
1.76616,-0.28479,-0.104185
1.88914,-0.117531,0.110232
1.81524,-0.202329,0.0744129
1.89827,-0.118098,-0.0885953
1.83411,-0.204432,-0.0967169
1.88616,-0.117345,0.232039
1.80676,-0.201384,0.148409
1.9662,-0.0260822,-0.0801119
1.89582,-0.117946,-0.0442
1.96343,-0.0329006,-0.0342765
1.80732,-0.207835,-0.0529448
1.82363,-0.209711,-0.367132
1.89192,-0.124335,0
1.89309,-0.124412,-0.295157
1.82515,-0.209886,-0.233849
1.96369,-0.032905,0.0114146
1.82395,-0.209748,-0.0106707
1.89691,-0.124663,-0.20477
1.76442,-0.290832,-0.166928
1.89141,-0.124301,0.0441069
1.75224,-0.288824,0.0206746
1.89129,-0.124293,-0.132537
1.82585,-0.209967,-0.150036
1.9549,-0.0327577,0.0569011
1.9637,-0.0329051,-0.125868
1.88473,-0.123862,0.109999
1.81056,-0.208208,0.0742501
1.89386,-0.124462,-0.0884091
1.82942,-0.210377,-0.0965075
1.87386,-0.123147,0.230577
1.79813,-0.206779,0.147758
1.9621,-0.0328783,-0.0799491
1.89939,-0.124825,-0.044293
1.9633,-0.039754,-0.0342765
1.80261,-0.213672,-0.0528284
1.8795,-0.130109,0
1.74333,-0.29361,-0.0205814
1.82046,-0.215788,-0.233344
1.95157,-0.0395165,0.0113449
1.90043,-0.131558,-0.205198
1.75946,-0.296328,-0.166556
1.89096,-0.130902,0.0441069
1.74333,-0.29361,0.0205814
1.88687,-0.130619,-0.132258
1.81719,-0.2154,-0.149385
1.95077,-0.0395004,0.0567847
1.95958,-0.0396787,-0.125613
1.87632,-0.129889,0.109534
1.80982,-0.214526,0.0742501
1.88942,-0.130796,-0.088223
1.82074,-0.215821,-0.0960888
1.86549,-0.129139,0.229602
1.95398,-0.0395653,-0.0796234
1.89096,-0.130902,-0.0441069
1.94715,-0.0462273,-0.0339973
1.79789,-0.219479,-0.052712
1.87505,-0.136379,0
1.74623,-0.300372,-0.020628
1.81182,-0.22118,-0.232334
1.94342,-0.0461386,0.0112984
1.896,-0.137902,-0.20477
1.8865,-0.137212,0.0440139
1.88242,-0.136915,-0.131979
1.81643,-0.221742,-0.149385
1.94263,-0.0461199,0.056552
1.81425,-0.221477,0.031903
1.95145,-0.0463291,-0.125101
1.87586,-0.136438,0.109534
1.80509,-0.220358,0.0740873
1.88896,-0.137391,-0.088223
1.81601,-0.221691,-0.0958795
1.87691,-0.136514,0.231064
1.8865,-0.137212,-0.0440139
1.94699,-0.052684,-0.0339973
1.79318,-0.224942,-0.0525957
1.87857,-0.142899,0
1.74129,-0.30547,-0.0205814
1.80714,-0.226693,-0.231828
1.93926,-0.0524748,0.0112751
1.80979,-0.227025,-0.0106009
1.8757,-0.142681,-0.202628
1.88205,-0.143164,0.0439208
1.88195,-0.143157,-0.131979
1.80777,-0.226772,-0.148734
1.94247,-0.0525616,0.056552
1.74633,-0.306354,-0.103255
1.85947,-0.141446,0.108604
1.80435,-0.226343,0.0740873
1.88052,-0.143048,-0.0878508
1.8113,-0.227215,-0.0956701
1.85665,-0.141232,0.228627
1.94567,-0.0526484,-0.0792978
1.87408,-0.142557,-0.0437347
1.9428,-0.0593578,-0.0339275
1.78842,-0.230688,-0.0524793
1.87408,-0.149139,0
1.74021,-0.311546,-0.0205814
1.8024,-0.232492,-0.231323
1.93506,-0.0591216,0.0112519
1.80105,-0.232317,-0.0105544
1.87915,-0.149543,-0.203056
1.87357,-0.149098,0.0437347
1.73628,-0.310841,0.0205349
1.87349,-0.149092,-0.131421
1.80697,-0.233081,-0.148734
1.93428,-0.0590975,0.0563193
1.94311,-0.0593672,-0.124589
1.85896,-0.147936,0.108604
1.78769,-0.230595,0.0734359
1.87205,-0.148977,-0.0874785
1.8105,-0.233536,-0.0956701
1.85615,-0.147712,0.228627
1.77929,-0.229511,0.146456
1.93749,-0.0591956,-0.0789721
1.87755,-0.149415,-0.0438278
1.93457,-0.0662046,-0.0337879
1.85757,-0.154679,0
1.73119,-0.316484,-0.0204883
1.867,-0.155464,-0.291467
1.80154,-0.239097,-0.231323
1.92684,-0.0659399,0.0112054
1.80018,-0.238917,-0.0105544
1.87463,-0.156099,-0.202628
1.73948,-0.318,-0.165069
1.86105,-0.154969,0.0434555
1.72332,-0.315045,0.0203952
1.861,-0.154964,-0.130584
1.8061,-0.239702,-0.148734
1.92606,-0.0659131,0.0560866
1.9349,-0.0662156,-0.124078
1.85841,-0.154748,0.108604
1.78287,-0.23662,0.0732731
1.8675,-0.155506,-0.0872924
1.80567,-0.239645,-0.0954608
1.84373,-0.153526,0.227164
1.78239,-0.236555,0.146782
1.94125,-0.0664332,-0.079135
1.86902,-0.155632,-0.0436417
1.93834,-0.0727695,-0.0338577
1.7828,-0.242629,-0.052363
1.85705,-0.160838,0
1.72227,-0.320758,-0.0203952
1.80074,-0.24507,-0.231323
1.92261,-0.0721791,0.0111821
1.79542,-0.244346,-0.0105312
1.86618,-0.161629,-0.201771
1.7262,-0.32149,0.0204417
1.86048,-0.161135,-0.130584
1.79345,-0.244077,-0.147758
1.93467,-0.0726316,-0.124078
1.85391,-0.160566,0.108371
1.78604,-0.243069,0.0734359
1.863,-0.161353,-0.0871063
1.84716,-0.159982,0.227652
1.76974,-0.240852,0.145805
1.92904,-0.0724204,-0.0786465
1.8685,-0.161829,-0.0436417
1.92609,-0.0790432,-0.0336482
1.84452,-0.166242,0
1.71721,-0.326022,-0.0203486
1.78415,-0.249159,-0.229303
1.85768,-0.167428,-0.200914
1.85597,-0.167274,0.0433625
1.70935,-0.32453,0.0202555
1.85593,-0.16727,-0.130305
1.79258,-0.250336,-0.147758
1.91358,-0.0785299,0.0557375
1.92243,-0.0788934,-0.12331
1.85334,-0.167036,0.108371
1.77726,-0.248197,0.0731103
1.85446,-0.167138,-0.086734
1.83868,-0.165716,0.226677
1.85597,-0.167274,-0.0433625
1.91381,-0.0852322,-0.0334388
1.77315,-0.253936,-0.0521302
1.84791,-0.173053,0
1.71213,-0.331254,-0.020302
1.7872,-0.255947,-0.229808
1.91007,-0.0850658,0.0111124
1.85313,-0.17354,-0.200486
1.85538,-0.173751,0.0433625
1.71606,-0.332014,0.0203486
1.85533,-0.173747,-0.130305
1.9093,-0.0850312,0.0556211
1.78551,-0.255705,0.0314841
1.83684,-0.172015,0.107441
1.77639,-0.254399,0.0731103
1.85785,-0.173983,-0.0869201
1.79124,-0.256526,-0.0948328
1.83414,-0.171763,0.22619
1.92449,-0.085708,-0.0784836
1.8514,-0.173379,-0.0432694
1.9135,-0.0919121,-0.0334388
1.76434,-0.258962,-0.0518975
1.84332,-0.179115,0
1.84501,-0.179279,-0.288393
1.78237,-0.261608,-0.229303
1.90977,-0.0917326,0.0111124
1.78089,-0.261391,-0.0104614
1.85647,-0.180393,-0.200914
1.7154,-0.338102,-0.16321
1.8468,-0.179453,0.0431764
1.70704,-0.336455,0.0202555
1.8428,-0.179065,-0.129468
1.78685,-0.262266,-0.147432
1.91386,-0.0919294,-0.122798
1.83225,-0.17804,0.107208
1.76758,-0.259438,0.0727846
1.84928,-0.179694,-0.0865479
1.82958,-0.17778,0.225702
1.91221,-0.0918499,-0.0779952
1.85078,-0.17984,-0.0432694
1.90518,-0.0981792,-0.0332992
1.76343,-0.265119,-0.0518975
1.83472,-0.184747,0
1.70978,-0.343199,-0.020302
1.84044,-0.185323,-0.287778
1.77752,-0.267238,-0.228798
1.90144,-0.0979867,0.0110659
1.77601,-0.267011,-0.0104382
1.85187,-0.186473,-0.200486
1.71811,-0.344872,-0.163582
1.84218,-0.185498,0.0430833
1.70586,-0.342412,0.0202555
1.83422,-0.184697,-0.12891
1.78198,-0.267909,-0.147107
1.90067,-0.0979469,0.0553884
1.90954,-0.098404,-0.122543
1.82765,-0.184034,0.106976
1.77062,-0.2662,0.0729474
1.84864,-0.186148,-0.0865479
1.78151,-0.267838,-0.0944141
1.82105,-0.18337,0.224727
1.91187,-0.0985242,-0.0779952
1.8382,-0.185097,-0.0429903
1.90083,-0.104609,-0.0332294
1.75854,-0.270665,-0.0517812
1.82213,-0.189906,0
1.69681,-0.346763,-0.0201624
1.83192,-0.190926,-0.286548
1.77266,-0.272838,-0.228293
1.8931,-0.104184,0.0110194
1.83934,-0.1917,-0.199201
1.71299,-0.35007,-0.16321
1.83755,-0.191513,0.0429903
1.69289,-0.345962,0.0201158
1.8296,-0.190684,-0.128631
1.90919,-0.105069,-0.122543
1.82699,-0.190413,0.106976
1.75783,-0.270555,0.072459
1.83208,-0.190943,-0.0858034
1.77661,-0.273447,-0.0942047
1.8204,-0.189725,0.224727
1.90354,-0.104758,-0.0776695
1.90046,-0.111244,-0.0332294
1.75363,-0.27618,-0.0516648
1.81748,-0.195837,0
1.69559,-0.352684,-0.0201624
1.82731,-0.196896,-0.285933
1.76777,-0.278406,-0.227788
1.83471,-0.197693,-0.198772
1.70396,-0.354425,-0.162466
1.69559,-0.352684,0.0201624
1.82495,-0.196642,-0.128352
1.76825,-0.278482,-0.146131
1.89685,-0.111033,-0.121775
1.82235,-0.196361,0.106743
1.74897,-0.275446,0.0721333
1.83537,-0.197765,-0.0859895
1.89917,-0.111168,-0.0775067
1.74871,-0.281664,-0.0515484
1.81678,-0.20218,0
1.68261,-0.356116,-0.0200227
1.75895,-0.283313,-0.226778
1.88435,-0.116902,0.0109729
1.74942,-0.281778,-0.0102987
1.8261,-0.203216,-0.197915
1.81633,-0.202129,-0.127794
1.89247,-0.117406,-0.121519
1.81371,-0.201838,0.106278
1.75195,-0.282185,0.0722961
1.8307,-0.203729,-0.0858034
1.76677,-0.284573,-0.093786
1.89478,-0.11755,-0.0773438
1.87968,-0.123201,-0.0328803
1.74772,-0.287766,-0.0515484
1.82402,-0.209433,0
1.68918,-0.363671,-0.0201158
1.76187,-0.290096,-0.227283
1.87993,-0.123217,0.0109496
1.75632,-0.289183,-0.0103452
1.81748,-0.208682,-0.197059
1.69755,-0.365474,-0.162094
1.82352,-0.209376,0.0427111
1.81561,-0.208468,-0.127794
1.87917,-0.123167,0.0548066
1.75608,-0.289144,0.0310653
1.80903,-0.207712,0.106046
1.73912,-0.286351,0.0718077
1.82204,-0.209206,-0.0854311
1.88638,-0.12364,-0.0770182
1.8275,-0.209832,-0.0428042
1.73882,-0.292538,-0.0513157
1.80738,-0.213918,0
1.82123,-0.215556,-0.285318
1.75693,-0.295586,-0.226778
1.87949,-0.129779,0.0109496
1.74741,-0.293984,-0.0102987
1.81279,-0.214558,-0.19663
1.69238,-0.370545,-0.161723
1.81881,-0.21527,0.0426181
1.81091,-0.214335,-0.127515
1.75737,-0.29566,-0.14548
1.88762,-0.13034,-0.121264
1.81226,-0.214495,0.106278
1.74205,-0.293083,0.0719705
1.81336,-0.214626,-0.0850589
1.88195,-0.129949,-0.0768554
1.81881,-0.21527,-0.0426181
1.87084,-0.135088,-0.0327407
1.73789,-0.298,-0.0513157
1.79876,-0.21863,0
1.67502,-0.372262,-0.0199761
1.87509,-0.135395,0.0109264
1.75042,-0.300149,-0.010322
1.81605,-0.220731,-0.197059
1.81415,-0.220501,0.042525
1.75251,-0.300506,-0.145154
1.87526,-0.135407,-0.120496
1.80761,-0.219705,0.106046
1.72537,-0.295852,0.0713192
1.81268,-0.220321,-0.0850589
1.72886,-0.303289,-0.051083
1.80188,-0.226033,0
1.66577,-0.376926,-0.019883
1.80791,-0.22679,-0.283473
1.75092,-0.307159,-0.226273
1.86658,-0.141987,0.0108799
1.81125,-0.227208,-0.19663
1.79749,-0.225482,-0.126678
1.86677,-0.142001,-0.119984
1.79883,-0.22565,0.10558
1.72422,-0.302475,0.0713192
1.80389,-0.226285,-0.0846866
1.86506,-0.141871,-0.076204
1.81329,-0.227465,-0.042525
1.73566,-0.310731,-0.0513157
1.79711,-0.231809,0
1.80319,-0.232593,-0.282858
1.74202,-0.311871,-0.225263
1.85809,-0.147867,0.0108334
1.72849,-0.309447,-0.0102057
1.8065,-0.23302,-0.196202
1.79273,-0.231245,-0.126399
1.74241,-0.311939,-0.144503
1.85335,-0.14749,0.0541084
1.86228,-0.1482,-0.119729
1.67342,-0.384801,-0.0999991
1.78615,-0.230396,0.104883
1.79516,-0.231558,-0.0843144
1.86057,-0.148064,-0.0760412
1.80456,-0.23277,-0.0423389
1.71894,-0.313314,-0.0508503
1.78844,-0.236406,0
1.79461,-0.237221,-0.281629
1.73713,-0.31663,-0.224757
1.85363,-0.153374,0.0108102
1.73144,-0.315593,-0.010229
1.80181,-0.238173,-0.195773
1.792,-0.236876,-0.126399
1.7375,-0.316697,-0.144178
1.8489,-0.152982,0.053992
1.85783,-0.15372,-0.119473
1.78938,-0.236529,0.105115
1.79443,-0.237197,-0.0843144
1.86408,-0.154238,-0.076204
1.71784,-0.319312,-0.0508503
1.78364,-0.242109,0
1.79377,-0.243484,-0.281629
1.72431,-0.320517,-0.223242
1.85309,-0.159843,0.0108102
1.7264,-0.320904,-0.0102057
1.78915,-0.242856,-0.194488
1.78721,-0.242593,-0.12612
1.84437,-0.159091,0.0538757
1.7301,-0.321592,0.0307162
1.8533,-0.159862,-0.119217
1.7925,-0.243311,0.105348
1.78963,-0.242922,-0.0841283
1.85158,-0.159713,-0.0757155
1.79505,-0.243657,-0.0421528
1.7088,-0.324116,-0.0506175
1.77878,-0.248092,0
1.78504,-0.248965,-0.280399
1.85249,-0.166634,0.0108102
1.71735,-0.325739,-0.0101592
1.79218,-0.249962,-0.194917
1.7784,-0.248039,-0.125562
1.72735,-0.327636,-0.143527
1.72498,-0.327185,0.0306464
1.84873,-0.166296,-0.118961
1.78081,-0.248376,-0.083756
1.847,-0.166141,-0.0755527
1.71158,-0.330838,-0.0507339
1.77791,-0.2543,0
1.78025,-0.254635,-0.279784
1.83995,-0.171983,0.0107404
1.7162,-0.331731,-0.0101592
1.78736,-0.255653,-0.194488
1.77357,-0.25368,-0.125283
1.72229,-0.332907,-0.143201
1.7199,-0.332446,0.0305766
1.77885,-0.254435,0.10465
1.78389,-0.255156,-0.0839422
1.84641,-0.172587,-0.0755527
1.7893,-0.25593,-0.0420598
1.71047,-0.336512,-0.0507339
1.77705,-0.260194,0
1.83539,-0.177698,0.0107172
1.70724,-0.335877,-0.0101127
1.7747,-0.25985,-0.193203
1.76878,-0.258982,-0.125004
1.83464,-0.177625,0.0536429
1.71094,-0.336603,0.030437
1.65109,-0.409521,-0.0990689
1.778,-0.260333,0.10465
1.78303,-0.26107,-0.0839422
1.83787,-0.177938,-0.0752271
1.69753,-0.340124,-0.0503848
1.77613,-0.266396,0
1.77456,-0.26616,-0.279169
1.83874,-0.184503,0.0107404
1.70998,-0.34262,-0.010136
1.77378,-0.266043,-0.193203
1.77565,-0.266324,0.0417806
1.76786,-0.265155,-0.125004
1.82605,-0.18323,0.0534102
1.70975,-0.342573,0.030437
1.835,-0.184128,-0.118194
1.77313,-0.265945,0.104418
1.76631,-0.264922,-0.0831977
1.83724,-0.184353,-0.0752271
1.77565,-0.266324,-0.0417806
1.69627,-0.346343,-0.0503848
1.76328,-0.27108,0
1.77358,-0.272663,-0.279169
1.83407,-0.190827,0.0107172
1.7048,-0.348085,-0.0101127
1.7728,-0.272543,-0.193203
1.76293,-0.271026,-0.124725
1.82537,-0.189922,0.0534102
1.83034,-0.190439,-0.117938
1.76425,-0.271229,0.103953
1.76532,-0.271394,-0.0831977
1.8286,-0.190258,-0.0749014
1.69511,-0.351967,-0.0503848
1.75842,-0.276305,0
1.82945,-0.196481,0.0106939
1.69188,-0.351296,-0.010043
1.75617,-0.275951,-0.19149
1.75414,-0.275632,-0.124167
1.81678,-0.19512,0.0531775
1.82176,-0.195655,-0.117426
1.75939,-0.276458,0.10372
1.75652,-0.276006,-0.0828254
1.82399,-0.195894,-0.0747386
1.68214,-0.355402,-0.0500357
1.7535,-0.281807,0
1.81682,-0.201542,0.0106242
1.69848,-0.358854,-0.0100895
1.75912,-0.28271,-0.191918
1.75317,-0.281754,-0.124167
1.81609,-0.20146,0.0531775
1.82107,-0.202013,-0.117426
1.75842,-0.282597,0.10372
1.75949,-0.28277,-0.0830115
1.81932,-0.201819,-0.0745757
1.76487,-0.283634,-0.0415945
1.68864,-0.363247,-0.0502684
1.7564,-0.288881,0
1.8121,-0.207744,0.0106009
1.68151,-0.361712,-0.00999649
1.7463,-0.28722,-0.190633
1.74819,-0.28753,-0.123888
1.69935,-0.365549,-0.1419
1.81136,-0.20766,0.0530611
1.75844,-0.289217,-0.0830115
1.81063,-0.207576,-0.0742501
1.75987,-0.289452,-0.0415014
1.67565,-0.366575,-0.0499194
1.74749,-0.293684,0
1.80342,-0.21313,0.0105544
1.67633,-0.366724,-0.00997324
1.74529,-0.293314,-0.190633
1.75096,-0.294268,0.0413153
1.75111,-0.294292,-0.124167
1.8146,-0.214451,0.0531775
1.7456,-0.293366,-0.0824532
1.80989,-0.213895,-0.0742501
1.67052,-0.371263,-0.049803
1.74257,-0.298802,0
1.80667,-0.219591,0.0105777
1.68291,-0.374017,-0.0100197
1.74822,-0.299772,-0.191061
1.73832,-0.298074,-0.123329
1.80594,-0.219502,0.0529448
1.803,-0.219145,-0.116403
1.74462,-0.299153,-0.0824532
1.80124,-0.218931,-0.0739244
1.74998,-0.300072,-0.0413153
1.67701,-0.378854,-0.0500357
1.73363,-0.303503,0
1.8059,-0.225896,0.0105777
1.73933,-0.304501,-0.190204
1.73334,-0.303452,-0.12305
1.78929,-0.22382,0.0524793
1.80619,-0.225933,-0.116659
1.73569,-0.303863,-0.0820809
1.67932,-0.379375,-0.0902272
1.80046,-0.225217,-0.0739244
1.72857,-0.309151,0
1.79315,-0.230981,0.0105079
1.74212,-0.311574,-0.190633
1.73222,-0.309803,-0.12305
1.67465,-0.384776,-0.140272
1.79639,-0.231398,0.052712
1.79347,-0.231022,-0.115891
1.73457,-0.310223,-0.0820809
1.7917,-0.230793,-0.0735988
1.65868,-0.387208,-0.0495703
1.71961,-0.313747,0
1.79234,-0.237239,0.0105079
1.72928,-0.315512,-0.189348
1.73113,-0.315847,-0.12305
1.78764,-0.236618,0.0524793
1.78474,-0.236233,-0.115379
1.72954,-0.315559,-0.0818948
1.79088,-0.237046,-0.0735988
1.65343,-0.392073,-0.0494539
1.7303,-0.321943,0
1.78357,-0.242416,0.0104614
1.72817,-0.321546,-0.189348
1.72609,-0.321158,-0.122771
1.78285,-0.242318,0.052363
1.7839,-0.242462,-0.115379
1.71665,-0.319401,-0.0813364
1.66741,-0.395389,-0.0898085
1.78212,-0.242219,-0.0732731
1.72984,-0.321856,-0.0409431
1.64442,-0.395396,-0.0492212
1.71356,-0.324401,0
1.77884,-0.247467,0.0104382
1.72325,-0.326234,-0.188919
1.71331,-0.324353,-0.121934
1.77812,-0.247367,0.0522466
1.77918,-0.247515,-0.115124
1.72349,-0.326279,-0.0817087
1.66228,-0.399691,-0.0895992
1.78135,-0.247817,-0.0732731
1.72096,-0.325801,-0.040757
1.70849,-0.329623,0
1.78192,-0.25424,0.0104614
1.71819,-0.331494,-0.188491
1.72,-0.331843,-0.122492
1.77328,-0.253007,0.0521302
1.77831,-0.253724,-0.115124
1.71449,-0.330779,-0.0813364
1.77652,-0.253469,-0.0731103
1.72374,-0.332563,-0.0408501
1.76487,-0.258724,-0.0311351
1.70722,-0.33618,0
1.7651,-0.258759,0.0103685
1.713,-0.33732,-0.188062
1.7148,-0.337674,-0.122213
1.76043,-0.258074,0.0517812
1.76942,-0.259392,-0.114612
1.71321,-0.33736,-0.0813364
1.65543,-0.410903,-0.0893898
1.76763,-0.259129,-0.0727846
1.76009,-0.263675,-0.0310653
1.69831,-0.339972,0
1.76428,-0.264303,0.0103685
1.70804,-0.341919,-0.187634
1.70199,-0.34071,-0.121376
1.76357,-0.264196,0.0518975
1.7686,-0.26495,-0.114612
1.71214,-0.342741,-0.0813364
1.65025,-0.415127,-0.0891805
1.76285,-0.264089,-0.0726218
1.71353,-0.343019,-0.040664
1.70097,-0.346993,0
1.7633,-0.270768,0.0103685
1.71457,-0.349767,-0.188491
1.70464,-0.347743,-0.121655
1.75468,-0.269444,0.0516648
1.75972,-0.270218,-0.1141
1.70304,-0.347416,-0.0809642
1.64872,-0.421173,-0.0891805
1.75792,-0.269942,-0.072459
1.70834,-0.348498,-0.0405709
1.68408,-0.349676,0
1.75444,-0.27568,0.010322
1.69561,-0.352069,-0.121097
1.75373,-0.275568,0.0516648
1.75482,-0.27574,-0.113844
1.70182,-0.353359,-0.0809642
1.63564,-0.423919,-0.0885524
1.76091,-0.276697,-0.0726218
1.7032,-0.353646,-0.0404779
1.68683,-0.356085,0
1.75352,-0.281496,0.010322
1.69443,-0.35769,-0.121097
1.74491,-0.280114,0.0514321
1.75784,-0.28219,-0.1141
1.70064,-0.359,-0.0809642
1.7521,-0.281267,-0.0722961
1.69419,-0.35764,-0.0402918
1.74829,-0.287234,-0.0309257
1.68942,-0.363106,0
1.74458,-0.286624,0.0102755
1.69701,-0.364736,-0.121376
1.74782,-0.287156,0.0515484
1.74498,-0.286689,-0.113333
1.74317,-0.286392,-0.0719705
1.7355,-0.291045,-0.0307162
1.73968,-0.291746,0.0102522
1.69189,-0.369511,-0.121097
1.73897,-0.291628,0.0513157
1.74008,-0.291814,-0.113077
1.68638,-0.368306,-0.0804058
1.74221,-0.29217,-0.0719705
1.67994,-0.3669,-0.0400126
1.73447,-0.297102,-0.0307162
1.74259,-0.298492,0.0102755
1.73794,-0.297696,0.0513157
1.73512,-0.297212,-0.112821
1.68508,-0.374191,-0.0804058
1.74118,-0.29825,-0.0719705
1.67474,-0.371895,-0.0399195
1.73342,-0.303154,-0.0307162
1.72972,-0.302506,0.0102057
1.68149,-0.379556,-0.120539
1.72901,-0.302383,0.051083
1.73014,-0.30258,-0.112565
1.67597,-0.378311,-0.0800335
1.73225,-0.302949,-0.0716448
1.68123,-0.379499,-0.0401057
1.72842,-0.3085,-0.0306464
1.72865,-0.308542,0.0102057
1.67626,-0.384531,-0.12026
1.72008,-0.307012,0.0508503
1.72907,-0.308617,-0.112565
1.67464,-0.384159,-0.0800335
1.72331,-0.307589,-0.0713192
1.676,-0.384471,-0.0400126
1.72334,-0.314116,-0.0305766
1.66318,-0.387953,-0.119423
1.71894,-0.313314,0.0508503
1.72793,-0.314952,-0.112565
1.67322,-0.390294,-0.0800335
1.72611,-0.31462,-0.071482
1.67069,-0.389703,-0.0399195
1.71055,-0.31734,-0.0303672
1.71864,-0.318842,0.0101592
1.71908,-0.318923,-0.112054
1.72118,-0.319312,-0.0713192
1.65778,-0.392188,-0.0396404
1.70937,-0.323607,-0.0303672
1.71746,-0.325139,0.0101592
1.7179,-0.325222,-0.112054
1.66275,-0.399806,-0.0796613
1.71214,-0.324132,-0.0709935
1.70829,-0.329274,-0.0303672
1.71245,-0.330076,0.010136
1.71681,-0.330917,-0.112054
1.66142,-0.405318,-0.0796613
1.71106,-0.329808,-0.0709935
1.69922,-0.33399,-0.0302276
1.7073,-0.335579,0.0101127
1.70775,-0.335667,-0.111542
1.65604,-0.410443,-0.0794752
1.70592,-0.335306,-0.0708307
1.69436,-0.339181,0.010043
1.69874,-0.340059,-0.11103
1.70082,-0.340474,-0.0706678
1.69322,-0.344798,0.010043
1.69761,-0.34569,-0.11103
1.69576,-0.345315,-0.070505
1.68809,-0.349894,0.0100197
1.69248,-0.350804,-0.110774
1.69846,-0.352043,-0.0706678
1.68272,-0.354911,-0.0300181
1.69515,-0.357533,-0.11103
1.6894,-0.35632,-0.0703422
1.68147,-0.360782,-0.0300181
1.68609,-0.361774,-0.110519
1.68424,-0.361377,-0.0701794
1.68417,-0.367209,-0.0300879
1.68488,-0.367363,-0.110519
1.67913,-0.366109,-0.0700165
1.67969,-0.372378,-0.110263
1.67394,-0.371102,-0.0698537
1.66199,-0.374851,-0.0297389
1.67052,-0.376775,-0.109751
1.67646,-0.378115,-0.0700165
1.6692,-0.382604,-0.109751
1.67124,-0.383071,-0.0698537
1.66785,-0.388428,-0.109751
1.6621,-0.38709,-0.069528
1.65095,-0.390572,-0.108728
1.65685,-0.391969,-0.0693652
1.65353,-0.396976,-0.108984
1.65943,-0.398394,-0.069528
1.65415,-0.403238,-0.0693652
1.65273,-0.409009,-0.0693652
