2.60298,0.258894,0.0304531
2.59993,0.248971,0.0304065
2.60078,0.239894,0.0304065
2.60551,0.232077,0.0304531
2.59837,0.221846,0.0303599
2.59913,0.212774,0.0303599
2.59986,0.203699,-0.0303599
2.59653,0.194779,-0.0303134
2.60052,0.195079,0.0303599
2.59386,0.175923,0.0302668
2.59044,0.167063,-0.0302203
2.59044,0.167063,0.0302203
2.595,0.158262,-0.0302668
2.595,0.158262,0.0302668
2.59604,0.140143,-0.0302668
2.59604,0.140143,0.0302668
2.58853,0.130676,-0.0301737
2.59252,0.130878,0.0302203
2.60669,0.259723,0.0457253
2.58897,0.12164,-0.0301737
2.58897,0.12164,0.0301737
2.59564,0.249475,0.0455159
2.58538,0.112428,-0.0301271
2.58938,0.112602,0.0301737
2.59251,0.240044,0.0454461
2.58975,0.103563,-0.0301737
2.59732,0.231348,0.0455159
2.58156,0.103235,-0.150464
2.59846,0.222311,-0.0151575
2.5901,0.0945229,0.0301737
2.59811,0.222281,0.0455159
2.5824,0.0856674,-0.0300806
2.60317,0.21402,-0.0151807
2.59883,0.213663,0.0455159
2.58619,0.0857931,-0.150696
2.5867,0.0763204,-0.0301271
2.60394,0.204478,-0.0151807
2.59561,0.203824,0.0454461
2.59048,0.076432,-0.150929
2.58694,0.0677414,-0.0301271
2.59663,0.195241,-0.0151342
2.59627,0.195215,0.0454461
2.58673,0.0677359,-0.150696
2.5985,0.195383,0.106165
2.58316,0.0586207,-0.0300806
2.5933,0.185891,-0.015111
2.60093,0.186438,0.0455159
2.58296,0.0586161,-0.150464
2.59518,0.186026,0.106002
2.59394,0.176838,-0.015111
2.58714,0.0496768,-0.150696
2.59582,0.176966,0.106002
2.58351,0.0405854,-0.0300806
2.59853,0.16804,-0.0151342
2.58351,0.0405854,0.0300806
2.59818,0.168017,0.0454461
2.57931,0.0405195,-0.150231
2.58844,0.167388,0.105676
2.58607,0.158171,-0.0754027
2.58363,0.0315664,-0.0300806
2.59476,0.158702,0.0453763
2.57944,0.0315151,-0.150231
2.58502,0.158106,0.105513
2.59459,0.149603,-0.0756354
2.57973,0.0225132,-0.030034
2.5913,0.149414,0.0453064
2.58352,0.0225464,-0.150464
2.59354,0.149543,0.105839
2.5951,0.140545,-0.0756354
2.57579,0.0134866,-0.0299874
2.59216,0.140386,-0.0150877
2.58781,0.140151,0.0452366
2.57161,0.0134647,-0.149766
2.59005,0.140272,0.105676
2.58758,0.131083,-0.0754027
2.60307,0.259822,0
2.57982,0.00450405,0.030034
2.59228,0.131321,0.0453064
2.57563,0.00449673,-0.149999
2.58653,0.13103,0.105513
2.58803,0.122049,-0.0754027
2.57982,-0.00450191,-0.030034
2.58508,0.12191,-0.0150412
2.58873,0.122082,0.0452366
2.57164,-0.00448763,-0.149766
2.58698,0.121999,0.105513
2.58444,0.112839,-0.0752863
2.57579,-0.0134869,-0.0299874
2.59349,0.113234,-0.0150877
2.58074,-0.0135128,-0.240911
2.60411,0.241576,0.0608564
2.57579,-0.0134869,0.0299874
2.58914,0.113044,0.0452366
2.57161,-0.013465,-0.149766
2.58739,0.112968,0.105513
2.59397,0.113255,-0.136073
2.5848,0.104269,-0.0752863
2.59763,0.23229,0
2.57573,-0.0220279,-0.0299874
2.58985,0.104472,-0.0150645
2.5895,0.104458,0.0452366
2.57155,-0.0219922,-0.149766
2.59034,0.104492,-0.135864
2.58515,0.0952448,-0.0752863
2.60242,0.223563,0
2.57564,-0.0310195,-0.0299874
2.5862,0.0952836,-0.0150412
2.57661,-0.0310312,-0.240539
2.59773,0.22316,0.0606703
2.58985,0.0954179,0.0452366
2.56347,-0.0308729,-0.149301
2.5881,0.0953533,0.105513
2.58669,0.0953017,-0.135655
2.5697,0.0946757,0.20992
2.57346,0.0862703,-0.0749372
2.59916,0.214603,0
2.56853,-0.0394525,-0.239796
2.59048,0.213887,0.0604842
2.56335,-0.039373,-0.149301
2.5844,0.086637,0.10535
2.583,0.08659,-0.135445
2.57797,0.0864214,0.210571
2.57376,0.0768381,-0.0749372
2.59594,0.204762,0
2.56837,-0.0488658,-0.239796
2.59523,0.204706,0.0605772
2.58645,0.0772169,0.0451668
2.5592,-0.0486914,-0.149068
2.5847,0.0771647,0.10535
2.5833,0.0771228,-0.135445
2.58226,0.0770916,0.210897
2.59922,0.205021,-0.0606703
2.57402,0.0678528,-0.0749372
2.59265,0.195397,0
2.56818,-0.0578315,-0.239796
2.59593,0.195645,0.0605772
2.58671,0.0681873,0.0451668
2.56301,-0.057715,-0.149301
2.58496,0.0681412,0.10535
2.57956,0.067999,-0.135236
2.57454,0.0678666,0.210246
2.57822,0.0594081,-0.0750536
2.59727,0.187086,0
2.57097,-0.0664256,-0.0299409
2.58727,0.0596165,-0.0150412
2.57196,-0.0664511,-0.240167
2.60056,0.187322,0.0606703
2.57097,-0.0664256,0.0299409
2.55881,-0.0661114,-0.149068
2.57977,0.0594438,-0.135236
2.57475,0.059328,0.210246
2.59657,0.187035,-0.0605772
2.57443,0.0498811,-0.0749372
2.57071,-0.0758476,-0.0299409
2.58347,0.0500564,-0.015018
2.5717,-0.0758768,-0.240167
2.56254,-0.0756067,-0.149301
2.59753,0.177537,0.151627
2.58137,0.0500157,0.105188
2.58397,0.050066,-0.135445
2.57096,0.049814,0.20992
2.59325,0.177245,-0.0604842
2.57059,0.0408302,-0.0748209
2.59056,0.167977,0
2.56643,-0.0846894,-0.0298943
2.56743,-0.0847225,-0.239796
2.59784,0.168449,0.0605772
2.57909,0.0409653,-0.210571
2.58328,0.0410318,0.045097
2.55827,-0.0844201,-0.149068
2.58153,0.0410041,0.105188
2.58013,0.0409818,-0.135236
2.57511,0.040902,0.210246
2.59385,0.168191,-0.0604842
2.57471,0.0323564,-0.0749372
2.58711,0.159141,0
2.56613,-0.093199,-0.0298943
2.55918,-0.0929464,-0.239052
2.58641,0.159098,0.0602981
2.56613,-0.093199,0.0298943
2.5834,0.0324656,0.045097
2.55399,-0.0927578,-0.148836
2.58672,0.159117,0.150929
2.57766,0.0323935,0.105025
2.58026,0.0324261,-0.135236
2.56726,0.0322627,0.209595
2.5904,0.159343,-0.0603911
2.56681,0.0228488,-0.0747045
2.58768,0.149658,0
2.55778,-0.102284,-0.0298012
2.5628,-0.102484,-0.239424
2.57932,0.0229601,-0.210571
2.57951,0.0229618,0.0450272
2.55363,-0.102117,-0.148836
2.5833,0.149405,0.150696
2.58176,0.0229818,0.105188
2.57237,0.0228982,-0.134817
2.56736,0.0228536,0.209595
2.59097,0.149849,-0.0603911
2.57087,0.013911,-0.0748209
2.58818,0.140625,0
2.5654,-0.111558,-0.0298943
2.57992,0.0139599,-0.0149947
2.5654,-0.111558,0.0298943
2.57938,0.013957,-0.210571
2.57557,0.0139364,0.0449574
2.54927,-0.110857,-0.148603
2.5838,0.140387,0.150696
2.57643,0.013941,-0.135027
2.57141,0.0139138,0.20992
2.58748,0.140587,-0.0602981
2.56691,0.00582445,-0.0747045
2.56104,-0.119432,-0.0298477
2.59891,0.26078,0.0151807
2.57995,0.00585404,-0.0149947
2.56207,-0.119479,-0.239424
2.60183,0.261073,0.0761008
2.5796,0.00585325,0.0450272
2.54891,-0.118866,-0.148603
2.58423,0.132269,0.150696
2.57786,0.00584929,0.105025
2.57646,0.00584612,-0.135027
2.57144,0.00583473,0.20992
2.58791,0.132457,-0.0602981
2.56691,-0.00403241,-0.0747045
2.5891,0.122551,0
2.56456,-0.129467,-0.0298943
2.60387,0.251182,0.015204
2.56159,-0.129317,-0.239424
2.5924,0.122707,0.0603911
2.56456,-0.129467,0.0298943
2.57942,-0.00405206,-0.210571
2.5756,-0.00404607,0.0449574
2.57674,0.121967,0.150231
2.57786,-0.00404961,0.105025
2.56847,-0.00403487,-0.134608
2.57144,-0.00403953,0.20992
2.58441,0.122329,-0.060205
2.56288,-0.0129718,-0.0745881
2.57353,0.112813,0
2.5601,-0.138202,-0.0298477
2.60473,0.242092,0.015204
2.55714,-0.138042,-0.239052
2.58881,0.113483,0.0602981
2.5601,-0.138202,0.0298477
2.5754,-0.0130352,-0.210246
2.59173,0.240884,0.0757518
2.54797,-0.137547,-0.148603
2.58114,0.113147,0.150464
2.56445,-0.0129797,-0.134399
2.57141,-0.013015,0.20992
2.58881,0.113483,-0.0602981
2.56283,-0.0210228,-0.0745881
2.58586,0.105216,0
2.59751,0.233193,0.0151575
2.5567,-0.146074,-0.239052
2.58916,0.10535,0.0602981
2.55566,-0.146015,0.0298012
2.57136,-0.0210927,-0.20992
2.59247,0.232741,0.0757518
2.57552,-0.0211269,0.0449574
2.55151,-0.145778,-0.148836
2.58548,0.1052,0.150696
2.57378,-0.0211126,0.104862
2.56839,-0.0210684,-0.134608
2.56339,-0.0210273,0.209269
2.58916,0.10535,-0.0602981
2.56273,-0.0304165,-0.0745881
2.57823,0.0954408,0
2.55511,-0.155382,-0.0298012
2.59835,0.223671,0.0151575
2.56012,-0.155687,-0.239424
2.5591,-0.155625,0.0298477
2.57525,-0.0305651,-0.210246
2.59331,0.223237,0.0757518
2.57143,-0.0305197,0.0448876
2.54697,-0.154887,-0.148603
2.57387,0.0952794,0.149999
2.57368,-0.0305465,0.104862
2.56829,-0.0304825,-0.134608
2.57126,-0.0305178,0.20992
2.58952,0.0958588,-0.0602981
2.57061,-0.0394842,-0.0748209
2.58255,0.0865751,0
2.55455,-0.164299,-0.0298012
2.59911,0.2146,0.0151575
2.55161,-0.16411,-0.23868
2.57513,-0.0395537,-0.210246
2.59407,0.214184,0.0757518
2.57131,-0.0394949,0.0448876
2.54243,-0.16352,-0.148371
2.57818,0.0864286,0.150231
2.57356,-0.0395296,0.104862
2.57616,-0.0395695,-0.135027
2.56716,-0.0394312,0.209595
2.58984,0.0868196,-0.0602981
2.57483,0.0777696,0
2.55798,-0.173039,-0.0298477
2.59582,0.205664,0.0151342
2.54708,-0.172302,-0.238309
2.58212,0.07799,0.060112
2.55798,-0.173039,0.0298477
2.56701,-0.0479435,-0.209595
2.59078,0.205265,0.0756354
2.57116,-0.0480209,0.0448876
2.54586,-0.172219,-0.148603
2.58244,0.0779997,0.150464
2.57342,-0.0480631,0.104862
2.56403,-0.0478878,-0.134399
2.571,-0.0480179,0.20992
2.56919,-0.0479842,0.468511
2.58212,0.07799,-0.060112
2.60016,0.196877,-0.0455159
2.55429,-0.0566265,-0.0743554
2.57508,0.0687806,0
2.55337,-0.181684,-0.0298012
2.54646,-0.181192,-0.238309
2.55736,-0.181968,0.0298477
2.58875,0.0691457,-0.181088
2.56284,-0.056816,-0.209269
2.58749,0.195918,0.075519
2.57098,-0.0569964,0.0448876
2.54922,-0.181389,-0.148836
2.57472,0.0687708,0.149999
2.56524,-0.0568692,0.104536
2.55986,-0.0567498,-0.134189
2.56683,-0.0569044,0.209595
2.56507,-0.0568655,0.467794
2.58238,0.0689755,-0.060112
2.60083,0.187799,-0.0455159
2.56207,-0.0657478,-0.0745881
2.5833,0.0599767,0
2.55671,-0.190894,-0.0298477
2.5932,0.187248,0.015111
2.54979,-0.190377,-0.23868
2.5826,0.0599605,0.060112
2.55272,-0.190596,0.0298012
2.58499,0.0600158,-0.180809
2.56661,-0.0658644,-0.209595
2.59215,0.187172,0.0756354
2.57076,-0.0659708,0.0448876
2.54858,-0.190286,-0.148836
2.57494,0.0597826,0.149999
2.56503,-0.0658237,0.104536
2.56364,-0.065788,-0.134399
2.55466,-0.0655576,0.208619
2.55699,-0.0656174,0.466359
2.5826,0.0599605,-0.060112
2.59352,0.177718,-0.0453763
2.55382,-0.0749034,-0.0743554
2.57951,0.0504298,0
2.55599,-0.200263,-0.0298477
2.59786,0.178016,0.0151342
2.56685,-0.0752856,-0.014925
2.54907,-0.199721,-0.23868
2.58281,0.0504944,0.060112
2.55201,-0.199951,0.0298012
2.56636,-0.0752711,-0.209595
2.58484,0.177123,0.0754027
2.56651,-0.0752754,0.0448178
2.5399,-0.199002,-0.148371
2.57115,0.0502665,0.149766
2.56477,-0.0752245,0.104536
2.5847,0.0505314,-0.120423
2.55939,-0.0750666,-0.134189
2.56237,-0.0751542,0.209269
2.5528,-0.0748735,0.465642
2.57881,0.0504162,-0.0600189
2.59014,0.168405,-0.0453064
2.55354,-0.0838174,-0.0743554
2.57967,0.0414254,0
2.55129,-0.208858,-0.0298012
2.56194,-0.084093,-0.326277
2.59049,0.168427,0.0150877
2.54439,-0.208293,-0.238309
2.58297,0.0414784,0.060112
2.55129,-0.208858,0.0298012
2.58535,0.0415167,-0.180809
2.56608,-0.0842289,-0.209595
2.58943,0.168359,0.075519
2.57131,0.0412912,0.149766
2.5565,-0.0839145,0.104211
2.5631,-0.0841311,-0.134399
2.55811,-0.0839673,0.208944
2.57497,0.0413499,-0.0599259
2.59467,0.160061,-0.0453763
2.57979,0.0328706,0
2.55059,-0.217317,-0.0298012
2.56958,-0.0928749,-0.327287
2.57509,0.0328108,0.0599259
2.56578,-0.0927378,-0.209595
2.58998,0.159771,0.075519
2.56593,-0.0927432,0.0448178
2.57143,0.0327642,0.149766
2.55621,-0.0923917,0.104211
2.58099,0.032886,-0.120236
2.55482,-0.0923416,-0.13398
2.5618,-0.0925938,0.209269
2.57909,0.0328618,-0.0600189
2.57989,0.023415,0
2.54579,-0.22631,-0.0297546
2.56129,-0.101976,-0.326277
2.59559,0.15057,0.015111
2.5752,0.0233724,0.0599259
2.54977,-0.226664,0.0298012
2.58159,0.0234304,-0.18053
2.56144,-0.101983,-0.209269
2.58256,0.149814,0.0752863
2.53768,-0.225589,-0.148371
2.57154,0.0233392,0.149766
2.55585,-0.10176,0.104211
2.55746,-0.101824,0.208944
2.59747,0.150679,-0.106002
2.58319,0.023445,-0.060112
2.59176,0.141272,-0.0453064
2.54853,-0.11038,-0.074239
2.57596,0.014387,0
2.56092,-0.110916,-0.326277
2.59211,0.141291,0.0150877
2.54207,-0.234926,-0.238309
2.57926,0.0144055,0.0600189
2.54498,-0.235195,0.0297546
2.58166,0.0144188,-0.18053
2.56107,-0.110923,-0.209269
2.58307,0.140798,0.0752863
2.5652,-0.111102,0.0448178
2.53687,-0.234445,-0.148371
2.57959,0.0144073,0.150231
2.55948,-0.110854,0.104373
2.5541,-0.110621,-0.13398
2.5647,0.0143241,0.31491
2.55311,-0.110578,0.208619
2.58601,0.140959,-0.105513
2.57926,0.0144055,-0.0600189
2.58824,0.13202,-0.0452366
2.55212,-0.119462,-0.0743554
2.57199,0.00538679,0
2.54415,-0.244077,-0.0297546
2.56051,-0.119855,-0.326277
2.58859,0.132038,0.0150645
2.53727,-0.243417,-0.237937
2.5753,0.0053937,0.0599259
2.54415,-0.244077,0.0297546
2.58169,0.00540709,-0.18053
2.55669,-0.119676,-0.208944
2.58754,0.131985,0.0754027
2.56081,-0.119869,0.044748
2.53604,-0.243299,-0.148371
2.57164,0.00538604,0.149766
2.56307,-0.119974,0.104536
2.55769,-0.119723,-0.134189
2.5527,-0.119489,0.208619
2.58649,0.131931,-0.105513
2.5753,0.0053937,-0.0599259
2.58864,0.123889,-0.0452366
2.572,-0.00269339,0
2.54735,-0.252463,-0.0298012
2.56013,-0.127899,-0.326277
2.59299,0.124097,0.0150877
2.55677,-0.127731,-0.0148785
2.53649,-0.251387,-0.237937
2.5753,-0.00269685,0.0599259
2.54337,-0.252069,0.0297546
2.5777,-0.00269937,-0.180251
2.5563,-0.127707,-0.208944
2.58794,0.123855,0.0754027
2.56441,-0.128113,0.0448178
2.53526,-0.251265,-0.148371
2.56765,-0.00268884,0.149534
2.55868,-0.127827,0.104373
2.5573,-0.127757,-0.134189
2.56871,-0.00268995,0.315398
2.54833,-0.127309,0.208293
2.5829,0.123614,-0.10535
2.5753,-0.00269685,-0.0599259
2.58908,0.1144,-0.0452366
2.57197,-0.0121202,0
2.55964,-0.137281,-0.326277
2.59343,0.114592,0.0150877
2.56028,-0.137315,-0.0149017
2.57527,-0.0121358,0.0599259
2.53845,-0.26098,0.029708
2.57369,-0.0121283,-0.179972
2.55581,-0.137076,-0.208944
2.58438,0.114192,0.0752863
2.55594,-0.137082,0.0446782
2.54227,-0.261373,-0.148836
2.56762,-0.0120997,0.149534
2.5582,-0.137204,0.104373
2.57718,-0.0121447,-0.12005
2.55282,-0.136915,-0.13398
2.55677,-0.0120486,0.313935
2.55581,-0.137076,0.208944
2.58733,0.114322,-0.105513
2.54237,-0.136355,0.464207
2.57527,-0.0121358,-0.0599259
2.58946,0.105362,-0.0452366
2.56391,-0.0210324,0
2.5415,-0.270262,-0.0297546
2.55518,-0.145989,-0.325772
2.57522,-0.0211251,0.0599259
2.5415,-0.270262,0.0297546
2.57363,-0.0211121,-0.179972
2.55532,-0.145996,-0.208944
2.57678,0.104845,0.0750536
2.55944,-0.146232,0.044748
2.59253,0.105486,-0.16629
2.5334,-0.269401,-0.148371
2.57156,-0.0210951,0.149766
2.5577,-0.146133,0.104373
2.54834,-0.145598,-0.133771
2.56068,-0.0210059,0.314423
2.55134,-0.145769,0.208619
2.58372,0.105128,-0.10535
2.57522,-0.0211251,-0.0599259
2.5898,0.096774,-0.0452366
2.56383,-0.0295345,0
2.54456,-0.279124,-0.0298012
2.55468,-0.154461,-0.325772
2.58615,0.0966378,0.0150412
2.55928,-0.154739,-0.0149017
2.53372,-0.277935,-0.237937
2.56713,-0.0295726,0.0597397
2.54059,-0.278688,0.0297546
2.57354,-0.0296464,-0.179972
2.55084,-0.154229,-0.208619
2.5811,0.0964492,0.0751699
2.55894,-0.154718,0.044748
2.53249,-0.2778,-0.148371
2.56349,-0.0295306,0.149301
2.57304,-0.0296406,-0.119864
2.54386,-0.153806,-0.133561
2.5606,-0.0294973,0.314423
2.54686,-0.153988,0.208293
2.58006,0.0964101,-0.105188
2.58214,0.0870119,-0.045097
2.5677,-0.038992,0
2.53955,-0.287998,-0.0297546
2.54618,-0.163315,-0.324762
2.58649,0.0871584,0.0150412
2.5587,-0.164118,-0.0149017
2.56487,-0.0389488,-0.27631
2.53557,-0.287547,0.029708
2.56943,-0.0390181,-0.179693
2.54628,-0.163322,-0.208293
2.58144,0.0869884,0.0751699
2.55436,-0.16384,0.0446782
2.58124,0.0869815,-0.165522
2.56336,-0.038926,0.149301
2.55922,-0.164152,-0.134399
2.56047,-0.0388822,0.314423
2.55026,-0.163577,0.208619
2.5764,0.0868185,-0.105025
2.56701,-0.0389814,-0.0597397
2.57843,0.0778773,-0.0450272
2.56755,-0.0479547,0
2.53853,-0.296861,-0.0297546
2.5456,-0.172202,-0.324762
2.58678,0.0781294,0.0150412
2.55811,-0.173049,-0.0149017
2.56074,-0.0478274,-0.275882
2.57086,-0.0480164,0.0598328
2.5425,-0.297326,0.0298012
2.57327,-0.0480614,-0.179972
2.55365,-0.172747,-0.208944
2.58173,0.0779769,0.0751699
2.54978,-0.172486,0.0446084
2.57753,0.0778502,-0.165266
2.55522,-0.0477244,0.148836
2.55603,-0.172908,0.104373
2.57276,-0.048052,-0.119864
2.55465,-0.172815,-0.134189
2.56032,-0.0478196,0.314423
2.54967,-0.172478,0.208619
2.58068,0.0779453,-0.105188
2.57086,-0.0480164,-0.0598328
2.58667,0.0695415,-0.0451668
2.55938,-0.0562928,0
2.54897,-0.180924,-0.325267
2.58702,0.0695509,0.0150412
2.56057,-0.0563188,-0.275882
2.56668,-0.0564534,0.0597397
2.53356,-0.3048,0.029708
2.5691,-0.0565066,-0.179693
2.55704,-0.181497,-0.209269
2.58197,0.0694152,0.0751699
2.55718,-0.181506,0.044748
2.57778,0.0693024,-0.165266
2.56304,-0.0563732,0.149301
2.54747,-0.180818,0.104048
2.57259,-0.0565833,-0.119864
2.54211,-0.180437,-0.133561
2.55618,-0.0562224,0.313935
2.54909,-0.180932,0.208619
2.58492,0.0694944,-0.10535
2.56668,-0.0564534,-0.0597397
2.5829,0.0604184,-0.045097
2.55517,-0.0651245,0
2.54042,-0.314625,-0.0298012
2.55228,-0.190115,-0.325772
2.58325,0.0604265,0.015018
2.55687,-0.190457,-0.0149017
2.56433,-0.0653579,-0.27631
2.56647,-0.0654125,0.0597397
2.53645,-0.314133,0.0297546
2.56091,-0.0652708,-0.179135
2.54049,-0.189237,-0.207968
2.5782,0.0603085,0.0750536
2.55653,-0.190431,0.044748
2.582,0.0603972,-0.165522
2.55883,-0.0652178,0.149068
2.54683,-0.189709,0.104048
2.56838,-0.0654611,-0.119678
2.54545,-0.189606,-0.133771
2.55597,-0.0651448,0.313935
2.54049,-0.189237,0.207968
2.57716,0.060284,-0.105025
2.57047,-0.0655144,-0.0598328
2.5831,0.0509512,-0.045097
2.55891,-0.0746058,0
2.53528,-0.323428,-0.0297546
2.54761,-0.199159,-0.325267
2.56407,-0.0747562,-0.27631
2.56621,-0.0748186,0.0597397
2.52734,-0.322415,0.0296615
2.56465,-0.0747729,-0.179414
2.54375,-0.198857,-0.208293
2.57441,0.0507797,0.0749372
2.55182,-0.199489,0.0446782
2.57821,0.0508546,-0.165266
2.56257,-0.0747123,0.149301
2.5501,-0.199354,0.104211
2.56812,-0.0748743,-0.119678
2.54872,-0.199246,-0.13398
2.55571,-0.0745125,0.313935
2.54375,-0.198857,0.208293
2.57336,0.050759,-0.104862
2.56621,-0.0748186,-0.0597397
2.57527,0.0418043,-0.0449574
2.55864,-0.0835376,0
2.5381,-0.332796,-0.0298012
2.5469,-0.208051,-0.325267
2.57962,0.0418749,0.0149947
2.55545,-0.208749,-0.0149017
2.5262,-0.331236,0.0296615
2.56836,-0.0838549,-0.179693
2.54304,-0.207736,-0.208293
2.57457,0.041793,0.0749372
2.54713,-0.208069,0.0446084
2.57438,0.0417899,-0.16501
2.5583,-0.0835266,0.149068
2.54939,-0.208254,0.104211
2.548,-0.208141,-0.13398
2.55147,-0.0833035,0.313448
2.54702,-0.20806,0.208619
2.58152,0.0419057,-0.105188
2.56594,-0.0837759,-0.0597397
2.5754,0.0328147,-0.0449574
2.55833,-0.0924684,0
2.53692,-0.341653,-0.0298012
2.5422,-0.216603,-0.324762
2.57975,0.0328701,0.0149947
2.55072,-0.217328,-0.0148785
2.55554,-0.0923675,-0.275454
2.56163,-0.0925878,0.0596467
2.529,-0.340585,0.029708
2.56007,-0.0925314,-0.179135
2.53833,-0.216273,-0.207968
2.5747,0.0328058,0.0749372
2.57451,0.0328033,-0.16501
2.55799,-0.0924562,0.149068
2.54864,-0.217152,0.104211
2.54726,-0.217034,-0.13398
2.55116,-0.0922093,0.313448
2.53833,-0.216273,0.207968
2.57366,0.0327925,-0.104862
2.56963,-0.0928767,-0.0598328
2.57949,0.0243119,-0.0450272
2.53578,-0.350064,-0.0298012
2.54938,-0.225732,-0.325772
2.54998,-0.225785,-0.0148785
2.55919,-0.100998,-0.275882
2.56131,-0.101082,0.0596467
2.52389,-0.348423,0.0296615
2.55975,-0.10102,-0.179135
2.54157,-0.225041,-0.208293
2.5748,0.0242676,0.0749372
2.54565,-0.225402,0.0446084
2.5786,0.0243034,-0.165266
2.55368,-0.100781,0.148836
2.54393,-0.22525,0.104048
2.56322,-0.101157,-0.119492
2.54653,-0.22548,-0.13398
2.55084,-0.100669,0.313448
2.54157,-0.225041,0.208293
2.57375,0.0242577,-0.104862
2.56531,-0.10124,-0.0597397
2.54965,-0.109537,0
2.53454,-0.358913,-0.0298012
2.54918,-0.234685,-0.0148785
2.55088,-0.10959,-0.275025
2.56094,-0.110022,0.0596467
2.52266,-0.357231,0.0296615
2.5554,-0.109784,-0.178856
2.54077,-0.233911,-0.208293
2.57486,0.0152797,0.0749372
2.54485,-0.234287,0.0446084
2.57467,0.0152786,-0.16501
2.55331,-0.109694,0.148836
2.54313,-0.234128,0.104048
2.56285,-0.110104,-0.119492
2.54175,-0.234001,-0.133771
2.55048,-0.109572,0.313448
2.54077,-0.233911,0.208293
2.56583,0.0152261,-0.104536
2.56494,-0.110194,-0.0597397
2.5796,0.00675341,-0.0450272
2.56126,-0.118546,0
2.52938,-0.366742,-0.0297546
2.57995,0.00675433,0.0149947
2.55845,-0.118416,-0.275882
2.56057,-0.118514,0.0596467
2.52542,-0.366168,0.029708
2.55901,-0.118442,-0.179135
2.53601,-0.241956,-0.207968
2.5669,0.00672018,0.0747045
2.54008,-0.242345,0.0445385
2.5787,0.00675106,-0.165266
2.55693,-0.118345,0.149068
2.54632,-0.24294,0.104211
2.56248,-0.118602,-0.119492
2.54096,-0.242429,-0.133771
2.5501,-0.118029,0.313448
2.53601,-0.241956,0.207968
2.56986,0.00672791,-0.104699
2.57561,-0.00269714,-0.0449574
2.53848,-0.251585,-0.074239
2.55681,-0.127733,0
2.53197,-0.376599,-0.0298012
2.558,-0.127792,-0.398462
2.57196,-0.00269332,0.0149482
2.54748,-0.252476,-0.0148785
2.55799,-0.127792,-0.275882
2.56411,-0.128097,0.0597397
2.5201,-0.374834,0.0296615
2.55457,-0.127621,-0.178856
2.53511,-0.25125,-0.207968
2.57091,-0.00269222,0.0748209
2.54315,-0.252047,0.0446084
2.57072,-0.00269203,-0.164755
2.55647,-0.127716,0.149068
2.54143,-0.251877,0.104048
2.55803,-0.127794,-0.119306
2.53608,-0.251346,-0.133561
2.54568,-0.127177,0.312961
2.53511,-0.25125,0.207968
2.56587,-0.00268695,-0.104536
2.56411,-0.128097,-0.0597397
2.57558,-0.0116877,-0.0449574
2.56034,-0.136871,0
2.52669,-0.384833,-0.0297546
2.57593,-0.0116893,0.0149715
2.54658,-0.261367,-0.0148785
2.54959,-0.136296,-0.275025
2.55566,-0.13662,0.0595536
2.51878,-0.383628,0.0296615
2.55411,-0.136537,-0.178856
2.53818,-0.260504,-0.208293
2.57488,-0.0116845,0.0749372
2.54623,-0.261331,0.0446782
2.5707,-0.0116655,-0.164755
2.55601,-0.136639,0.149068
2.54054,-0.260746,0.104048
2.55358,-0.136509,-0.11912
2.53121,-0.259789,-0.133352
2.54919,-0.136274,0.313448
2.53421,-0.260097,0.207968
2.56984,-0.0116616,-0.104699
2.55965,-0.136834,-0.0596467
2.57553,-0.0202286,-0.0449574
2.5439,-0.144453,0
2.5254,-0.393209,-0.0297546
2.55312,-0.144977,-0.397847
2.54912,-0.14475,-0.275025
2.55519,-0.145094,0.0595536
2.51749,-0.391979,0.0296615
2.55364,-0.145006,-0.178856
2.5373,-0.26892,-0.208293
2.57083,-0.0201917,0.0748209
2.54535,-0.269773,0.0446782
2.57065,-0.0201902,-0.164755
2.55156,-0.144888,0.148836
2.53966,-0.26917,0.104048
2.55311,-0.144976,-0.11912
2.53828,-0.269024,-0.133771
2.54476,-0.144502,0.312961
2.5373,-0.26892,0.208293
2.57379,-0.0202149,-0.104862
2.55918,-0.145321,-0.0596467
2.57544,-0.0292187,-0.0449574
2.54737,-0.153573,0
2.52796,-0.402651,-0.0298012
2.57179,-0.0291773,0.0149482
2.54474,-0.278695,-0.0148785
2.55866,-0.154253,0.0596467
2.54914,-0.153679,-0.178577
2.57075,-0.0291655,0.0748209
2.54042,-0.278221,0.0446084
2.57455,-0.0292086,-0.16501
2.55104,-0.153794,0.148836
2.5387,-0.278033,0.104048
2.55658,-0.154128,-0.119306
2.53335,-0.277447,-0.133561
2.54424,-0.153384,0.312961
2.53635,-0.277775,0.208293
2.56171,-0.0290629,-0.104373
2.56265,-0.154494,-0.0597397
2.57132,-0.038598,-0.0448876
2.55079,-0.163164,0
2.52252,-0.41127,-0.0297546
2.57167,-0.0386032,0.0149482
2.55199,-0.163241,-0.275454
2.55808,-0.16363,0.0596467
2.51462,-0.409983,0.0296615
2.54457,-0.162766,-0.178298
2.53135,-0.286621,-0.207968
2.56662,-0.0385275,0.0747045
2.53938,-0.287531,0.0446084
2.56645,-0.0385248,-0.164499
2.55444,-0.163398,0.149068
2.53767,-0.287336,0.104048
2.556,-0.163497,-0.119306
2.53629,-0.28718,-0.133771
2.54366,-0.162708,0.312961
2.53531,-0.287069,0.208293
2.56558,-0.0385119,-0.104536
2.55409,-0.163375,-0.0595536
2.56717,-0.0474993,-0.0448178
2.54222,-0.171528,0
2.52501,-0.420731,-0.0298012
2.57152,-0.0475797,0.0149482
2.53871,-0.296433,-0.0148553
2.55141,-0.172148,-0.275454
2.51318,-0.418758,0.0296615
2.54797,-0.171916,-0.178577
2.56248,-0.0474125,0.0745881
2.53439,-0.295929,0.0445385
2.5663,-0.0474831,-0.164499
2.54589,-0.171776,0.148603
2.53665,-0.296192,0.104048
2.55541,-0.172418,-0.119306
2.52734,-0.295105,-0.133352
2.54308,-0.171586,0.312961
2.53033,-0.295455,0.207968
2.56144,-0.0473932,-0.104373
2.55749,-0.172559,-0.0596467
2.563,-0.0559248,-0.044748
2.54962,-0.180523,0
2.51966,-0.428431,-0.0297546
2.56735,-0.0560197,0.014925
2.53771,-0.30485,-0.0148553
2.54289,-0.180046,-0.274597
2.55292,-0.180756,0.0595536
2.51966,-0.428431,0.0297546
2.54341,-0.180083,-0.178298
2.5333,-0.30432,-0.208293
2.5703,-0.0560841,0.0748209
2.52943,-0.303855,0.0444687
2.55814,-0.0558188,-0.163987
2.5453,-0.180217,0.148603
2.53168,-0.304126,0.103885
2.55084,-0.180609,-0.11912
2.53031,-0.303961,-0.133561
2.54645,-0.180299,0.313448
2.52934,-0.303845,0.207968
2.56127,-0.055887,-0.104373
2.55292,-0.180756,-0.0595536
2.56679,-0.0649722,-0.0448178
2.54498,-0.189125,0
2.51815,-0.437224,-0.0297546
2.56713,-0.064981,0.014925
2.5406,-0.314197,-0.0148785
2.54224,-0.188921,-0.274597
2.54828,-0.18937,0.0594606
2.51027,-0.435855,0.0296615
2.52826,-0.312672,-0.207968
2.56209,-0.0648535,0.0745881
2.53629,-0.313664,0.0446084
2.56591,-0.0649501,-0.164499
2.54466,-0.189101,0.148603
2.52664,-0.312471,0.103722
2.5502,-0.189512,-0.11912
2.53789,-0.188598,0.312473
2.52826,-0.312672,0.207968
2.56505,-0.0649283,-0.104536
2.55227,-0.189666,-0.0595536
2.56654,-0.0739316,-0.0448178
2.54431,-0.198007,0
2.51661,-0.446011,-0.0297546
2.54157,-0.197794,-0.274597
2.55558,-0.198885,0.0596467
2.54209,-0.197835,-0.178298
2.52716,-0.321495,-0.207968
2.56585,-0.0739116,0.0747045
2.53121,-0.322011,0.0445385
2.56168,-0.0737915,-0.164243
2.54398,-0.197982,0.148603
2.52553,-0.321288,0.103722
2.54155,-0.197793,-0.118747
2.52416,-0.321114,-0.133352
2.54117,-0.197764,0.312961
2.52716,-0.321495,0.207968
2.55682,-0.0736514,-0.104211
2.55558,-0.198885,-0.0596467
2.52542,-0.330236,-0.0741227
2.5436,-0.206887,0
2.51504,-0.454793,-0.0297546
2.56662,-0.0829013,0.014925
2.53835,-0.331926,-0.0148785
2.54879,-0.20731,-0.275454
2.55088,-0.20748,0.0595536
2.50717,-0.453369,0.0296615
2.54536,-0.20703,-0.178577
2.53393,-0.331348,-0.208619
2.56558,-0.0828676,0.0747045
2.53007,-0.330844,0.0445385
2.55343,-0.0824752,-0.163731
2.54726,-0.207185,0.148836
2.53232,-0.331139,0.104048
2.54483,-0.206987,-0.118934
2.52303,-0.329923,-0.133352
2.53651,-0.206311,0.312473
2.52602,-0.330315,0.207968
2.55655,-0.0825759,-0.104211
2.56597,-0.0918475,-0.0448178
2.52425,-0.33905,-0.0741227
2.54286,-0.215765,0
2.51343,-0.463569,-0.0297546
2.56232,-0.0917169,0.0149017
2.52924,-0.33972,-0.014832
2.54013,-0.215533,-0.274597
2.55413,-0.216721,0.0596467
2.51343,-0.463569,0.0297546
2.54064,-0.215577,-0.178298
2.56127,-0.0916796,0.0745881
2.52494,-0.339142,0.0444687
2.55711,-0.0915306,-0.163987
2.54254,-0.215738,0.148603
2.53115,-0.339976,0.104048
2.54807,-0.216207,-0.11912
2.52582,-0.33926,-0.133561
2.53973,-0.215499,0.312961
2.5288,-0.339661,0.208293
2.56024,-0.0916424,-0.104373
2.55413,-0.216721,-0.0596467
2.56163,-0.100647,-0.044748
2.54209,-0.22464,0
2.5118,-0.47234,-0.0297546
2.56198,-0.10066,0.0149017
2.52804,-0.348547,-0.014832
2.54539,-0.224931,0.0594606
2.5118,-0.47234,0.0297546
2.53988,-0.224444,-0.178298
2.55694,-0.100463,0.0744718
2.5277,-0.348499,0.0445385
2.55678,-0.100456,-0.163987
2.53779,-0.22426,0.148371
2.52599,-0.348264,0.103885
2.53934,-0.224397,-0.118747
2.52462,-0.348075,-0.133561
2.53501,-0.224014,0.312473
2.52365,-0.347941,0.207968
2.55191,-0.100265,-0.104048
2.54937,-0.225283,-0.0595536
2.55331,-0.108355,-0.0446084
2.53739,-0.23226,0
2.51423,-0.48098,-0.0298012
2.56165,-0.108709,0.0149017
2.52694,-0.356487,-0.014832
2.54069,-0.232562,0.0593675
2.5646,-0.108834,0.0747045
2.53055,-0.356997,0.0446084
2.55645,-0.108488,-0.163987
2.53708,-0.232232,0.148371
2.52093,-0.355639,0.103722
2.53464,-0.232009,-0.118561
2.52351,-0.356004,-0.133561
2.53825,-0.232339,0.312961
2.52255,-0.355868,0.207968
2.55558,-0.108451,-0.104211
2.54865,-0.233291,-0.0595536
2.55691,-0.11745,-0.0446782
2.53258,-0.240738,0
2.50861,-0.488988,-0.0297546
2.52963,-0.365878,-0.0148553
2.53781,-0.241235,-0.274597
2.54384,-0.241808,0.0594606
2.56022,-0.117602,0.0745881
2.52533,-0.365256,0.0445385
2.55606,-0.117411,-0.163987
2.54023,-0.241464,0.148603
2.51967,-0.364437,0.103722
2.54575,-0.241989,-0.11912
2.53347,-0.240822,0.312473
2.52129,-0.364671,0.207968
2.55119,-0.117188,-0.104048
2.5518,-0.242565,-0.0596467
2.56446,-0.127217,-0.0448178
2.53168,-0.250018,0
2.51073,-0.498959,-0.0298012
2.55681,-0.126838,0.0148785
2.52828,-0.375147,-0.0148553
2.53691,-0.250535,-0.274597
2.53896,-0.250737,0.0593675
2.53346,-0.250194,-0.178019
2.55577,-0.126787,0.0744718
2.52398,-0.374509,0.0445385
2.55561,-0.126779,-0.163987
2.53932,-0.250773,0.148603
2.52622,-0.374842,0.104048
2.54087,-0.250926,-0.118934
2.5209,-0.374053,-0.133561
2.52862,-0.249716,0.311986
2.51599,-0.373324,0.207642
2.54675,-0.126339,-0.103885
2.54692,-0.251523,-0.0595536
2.564,-0.136168,-0.0448178
2.51802,-0.382613,-0.0741227
2.53478,-0.259261,0
2.50505,-0.506927,-0.0297546
2.55236,-0.13555,0.0148553
2.523,-0.383369,-0.014832
2.54205,-0.260005,0.0594606
2.50113,-0.506134,0.029708
2.53654,-0.259442,-0.178298
2.55931,-0.135919,0.0745881
2.52266,-0.383317,0.0445385
2.55515,-0.135699,-0.163987
2.53843,-0.259635,0.148603
2.52885,-0.384259,0.104211
2.54396,-0.2602,-0.11912
2.51958,-0.38285,-0.133561
2.53563,-0.259348,0.312961
2.5463,-0.135228,-0.103885
2.54205,-0.260005,-0.0594606
2.55954,-0.144445,-0.044748
2.5339,-0.267665,0
2.51776,-0.39112,-0.0148088
2.54117,-0.268433,0.0594606
2.50336,-0.515231,0.0297546
2.53567,-0.267852,-0.178298
2.55884,-0.144406,0.0745881
2.52137,-0.391681,0.0445385
2.55469,-0.144171,-0.163987
2.53359,-0.267632,0.148371
2.51966,-0.391416,0.103885
2.53116,-0.267375,-0.118561
2.52225,-0.391817,-0.133771
2.53476,-0.267756,0.312961
2.52127,-0.391665,0.208293
2.54515,-0.268853,-0.0595536
2.55503,-0.153139,-0.0446782
2.55936,-0.153399,0.0149017
2.52428,-0.401162,-0.0148553
2.53624,-0.276868,0.0593675
2.53472,-0.276701,-0.178298
2.55433,-0.153098,0.0744718
2.51999,-0.400479,0.0445385
2.55417,-0.153088,-0.163987
2.53661,-0.276908,0.148603
2.51434,-0.399581,0.103722
2.53418,-0.276643,-0.118747
2.51692,-0.399992,-0.133561
2.52986,-0.276171,0.312473
2.54931,-0.152796,-0.104048
2.54022,-0.277302,-0.0594606
2.55046,-0.162249,-0.0446084
2.55878,-0.162779,0.0149017
2.51884,-0.409768,-0.014832
2.53521,-0.286162,0.0593675
2.4996,-0.533131,0.0297546
2.52972,-0.285542,-0.178019
2.55774,-0.162712,0.0745881
2.5185,-0.409713,0.0445385
2.54961,-0.162195,-0.163731
2.53558,-0.286203,0.148603
2.52074,-0.410077,0.104048
2.53315,-0.285929,-0.118747
2.51938,-0.409855,-0.133771
2.52883,-0.285441,0.312473
2.53918,-0.28661,-0.0594606
2.55389,-0.170973,-0.0446782
2.55424,-0.170996,0.0148785
2.51747,-0.418119,-0.014832
2.54219,-0.295491,0.0595536
2.49782,-0.541417,0.0297546
2.52876,-0.293929,-0.178019
2.5532,-0.170926,0.0744718
2.54905,-0.170649,-0.163731
2.53858,-0.295071,0.148836
2.52331,-0.419089,0.104211
2.53616,-0.294789,-0.118934
2.54419,-0.170323,-0.103885
2.54219,-0.295491,-0.0595536
2.55328,-0.179886,-0.0446782
2.55363,-0.179911,0.0148785
2.51205,-0.426235,-0.0148088
2.54115,-0.304363,0.0595536
2.55259,-0.179838,0.0744718
2.51171,-0.426177,0.0444687
2.5296,-0.30298,0.148371
2.52183,-0.427895,0.104211
2.53114,-0.303165,-0.118747
2.54358,-0.179203,-0.103885
2.54115,-0.304363,-0.0595536
2.55261,-0.189243,-0.0446782
2.52482,-0.311798,0
2.55295,-0.189269,0.0148785
2.5223,-0.43749,-0.0148785
2.53604,-0.313184,0.0594606
2.55191,-0.189192,0.0744718
2.51013,-0.43538,0.0444687
2.54379,-0.18859,-0.163475
2.53244,-0.312739,0.148603
2.52025,-0.437135,0.104211
2.53002,-0.31244,-0.118747
2.54291,-0.188524,-0.103885
2.53604,-0.313184,-0.0594606
2.55193,-0.198152,-0.0446782
2.55227,-0.198179,0.0148785
2.52075,-0.446292,-0.0148785
2.53493,-0.322035,0.0594606
2.52549,-0.320834,-0.178019
2.55124,-0.198099,0.0744718
2.51254,-0.444837,0.0445385
2.54709,-0.197777,-0.163731
2.53133,-0.321577,0.148603
2.5502,-0.198018,-0.104211
2.53493,-0.322035,-0.0594606
2.55129,-0.206169,-0.0446782
2.55164,-0.206197,0.0148785
2.5154,-0.453499,-0.0148553
2.53788,-0.330513,0.0595536
2.5506,-0.206113,0.0744718
2.51113,-0.452728,0.0445385
2.54646,-0.205778,-0.163731
2.52635,-0.329012,0.148371
2.51336,-0.453131,0.104048
2.52789,-0.329213,-0.118747
2.53762,-0.205063,-0.103722
2.53788,-0.330513,-0.0595536
2.55048,-0.215963,-0.0446782
2.52142,-0.338221,0
2.54684,-0.215655,0.0148553
2.50971,-0.462429,-0.014832
2.53262,-0.339724,0.0594606
2.54182,-0.21523,0.074239
2.51724,-0.463816,0.0446782
2.54167,-0.215217,-0.163475
2.52903,-0.339241,0.148603
2.5116,-0.462778,0.104048
2.52661,-0.338917,-0.118747
2.53681,-0.214805,-0.103722
2.53262,-0.339724,-0.0594606
2.54971,-0.224865,-0.0446782
2.51099,-0.471734,-0.0743554
2.52022,-0.34702,0
2.55006,-0.224895,0.0148785
2.51201,-0.471926,-0.0148553
2.53539,-0.349108,0.0595536
2.54106,-0.224101,0.074239
2.50774,-0.471123,0.0445385
2.5409,-0.224088,-0.163475
2.52387,-0.347522,0.148371
2.50604,-0.470804,0.103885
2.52145,-0.347189,-0.118561
2.53604,-0.223659,-0.103722
2.52746,-0.348017,-0.0593675
2.54501,-0.23251,-0.0446084
2.51912,-0.354936,0
2.54934,-0.232905,0.0148785
2.50659,-0.479064,-0.014832
2.52636,-0.355956,0.0593675
2.52484,-0.355741,-0.178298
2.54432,-0.232447,0.0743554
2.51018,-0.47975,0.0446084
2.54019,-0.232069,-0.163475
2.52277,-0.35545,0.148371
2.50848,-0.479425,0.104048
2.52826,-0.356224,-0.118934
2.53931,-0.231989,-0.103885
2.53032,-0.356513,-0.0594606
2.54418,-0.241392,-0.0446084
2.54453,-0.241425,0.0148553
2.50883,-0.488575,-0.0148553
2.5251,-0.364772,0.0593675
2.54748,-0.241705,0.0744718
2.50456,-0.487745,0.0445385
2.54334,-0.241312,-0.163731
2.52151,-0.364253,0.148371
2.52305,-0.364475,-0.118747
2.53848,-0.240851,-0.103885
2.5251,-0.364772,-0.0593675
2.53935,-0.24988,-0.0445385
2.54765,-0.250697,0.0148785
2.51103,-0.498108,-0.0148785
2.52381,-0.373584,0.0593675
2.54264,-0.250204,0.0743554
2.50284,-0.496484,0.0445385
2.54248,-0.250188,-0.163731
2.51627,-0.372468,0.148138
2.51781,-0.372695,-0.118561
2.53365,-0.24932,-0.103722
2.52777,-0.37417,-0.0594606
2.54235,-0.260036,-0.0446084
2.54667,-0.260478,0.0148785
2.50126,-0.506159,-0.014832
2.52631,-0.383873,0.0594606
2.54166,-0.259965,0.0743554
2.52667,-0.383927,0.148836
2.52426,-0.383561,-0.118934
2.53422,-0.385074,-0.0596467
2.53754,-0.267602,-0.0445385
2.54186,-0.268057,0.0148553
2.52904,-0.392421,0.0595536
2.54083,-0.267949,0.0743554
2.51756,-0.390638,0.148371
2.52304,-0.391489,-0.118934
2.52509,-0.391807,-0.0594606
2.53654,-0.276901,-0.0445385
2.54086,-0.277372,0.0148553
2.52364,-0.40106,0.0594606
2.53585,-0.276825,0.074239
2.51611,-0.399863,0.148371
2.53085,-0.276279,-0.103722
2.52759,-0.401687,-0.0595536
2.54356,-0.286205,-0.0446782
2.53993,-0.285796,0.0148553
2.52229,-0.409426,0.0594606
2.54287,-0.286127,0.0744718
2.51477,-0.408204,0.148371
2.52624,-0.410067,-0.0595536
2.53857,-0.294621,-0.0446084
2.51691,-0.417574,0.0593675
2.53391,-0.29408,0.074239
2.53773,-0.294523,-0.163731
2.51727,-0.417634,0.148603
2.51486,-0.417234,-0.118747
2.52085,-0.418228,-0.0594606
2.53356,-0.303005,-0.0445385
2.5339,-0.303046,0.014832
2.51543,-0.426357,0.0593675
2.53287,-0.302923,0.074239
2.52875,-0.302431,-0.16322
2.51579,-0.426418,0.148603
2.52332,-0.427693,-0.0595536
2.53243,-0.312289,-0.0445385
2.53277,-0.312332,0.014832
2.52173,-0.436939,0.0595536
2.53571,-0.312694,0.0743554
2.51421,-0.435636,0.148603
2.51779,-0.436256,-0.0594606
2.53132,-0.321127,-0.0445385
2.5396,-0.322177,0.0148785
2.52019,-0.445739,0.0595536
2.5346,-0.321543,0.0743554
2.52653,-0.320518,-0.16322
2.50875,-0.443714,0.148371
2.51626,-0.445042,-0.0594606
2.52226,-0.328927,-0.0443989
2.51075,-0.453113,0.0593675
2.5295,-0.329872,0.074239
2.52451,-0.329221,-0.103722
2.51075,-0.453113,-0.0593675
2.52914,-0.337908,-0.0445385
2.51718,-0.462443,0.0595536
2.52845,-0.337817,0.074239
2.52434,-0.337268,-0.16322
2.51325,-0.461721,-0.0594606
2.52794,-0.346735,-0.0445385
2.53225,-0.347325,0.0148553
2.51162,-0.470491,0.0594606
2.52726,-0.346641,0.074239
2.52315,-0.346077,-0.16322
2.52666,-0.355998,-0.0445385
2.53096,-0.356604,0.0148553
2.50988,-0.479693,0.0594606
2.52597,-0.355901,0.074239
2.52099,-0.355199,-0.103722
2.52138,-0.364683,-0.0444687
2.52963,-0.365878,0.0148553
2.5081,-0.488889,0.0594606
2.52465,-0.365157,0.074239
2.52055,-0.364564,-0.16322
2.52847,-0.373823,0.0148553
2.50656,-0.496766,0.0594606
2.52744,-0.373671,0.0743554
2.51851,-0.372351,-0.103722
2.52674,-0.383036,-0.0446084
2.53104,-0.383688,0.0148785
2.50472,-0.50595,0.0594606
2.52606,-0.382932,0.0743554
2.52546,-0.391413,-0.0446084
2.52975,-0.392079,0.0148785
2.50303,-0.514253,0.0594606
2.52477,-0.391307,0.0743554
2.52408,-0.400226,-0.0446084
2.52047,-0.399654,0.014832
2.50513,-0.523805,0.0595536
2.52339,-0.400118,0.0743554
2.51477,-0.407754,-0.0444687
2.52695,-0.40973,0.0148785
2.50329,-0.532547,0.0595536
2.51803,-0.408284,0.074239
2.51701,-0.408118,-0.103885
2.51728,-0.417184,-0.0445385
2.52156,-0.417894,0.0148553
2.50923,-0.542973,0.0597397
2.52448,-0.418378,0.0744718
2.5158,-0.425968,-0.0445385
2.52403,-0.427361,0.0148785
2.51512,-0.425853,0.074239
2.51804,-0.426347,-0.104048
2.51824,-0.435429,-0.0446084
2.51858,-0.435488,0.0148553
2.51362,-0.434629,0.074239
2.50883,-0.442826,-0.0444687
2.51705,-0.444277,0.0148553
2.51603,-0.444096,0.0743554
2.5195,-0.453329,0.0148785
2.51454,-0.452437,0.0743554
2.51363,-0.461337,-0.0446084
2.51397,-0.461399,0.0148553
2.51688,-0.461933,0.0744718
2.50799,-0.46981,-0.0445385
2.52012,-0.472083,0.0149017
2.51124,-0.470419,0.0743554
2.51034,-0.478874,-0.0446084
2.51461,-0.479688,0.0148785
2.50574,-0.477995,0.074239
2.50857,-0.488071,-0.0446084
2.51284,-0.488901,0.0148785
2.50789,-0.487939,0.0743554
2.5112,-0.497232,0.0148785
2.50626,-0.496253,0.0743554
2.50945,-0.505994,0.0148785
2.50843,-0.505789,0.0744718
2.50375,-0.513946,0.0148553
2.50586,-0.523501,0.0148785
2.50402,-0.532245,0.0148785
2.49842,-0.539265,0.0148553
