2.98564,0.669557,-0.0356217
2.99628,0.639613,-0.0356683
2.9797,0.636073,-0.17744
2.98675,0.626687,-0.0355286
2.99284,0.617065,-0.0355752
2.99498,0.606614,-0.0355752
2.99498,0.606614,0.0355752
2.99011,0.605629,-0.177673
2.99315,0.595376,-0.0355286
2.98829,0.594409,-0.17744
2.99129,0.584157,-0.035482
2.99035,0.583974,-0.17744
2.98545,0.572207,-0.0353889
2.99331,0.573712,0.035482
2.9835,0.561042,-0.0353423
2.99043,0.562345,-0.177208
2.99285,0.704721,-0.0894825
2.98151,0.549898,-0.0352958
2.99331,0.552074,0.0354355
2.98452,0.550454,-0.176743
2.98249,0.539324,-0.17651
2.9938,0.682922,-0.0893661
2.9804,0.528207,-0.28255
2.98527,0.529071,0.0352958
2.98436,0.528909,-0.17651
2.98836,0.670717,-0.0891334
2.98316,0.517964,-0.0352492
2.9871,0.518648,0.0352958
2.99045,0.661325,-0.0891334
2.98477,0.508589,-0.0352492
2.98477,0.508589,0.0352492
2.98386,0.508433,-0.176278
2.99665,0.651732,-0.0892498
2.97864,0.496851,-0.0351561
2.98614,0.649447,-0.0177612
2.97774,0.496701,-0.175812
2.98439,0.486575,-0.0352026
2.97953,0.485783,-0.281806
2.9756,0.485142,-0.17558
2.99618,0.640138,-0.160567
2.98167,0.626163,-0.0886679
2.98212,0.475524,-0.0351561
2.97728,0.474752,-0.17558
2.99839,0.629675,-0.160567
2.98765,0.61708,-0.0887843
2.97973,0.465014,-0.0351095
2.9967,0.618949,-0.0177845
2.97097,0.463647,-0.280691
2.98368,0.465631,0.0351561
2.97489,0.464259,-0.175347
2.99655,0.618919,-0.160357
2.98205,0.604538,-0.0885516
2.97351,0.452886,-0.0350164
2.98141,0.454091,0.0351095
2.97657,0.453353,-0.175347
2.99488,0.607139,-0.160148
2.98404,0.594646,-0.0885516
2.97895,0.443613,-0.0350629
2.99702,0.597233,-0.0177612
2.97016,0.442304,-0.174882
2.99296,0.596425,-0.159939
2.98217,0.583458,-0.0884352
2.97652,0.432636,-0.0350164
2.99516,0.585999,-0.017738
2.97172,0.431938,-0.280319
2.97169,0.431933,-0.174882
2.99111,0.585206,-0.159729
2.98036,0.571771,-0.0883189
2.97325,0.421039,-0.174882
2.97841,0.560624,-0.0882025
2.97079,0.410117,-0.279948
2.99101,0.562995,0.0531251
2.98737,0.562309,-0.159311
2.97632,0.550017,-0.0880861
2.97296,0.400374,-0.0349233
2.96818,0.399731,-0.279576
2.99286,0.553073,0.0531251
2.96417,0.399191,-0.174185
2.98529,0.551673,-0.159101
2.98619,0.540529,-0.0883189
2.97044,0.388956,-0.0348767
2.99134,0.541461,-0.0176682
2.97441,0.389475,0.0349233
2.99093,0.541388,0.0530553
2.96562,0.388325,-0.174185
2.96837,0.526611,-0.087737
2.96781,0.37808,-0.0348301
2.98927,0.530318,-0.017645
2.96702,0.377979,-0.279204
3.00193,0.685329,-0.0716505
2.96502,0.368261,-0.0347836
2.95633,0.367183,-0.278089
2.96502,0.368261,0.0347836
2.96813,0.368647,-0.174185
3.00407,0.675894,-0.0716505
2.9718,0.506912,-0.087737
2.96628,0.357909,-0.0347836
2.96155,0.357338,-0.27846
2.98285,0.508797,-0.247023
2.98473,0.509118,-0.158683
2.9986,0.663676,-0.0714644
2.97373,0.495498,-0.087737
2.96764,0.346518,-0.0347836
2.95895,0.345503,-0.278089
2.96764,0.346518,0.0347836
2.98242,0.496947,0.0527761
2.99869,0.651628,-0.142944
2.97132,0.485508,-0.0876207
2.96871,0.337192,0.0347836
2.97846,0.486674,-0.246372
2.98397,0.487574,0.0527761
2.989,0.639695,-0.142385
2.99534,0.641052,-0.0712783
2.973,0.475134,-0.0876207
2.95325,0.325,-0.277345
2.96589,0.32639,0.034737
2.97574,0.475571,0.122773
2.9873,0.628435,-0.142199
2.99365,0.62977,-0.0711852
2.97069,0.464135,-0.0875043
2.95437,0.314688,-0.277345
2.96304,0.315611,0.0346904
2.98335,0.466113,0.0527063
2.95823,0.315099,-0.173254
2.97738,0.46518,0.122773
2.98948,0.618003,-0.142199
2.97577,0.464928,-0.157845
2.99583,0.619316,-0.0711852
2.97229,0.453763,-0.0875043
2.9831,0.605835,0
2.96412,0.305267,-0.0346904
2.94753,0.303558,-0.276602
2.97108,0.453579,0.122448
2.99162,0.607565,-0.142199
2.97737,0.454539,-0.157845
2.96602,0.441687,-0.0872716
2.98923,0.595679,0
2.94862,0.292752,-0.276602
2.96124,0.294005,0.0346439
2.97869,0.443574,0.0525666
2.98063,0.443863,0.122773
2.96359,0.430757,-0.0871552
2.95428,0.282905,-0.0345507
2.95359,0.282838,-0.276973
2.95428,0.282905,0.0345507
2.98792,0.584582,-0.212897
2.97474,0.432378,-0.245395
2.98022,0.433175,0.0525666
2.95744,0.283206,-0.173022
2.97425,0.432307,0.122448
2.9944,0.585851,-0.0709991
2.96104,0.420366,-0.0870389
2.98535,0.573809,0
2.94658,0.27231,-0.27623
2.9924,0.575164,0.0709061
2.95919,0.273475,0.0345973
2.98592,0.573918,-0.212618
2.95041,0.272663,-0.172557
2.96776,0.421318,0.122122
2.98605,0.573942,-0.141641
2.9924,0.575164,-0.0709061
2.96256,0.409511,-0.0870389
2.98351,0.562123,0
2.94756,0.261509,-0.27623
2.95619,0.262274,0.0345507
2.98016,0.561493,-0.21206
2.97324,0.410986,0.122285
2.98813,0.562994,-0.141641
2.9719,0.400233,-0.0872716
2.97758,0.550251,0
2.94911,0.251274,-0.0344576
2.95242,0.251555,-0.276602
2.94911,0.251274,0.0344576
2.97818,0.550361,-0.211781
2.9712,0.400139,-0.244744
2.96673,0.399537,0.121959
2.99008,0.552559,-0.141641
2.96522,0.389853,-0.0870389
2.98323,0.541609,0
2.95388,0.242335,-0.0345042
2.94989,0.242008,0.0344576
2.97597,0.54029,-0.211502
2.96849,0.390284,-0.244419
2.96401,0.389695,0.121796
2.96656,0.379499,-0.0870389
2.98511,0.531192,0
2.9547,0.232022,-0.0345042
2.95005,0.231657,-0.27623
2.94274,0.231083,0.0343645
2.97783,0.529898,-0.211502
2.95389,0.231958,-0.172557
2.96535,0.379345,0.121796
2.9921,0.684734,-0.125053
2.98824,0.531748,-0.0706269
2.95596,0.367662,-0.0866898
2.983,0.520082,0
2.95151,0.221408,-0.0344576
2.96505,0.368792,-0.38032
2.93893,0.220465,-0.275114
2.97826,0.519254,0.0703477
2.94752,0.221109,0.034411
2.97967,0.5195,-0.211502
2.9507,0.221347,-0.172324
2.95873,0.368006,0.121471
2.97977,0.519519,-0.140896
2.99448,0.674286,-0.125053
2.98613,0.520628,-0.0705338
2.96126,0.357303,-0.0868062
2.977,0.507799,0
2.94831,0.210304,-0.034411
2.93575,0.209407,-0.274743
2.98408,0.509007,0.0704408
2.93634,0.20945,0.0342714
2.98155,0.508575,-0.211502
2.96006,0.357158,0.121471
2.99693,0.663306,-0.125053
2.98408,0.509007,-0.0704408
2.99735,0.652433,-0.053544
2.95852,0.3465,-0.0866898
2.97481,0.496746,0
2.94902,0.200011,-0.034411
2.94043,0.199429,-0.275114
2.98584,0.498588,0.0704408
2.94104,0.19947,0.0343179
2.97544,0.496851,-0.210944
2.95732,0.346359,0.121308
2.97947,0.497525,-0.14071
2.9836,0.649441,-0.124401
2.99558,0.641651,-0.0534742
2.95965,0.336687,-0.0866898
2.94568,0.189973,-0.0343645
2.96086,0.336824,-0.37931
2.94505,0.189932,-0.275486
2.9377,0.189458,0.0342714
2.97707,0.48698,-0.210944
2.94887,0.190178,-0.172092
2.96242,0.337002,0.121471
2.97716,0.486996,-0.140524
2.98574,0.639543,-0.124401
2.98617,0.628197,-0.0532647
2.95689,0.325399,-0.0865734
2.97031,0.474702,0
2.94636,0.179174,-0.0343645
2.95813,0.325535,-0.378805
2.99832,0.630752,0.0178077
2.93778,0.178652,-0.274743
2.9853,0.477098,0.0703477
2.93837,0.178689,0.0342714
2.97489,0.475435,-0.210665
2.94556,0.179126,-0.171859
2.96364,0.326141,0.121471
2.97893,0.47608,-0.140524
2.98806,0.628594,-0.124401
2.98835,0.61777,-0.0532647
2.95403,0.314652,-0.0864571
2.96799,0.463714,0
2.94696,0.168889,-0.0343645
2.93043,0.167941,-0.273999
2.98299,0.466058,0.0702547
2.93898,0.168431,0.0342714
2.96865,0.463817,-0.210106
2.94218,0.168615,-0.171626
2.95681,0.314948,0.121145
2.97662,0.465062,-0.140338
2.98241,0.616543,-0.124076
2.98646,0.60706,-0.0531949
2.95904,0.305265,-0.0865734
2.94351,0.158901,-0.0343179
2.96422,0.3058,-0.0173195
2.97209,0.454264,-0.323862
2.93495,0.158438,-0.274371
2.98057,0.45556,0.0701616
2.93553,0.158469,0.0342248
2.96228,0.452764,-0.209548
2.97633,0.454912,0.175347
2.95386,0.304731,0.120982
2.9742,0.454586,-0.140152
2.96021,0.305386,-0.155961
2.98444,0.60665,-0.124076
2.99259,0.596893,-0.0532647
2.95218,0.293627,-0.0863407
2.97116,0.442984,0
2.94008,0.147911,-0.0342714
2.99692,0.597757,0.0177612
2.97374,0.443368,-0.323862
2.93551,0.147681,-0.274371
2.97826,0.444043,0.0700686
2.93609,0.14771,0.0342248
2.97181,0.443082,-0.210106
2.98692,0.595762,-0.195198
2.94328,0.148072,-0.171626
2.98193,0.44459,0.17558
2.95098,0.293508,0.120819
2.97584,0.443682,-0.140152
2.97895,0.583369,-0.0529855
2.96114,0.284083,-0.0865734
2.96477,0.431457,0
2.94458,0.137833,-0.0343179
2.99113,0.585754,0.0177147
2.92805,0.13706,-0.273627
2.9798,0.433644,0.0700686
2.93259,0.137272,0.0341782
2.96545,0.431555,-0.209548
2.96195,0.28416,0.0519384
2.98114,0.583797,-0.194687
2.97951,0.433602,0.175347
2.95199,0.283205,0.120819
2.98086,0.583742,-0.12375
2.98097,0.572966,-0.0529855
2.95416,0.273009,-0.0863407
2.9623,0.420542,0
2.93705,0.127207,-0.0342248
2.99316,0.575308,0.0177147
2.95934,0.273488,-0.017273
2.96495,0.420919,-0.322576
2.93249,0.12701,-0.273999
2.93305,0.127034,0.0341782
2.96693,0.4212,-0.209548
2.97924,0.572633,-0.194431
2.93627,0.127173,-0.171161
2.9731,0.422076,0.174882
2.95296,0.272898,0.120819
2.98288,0.573332,-0.12375
2.97893,0.562336,-0.0529157
2.94708,0.262502,-0.086108
2.97556,0.412365,0
2.92946,0.117148,-0.0341317
2.99112,0.564638,0.0176915
2.96023,0.263673,-0.017273
2.97027,0.411631,-0.323005
2.92494,0.116967,-0.273256
2.97476,0.412253,0.0698825
2.93745,0.117467,0.0342248
2.96436,0.410812,-0.209269
2.98505,0.563492,-0.194687
2.93667,0.117436,-0.171161
2.97053,0.411667,0.17465
2.96442,0.410821,-0.139407
2.98477,0.563438,-0.12375
2.98087,0.551935,-0.0529157
2.94798,0.252214,-0.086108
2.95716,0.3993,0
2.92985,0.106922,-0.0341317
2.98914,0.553466,0.0176682
2.96774,0.400728,-0.322576
2.92135,0.106611,-0.272884
2.97222,0.401332,0.0697894
2.96182,0.399929,-0.20899
2.98307,0.552342,-0.194431
2.97195,0.401296,0.17465
2.9428,0.251771,0.120331
2.96584,0.400471,-0.139407
2.97885,0.551561,-0.123424
2.97884,0.540811,-0.0528459
2.94486,0.241594,-0.0859916
2.95854,0.388974,0
2.92621,0.0965613,-0.0340851
2.98712,0.542313,0.017645
2.92568,0.0965439,-0.273256
2.92621,0.0965613,0.0340851
2.9632,0.389587,-0.20899
2.98591,0.542093,0.0883189
2.95761,0.242641,0.0517987
2.97713,0.540499,-0.193919
2.96722,0.390115,-0.139407
2.98062,0.530929,-0.0528459
2.94963,0.23214,-0.086108
2.95981,0.37916,0
2.92251,0.0867377,-0.0340385
2.9889,0.532404,0.017645
2.95481,0.232548,-0.0172265
2.96646,0.380012,-0.322148
2.93395,0.087077,-0.273999
2.97488,0.38109,0.0697894
2.93051,0.086975,0.0341317
2.96448,0.379758,-0.20899
2.98375,0.531486,0.0882025
2.98283,0.531323,-0.194175
2.93773,0.0871892,-0.171161
2.97461,0.381056,0.17465
2.9685,0.380273,-0.139407
2.9786,0.53057,-0.123262
2.97458,0.519147,-0.0527063
2.95042,0.221843,-0.086108
2.96509,0.369321,0
2.93479,0.0768504,-0.0341782
2.94387,0.221351,-0.375774
2.9868,0.52128,0.0176217
2.94763,0.221633,-0.01718
2.95987,0.368672,-0.321291
2.93025,0.0767314,-0.273627
2.9308,0.0767457,0.0341317
2.96578,0.369408,-0.20899
2.98165,0.520381,0.0880861
2.95521,0.222203,0.0517289
2.9768,0.519536,-0.193663
2.93003,0.0767256,-0.170696
2.97196,0.370177,0.174417
2.94524,0.221453,0.120331
2.96584,0.369415,-0.139221
2.98044,0.52017,-0.123262
2.96858,0.506895,-0.0525666
2.94324,0.210458,-0.0858753
2.95848,0.357492,0
2.93106,0.0660039,-0.0341317
2.98081,0.508984,0.0175752
2.95726,0.357344,-0.320863
2.92653,0.065902,-0.273256
2.92306,0.0658238,0.0340385
2.9592,0.357579,-0.208432
2.98354,0.50945,0.0880861
2.95201,0.211086,0.0516591
2.97082,0.507278,-0.193152
2.9263,0.0658967,-0.170464
2.9614,0.357846,0.173719
2.96321,0.358064,-0.139035
2.98233,0.509243,-0.123262
2.97418,0.497709,-0.0526365
2.93993,0.200426,-0.0857589
2.95568,0.347213,0
2.93126,0.0562844,-0.0341317
2.98642,0.499757,0.0175985
2.9531,0.201323,-0.0172033
2.95448,0.347072,-0.320434
2.97076,0.348986,0.0696033
2.91926,0.056054,0.033992
2.95244,0.346833,-0.207874
2.97732,0.498234,0.0878534
2.97642,0.498083,-0.193408
2.93049,0.0562697,-0.170696
2.97051,0.348956,0.174185
2.96041,0.34777,-0.138849
2.98006,0.498692,-0.123099
2.97196,0.486677,-0.0525666
2.9446,0.190419,-0.0858753
2.96084,0.337346,0
2.92344,0.0459256,-0.0340385
2.94979,0.190755,-0.01718
2.95962,0.337207,-0.320863
2.92691,0.0459802,-0.273256
2.96799,0.33816,0.0695103
2.92344,0.0459256,0.0340385
2.94967,0.336073,-0.207595
2.9751,0.487191,0.087737
2.94939,0.190729,0.0515893
2.9742,0.487045,-0.193152
2.92668,0.0459765,-0.170464
2.97171,0.338584,0.174185
2.93942,0.190084,0.120005
2.96558,0.337885,-0.139035
2.97389,0.486994,-0.122773
2.96977,0.47515,-0.0524968
2.94129,0.179383,-0.0857589
2.95808,0.326054,0
2.91559,0.0351147,-0.0339454
2.95047,0.179943,-0.01718
2.96084,0.326358,-0.320863
2.91959,0.0351628,0.033992
2.95881,0.326134,-0.208153
2.97686,0.476285,0.087737
2.95007,0.179918,0.0515893
2.97203,0.475511,-0.192896
2.93082,0.0352981,-0.170696
2.96896,0.327253,0.173952
2.9361,0.179067,0.119842
2.96282,0.326577,-0.138849
2.97171,0.47546,-0.12261
2.97536,0.465398,-0.0525666
2.9592,0.315726,0
2.9197,0.0249706,-0.033992
2.94761,0.314489,-0.461182
2.97577,0.465461,0.0175055
2.94309,0.169183,-0.0171335
2.95009,0.314754,-0.319578
2.96636,0.316489,0.0694172
2.9197,0.0249706,0.033992
2.95993,0.315803,-0.208153
2.97851,0.46589,0.087737
2.96972,0.464516,-0.19264
2.91895,0.0249642,-0.169998
2.96214,0.316039,0.173487
2.9407,0.169045,0.120005
2.95997,0.315808,-0.138663
2.97335,0.465083,-0.12261
2.96503,0.453713,-0.0523572
2.93446,0.158924,-0.0855262
2.95626,0.305499,0
2.91976,0.0152876,-0.033992
2.94471,0.304305,-0.460567
2.97729,0.455589,0.0175055
2.94364,0.159421,-0.0171335
2.95508,0.305377,-0.320006
2.91976,0.0152876,0.033992
2.95699,0.305575,-0.207874
2.98004,0.456009,0.087737
2.94723,0.159616,0.0515195
2.97519,0.455268,-0.192896
2.92301,0.0153046,-0.170231
2.96317,0.306214,0.173487
2.95703,0.305579,-0.138477
2.97488,0.45522,-0.12261
2.97451,0.444545,-0.0524968
2.93499,0.148682,-0.0855262
2.95333,0.294783,0
2.9158,0.00509062,-0.0339454
2.94182,0.293634,-0.459953
2.97491,0.444605,0.0174822
2.94018,0.148945,-0.0171103
2.95217,0.294667,-0.319578
2.96446,0.295894,0.0693242
2.9501,0.294461,-0.207316
2.9737,0.444424,0.0875043
2.94378,0.149127,0.0514497
2.96492,0.443112,-0.192128
2.91506,0.00508932,-0.169766
2.95628,0.295077,0.173022
2.95808,0.295257,-0.138477
2.97249,0.444244,-0.122448
2.97208,0.433581,-0.052427
2.93549,0.138435,-0.0855262
2.95035,0.284088,0
2.9118,-0.00508123,-0.0338988
2.93889,0.282984,-0.459338
2.97644,0.434217,0.0174822
2.94468,0.138868,-0.0171335
2.95318,0.28436,-0.319578
2.9615,0.285161,0.0692311
2.9118,-0.00508123,0.0338988
2.95508,0.284543,-0.207595
2.97523,0.434041,0.0875043
2.9704,0.433335,-0.192384
2.91506,-0.00508691,-0.169766
2.95729,0.284755,0.173022
2.95114,0.284163,-0.138104
2.97007,0.433287,-0.122285
2.96962,0.422639,-0.0523572
2.93196,0.128012,-0.0854098
2.95133,0.273786,0
2.91176,-0.0152461,-0.0338988
2.93986,0.272723,-0.459338
2.97002,0.422697,0.0174357
2.95415,0.274049,-0.319578
2.95209,0.273857,-0.207316
2.93941,0.128338,-0.240188
2.96486,0.421961,0.0871552
2.94075,0.128396,0.0513799
2.96399,0.421838,-0.191873
2.92301,-0.0153049,-0.170231
2.96224,0.274799,0.173254
2.93477,0.128135,0.119679
2.95211,0.273859,-0.138104
2.96761,0.422353,-0.122122
2.96711,0.411722,-0.0522874
2.93639,0.117938,-0.0855262
2.94828,0.263128,0
2.93686,0.262108,-0.458723
2.97148,0.412327,0.0174357
2.94158,0.118147,-0.0171103
2.94321,0.262675,-0.318292
2.91169,-0.0254093,0.0338988
2.94905,0.263196,-0.207037
2.97027,0.41216,0.0872716
2.94118,0.118131,0.0513799
2.9694,0.412039,-0.192128
2.91096,-0.0254029,-0.169533
2.95523,0.263748,0.172789
2.95703,0.263908,-0.13829
2.96907,0.411993,-0.122122
2.96853,0.401361,-0.0522874
2.9248,0.107247,-0.0851771
2.95317,0.253176,0
2.93382,0.251517,-0.458108
2.9729,0.401952,0.0174357
2.93798,0.107731,-0.017087
2.94015,0.252059,-0.317864
2.95635,0.253449,0.069045
2.94995,0.2529,-0.207037
2.96773,0.401253,0.0871552
2.93758,0.107716,0.0513101
2.96686,0.401135,-0.191873
2.91484,-0.0356134,-0.169766
2.95613,0.25343,0.172789
2.94599,0.25256,-0.137732
2.96588,0.390993,-0.0522176
2.92114,0.097415,-0.0850607
2.94203,0.242396,0
2.93069,0.241462,-0.457493
2.96628,0.391046,0.0173892
2.94493,0.242635,-0.318292
2.95718,0.243644,0.069045
2.9468,0.242789,-0.206758
2.96904,0.39141,0.0871552
2.93792,0.0979746,0.0513101
2.96422,0.390774,-0.191617
2.91471,-0.0452786,-0.169766
2.94899,0.24297,0.172324
2.94681,0.24279,-0.137732
2.96784,0.391251,-0.121959
2.96716,0.381155,-0.0522176
2.92944,0.0879668,-0.0852934
2.94282,0.232638,0
2.97153,0.381716,0.0174125
2.94572,0.232867,-0.318292
2.95797,0.233836,0.069045
2.93963,0.232386,-0.2062
2.93292,0.0880713,-0.239537
2.96636,0.381052,0.0870389
2.9655,0.380941,-0.191617
2.94978,0.233189,0.172324
2.9476,0.233016,-0.137732
2.96516,0.380897,-0.121796
2.92175,0.0770192,-0.0850607
2.94764,0.222152,0
2.92837,0.220699,-0.456878
2.95704,0.368843,0.0173195
2.93093,0.0772614,-0.0170405
2.94258,0.221771,-0.317864
2.94842,0.222211,-0.206758
2.92923,0.0772166,-0.239212
2.96774,0.370177,0.0870389
2.92654,0.0771455,0.0511006
2.96291,0.369576,-0.191361
2.95858,0.222977,0.172789
2.94843,0.222212,-0.137732
2.93495,0.0773673,-0.153868
2.96257,0.369532,-0.121633
2.96187,0.358952,-0.052078
2.922,0.0668206,-0.0850607
2.94441,0.211575,0
2.90282,-0.0755052,-0.0338057
2.96228,0.359,0.0173428
2.93518,0.0671221,-0.0170638
2.93541,0.210928,-0.317007
2.9452,0.211632,-0.206479
2.96504,0.359335,0.0869225
2.93079,0.0670215,0.0511705
2.96419,0.359232,-0.191361
2.94739,0.21179,0.172092
2.9452,0.211632,-0.137546
2.96384,0.35919,-0.121633
2.95914,0.348142,-0.0520082
2.94912,0.201568,0
2.95954,0.34819,0.0173195
2.9274,0.0567202,-0.0170173
2.94009,0.200951,-0.317436
2.94832,0.201514,0.0687658
2.94194,0.201077,-0.2062
2.96628,0.348982,0.0869225
2.931,0.05679,0.0511705
2.96146,0.348415,-0.191105
2.9521,0.201772,0.172324
2.94194,0.201077,-0.13736
2.96507,0.348841,-0.121633
2.96431,0.338264,-0.052078
2.94182,0.190754,0
2.90222,-0.0957702,-0.0338057
2.96074,0.337856,0.0173195
2.93158,0.0465641,-0.0170405
2.93284,0.190172,-0.316579
2.94901,0.19122,0.0687658
2.93864,0.190548,-0.205921
2.96351,0.338172,0.0868062
2.93118,0.0465578,0.0511705
2.96266,0.338075,-0.191105
2.94482,0.190948,0.171859
2.94262,0.190806,-0.13736
2.93161,0.0465645,-0.153658
2.9623,0.338035,-0.121471
2.9615,0.327477,-0.0520082
2.93848,0.180241,0
2.95792,0.327081,0.0172963
2.93745,0.180178,-0.317007
2.94566,0.180682,0.0686728
2.9353,0.180046,-0.205642
2.96467,0.327827,0.0868062
2.92733,0.0362782,0.0511006
2.95985,0.327295,-0.190849
2.94945,0.180914,0.172092
2.93928,0.180291,-0.137174
2.93175,0.036333,-0.153658
2.95949,0.327255,-0.121308
2.96257,0.317653,-0.0520082
2.91465,0.0264538,-0.084828
2.93906,0.170495,0
2.94706,0.315991,0.0172265
2.92383,0.0265371,-0.016994
2.9301,0.169975,-0.316151
2.93588,0.170311,-0.205642
2.92216,0.0265219,-0.238561
2.94984,0.316289,0.0863407
2.92343,0.0265335,0.0510308
2.95695,0.317051,-0.190593
2.93807,0.170438,0.171394
2.93986,0.170542,-0.137174
2.96056,0.317438,-0.121308
2.95575,0.30597,-0.0518686
2.92272,0.0158148,-0.0850607
2.93168,0.159288,0
2.95217,0.3056,0.0172498
2.92673,0.159019,-0.315722
2.94685,0.160113,0.0686728
2.93649,0.15955,-0.205642
2.95495,0.305887,0.0864571
2.91951,0.0157974,0.050961
2.95412,0.305801,-0.190338
2.93469,0.159452,0.171161
2.94047,0.159766,-0.137174
2.95773,0.306174,-0.121145
2.94685,0.160113,-0.0686728
2.95282,0.295252,-0.0517987
2.93621,0.149256,0
2.95322,0.295292,0.0172498
2.91595,0.00559864,-0.0169475
2.92727,0.148802,-0.315722
2.93941,0.149419,0.0684867
2.93304,0.149095,-0.205363
2.95998,0.295968,0.0865734
2.92355,0.00561323,0.0510308
2.95914,0.295884,-0.190593
2.93922,0.149409,0.171394
2.93303,0.149094,-0.136801
2.95878,0.295847,-0.121145
2.95782,0.285326,-0.0518686
2.93272,0.138816,0
2.95822,0.285365,0.017273
2.91995,-0.00458701,-0.0169708
2.9479,0.139535,0.0686728
2.92557,0.138478,-0.204805
2.95304,0.284865,0.0863407
2.91955,-0.00458639,0.050961
2.95618,0.285169,-0.190338
2.94371,0.139336,0.171626
2.93752,0.139044,-0.136988
2.92398,-0.00459335,-0.15324
2.95582,0.285133,-0.120982
2.91074,-0.0137164,-0.0847116
2.93713,0.129779,0
2.94715,0.274956,0.0172033
2.91192,-0.013722,-0.0169243
2.92024,0.129033,-0.314865
2.94433,0.130097,0.0685797
2.92998,0.129463,-0.205084
2.95392,0.275587,0.0863407
2.95707,0.275881,-0.190338
2.93616,0.129736,0.171161
2.93395,0.129639,-0.136801
2.92395,-0.0137787,-0.15324
2.95272,0.275475,-0.120819
2.94433,0.130097,-0.0685797
2.95575,0.264315,-0.0517987
2.92962,0.118179,0
2.9442,0.263282,0.01718
2.91584,-0.0249364,-0.0169475
2.92866,0.11814,-0.315722
2.94481,0.118791,0.0685797
2.93046,0.118212,-0.205084
2.94699,0.263531,0.086108
2.95413,0.264169,-0.190082
2.93264,0.118301,0.170929
2.93842,0.118534,-0.136988
2.91989,-0.0249709,-0.15303
2.95375,0.264136,-0.120819
2.94081,0.11863,-0.0684867
2.94869,0.253312,-0.0516591
2.90656,-0.0350032,-0.0845953
2.93401,0.1081,0
2.94112,0.252661,0.0171568
2.93085,0.107983,-0.205084
2.95187,0.253585,0.0862243
2.94708,0.253173,-0.18957
2.93482,0.10813,-0.136801
2.91978,-0.0351625,-0.15303
2.95068,0.253482,-0.120656
2.93322,0.10807,-0.0683006
2.94548,0.243715,-0.0515893
2.93433,0.0988793,0
2.94588,0.243748,0.01718
2.91746,0.0983106,-0.314437
2.93754,0.0989872,0.0683936
2.92719,0.0986384,-0.204805
2.94867,0.243979,0.086108
2.95184,0.24424,-0.189826
2.93515,0.0989068,-0.136801
2.91966,-0.0443373,-0.15303
2.92954,0.0987179,-0.0682075
2.95034,0.233233,-0.0516591
2.92668,0.0878843,0
2.94676,0.23295,0.01718
2.9337,0.088095,-0.316151
2.93388,0.0881005,0.0683006
2.92753,0.0879097,-0.204805
2.94955,0.23317,0.086108
2.95271,0.23342,-0.189826
2.93549,0.0881489,-0.136801
2.91548,-0.0549621,-0.152821
2.95233,0.23339,-0.120656
2.93788,0.0882206,-0.0683936
2.95513,0.223234,-0.0517289
2.94356,0.22236,0.0171568
2.93417,0.0778581,0.0683006
2.92383,0.0775836,-0.204526
2.93838,0.221969,0.0857589
2.94555,0.22251,-0.189314
2.93179,0.0777948,-0.136615
2.94914,0.222782,-0.120494
2.93817,0.0779641,-0.0683936
2.94795,0.211829,-0.0515893
2.90179,-0.0754792,-0.0844789
2.91924,0.0667565,0
2.94037,0.211284,0.0171335
2.93844,0.0671956,0.0683936
2.9201,0.0667764,-0.204247
2.93917,0.211198,0.0857589
2.94236,0.211427,-0.189058
2.93605,0.067141,-0.136801
2.94197,0.211399,-0.120168
2.93444,0.0671041,-0.0683006
2.94867,0.201537,-0.0515893
2.90151,-0.0856079,-0.0844789
2.91945,0.0565661,0
2.93865,0.0569381,0.0683936
2.94388,0.20121,0.0858753
2.93512,0.200611,-0.188547
2.92827,0.056737,-0.136429
2.9387,0.200856,-0.120005
2.93066,0.0567832,-0.0682075
2.9453,0.192013,-0.0515195
2.92682,0.0475111,0.0681145
2.91649,0.0473434,-0.203968
2.9445,0.191961,0.0858753
2.9437,0.191908,-0.189058
2.92444,0.0474725,-0.136243
2.94331,0.191883,-0.120168
2.92682,0.0475111,-0.0681145
2.94598,0.181216,-0.0515195
2.91577,0.0366426,0
2.92698,0.0367834,0.0681145
2.91266,0.0366035,-0.203689
2.9372,0.180676,0.0856425
2.94438,0.181118,-0.189058
2.92859,0.0368037,-0.136429
2.93601,0.180603,-0.119842
2.92298,0.0367332,-0.0680214
2.9426,0.1707,-0.0514497
2.91588,0.0264644,0
2.93901,0.170492,0.0171103
2.91909,0.0264935,0.0679284
2.94101,0.170608,-0.188803
2.92471,0.0265445,-0.136243
2.93662,0.170353,-0.119842
2.93109,0.0266024,-0.0682075
2.93919,0.16021,-0.0513799
2.92716,0.0163485,0.0681145
2.91284,0.0162685,-0.203689
2.93362,0.159906,-0.188291
2.92478,0.0163352,-0.136243
2.9372,0.160101,-0.119842
2.92716,0.0163485,-0.0681145
2.93571,0.150258,-0.0513101
2.90889,0.00660008,-0.20341
2.93413,0.150177,-0.188291
2.92482,0.00663622,-0.136243
2.94171,0.150565,-0.120005
2.9152,0.0066144,-0.0678353
2.93225,0.139307,-0.0512403
2.916,-0.0040715,0
2.92865,0.139136,0.0170405
2.91687,-0.00407273,-0.203968
2.93466,0.139422,-0.188291
2.91683,-0.00407267,-0.135871
2.93825,0.139592,-0.119842
2.91121,-0.00406482,-0.0677423
2.93271,0.129071,-0.0512403
2.91285,-0.014235,-0.203689
2.92792,0.12886,0.0852934
2.93513,0.129177,-0.188291
2.9168,-0.0142543,-0.135871
2.93472,0.129159,-0.119679
2.91917,-0.0142659,-0.0679284
2.93311,0.119857,-0.0512403
2.9375,0.120036,0.017087
2.93552,0.119956,-0.188291
2.92473,-0.0234818,-0.136243
2.92713,0.119612,-0.119354
2.91512,-0.0234046,-0.0678353
2.93352,0.109106,-0.0512403
2.92593,0.108823,0.0170173
2.93195,0.109047,-0.188035
2.92063,-0.0341546,-0.136057
2.93154,0.109032,-0.119517
2.91101,-0.0340421,-0.0677423
2.92188,0.0989709,-0.0510308
2.90767,-0.043647,0
2.92831,0.0991887,-0.187779
2.91651,-0.0437796,-0.135871
2.93189,0.0993098,-0.119517
2.90689,-0.0436351,-0.0676492
2.92622,0.0883817,-0.0511006
2.90749,-0.0543038,0
2.92865,0.0884552,-0.187779
2.90834,-0.0543196,-0.135499
2.92823,0.0884426,-0.119354
2.92651,0.0781668,-0.0511006
2.92291,0.0780706,0.016994
2.92172,0.0780388,0.0850607
2.92495,0.0781252,-0.187524
2.91213,-0.0645598,-0.135685
2.92853,0.0782206,-0.119354
2.92677,0.0679509,-0.0511006
2.92316,0.0678672,0.016994
2.9292,0.0680074,-0.187779
2.90389,-0.0745196,-0.135313
2.92079,0.0678121,-0.119028
2.91025,-0.0746828,-0.0677423
2.92699,0.0577341,-0.0511006
2.91745,0.057546,-0.187012
2.9116,-0.0848886,-0.135685
2.92101,0.0576162,-0.119028
2.90598,-0.0847245,-0.0676492
2.92316,0.047962,-0.0510308
2.9256,0.048002,-0.187524
2.91719,0.0478639,-0.118865
2.91532,0.0371458,-0.0508912
2.91571,0.0371508,0.0169475
2.91778,0.0371771,-0.187012
2.91734,0.0371716,-0.118865
2.91543,0.0269692,-0.0508912
2.91583,0.0269729,0.0169475
2.92188,0.0270289,-0.187268
2.91745,0.0269879,-0.118865
2.91551,0.0167923,-0.0508912
2.92196,0.0168295,-0.187268
2.91354,0.016781,-0.118702
2.89652,-0.124945,-0.0674631
2.92355,0.0071436,-0.0510308
2.922,0.00713981,-0.187268
2.91156,-0.00254081,-0.0508214
2.91801,-0.00254645,-0.187012
2.90959,-0.00253909,-0.11854
2.91553,-0.0127215,-0.0508912
2.91399,-0.0127148,-0.186756
2.92155,-0.0127477,-0.119028
2.91146,-0.0233752,-0.0508214
2.90994,-0.023363,-0.1865
2.90949,-0.0233594,-0.11854
2.90736,-0.0334919,-0.0507516
2.90939,-0.0335153,-0.11854
2.91123,-0.0437003,-0.0508214
2.90926,-0.0436708,-0.11854
2.90909,-0.0538257,-0.11854
2.90489,-0.0638921,-0.118377
2.90663,-0.0735745,-0.0507516
2.90466,-0.0735247,-0.118377
2.90235,-0.0836049,-0.0506818
2.90439,-0.0836634,-0.118377
