2.15428,0.381797,-0.0254707
2.15822,0.382495,0.0255173
2.15954,0.374959,-0.0255173
2.15954,0.374959,0.0255173
2.16084,0.367418,-0.0255173
2.15689,0.366748,0.0254707
2.16211,0.359873,-0.0255173
2.16211,0.359873,0.0255173
2.16253,0.359944,-0.127673
2.16335,0.352325,-0.0255173
2.1594,0.351682,0.0254707
2.16457,0.344771,-0.0255173
2.14916,0.450942,-0.012763
2.16457,0.344771,0.0255173
2.16576,0.337213,-0.0255173
2.15856,0.445053,-0.0128095
2.1618,0.336598,0.0254707
2.16692,0.329651,-0.0255173
2.15226,0.435927,-0.012763
2.16692,0.329651,0.0255173
2.1713,0.330317,-0.127906
2.16806,0.322084,-0.0255173
2.15769,0.429191,-0.0127862
2.16806,0.322084,0.0255173
2.17639,0.323321,-0.128138
2.16917,0.314515,-0.0255173
2.15918,0.421657,-0.0127862
2.16521,0.313941,0.0254707
2.18145,0.316296,-0.128371
2.15569,0.41395,-0.0638828
2.17411,0.30826,-0.0255638
2.15656,0.414118,-0.012763
2.17015,0.307699,0.0255173
2.15627,0.414062,0.0383255
2.17453,0.30832,-0.127906
2.14926,0.404941,-0.0636501
2.17517,0.300669,-0.0255638
2.15799,0.406587,-0.012763
2.16725,0.299574,0.0254707
2.15377,0.405792,0.0382557
2.17164,0.300181,-0.127673
2.15073,0.397062,-0.0636501
2.16833,0.291629,-0.0254707
2.15947,0.398676,-0.012763
2.17488,0.292509,-0.204849
2.16833,0.291629,0.0254707
2.15918,0.398621,0.0383255
2.17668,0.292752,-0.127906
2.16928,0.284437,-0.0254707
2.16472,0.392226,-0.0127862
2.17325,0.284957,0.0255173
2.15655,0.390747,0.0382557
2.17368,0.285013,-0.127673
2.15903,0.391195,0.0893932
2.17026,0.276863,-0.0254707
2.16607,0.384667,-0.0127862
2.17026,0.276863,0.0254707
2.16184,0.383915,0.0383255
2.17862,0.277929,-0.127906
2.17916,0.27027,-0.0255638
2.16346,0.376418,-0.012763
2.17519,0.269778,0.0255173
2.16317,0.376367,0.0383255
2.17958,0.270323,-0.127906
2.15777,0.375427,0.0892304
2.1684,0.377278,-0.115348
2.18013,0.262281,-0.0255638
2.16483,0.368485,-0.012763
2.17219,0.261325,0.0254707
2.16059,0.367764,0.0382557
2.18056,0.262332,-0.127906
2.15727,0.359841,-0.0636501
2.17702,0.254585,-0.0255173
2.16604,0.361304,-0.012763
2.18356,0.25535,-0.205221
2.1651,0.253191,0.0253776
2.15785,0.359939,0.0381859
2.18141,0.255099,-0.127906
2.15639,0.359695,0.0890675
2.16704,0.361472,-0.115139
2.15851,0.352309,-0.0636501
2.17392,0.246534,-0.0254707
2.16728,0.353741,-0.012763
2.1884,0.248176,-0.205592
2.18187,0.247435,0.0255638
2.1591,0.352405,0.0381859
2.18626,0.247933,-0.128138
2.15369,0.351523,0.0889047
2.16829,0.353906,-0.115139
2.15979,0.344396,-0.0636501
2.17481,0.238565,-0.0254707
2.16857,0.345796,-0.012763
2.19325,0.240588,-0.205964
2.17481,0.238565,0.0254707
2.16037,0.34449,0.0381859
2.18318,0.239484,-0.127906
2.15891,0.344256,0.0890675
2.16563,0.345328,-0.11493
2.14277,0.442578,0
2.18354,0.232198,-0.0255638
2.1697,0.338603,-0.012763
2.18612,0.232472,-0.205221
2.18354,0.232198,0.0255638
2.15755,0.336707,0.0381161
2.17602,0.231398,-0.127441
2.15609,0.33648,0.0889047
2.16676,0.338145,-0.11493
2.15819,0.328707,-0.0635337
2.18438,0.224192,-0.0255638
2.17093,0.330647,-0.012763
2.19092,0.224863,-0.205592
2.1804,0.223783,0.0255173
2.16273,0.329398,0.0381859
2.18083,0.223828,-0.127673
2.15731,0.328573,0.0889047
2.16799,0.3302,-0.11493
2.17719,0.215778,-0.0254707
2.16416,0.321892,-0.0127165
2.18772,0.216822,-0.205221
2.17719,0.215778,0.0254707
2.16386,0.321848,0.0381859
2.1816,0.216215,-0.127673
2.15844,0.321042,0.0889047
2.16518,0.322044,-0.11472
2.14922,0.427898,-0.0509928
2.18183,0.209317,-0.0255173
2.19632,0.210707,-0.205964
2.17785,0.208935,0.0254707
2.16486,0.315047,0.0381859
2.18227,0.209359,-0.127673
2.1634,0.314834,0.0890675
2.16618,0.315238,-0.11472
2.1526,0.413747,0
2.18653,0.20207,-0.0255638
2.19705,0.203041,-0.205964
2.15987,0.415144,0.0511789
2.18255,0.201702,0.0255173
2.17489,0.308758,-0.179327
2.16595,0.30749,0.0381859
2.18696,0.202109,-0.127906
2.16448,0.307282,0.0890675
2.17122,0.308238,-0.11493
2.15024,0.404738,0
2.18729,0.193672,-0.0255638
2.17137,0.299758,-0.0127397
2.18987,0.1939,-0.205221
2.17534,0.192614,0.0254241
2.16315,0.298623,0.0381161
2.17976,0.193005,-0.127441
2.16169,0.298421,0.0889047
2.16843,0.299352,-0.11472
2.14966,0.404628,-0.0508998
2.16349,0.291747,-0.0635337
2.1515,0.397981,0
2.18789,0.1868,-0.0255638
2.1723,0.292935,-0.0127397
2.19841,0.187698,-0.205964
2.15878,0.399328,0.0510859
2.18391,0.18646,0.0255173
2.16804,0.292361,0.0381859
2.18036,0.186157,-0.127441
2.16262,0.291629,0.0889047
2.16936,0.292539,-0.11472
2.16118,0.291436,0.178025
2.15878,0.399328,-0.0510859
2.18454,0.178835,-0.0255173
2.17728,0.285871,-0.012763
2.19905,0.180022,-0.205964
2.15623,0.391076,0.0509928
2.18454,0.178835,0.0255173
2.16905,0.284791,0.0381859
2.18498,0.17887,-0.127673
2.16362,0.284078,0.0889047
2.16641,0.284444,-0.114511
2.15623,0.391076,-0.0509928
2.15029,0.38225,0
2.18914,0.17152,-0.0255638
2.19967,0.172344,-0.205964
2.18914,0.17152,0.0255638
2.17898,0.278361,-0.179327
2.16606,0.27671,0.0381161
2.19753,0.172177,-0.128371
2.1646,0.276523,0.0889047
2.16317,0.27634,0.178025
2.15758,0.383546,-0.0509928
2.16643,0.269075,-0.0635337
2.15161,0.374742,0
2.18574,0.163579,-0.0255173
2.17525,0.270171,-0.0127397
2.20025,0.164666,-0.205964
2.15497,0.375327,0.0508998
2.18574,0.163579,0.0255173
2.18786,0.271736,-0.179978
2.17099,0.269641,0.0381859
2.19414,0.164208,-0.128138
2.16952,0.269459,0.0890675
2.18023,0.270789,-0.115139
2.16412,0.268788,0.178025
2.15891,0.376013,-0.0509928
2.16745,0.260755,-0.0635337
2.15303,0.366478,0
2.18635,0.155186,-0.0255173
2.17627,0.261817,-0.0127397
2.1969,0.155934,-0.205592
2.16428,0.368392,0.0510859
2.19034,0.155469,0.0255638
2.18492,0.262858,-0.179653
2.16406,0.260348,0.0380462
2.19077,0.155499,-0.127906
2.16657,0.260649,0.0889047
2.18126,0.262417,-0.115139
2.16513,0.260477,0.178025
2.15639,0.36705,-0.0508998
2.19481,0.148858,-0.0256104
2.18943,0.148493,-0.204849
2.16148,0.360933,0.0509928
2.18284,0.148046,0.0254707
2.18574,0.255993,-0.179653
2.17282,0.254479,0.0381859
2.19523,0.148887,-0.128138
2.16341,0.253377,0.0887419
2.1676,0.361956,-0.102368
2.17414,0.254634,-0.11472
2.1699,0.254138,0.178351
2.16148,0.360933,-0.0509928
2.15153,0.35117,0
2.18736,0.1403,-0.0255173
2.19791,0.140977,-0.205592
2.16279,0.353008,0.0509928
2.18337,0.140044,0.0254707
2.1827,0.24753,-0.179327
2.17373,0.246513,0.0381859
2.19177,0.140584,-0.127906
2.16432,0.245446,0.0887419
2.16892,0.354008,-0.102368
2.17902,0.247113,-0.11493
2.16686,0.245733,0.178025
2.16279,0.353008,-0.0509928
2.17002,0.238423,-0.0635337
2.15274,0.343658,0
2.18783,0.132665,-0.0255173
2.18283,0.23983,-0.012763
2.19839,0.133304,-0.205592
2.16401,0.345456,0.0509928
2.19183,0.132907,0.0255638
2.18752,0.240345,-0.179653
2.17458,0.238924,0.0381859
2.19225,0.132932,-0.127906
2.1491,0.343077,0.126743
2.16914,0.238326,0.0889047
2.17014,0.346435,-0.102368
2.17193,0.238633,-0.114511
2.16374,0.237733,0.1777
2.16401,0.345456,-0.0509928
2.14628,0.443693,-0.0382557
2.1708,0.231225,-0.0635337
2.18826,0.125408,-0.0255173
2.18361,0.23259,-0.012763
2.20279,0.126241,-0.205964
2.16909,0.338895,0.0510859
2.19225,0.125637,0.0255638
2.18037,0.232245,-0.179002
2.17536,0.231711,0.0381859
2.20065,0.126118,-0.128371
2.16991,0.231131,0.0889047
2.17522,0.339853,-0.102555
2.17668,0.231852,-0.11472
2.16055,0.230134,0.177375
2.16514,0.338278,-0.0509928
2.15899,0.3296,0
2.19268,0.117983,-0.0255638
2.14419,0.435461,0.0127165
2.18043,0.224556,-0.0127397
2.20322,0.11855,-0.205964
2.16631,0.330717,0.0509928
2.19667,0.118198,0.0256104
2.18513,0.22504,-0.179327
2.17616,0.224116,0.0381859
2.19311,0.118006,-0.127906
2.16718,0.33085,0.127673
2.17071,0.223555,0.0889047
2.17245,0.331655,-0.102368
2.17748,0.224252,-0.11472
2.16927,0.223407,0.178025
2.1584,0.32951,-0.0508067
2.1494,0.428323,-0.0382557
2.17239,0.215685,-0.0635337
2.16018,0.321685,0
2.19709,0.110147,-0.0256104
2.1497,0.428381,0.0127397
2.18124,0.216563,-0.0127397
2.19966,0.110275,-0.205592
2.16355,0.322187,0.0508998
2.1891,0.109746,0.0255173
2.18991,0.217424,-0.179653
2.18492,0.216929,0.0383255
2.2015,0.110368,-0.128371
2.16442,0.322317,0.127441
2.16754,0.215203,0.0887419
2.16574,0.322513,-0.101996
2.18226,0.216665,-0.11493
2.17008,0.215455,0.178025
2.16355,0.322187,-0.0508998
2.15481,0.421585,-0.0383255
2.17313,0.2081,-0.0635337
2.15733,0.313566,0
2.19746,0.102476,-0.0256104
2.14725,0.420106,0.0127165
2.18198,0.208947,-0.0127397
2.19208,0.102225,-0.204849
2.16862,0.315207,0.0509928
2.19347,0.10229,0.0255638
2.18272,0.209018,-0.179002
2.1777,0.208538,0.0381859
2.19788,0.102496,-0.128138
2.15368,0.313036,0.126743
2.17225,0.208016,0.0889047
2.17476,0.3161,-0.102368
2.17903,0.208665,-0.11472
2.17082,0.207878,0.178025
2.16862,0.315207,-0.0509928
2.16412,0.415571,-0.0384651
2.16237,0.306597,0
2.19381,0.094634,-0.0255638
2.14871,0.41261,0.0127165
2.18668,0.201698,-0.012763
2.20436,0.0950889,-0.205964
2.16575,0.307076,0.0508998
2.19381,0.094634,0.0255638
2.17291,0.308091,-0.153464
2.18344,0.201399,-0.179002
2.17444,0.200569,0.0381161
2.20222,0.0949966,-0.128371
2.15871,0.306078,0.126976
2.16899,0.200066,0.0887419
2.1719,0.307948,-0.102182
2.17577,0.200692,-0.114511
2.16756,0.199935,0.1777
2.17367,0.308198,-0.0510859
2.15363,0.406544,-0.0382557
2.16333,0.299802,0
2.1901,0.087581,-0.0255173
2.14999,0.405857,0.0127165
2.1873,0.194827,-0.012763
2.20465,0.0881627,-0.205964
2.17462,0.301367,0.0510859
2.1941,0.0877408,0.0255638
2.17782,0.30181,-0.153743
2.18406,0.194538,-0.179002
2.17107,0.193381,0.0380462
2.19453,0.0877579,-0.127906
2.15571,0.298746,0.126743
2.17757,0.19396,0.0890675
2.18832,0.194918,-0.115139
2.17215,0.193477,0.178025
2.1667,0.30027,-0.0508998
2.15117,0.39792,-0.0381859
2.17234,0.292939,0
2.2024,0.0799883,-0.0256569
2.19425,0.187342,-0.280315
2.15146,0.397973,0.0127165
2.18402,0.186468,-0.0127397
2.20893,0.0802256,-0.206336
2.17175,0.29286,0.0509928
2.1984,0.0798431,0.0256104
2.17495,0.293292,-0.153464
2.1927,0.18721,-0.179653
2.17575,0.185762,0.0381161
2.19483,0.0797134,-0.127906
2.16075,0.291376,0.126976
2.17428,0.185637,0.0889047
2.16998,0.292622,-0.101996
2.18902,0.186895,-0.115139
2.17681,0.185853,0.178351
2.16382,0.291791,-0.0508067
2.15655,0.390746,-0.0382557
2.17583,0.177739,-0.0635337
2.1615,0.283416,0
2.20268,0.071916,-0.0256569
2.19888,0.179622,-0.280821
2.15684,0.390799,0.0127397
2.20125,0.0718695,-0.205592
2.19468,0.071655,0.0255638
2.17602,0.285319,-0.153464
2.1894,0.178848,-0.179327
2.1481,0.389214,0.0635337
2.1804,0.178113,0.0381859
2.19511,0.0716689,-0.127906
2.1618,0.283455,0.126976
2.17096,0.177341,0.0887419
2.17897,0.285706,-0.102368
2.18571,0.178546,-0.11493
2.17351,0.177549,0.178025
2.16884,0.284379,-0.0508998
2.16171,0.38467,-0.0383255
2.18435,0.171529,-0.0637664
2.16635,0.277132,0
2.20289,0.0649962,-0.0256569
2.19943,0.172713,-0.280821
2.162,0.384722,0.012763
2.20545,0.0650716,-0.205964
2.17369,0.278072,0.0509928
2.1949,0.0647602,0.0255638
2.1769,0.278482,-0.153464
2.18598,0.171657,-0.179002
2.14931,0.382464,0.0635337
2.18893,0.171889,0.0383255
2.20331,0.0650084,-0.128371
2.16268,0.276663,0.126976
2.17549,0.170834,0.0889047
2.17589,0.278353,-0.102182
2.18626,0.171679,-0.11493
2.17008,0.170408,0.1777
2.15237,0.383009,-0.0890675
2.17369,0.278072,-0.0509928
2.16304,0.377121,-0.0383255
2.18095,0.163603,-0.0636501
2.1673,0.269567,0
2.19911,0.0572016,-0.0256104
2.19606,0.164737,-0.280315
2.15939,0.376485,0.0127397
2.1938,0.164568,-0.0127862
2.20964,0.0574757,-0.206336
2.19511,0.0570976,0.0255638
2.17786,0.270881,-0.153464
2.19451,0.164621,-0.179653
2.15063,0.374959,0.0635337
2.18154,0.163648,0.0381859
2.20352,0.0573164,-0.128371
2.1676,0.269604,0.127208
2.17608,0.163238,0.0889047
2.18081,0.271248,-0.102368
2.18286,0.163747,-0.11472
2.17464,0.16313,0.178025
2.17465,0.270482,-0.0509928
2.16046,0.368519,-0.0382557
2.18552,0.155894,-0.0637664
2.16827,0.261623,0
2.1993,0.0491416,-0.0256104
2.19269,0.156405,-0.27981
2.15681,0.367896,0.0127165
2.1904,0.156242,-0.012763
2.1993,0.0491416,0.0256104
2.17884,0.262897,-0.153464
2.19908,0.156861,-0.179978
2.14805,0.366402,0.0634174
2.18611,0.155936,0.0382557
2.20372,0.0492402,-0.128371
2.16461,0.26118,0.126976
2.18065,0.155546,0.0890675
2.18179,0.263254,-0.102368
2.19142,0.156314,-0.115139
2.17124,0.154875,0.1777
2.15506,0.367598,-0.0890675
2.16769,0.261552,-0.0508067
2.15773,0.360693,-0.0381859
2.18204,0.148374,-0.0636501
2.1731,0.254896,0
2.20345,0.0419237,-0.0256569
2.18924,0.148863,-0.279305
2.16196,0.361401,0.0127397
2.1909,0.148977,-0.012763
2.20601,0.0419723,-0.205964
2.17251,0.254827,0.0508998
2.20345,0.0419237,0.0256569
2.18762,0.2566,-0.154022
2.19163,0.149026,-0.179327
2.15714,0.360595,0.0636501
2.18662,0.148685,0.0382557
2.19987,0.0418556,-0.128138
2.16149,0.253535,0.126743
2.17716,0.148042,0.0889047
2.17869,0.255551,-0.102182
2.19591,0.149317,-0.115348
2.17572,0.147944,0.178025
2.16021,0.361107,-0.0892304
2.17251,0.254827,-0.0508998
2.16292,0.353804,-0.0382557
2.17,0.246856,0
2.20559,0.142242,-0.281326
2.15927,0.353206,0.0127165
2.1954,0.141585,-0.0127862
2.20614,0.0342711,-0.205964
2.17339,0.247242,0.0508998
2.19959,0.0341692,0.0256104
2.18058,0.248059,-0.153464
2.2001,0.141888,-0.179978
2.15444,0.352417,0.0635337
2.18313,0.140794,0.0381859
2.204,0.0342378,-0.128371
2.16633,0.246439,0.126976
2.17767,0.140441,0.0889047
2.17956,0.247944,-0.102182
2.19243,0.141393,-0.115139
2.1802,0.140605,0.178351
2.16146,0.353564,-0.0892304
2.17736,0.247694,-0.0509928
2.17487,0.239339,0
2.2077,0.0262025,-0.0257035
2.20213,0.133916,-0.280821
2.16845,0.346552,0.012763
2.19399,0.241443,-0.237755
2.21023,0.0262327,-0.206336
2.1957,0.0260601,0.0255638
2.18147,0.240066,-0.153464
2.19662,0.133581,-0.179653
2.15572,0.344518,0.0635337
2.19162,0.133277,0.0383255
2.2081,0.0262074,-0.128604
2.16325,0.238061,0.126743
2.18216,0.132702,0.0890675
2.18443,0.240391,-0.102368
2.18895,0.133115,-0.11493
2.17672,0.132371,0.178025
2.15879,0.345009,-0.0890675
2.17826,0.239712,-0.0509928
2.16144,0.337702,-0.0381859
2.18748,0.125365,-0.0637664
2.17171,0.231324,0
2.20777,0.0184976,-0.0257035
2.19862,0.126003,-0.280315
2.16569,0.338365,0.0127397
2.19636,0.125873,-0.0127862
2.21031,0.0185189,-0.206336
2.17908,0.232109,0.0509928
2.20777,0.0184976,0.0257035
2.18626,0.232874,-0.153743
2.19707,0.125914,-0.179653
2.15296,0.336376,0.0634174
2.19207,0.125628,0.0383255
2.20419,0.0184676,-0.128371
2.17201,0.231356,0.127208
2.18261,0.125085,0.0890675
2.18526,0.232766,-0.102368
2.1894,0.125474,-0.11493
2.18115,0.125002,0.178351
2.1751,0.231685,-0.0508998
2.16255,0.330532,-0.0381859
2.19188,0.118325,-0.0638828
2.17247,0.22412,0
2.19903,0.118711,-0.280315
2.1668,0.331181,0.0127397
2.19277,0.118373,-0.012763
2.21036,0.0111885,-0.206336
2.18382,0.225291,0.0510859
2.19982,0.0111352,0.0256104
2.17909,0.224803,-0.153185
2.19748,0.118627,-0.179653
2.15406,0.329234,0.0634174
2.18848,0.118142,0.0382557
2.20823,0.0111777,-0.128604
2.1688,0.223741,0.126976
2.187,0.118062,0.0892304
2.18602,0.225518,-0.102368
2.1898,0.118213,-0.11493
2.17758,0.117553,0.178025
2.16109,0.330308,-0.0890675
2.17586,0.22447,-0.0508998
2.16369,0.32298,-0.0381859
2.17324,0.216535,0
2.20385,0.00346197,-0.0256569
2.19943,0.111034,-0.280315
2.16399,0.323024,0.0127165
2.19317,0.110718,-0.012763
2.18053,0.217261,-0.236042
2.2064,0.00346599,-0.205964
2.17663,0.216873,0.0508998
2.20385,0.00346197,0.0256569
2.18383,0.21759,-0.153464
2.1939,0.110754,-0.179327
2.1552,0.321712,0.0634174
2.19287,0.110703,0.0383255
2.17144,0.324136,-0.140707
2.20826,0.00346889,-0.128604
2.16559,0.215773,0.126743
2.17941,0.110023,0.0889047
2.18281,0.217489,-0.102182
2.19818,0.110971,-0.115348
2.18195,0.110151,0.178351
2.17663,0.216873,-0.0508998
2.16871,0.316381,-0.0382557
2.18465,0.103026,-0.0636501
2.16996,0.208944,0
2.20785,-0.0038528,-0.0257035
2.19582,0.103553,-0.27981
2.16505,0.315847,0.0127165
2.19353,0.103445,-0.012763
2.18519,0.210411,-0.23647
2.2064,-0.00385028,-0.205964
2.17734,0.209654,0.0508998
2.19985,-0.00383884,0.0256104
2.18454,0.210348,-0.153464
2.19824,0.103667,-0.179653
2.19722,0.103619,0.0383953
2.16855,0.316358,-0.140451
2.20426,-0.00384654,-0.128371
2.16629,0.208591,0.126743
2.18775,0.103172,0.0892304
2.1875,0.210633,-0.102368
2.19056,0.103305,-0.11493
2.18231,0.102916,0.178351
2.18132,0.210038,-0.0509928
2.17376,0.309372,-0.0383255
2.17068,0.201368,0
2.20782,-0.0115602,-0.0257035
2.20014,0.09606,-0.280315
2.17406,0.309414,0.012763
2.20187,0.0961355,-0.0128095
2.18988,0.203149,-0.236899
2.21833,-0.0116152,-0.207079
2.18204,0.202422,0.0509928
2.19982,-0.0115183,0.0256104
2.18526,0.20272,-0.153464
2.1946,0.0958184,-0.179327
2.15734,0.307035,0.0634174
2.19358,0.0957736,0.0383255
2.16964,0.308786,-0.140451
2.20823,-0.0115623,-0.128604
2.17098,0.201396,0.126976
2.18411,0.0953601,0.0890675
2.18822,0.202995,-0.102368
2.19489,0.0958312,-0.115139
2.18265,0.0952967,0.178351
2.17806,0.202052,-0.0508998
2.17092,0.300854,-0.0382557
2.18932,0.0875501,-0.0637664
2.20776,-0.0196517,-0.0257035
2.19651,0.0878374,-0.27981
2.16725,0.300346,0.0127165
2.2022,0.0880651,-0.0128095
2.19853,0.195827,-0.237755
2.20632,-0.0196389,-0.205964
2.17878,0.194068,0.0508998
2.20776,-0.0196517,0.0257035
2.17804,0.194002,-0.152906
2.19892,0.0879339,-0.179653
2.15845,0.299126,0.0634174
2.19791,0.0878934,0.0383953
2.1668,0.300284,-0.140195
2.22015,-0.019762,-0.129301
2.17569,0.193793,0.127208
2.18843,0.0875145,0.0892304
2.18895,0.194974,-0.102368
2.19523,0.0877863,-0.115139
2.18299,0.0872967,0.178351
2.19073,0.195133,-0.0511789
2.16799,0.29274,-0.0381859
2.18961,0.0799078,-0.0637664
2.18004,0.186513,0
2.20768,-0.0273576,-0.0257035
2.1968,0.0801701,-0.27981
2.16829,0.292779,0.0127165
2.1945,0.0800862,-0.012763
2.19127,0.187474,-0.236899
2.2142,-0.0274385,-0.206708
2.18741,0.187144,0.0510859
2.20768,-0.0273576,0.0257035
2.18268,0.186739,-0.153185
2.2032,0.0804036,-0.179978
2.16344,0.292125,0.0635337
2.19421,0.0800753,0.0383255
2.2041,-0.0273132,-0.128371
2.16839,0.185516,0.126743
2.18873,0.0798754,0.0892304
2.1936,0.187673,-0.102555
2.19552,0.0801235,-0.115139
2.16774,0.185461,0.267138
2.1793,0.0795312,0.178025
2.17945,0.186462,-0.0508998
2.18862,0.179937,0
2.21558,-0.0348047,-0.0257966
2.16528,0.285065,0.0126932
2.19875,0.0729405,-0.0127862
2.18396,0.179554,-0.236042
2.2141,-0.0347815,-0.206708
2.18005,0.179233,0.0508998
2.20758,-0.034679,0.0257035
2.18726,0.179826,-0.153464
2.20345,0.0730965,-0.179978
2.1644,0.284949,0.0635337
2.19446,0.0727981,0.0383255
2.1688,0.285528,-0.140195
2.20799,-0.0346854,-0.128604
2.18898,0.0726163,0.0892304
2.18625,0.179742,-0.102182
2.19977,0.0729742,-0.115348
2.1723,0.178596,0.267625
2.18353,0.0724356,0.178351
2.17493,0.0721502,0.396764
2.18005,0.179233,-0.0508998
2.16597,0.277467,-0.0381161
2.18524,0.171982,0
2.21144,-0.0424621,-0.0257501
2.20523,0.0654494,-0.280821
2.16626,0.277504,0.0126932
2.195,0.0651458,-0.012763
2.18457,0.171929,-0.236042
2.21397,-0.0425105,-0.206708
2.18067,0.171622,0.0508998
2.20344,-0.0423085,0.0256569
2.1839,0.171876,-0.153185
2.2037,0.0654039,-0.179978
2.16538,0.277391,0.0635337
2.1947,0.0651369,0.0383255
2.16978,0.277955,-0.140195
2.21184,-0.0424698,-0.128836
2.1696,0.170751,0.126743
2.18922,0.0649743,0.0892304
2.19084,0.172423,-0.102368
2.19602,0.0651761,-0.115139
2.165,0.170389,0.26665
2.17979,0.0646943,0.178025
2.1645,0.277279,-0.0889047
2.18303,0.0647907,0.398199
2.18864,0.172249,-0.0510859
2.17094,0.27002,-0.0381859
2.17389,0.163074,0
2.21127,-0.0505667,-0.0257501
2.20942,0.0574701,-0.281326
2.1752,0.27055,0.0127397
2.19922,0.0572047,-0.0127862
2.18915,0.164219,-0.23647
2.20981,-0.0505333,-0.206336
2.18128,0.163629,0.0508998
2.20727,-0.0504752,0.0257035
2.18849,0.16417,-0.153464
2.20791,0.0574307,-0.180304
2.16242,0.26896,0.0634174
2.19492,0.057093,0.0383255
2.17079,0.270001,-0.140195
2.17021,0.162799,0.126743
2.18944,0.0569505,0.0892304
2.19544,0.164691,-0.102555
2.20024,0.0572312,-0.115348
2.16957,0.16275,0.267138
2.18399,0.0568087,0.178351
2.16947,0.269837,-0.0890675
2.17932,0.0566872,0.397481
2.18527,0.163928,-0.0509928
2.17579,0.263301,-0.0382557
2.19051,0.0497103,-0.0637664
2.1824,0.156437,0
2.21109,-0.0578988,-0.0257501
2.20563,0.0500535,-0.280821
2.17212,0.262856,0.0127165
2.2034,0.0500027,-0.0128095
2.19365,0.157243,-0.236899
2.22556,-0.0582776,-0.207823
2.1858,0.156681,0.0509928
2.2031,-0.0576894,0.0256569
2.18504,0.156627,-0.153185
2.2041,0.0500187,-0.179978
2.16726,0.262269,0.0635337
2.1991,0.0499052,0.0383953
2.17167,0.262802,-0.140195
2.21549,-0.0580138,-0.129069
2.18269,0.156458,0.127441
2.18962,0.0496901,0.0892304
2.18801,0.156839,-0.102182
2.19642,0.0498444,-0.115139
2.16613,0.155271,0.26665
2.18417,0.0495665,0.178351
2.16638,0.262162,-0.0889047
2.18343,0.0495497,0.398199
2.18979,0.156967,-0.0510859
2.16875,0.25477,-0.0381161
2.19866,0.0422166,-0.0639992
2.17894,0.148546,0
2.21487,-0.0657358,-0.0257966
2.20183,0.0422773,-0.280315
2.17302,0.255271,0.0127165
2.19956,0.0422338,-0.0127862
2.19419,0.149585,-0.236899
2.21738,-0.0658102,-0.207079
2.21088,-0.0656172,0.0257501
2.19752,0.149812,-0.154022
2.19629,0.042171,-0.179327
2.16817,0.254701,0.0635337
2.19526,0.0421513,0.0383255
2.17257,0.255219,-0.140195
2.20729,-0.0655106,-0.128604
2.19378,0.0421228,0.0893932
2.20057,0.0422533,-0.115348
2.17458,0.148248,0.267625
2.18832,0.0420179,0.178676
2.16729,0.254598,-0.0889047
2.18359,0.0419273,0.398199
2.18633,0.149049,-0.0509928
2.16566,0.246746,-0.0380462
2.19142,0.141714,0
2.21063,-0.0733337,-0.0257501
2.20196,0.0345917,-0.280315
2.1739,0.247685,0.0127165
2.19969,0.0345561,-0.0127862
2.21714,-0.0735494,-0.207079
2.18285,0.141159,0.0508998
2.21463,-0.0734663,0.0257966
2.19405,0.141883,-0.153743
2.20439,0.03463,-0.179978
2.16904,0.247132,0.0635337
2.19539,0.0344886,0.0383255
2.21104,-0.073347,-0.128836
2.17178,0.140443,0.126743
2.19391,0.0344653,0.0893932
2.19304,0.141818,-0.102368
2.20071,0.0345721,-0.115348
2.17509,0.140657,0.267625
2.18446,0.0343169,0.178351
2.16816,0.247031,-0.0889047
2.17979,0.0342435,0.397481
2.18684,0.141417,-0.0509928
2.17048,0.239623,-0.0381161
2.1919,0.134063,0
2.21836,-0.0813435,-0.0258432
2.20603,0.0269531,-0.280821
2.17475,0.240095,0.0127165
2.2078,0.0269747,-0.0128327
2.19121,0.13402,-0.23647
2.21687,-0.0812888,-0.207079
2.18333,0.133538,0.0508998
2.20637,-0.0809038,0.0257035
2.19453,0.134223,-0.153743
2.20052,0.0268857,-0.179653
2.16989,0.239558,0.0635337
2.1995,0.0268733,0.0383953
2.17827,0.240483,-0.140451
2.21476,-0.0812114,-0.129069
2.17624,0.133104,0.126976
2.19402,0.0268063,0.0893932
2.18953,0.133917,-0.102182
2.19682,0.0268406,-0.115139
2.17557,0.133063,0.267625
2.19254,0.0267883,0.179002
2.17298,0.2399,-0.0890675
2.18383,0.0266819,0.398199
2.19131,0.134026,-0.0510859
2.1713,0.232045,-0.0381161
2.18038,0.125719,0
2.21806,-0.0890871,-0.0258432
2.21405,0.0193211,-0.281831
2.17557,0.232501,0.0127165
2.20388,0.0192324,-0.0128095
2.19166,0.12637,-0.23647
2.18378,0.125915,0.0508998
2.20208,-0.0884451,0.0256569
2.18702,0.126102,-0.153185
2.2006,0.0192037,-0.179653
2.16674,0.231557,0.0634174
2.20358,0.0192298,0.0384651
2.18306,0.233302,-0.140707
2.21446,-0.0889425,-0.129069
2.17669,0.125507,0.126976
2.1901,0.0191121,0.0892304
2.19397,0.126503,-0.102368
2.1969,0.0191715,-0.115139
2.17205,0.125239,0.267138
2.18465,0.0190646,0.178351
2.16983,0.231888,-0.0889047
2.18777,0.126146,-0.0509928
2.18006,0.225288,-0.0382557
2.19904,0.0115152,-0.0639992
2.1808,0.118109,0
2.20974,-0.0964786,-0.0257501
2.17637,0.224907,0.0127165
2.20393,0.0115408,-0.0128095
2.19606,0.118935,-0.236899
2.22818,-0.0972835,-0.208195
2.19219,0.118726,0.0510859
2.20974,-0.0964786,0.0257501
2.19143,0.118685,-0.153464
2.20464,0.0115445,-0.179978
2.16753,0.223994,0.0634174
2.19963,0.0115183,0.0383953
2.1799,0.225271,-0.140451
2.22211,-0.0970187,-0.129534
2.18509,0.118341,0.127441
2.20214,0.0115314,0.0897188
2.20238,0.119278,-0.102741
2.19695,0.0115043,-0.115139
2.17644,0.117873,0.267625
2.1847,0.0114401,0.178351
2.17063,0.224314,-0.0889047
2.1882,0.11851,-0.0509928
2.17681,0.217659,-0.0381859
2.18917,0.111282,0
2.2174,-0.104182,-0.0258432
2.19868,0.111765,-0.342505
2.21016,0.00424353,-0.281326
2.18109,0.218086,0.0127397
2.20396,0.00423162,-0.0128095
2.19247,0.11145,-0.23647
2.22387,-0.104486,-0.207823
2.19257,0.111455,0.0510859
2.20941,-0.103806,0.0257501
2.19978,0.111821,-0.154022
2.20466,0.00423297,-0.179978
2.17224,0.217202,0.0635337
2.20366,0.00423104,0.0384651
2.17666,0.217643,-0.140195
2.18148,0.110891,0.127208
2.20217,0.00422818,0.0897188
2.19877,0.11177,-0.102555
2.20497,0.00423356,-0.115558
2.18079,0.110856,0.268113
2.18872,0.00420235,0.178676
2.18329,0.218307,-0.0893932
2.19257,0.111455,-0.0510859
2.18158,0.210063,-0.0382557
2.19907,-0.0038373,-0.0639992
2.18957,0.103258,0
2.21701,-0.112308,-0.0258432
2.17789,0.209708,0.0127165
2.20796,-0.00385282,-0.0128327
2.22347,-0.112635,-0.207823
2.19297,0.103419,0.0510859
2.20902,-0.111903,0.0257501
2.20416,0.103946,-0.154301
2.20466,-0.00384707,-0.179978
2.17303,0.209239,0.0635337
2.19966,-0.00383834,0.0383953
2.18141,0.210047,-0.140451
2.17789,0.102707,0.126976
2.19418,-0.00382877,0.0893932
2.19518,0.103523,-0.102368
2.20098,-0.00384063,-0.115348
2.18118,0.102863,0.268113
2.18872,-0.00381924,0.178676
2.18498,0.103042,-0.0508998
2.17831,0.202076,-0.0381859
2.18592,0.0954394,0
2.22459,-0.120479,-0.0259363
2.21014,-0.0115721,-0.281326
2.18259,0.202473,0.0127397
2.20393,-0.0115397,-0.0128095
2.19321,0.0957579,-0.23647
2.22306,-0.120397,-0.207823
2.19332,0.0957625,0.0510859
2.20861,-0.119614,0.0257501
2.20053,0.0960772,-0.154022
2.20862,-0.0115642,-0.180304
2.17374,0.201652,0.0635337
2.20363,-0.0115381,0.0384651
2.17816,0.202062,-0.140195
2.22098,-0.120284,-0.129534
2.17823,0.0951038,0.126976
2.19415,-0.0114884,0.0893932
2.19952,0.0960332,-0.102555
2.20095,-0.011524,-0.115348
2.17756,0.0950744,0.267625
2.19666,-0.0115016,0.179327
2.1848,0.202678,-0.0893932
2.19731,0.0959369,-0.0511789
2.17901,0.194471,-0.0381859
2.18624,0.087808,0
2.22016,-0.128014,-0.0258898
2.20369,0.0885091,-0.34312
2.18329,0.194853,0.0127397
2.20788,-0.0192682,-0.0128327
2.22661,-0.128386,-0.208195
2.19364,0.0881052,0.0510859
2.20818,-0.127323,0.0257501
2.20085,0.0883948,-0.154022
2.20857,-0.0192743,-0.180304
2.17045,0.193707,0.0634174
2.20758,-0.0192656,0.0385349
2.18283,0.194812,-0.140451
2.22054,-0.128036,-0.129534
2.18254,0.0876595,0.127208
2.20209,-0.0192177,0.0897188
2.19984,0.0883543,-0.102555
2.17391,0.0873128,0.267138
2.19262,-0.0191351,0.179002
2.18964,0.0879447,-0.0509928
2.17964,0.187245,-0.0381859
2.19051,0.0807064,0
2.21973,-0.135374,-0.0258898
2.2118,-0.0266364,-0.012856
2.19779,0.0809744,-0.236899
2.22617,-0.135767,-0.208195
2.18992,0.0806846,0.0509928
2.21174,-0.134887,0.0257966
2.20512,0.0812444,-0.154301
2.20451,-0.0265485,-0.179978
2.17108,0.18651,0.0634174
2.2035,-0.0265365,0.0384651
2.17948,0.187232,-0.140195
2.22808,-0.135884,-0.129999
2.18681,0.0805699,0.127441
2.20601,-0.0265666,0.0898817
2.20411,0.0812075,-0.102741
2.20881,-0.0266003,-0.115767
2.18212,0.0803972,0.268113
2.19255,-0.0264045,0.179002
2.17816,0.187119,-0.0890675
2.20191,0.0811263,-0.051272
2.18028,0.179635,-0.0381859
2.19078,0.0730591,0
2.22323,-0.14338,-0.0259363
2.17659,0.179331,0.0126932
2.2037,-0.0342332,-0.0128095
2.22568,-0.143538,-0.208195
2.19419,0.0731726,0.0510859
2.21126,-0.142607,0.0257966
2.19741,0.0732801,-0.153743
2.20839,-0.034306,-0.180304
2.17172,0.17893,0.0634174
2.1954,-0.0341043,0.0383255
2.21962,-0.143147,-0.129534
2.18708,0.0729355,0.127441
2.2059,-0.0342675,0.0898817
2.20438,0.0735126,-0.102741
2.2087,-0.0343109,-0.115767
2.18636,0.0729114,0.2686
2.19643,-0.0341203,0.179327
2.18279,0.179842,-0.0892304
2.19419,0.0731726,-0.0510859
2.18086,0.172404,-0.0381859
2.19901,0.0660333,0
2.21875,-0.150481,-0.0258898
2.21771,-0.0418079,-0.282336
2.18515,0.172742,0.0127397
2.20757,-0.0416167,-0.0128327
2.22519,-0.150918,-0.208195
2.19442,0.0658954,0.0510859
2.21875,-0.150481,0.0258898
2.20562,0.0662317,-0.154301
2.21225,-0.0417049,-0.180629
2.17629,0.172042,0.0635337
2.20727,-0.0416111,0.0385349
2.18071,0.172391,-0.140195
2.21913,-0.150507,-0.129534
2.17932,0.0654421,0.126976
2.20578,-0.0415829,0.0898817
2.20861,0.0663215,-0.102927
2.20858,-0.0416357,-0.115767
2.19055,0.0657794,0.269088
2.19232,-0.0413292,0.179002
2.18337,0.172602,-0.0892304
2.19442,0.0658954,-0.0510859
2.18547,0.16471,-0.0382557
2.19124,0.0577627,0
2.23015,-0.159468,-0.0260295
2.18576,0.164733,0.0127397
2.2114,-0.0497972,-0.012856
2.19851,0.0579545,-0.236899
2.22462,-0.159072,-0.208195
2.19464,0.0578525,0.0510859
2.21021,-0.158041,0.0257966
2.19787,0.0579375,-0.153743
2.21606,-0.0499022,-0.180955
2.1769,0.164065,0.0635337
2.2071,-0.0497004,0.0385349
2.22255,-0.158924,-0.129766
2.18753,0.057665,0.127441
2.20561,-0.0496668,0.0898817
2.20484,0.0581213,-0.102741
2.18681,0.057646,0.2686
2.19614,-0.0494534,0.179327
2.18797,0.164899,-0.0893932
2.19464,0.0578525,-0.0510859
2.18603,0.15708,-0.0382557
2.19543,0.0502046,0
2.2256,-0.166953,-0.0259829
2.21339,-0.057573,-0.281831
2.19032,0.157388,0.012763
2.21122,-0.0575165,-0.012856
2.22405,-0.166837,-0.208195
2.19883,0.0502824,0.0511789
2.19806,0.0502647,-0.153743
2.21189,-0.0575341,-0.180629
2.17746,0.156464,0.0635337
2.20692,-0.0574047,0.0385349
2.18189,0.156782,-0.140195
2.22198,-0.166682,-0.129766
2.18373,0.0499371,0.127208
2.20942,-0.0574698,0.0900445
2.20503,0.0504242,-0.102741
2.20822,-0.0574387,-0.115767
2.17906,0.0498303,0.267625
2.19595,-0.0571194,0.179327
2.18455,0.156974,-0.0892304
2.19883,0.0502824,-0.0511789
2.18656,0.149448,-0.0382557
2.20611,-0.0650903,-0.0642319
2.19159,0.0424633,0
2.22101,-0.174407,-0.0259363
2.19085,0.149741,0.012763
2.219,-0.0654707,-0.0129024
2.20284,0.0426813,-0.237327
2.22743,-0.174911,-0.208567
2.19899,0.0426067,0.0511789
2.17401,0.14859,0.0634174
2.2067,-0.065108,0.0385349
2.18242,0.149165,-0.140195
2.22537,-0.174749,-0.129999
2.19187,0.0424688,0.127673
2.20521,-0.0650639,0.0898817
2.20519,0.0427269,-0.102741
2.212,-0.0652642,-0.115976
2.18716,0.0423775,0.2686
2.19574,-0.0647844,0.179327
2.1811,0.149075,-0.0890675
2.20299,0.0426842,-0.051272
2.18707,0.141815,-0.0382557
2.19172,0.034813,0
2.22438,-0.182486,-0.0259829
2.18737,0.141834,0.0127397
2.21476,-0.0730841,-0.0128792
2.23474,-0.183337,-0.20931
2.20313,0.0349941,0.051272
2.20633,0.035045,-0.154301
2.21542,-0.073106,-0.180955
2.18249,0.141518,0.0636501
2.20646,-0.0728104,0.0385349
2.18293,0.141546,-0.140195
2.22474,-0.182516,-0.129999
2.18802,0.0347541,0.127441
2.20896,-0.0728929,0.0900445
2.20933,0.0350926,-0.102927
2.18333,0.0346796,0.268113
2.1955,-0.0724485,0.179327
2.18559,0.141719,-0.0892304
2.19513,0.0348671,-0.0510859
2.18354,0.134316,-0.0381859
2.19983,0.0276453,0
2.23173,-0.190542,-0.026076
2.21664,-0.0805058,-0.282336
2.18783,0.13458,0.0127397
2.2145,-0.0804281,-0.0128792
2.23016,-0.190408,-0.208938
2.19923,0.0276378,0.0511789
2.21977,-0.189521,0.0259363
2.21043,0.0277785,-0.15458
2.21118,-0.0803075,-0.180629
2.18295,0.13428,0.0636501
2.20621,-0.0801269,0.0385349
2.19135,0.134797,-0.140707
2.2281,-0.190233,-0.130231
2.18812,0.0274982,0.127441
2.20472,-0.0800727,0.0898817
2.20943,0.027766,-0.102927
2.2155,-0.0804642,-0.116186
2.19534,0.0275889,0.269575
2.19923,-0.0798734,0.179653
2.18206,0.134225,-0.0890675
2.19923,0.0276378,-0.0511789
2.18801,0.126543,-0.0382557
2.19191,0.0195111,0
2.22703,-0.198365,-0.0260295
2.2203,-0.0887882,-0.282841
2.1923,0.126791,0.012763
2.21419,-0.0885441,-0.0128792
2.20317,0.0196113,-0.237327
2.19932,0.019577,0.0511789
2.20652,0.0196412,-0.154301
2.18343,0.126278,0.0636501
2.2099,-0.0883723,0.0386047
2.18785,0.126534,-0.140451
2.23137,-0.198752,-0.130464
2.18821,0.0194781,0.127441
2.2084,-0.0883125,0.0900445
2.20552,0.0196323,-0.102741
2.18749,0.0194717,0.2686
2.20689,-0.088252,0.180304
2.19052,0.126688,-0.0893932
2.20332,0.0196126,-0.051272
2.20042,0.119556,-0.0384651
2.19997,0.0119031,0
2.23031,-0.206507,-0.026076
2.21997,-0.0965379,-0.282841
2.19273,0.119138,0.012763
2.21387,-0.0962725,-0.0128792
2.20322,0.0119207,-0.237327
2.20337,0.0119215,0.051272
2.20259,0.0119173,-0.154022
2.21852,-0.0964746,-0.18128
2.18385,0.118656,0.0636501
2.22156,-0.096607,0.0388142
2.19625,0.119329,-0.140962
2.18826,0.0118397,0.127441
2.20808,-0.0960207,0.0900445
2.21357,0.0119767,-0.103113
2.21087,-0.0961422,-0.115976
2.18754,0.0118358,0.2686
2.1986,-0.0956086,0.179653
2.19095,0.119041,-0.0893932
2.19937,0.0118999,-0.0511789
2.18884,0.111265,-0.0382557
2.196,0.00421602,0
2.22559,-0.213908,-0.0260295
2.21962,-0.104287,-0.282841
2.18914,0.11128,0.0127397
2.22151,-0.104375,-0.0129257
2.2034,0.00423023,0.051272
2.20262,0.00422873,-0.154022
2.21418,-0.104031,-0.180955
2.18026,0.110829,0.0635337
2.21722,-0.104173,0.0387443
2.19266,0.111459,-0.140707
2.2339,-0.214707,-0.130697
2.19228,0.00420889,0.127673
2.20773,-0.103728,0.0900445
2.2096,0.00424214,-0.102927
2.21052,-0.103859,-0.115976
2.18757,0.00419984,0.2686
2.19825,-0.103283,0.179653
2.1994,0.00422255,-0.0511789
2.19321,0.103813,-0.0383255
2.204,-0.00346203,0
2.23279,-0.222469,-0.0261226
2.18951,0.103638,0.0127397
2.21314,-0.111726,-0.0128792
2.2074,-0.00346738,0.051365
2.20661,-0.00346613,-0.154301
2.21779,-0.11196,-0.18128
2.18063,0.103218,0.0635337
2.20885,-0.111509,0.0386047
2.22917,-0.222107,-0.130464
2.18829,-0.00343736,0.127441
2.21534,-0.111837,0.0903702
2.21759,-0.00348339,-0.103299
2.21414,-0.111776,-0.116186
2.19154,-0.00344246,0.269088
2.19788,-0.110955,0.179653
2.19572,0.103932,-0.089556
2.2034,-0.00346109,-0.051272
2.18956,0.0959813,-0.0382557
2.20797,-0.0111756,0
2.22802,-0.229851,-0.026076
2.19785,0.0963446,0.0127862
2.22472,-0.120097,-0.0129489
2.20338,-0.0111524,0.051272
2.22404,-0.22944,0.0260295
2.21456,-0.011209,-0.154859
2.22137,-0.119916,-0.181606
2.18498,0.0957802,0.0636501
2.21244,-0.119434,0.0386745
2.19625,-0.0111163,0.127906
2.20695,-0.119138,0.0900445
2.20558,-0.0111635,-0.102741
2.21373,-0.119504,-0.116186
2.19151,-0.0110923,0.269088
2.20146,-0.118841,0.179978
2.19208,0.0960914,-0.0893932
2.19938,-0.0111321,-0.0511789
2.19788,0.0886601,-0.0383953
2.20792,-0.0188828,0
2.23516,-0.238475,-0.0261692
2.19418,0.0885109,0.012763
2.2203,-0.127633,-0.0129257
2.20332,-0.0188435,0.051272
2.21052,-0.0189051,-0.15458
2.22491,-0.127898,-0.181931
2.18929,0.0883138,0.0637664
2.216,-0.127386,0.0387443
2.18972,0.0883312,-0.140451
2.2355,-0.238512,-0.130929
2.20019,-0.0188167,0.128138
2.21051,-0.12707,0.0902073
2.21352,-0.0189307,-0.103113
2.2133,-0.127231,-0.116186
2.19146,-0.0187421,0.269088
2.20501,-0.126754,0.180304
2.1924,0.088439,-0.0893932
2.19015,0.0814576,-0.0382557
2.19985,-0.0257256,0
2.23043,-0.245059,-0.0261226
2.19844,0.0817659,0.0127862
2.21589,-0.134365,-0.0129024
2.20708,-0.0258101,-0.237755
2.19925,-0.0257186,0.0511789
2.21045,-0.0258495,-0.15458
2.22052,-0.134646,-0.181606
2.18956,0.0814355,0.0637664
2.22358,-0.134831,0.038884
2.19398,0.0815999,-0.140707
2.23077,-0.245097,-0.130697
2.19214,-0.0256354,0.127673
2.20611,-0.133772,0.0900445
2.21345,-0.0258846,-0.103113
2.21688,-0.134425,-0.116395
2.19536,-0.0256731,0.269575
2.2046,-0.133681,0.180304
2.18867,0.0814024,-0.0892304
2.19925,-0.0257186,-0.0511789
2.19844,0.073314,-0.0383953
2.22947,-0.253622,-0.0261226
2.19075,0.0730573,0.0127397
2.22734,-0.143645,-0.0129722
2.2189,-0.0344698,-0.239041
2.20314,-0.034225,0.051272
2.21034,-0.0343369,-0.15458
2.22397,-0.143428,-0.181931
2.18586,0.0728943,0.0636501
2.21905,-0.143111,0.0388142
2.23378,-0.254113,-0.130929
2.20001,-0.0341764,0.128138
2.20957,-0.142499,0.0902073
2.21333,-0.0343834,-0.103113
2.21635,-0.142936,-0.116395
2.19525,-0.0341025,0.269575
2.20407,-0.142145,0.180304
2.19296,0.0731312,-0.0893932
2.20714,-0.0342872,-0.051365
2.19069,0.0654009,-0.0382557
2.2036,-0.0419266,0
2.23651,-0.262334,-0.0262157
2.19499,0.0655291,0.012763
2.21884,-0.150876,-0.0129257
2.21479,-0.0421394,-0.238612
2.207,-0.0419913,0.051365
2.21419,-0.0421281,-0.154859
2.22345,-0.15119,-0.181931
2.1861,0.0652638,0.0636501
2.21854,-0.150856,0.0388142
2.23685,-0.262374,-0.131162
2.19588,-0.0417797,0.127906
2.21704,-0.150754,0.090533
2.19512,-0.0417651,0.269575
2.20356,-0.149838,0.180304
2.1932,0.0654759,-0.0893932
2.19888,0.0587319,-0.0383953
2.21546,-0.0491151,0
2.23568,-0.269359,-0.0262157
2.19518,0.058633,0.012763
2.21835,-0.157846,-0.0129257
2.21067,-0.0490089,-0.238184
2.21086,-0.0490132,0.0514581
2.21804,-0.0491724,-0.155138
2.22297,-0.158174,-0.181931
2.19029,0.0585024,0.0637664
2.21805,-0.157825,0.0388142
2.19471,0.0586205,-0.140707
2.19973,-0.0487665,0.128138
2.21257,-0.157434,0.0903702
2.21705,-0.0491505,-0.103299
2.22332,-0.158199,-0.116814
2.20291,-0.048837,0.27055
2.20308,-0.15676,0.180304
2.19739,0.0586921,-0.089556
2.20686,-0.0489246,-0.051365
2.19508,0.05058,-0.0383255
2.20326,-0.0569249,0
2.23865,-0.278045,-0.0262623
2.19138,0.0504947,0.0127397
2.22973,-0.166871,-0.0129954
2.21445,-0.0572138,-0.238612
2.20667,-0.0570128,0.051365
2.23032,-0.166916,-0.182582
2.19049,0.0504742,0.0637664
2.22145,-0.166252,0.038884
2.1989,0.0506681,-0.140962
2.19555,-0.0567255,0.127906
2.21596,-0.165841,0.090533
2.21286,-0.0571729,-0.103113
2.19875,-0.0568082,0.270062
2.20647,-0.165131,0.180629
2.19759,0.0506379,-0.089556
2.20667,-0.0570128,-0.051365
2.20324,0.0430738,-0.0384651
2.21105,-0.0648499,0
2.23766,-0.285857,-0.0262623
2.19954,0.0430015,0.0127862
2.22514,-0.174341,-0.0129722
2.21821,-0.0650599,-0.239041
2.20645,-0.0647152,0.051365
2.21364,-0.0649259,-0.154859
2.22178,-0.174077,-0.181931
2.18666,0.0427495,0.0636501
2.21687,-0.173693,0.0388142
2.19907,0.0429922,-0.140962
2.20332,-0.0646232,0.128371
2.21138,-0.173263,0.0903702
2.21664,-0.065014,-0.103299
2.19854,-0.064483,0.270062
2.20985,-0.173143,0.180955
2.19776,0.0429665,-0.089556
2.20645,-0.0647152,-0.051365
2.20338,0.0353828,-0.0384651
2.22362,-0.182033,-0.0649301
2.20681,-0.0724363,0
2.22872,-0.292625,-0.0261692
2.19968,0.0353233,0.0127862
2.22851,-0.182434,-0.0129954
2.21021,-0.0725479,0.0514581
2.2134,-0.0726526,-0.154859
2.22513,-0.182157,-0.182256
2.22023,-0.181756,0.038884
2.20308,-0.0723138,0.128371
2.21475,-0.181307,0.090533
2.22439,-0.0730133,-0.103671
2.19433,-0.0720266,0.269575
2.20526,-0.180531,0.180629
2.20621,-0.0724167,-0.051365
2.20349,0.0276913,-0.0384651
2.21898,-0.189454,-0.0648137
2.20655,-0.0801391,0
2.23165,-0.300937,-0.0262157
2.19179,0.0275443,0.0127397
2.22387,-0.189871,-0.0129722
2.21373,-0.0803999,-0.238612
2.21712,-0.0805232,-0.155138
2.22845,-0.190262,-0.182582
2.1869,0.0274829,0.0636501
2.2156,-0.189165,0.0388142
2.20281,-0.0800035,0.128371
2.21808,-0.189377,0.0906958
2.22086,-0.189614,-0.116814
2.19803,-0.0798299,0.270062
2.20859,-0.188566,0.180955
2.198,0.0276224,-0.089556
2.20595,-0.0801174,-0.051365
2.19557,0.0203102,-0.0383255
2.21426,-0.0877727,0
2.2346,-0.308884,-0.0262623
2.19987,0.0203499,0.0127862
2.22721,-0.197598,-0.0129954
2.21742,-0.087898,-0.239041
2.21766,-0.0879073,0.0516442
2.21684,-0.087875,-0.155138
2.19498,0.0203047,0.0638828
2.22293,-0.197218,0.0389538
2.20339,0.0203824,-0.141218
2.21346,-0.196378,0.090533
2.21985,-0.0879941,-0.103485
2.2242,-0.197331,-0.117023
2.20172,-0.0872757,0.27055
2.21987,-0.196946,0.181931
2.19808,0.0203334,-0.089556
2.20567,-0.0874322,-0.051365
2.20363,0.0123075,-0.0384651
2.24137,-0.318196,-0.0263554
2.19993,0.0122868,0.0127862
2.23444,-0.206496,-0.0130419
2.22106,-0.0961967,-0.239469
2.21333,-0.0958618,0.0515511
2.2165,-0.0959995,-0.155138
2.23104,-0.206182,-0.182907
2.19104,0.0122372,0.0637664
2.22617,-0.205732,0.0390236
2.19945,0.0122842,-0.140962
2.2022,-0.09538,0.128371
2.21552,-0.0959568,-0.103299
2.22346,-0.205481,-0.117023
2.20139,-0.0953448,0.27055
2.21013,0.0123438,-0.0900445
2.19966,0.00499089,-0.0383953
2.23635,-0.325052,-0.0263088
2.19996,0.00499157,0.0127862
2.2218,-0.212761,-0.0129722
2.21675,-0.103376,-0.239041
2.21617,-0.103349,-0.155138
2.22638,-0.213199,-0.182582
2.19507,0.00498047,0.0638828
2.22946,-0.213494,0.0390934
2.20747,0.0050086,-0.141474
2.20586,-0.102868,0.128604
2.21602,-0.212207,0.0906958
2.22317,-0.103675,-0.103671
2.22674,-0.213234,-0.117233
2.20503,-0.102829,0.271037
2.20217,0.00499658,-0.0897188
2.213,-0.103201,-0.0515511
2.20366,-0.00307689,-0.0384651
2.23514,-0.333246,-0.0263088
2.20396,-0.00307731,0.0128095
2.23693,-0.222486,-0.0130652
2.22059,-0.111713,0.0517372
2.23118,-0.332657,0.0262623
2.22375,-0.111872,-0.155696
2.19507,-0.00306489,0.0638828
2.22866,-0.221664,0.0390934
2.20547,-0.110952,0.128604
2.21522,-0.220328,0.0906958
2.21879,-0.111622,-0.103485
2.22595,-0.221394,-0.117233
2.19817,-0.00306923,-0.089556
2.2126,-0.111311,-0.0515511
2.19964,-0.0107496,-0.0383953
2.2128,-0.119066,0
2.24187,-0.342254,-0.026402
2.19594,-0.0107315,0.012763
2.22818,-0.229474,-0.0130187
2.21993,-0.11945,-0.239469
2.22019,-0.119464,0.0517372
2.21936,-0.119419,-0.155417
2.20304,-0.0107662,0.0641155
2.2239,-0.229033,0.0390236
2.20345,-0.0107682,-0.141218
2.20507,-0.11865,0.128604
2.21842,-0.228468,0.0908587
2.22913,-0.229572,-0.117442
2.20215,-0.0107618,-0.0897188
2.20759,-0.0184947,-0.0385349
2.20838,-0.126561,0
2.23671,-0.34946,-0.0263554
2.20389,-0.0184636,0.0128095
2.23134,-0.237674,-0.0130419
2.21976,-0.127213,0.0517372
2.22292,-0.127394,-0.155696
2.19499,-0.0183892,0.0638828
2.22706,-0.237218,0.0390934
2.2034,-0.0184596,-0.141218
2.20464,-0.126347,0.128604
2.21761,-0.236211,0.0908587
2.22194,-0.127338,-0.103671
2.23229,-0.237775,-0.117651
2.2021,-0.0184487,-0.0897188
2.21177,-0.126755,-0.0515511
2.21152,-0.025476,-0.0386047
2.21595,-0.133981,0
2.20382,-0.0253872,0.0128095
2.23058,-0.244682,-0.0130419
2.21535,-0.133944,0.0516442
2.22649,-0.134618,-0.155975
2.19892,-0.0253309,0.0639992
2.2263,-0.244213,0.0390934
2.20333,-0.0253817,-0.141218
2.20822,-0.133513,0.128836
2.21754,-0.134077,-0.103485
2.21002,-0.0254587,-0.0900445
2.21136,-0.133703,-0.0515511
2.20341,-0.0334599,-0.0384651
2.21545,-0.142102,0
2.21571,-0.0336467,0.0128792
2.23762,-0.253758,-0.0130884
2.22255,-0.142557,-0.239897
2.21884,-0.142319,0.0517372
2.21802,-0.142266,-0.155417
2.19882,-0.0333902,0.0639992
2.22937,-0.252822,0.0391632
2.21121,-0.0335784,-0.14173
2.2117,-0.141861,0.129069
2.22102,-0.142459,-0.103671
2.20192,-0.0334373,-0.0897188
2.20728,-0.0412258,-0.0385349
2.21494,-0.149834,0
2.21158,-0.041306,0.012856
2.23672,-0.261567,-0.0130884
2.22232,-0.150333,0.0518303
2.22149,-0.150277,-0.155696
2.19869,-0.0410653,0.0639992
2.2245,-0.260138,0.0390934
2.20709,-0.0412222,-0.141474
2.21518,-0.14985,0.129301
2.22848,-0.150751,-0.104044
2.22232,-0.150333,-0.0518303
2.21113,-0.0486331,-0.0386047
2.21842,-0.157462,0
2.20743,-0.0485517,0.0128327
2.23584,-0.268983,-0.0130884
2.22894,-0.158208,-0.156255
2.19854,-0.0483561,0.0639992
2.22363,-0.267513,0.0390934
2.21068,-0.156913,0.129069
2.22212,-0.267332,0.0911843
2.23594,-0.158706,-0.104416
2.20564,-0.0485123,-0.0898817
2.21782,-0.157419,-0.0517372
2.21094,-0.056737,-0.0386047
2.21783,-0.165591,0
2.20724,-0.056642,0.0128327
2.23484,-0.277176,-0.0130884
2.2252,-0.166142,0.0519233
2.22834,-0.166377,-0.156255
2.19835,-0.0564139,0.0639992
2.23057,-0.276646,0.039233
2.20674,-0.0566294,-0.141474
2.20611,-0.164717,0.128836
2.22738,-0.166305,-0.104044
2.23578,-0.277292,-0.11807
2.20944,-0.0566986,-0.0900445
2.20673,-0.0643377,-0.0385349
2.21724,-0.173332,0
2.20703,-0.0643464,0.0128327
2.23386,-0.284975,-0.0130884
2.21664,-0.173285,0.0517372
2.22377,-0.173843,-0.155975
2.20213,-0.0642037,0.0641155
2.22959,-0.28443,0.039233
2.21052,-0.0644484,-0.14173
2.21349,-0.173039,0.129301
2.2228,-0.173767,-0.103857
2.21322,-0.0645271,-0.0902073
2.21664,-0.173285,-0.0517372
2.2105,-0.0717849,-0.0386047
2.22064,-0.181009,0
2.2148,-0.0719244,0.0128792
2.23687,-0.292901,-0.0131117
2.22801,-0.18161,0.0520164
2.22318,-0.181216,-0.155975
2.2326,-0.292342,0.0393028
2.2103,-0.0717784,-0.14173
2.2129,-0.180378,0.129301
2.22221,-0.181137,-0.103857
2.22003,-0.18096,-0.0518303
2.21821,-0.0801752,-0.0387443
2.22793,-0.189826,0
2.21052,-0.0798971,0.012856
2.23578,-0.301097,-0.0131117
2.22732,-0.189774,0.0520164
2.22648,-0.189702,-0.156255
2.23548,-0.301056,0.0393726
2.2162,-0.188827,0.129534
2.2295,-0.189959,-0.10423
2.22334,-0.189435,-0.0519233
2.20993,-0.0876009,-0.0386047
2.21928,-0.196895,0
2.20623,-0.0874543,0.0128327
2.23471,-0.3089,-0.0131117
2.22665,-0.197548,0.0520164
2.2258,-0.197473,-0.156255
2.20134,-0.0872604,0.0641155
2.23045,-0.30831,0.0393028
2.21372,-0.0877511,-0.141986
2.21553,-0.196561,0.129534
2.23678,-0.198447,-0.104602
2.21243,-0.0876999,-0.0902073
2.21868,-0.196841,-0.0518303
2.21762,-0.0952721,-0.0387443
2.2226,-0.20462,0
2.20593,-0.09477,0.0128327
2.23368,-0.316308,-0.0131117
2.22598,-0.204931,0.0520164
2.23705,-0.20595,-0.157092
2.20503,-0.0947315,0.0642319
2.22941,-0.315705,0.0393028
2.21341,-0.0950915,-0.141986
2.21089,-0.203541,0.129301
2.22815,-0.205131,-0.10423
2.21612,-0.0952076,-0.0903702
2.21727,-0.103012,-0.0387443
2.22187,-0.212377,0
2.20958,-0.102655,0.012856
2.24048,-0.325253,-0.0131582
2.22923,-0.21308,0.0521094
2.22838,-0.212998,-0.156534
2.20868,-0.102613,0.0643483
2.21414,-0.211637,0.129534
2.2314,-0.213287,-0.104416
2.21178,-0.102757,-0.0902073
2.22127,-0.212319,-0.0519233
2.2169,-0.110752,-0.0387443
2.2251,-0.220526,0
2.2132,-0.110567,0.0128792
2.23933,-0.333072,-0.0131582
2.22848,-0.22086,0.0521094
2.23159,-0.221169,-0.156813
2.20831,-0.110323,0.0643483
2.23902,-0.333027,0.0395123
2.21668,-0.110741,-0.142242
2.22133,-0.220153,0.129999
2.23064,-0.221075,-0.104416
2.21141,-0.110477,-0.0902073
2.2165,-0.118489,-0.0387443
2.22432,-0.228291,0
2.2128,-0.118292,0.0128792
2.24606,-0.342091,-0.0132047
2.22769,-0.228638,0.0521094
2.23081,-0.228957,-0.156813
2.20392,-0.117817,0.0642319
2.23785,-0.34084,0.0395123
2.22027,-0.118691,-0.142497
2.22055,-0.227905,0.129999
2.21101,-0.118196,-0.0902073
2.22371,-0.22823,-0.0520164
2.22008,-0.126066,-0.0388142
2.22752,-0.236088,0
2.20841,-0.125402,0.012856
2.23701,-0.348306,-0.0131582
2.23487,-0.236867,0.0522955
2.23003,-0.236354,-0.156813
2.20751,-0.125351,0.0643483
2.21581,-0.234847,0.129766
2.22908,-0.236253,-0.104416
2.21459,-0.125754,-0.0903702
2.22692,-0.236024,-0.0521094
2.21562,-0.13396,-0.0387443
2.22664,-0.24425,0
2.21592,-0.133979,0.0129024
2.23572,-0.356503,-0.0131582
2.23399,-0.245056,0.0522955
2.20703,-0.133441,0.0643483
2.21939,-0.134188,-0.142497
2.22685,-0.244273,0.130464
2.2282,-0.244422,-0.104416
2.21412,-0.13387,-0.0903702
2.21913,-0.141949,-0.0388142
2.22578,-0.252021,0
2.21543,-0.141713,0.0129024
2.2463,-0.366236,-0.0132279
2.23312,-0.252853,0.0522955
2.21054,-0.1414,0.0644646
2.2189,-0.141935,-0.142497
2.23131,-0.252648,-0.104602
2.22161,-0.142108,-0.0906958
2.22263,-0.149575,-0.038884
2.22493,-0.259401,0
2.21894,-0.149327,0.0129257
2.24507,-0.373683,-0.0132279
2.2283,-0.259794,0.0522025
2.21842,-0.149292,-0.142497
2.23046,-0.260045,-0.104602
2.21714,-0.149206,-0.090533
2.22609,-0.157615,-0.0389538
2.22798,-0.267643,0
2.21841,-0.157072,0.0129257
2.23135,-0.268047,0.0522955
2.20953,-0.156443,0.0644646
2.22954,-0.26783,-0.104602
2.21661,-0.156944,-0.090533
2.23532,-0.268524,-0.0523886
2.22552,-0.165385,-0.0389538
2.22703,-0.275418,0
2.22184,-0.165111,0.0129489
2.24231,-0.277307,0.0525747
2.20897,-0.164155,0.0644646
2.22529,-0.165367,-0.143009
2.23255,-0.276101,-0.104788
2.22402,-0.165273,-0.0908587
2.22493,-0.173152,-0.0389538
2.22606,-0.28319,0
2.21327,-0.172245,0.0129024
2.23736,-0.284628,0.0524816
2.22072,-0.172824,-0.142753
2.23554,-0.284396,-0.104974
2.22741,-0.173345,-0.0910215
2.22942,-0.283619,-0.0522955
2.22033,-0.180594,-0.038884
2.21664,-0.180294,0.0129257
2.23239,-0.291917,0.0523886
2.21176,-0.179896,0.064581
2.22806,-0.181222,-0.143265
2.22679,-0.181119,-0.0910215
2.22367,-0.188681,-0.0389538
2.22799,-0.299257,0
2.21999,-0.188368,0.0129489
2.23928,-0.300773,0.0525747
2.2151,-0.187954,0.0646974
2.22741,-0.188998,-0.143265
2.22216,-0.188553,-0.0908587
2.23135,-0.299708,-0.0523886
2.223,-0.196442,-0.0389538
2.23486,-0.308125,0
2.21931,-0.196117,0.0129489
2.24218,-0.309134,0.0526678
2.22276,-0.196421,-0.143009
2.22547,-0.196661,-0.0910215
2.2223,-0.2042,-0.0389538
2.22981,-0.315364,0
2.24504,-0.317518,0.0527608
2.21373,-0.203413,0.0646974
2.22875,-0.204794,-0.0911843
2.23317,-0.315838,-0.0524816
2.22187,-0.211985,0.0129722
2.23996,-0.324779,0.0526678
2.232,-0.212952,-0.0913472
2.22878,-0.220497,-0.0390934
2.23091,-0.331421,0.0524816
2.2325,-0.220866,-0.143777
2.22727,-0.220348,-0.0911843
2.22799,-0.228276,-0.0390934
2.22034,-0.227492,0.0129722
2.23171,-0.228657,-0.143777
2.22649,-0.228122,-0.0911843
