2.27062,0.56571,-0.136278
2.27035,0.557652,-0.218233
2.27249,0.558177,-0.136278
2.27616,0.550661,-0.218604
2.27442,0.550241,-0.136278
2.27816,0.542314,-0.218604
2.27642,0.541901,-0.136278
2.27995,0.534757,-0.218604
2.27821,0.534349,-0.136278
2.2818,0.526795,-0.218604
2.28395,0.527292,-0.13651
2.27974,0.517944,-0.218233
2.28188,0.518431,-0.136278
2.28162,0.509586,-0.218233
2.28377,0.510065,-0.136278
2.28526,0.502447,-0.0272401
2.2833,0.502016,-0.218233
2.28545,0.502488,-0.136278
2.28115,0.493201,-0.217861
2.28719,0.494507,-0.136278
2.28675,0.486064,-0.218233
2.28499,0.485691,-0.136045
2.28256,0.476853,-0.027147
2.28843,0.478079,-0.218233
2.28667,0.477712,-0.136045
2.28813,0.469687,-0.0271936
2.28619,0.469287,-0.217861
2.28833,0.469727,-0.136045
2.28192,0.460115,-0.0271004
2.28391,0.460516,-0.217489
2.27644,0.576028,-0.191695
2.28995,0.461736,-0.136045
2.28335,0.452945,-0.0271004
2.28534,0.453339,-0.217489
2.28211,0.56984,-0.19202
2.28884,0.445735,-0.027147
2.29082,0.44612,-0.217861
2.28021,0.560918,-0.191695
2.28513,0.445012,-0.13558
2.29236,0.438121,-0.217861
2.28253,0.436242,0.0270539
2.28215,0.552955,-0.191695
2.28667,0.437033,-0.13558
2.28011,0.427534,0.0270073
2.28407,0.544985,-0.191695
2.2921,0.429784,-0.135813
2.29339,0.421742,-0.027147
2.29536,0.422106,-0.217861
2.27765,0.418848,0.0269608
2.29359,0.421779,-0.135813
2.28264,0.536229,-0.122885
2.26719,0.524257,-0.0677228
2.29091,0.413026,-0.0271004
2.28304,0.411607,0.0270073
2.2845,0.52826,-0.122885
2.29627,0.405722,-0.027147
2.2884,0.40433,0.0270539
2.28577,0.520153,-0.191369
2.29648,0.405758,-0.135813
2.28633,0.520281,-0.122885
2.29374,0.397022,-0.0271004
2.28585,0.395658,0.0270073
2.29788,0.39774,-0.135813
2.27264,0.500089,-0.0677228
2.29518,0.388612,-0.0271004
2.2794,0.385941,0.0269142
2.28609,0.503049,-0.122675
2.2782,0.493396,-0.0678391
2.29645,0.380998,-0.0271004
2.27912,0.493596,-0.0135534
2.28067,0.37838,0.0269142
2.29666,0.381033,-0.13558
2.28775,0.495465,-0.122675
2.276,0.484608,-0.0677228
2.29777,0.37298,-0.0271004
2.28987,0.371699,0.0270073
2.29906,0.364958,-0.0271004
2.29115,0.363704,0.0270073
2.29927,0.364991,-0.13558
2.30025,0.357331,-0.0271004
2.29235,0.356103,0.0270073
2.26839,0.583689,-0.163788
2.30046,0.357364,-0.13558
2.29753,0.3487,-0.0270539
2.27787,0.460541,-0.0135069
2.28962,0.3475,0.0269608
2.26268,0.573806,-0.16323
2.2899,0.462972,-0.190718
2.29775,0.348733,-0.135348
2.27854,0.452402,-0.0676064
2.30269,0.341264,-0.0271004
2.29123,0.454923,-0.0135766
2.29082,0.339505,0.0269608
2.27618,0.443682,-0.06749
2.30387,0.333224,-0.0271004
2.29595,0.332079,0.0270073
2.26663,0.557996,-0.16323
2.29307,0.446974,-0.190718
2.29363,0.447082,-0.122466
2.27771,0.435734,-0.06749
2.2971,0.324063,-0.0270073
2.29043,0.438166,-0.0135534
2.2971,0.324063,0.0270073
2.27922,0.42778,-0.06749
2.29821,0.316042,-0.0270073
2.28801,0.42943,-0.0135301
2.30815,0.317408,-0.217489
2.28633,0.314408,0.0268676
2.26659,0.541231,-0.162951
2.2877,0.429372,0.0406292
2.27743,0.543821,-0.109069
2.27677,0.419098,-0.0673737
2.29343,0.422165,-0.0135534
2.28741,0.306425,0.0268676
2.27543,0.534954,-0.108883
2.27822,0.411148,-0.0673737
2.29489,0.414156,-0.0135534
2.28847,0.298438,0.0268676
2.27728,0.527008,-0.108883
2.29178,0.413596,-0.122047
2.28751,0.404585,-0.0676064
2.30537,0.292461,-0.0270539
2.29346,0.290951,0.0269142
2.29207,0.405391,0.0406292
2.27911,0.519055,-0.108883
2.29715,0.406288,-0.122257
2.28103,0.395234,-0.0673737
2.3024,0.283924,-0.0270073
2.2859,0.396077,-0.0134836
2.27025,0.508709,-0.250607
2.29446,0.282945,0.0269142
2.28953,0.396706,0.0405594
2.30659,0.284441,-0.135348
2.27701,0.510224,-0.108697
2.28634,0.387937,-0.06749
2.3003,0.390305,-0.296983
2.29121,0.388764,-0.0135069
2.27977,0.502493,-0.251464
2.29544,0.274934,0.0269142
2.2909,0.388711,0.0405594
2.28541,0.38778,0.0944409
2.27487,0.501412,-0.108511
2.28374,0.379299,-0.0673737
2.30433,0.267844,-0.0270073
2.29256,0.380764,-0.0135069
2.27374,0.492847,-0.250607
2.31033,0.268542,-0.217117
2.29241,0.266458,0.0268676
2.29619,0.381368,0.0406292
2.27887,0.378491,0.0941152
2.28051,0.494315,-0.108697
2.28505,0.371325,-0.0673737
2.29333,0.258454,-0.0268676
2.2973,0.258902,0.0269142
2.28017,0.370533,0.0941152
2.27832,0.485518,-0.108511
2.28799,0.48758,-0.0544357
2.29021,0.364374,-0.06749
2.3061,0.252152,-0.0270073
2.30419,0.366598,-0.296983
2.28094,0.478175,-0.251036
2.30212,0.251717,0.0269608
2.29478,0.365101,0.0405594
2.276,0.477141,-0.108324
2.27785,0.477529,-0.0541566
2.29147,0.356378,-0.06749
2.31094,0.244522,-0.0270539
2.2748,0.468606,-0.250179
2.31298,0.244737,-0.217117
2.30696,0.244101,0.0270073
2.27457,0.468558,-0.162393
2.29604,0.357089,0.0405594
2.28264,0.355005,0.0941152
2.28548,0.470806,-0.108697
2.28342,0.470382,-0.0542496
2.28875,0.347776,-0.0673737
2.28959,0.463327,0
2.3078,0.236046,-0.0270073
2.30154,0.34972,-0.0135301
2.31382,0.236662,-0.217117
2.29984,0.235232,0.0269142
2.30123,0.349672,0.0406292
2.2712,0.576389,-0.150172
2.27928,0.46124,-0.108324
2.28897,0.463201,-0.0543427
2.28995,0.339784,-0.0673737
2.27942,0.452992,0
2.30463,0.227596,-0.0269608
2.29879,0.341096,-0.0135069
2.27802,0.452712,-0.250179
2.30065,0.227203,0.0269142
2.26545,0.56652,-0.149661
2.28479,0.454059,-0.108511
2.29508,0.332362,-0.06749
2.28099,0.445033,0
2.30143,0.219171,-0.0269142
2.30143,0.219171,0.0269142
2.27544,0.443949,-0.162114
2.26741,0.558609,-0.149661
2.28624,0.331081,0.0941152
2.28244,0.445316,-0.108324
2.28182,0.562159,-0.0957435
2.29622,0.324348,-0.06749
2.28253,0.437068,0
2.31015,0.211866,-0.0270073
2.29845,0.324663,-0.295468
2.28503,0.437546,-0.250607
2.30218,0.211135,0.0269142
2.28089,0.436753,-0.162393
2.30081,0.324995,0.0405594
2.26547,0.549749,-0.149405
2.28791,0.438097,-0.108511
2.2937,0.439206,-0.0543427
2.29734,0.316332,-0.06749
2.27618,0.427622,0
2.31087,0.203802,-0.0270073
2.3035,0.317181,-0.295973
2.30224,0.317006,-0.0135069
2.28654,0.429568,-0.250607
2.31087,0.203802,0.0270073
2.27848,0.428054,-0.162114
2.30193,0.316963,0.0405594
2.26737,0.541839,-0.149405
2.31508,0.204173,-0.135348
2.2855,0.429372,-0.108324
2.26626,0.541572,-0.0949294
2.29128,0.43046,-0.0542496
2.28553,0.421123,0
2.3036,0.195059,-0.0269142
2.29937,0.308436,-0.0134836
2.28803,0.421584,-0.250607
2.31759,0.196244,-0.217117
2.28884,0.421734,0.0541566
2.30759,0.195397,0.0269608
2.28388,0.42082,-0.162393
2.27314,0.534835,-0.149661
2.31975,0.196427,-0.13558
2.27912,0.419943,-0.107952
2.27202,0.534573,-0.0950922
2.28884,0.421734,-0.0541566
2.29156,0.299249,-0.0672573
2.28305,0.412431,0
2.31224,0.187663,-0.0270073
2.2934,0.414301,-0.251036
2.31827,0.188152,-0.217117
2.28636,0.41303,0.0540635
2.30427,0.187016,0.0269142
2.2711,0.525996,-0.149405
2.31645,0.188005,-0.135348
2.28667,0.29861,0.0939524
2.28844,0.413405,-0.108324
2.26998,0.525736,-0.0949294
2.2903,0.413741,-0.0541566
2.29265,0.290849,-0.0672573
2.29242,0.405454,0
2.30095,0.178261,-0.0268676
2.2949,0.405893,-0.251036
2.2918,0.405344,0.0541566
2.30494,0.17857,0.0269142
2.27898,0.403076,-0.161835
2.2808,0.519441,-0.149916
2.3211,0.179822,-0.13558
2.28775,0.290228,0.0939524
2.286,0.404319,-0.108138
2.27189,0.517413,-0.0949294
2.29574,0.406041,-0.0542496
2.30153,0.284224,-0.06749
2.28981,0.397166,0
2.30951,0.171221,-0.0269608
2.30644,0.28483,-0.0135069
2.29623,0.39828,-0.251036
2.30552,0.170925,0.0269142
2.2803,0.395516,-0.161835
2.30613,0.284791,0.0405594
2.27082,0.509254,-0.149149
2.32168,0.172123,-0.13558
2.29663,0.283619,0.0942781
2.29127,0.397418,-0.108324
2.2736,0.509876,-0.0949294
2.29854,0.275713,-0.0673737
2.31807,0.163722,-0.0270539
2.30742,0.276778,-0.0135069
2.29369,0.389596,-0.250607
2.32408,0.164147,-0.217489
2.29056,0.389065,0.0540635
2.31408,0.16344,0.0270073
2.2856,0.388223,-0.162114
2.30711,0.27674,0.0405594
2.32227,0.164019,-0.13558
2.29124,0.389181,0.135348
2.28967,0.274649,0.0939524
2.2887,0.388749,-0.108138
2.27536,0.501937,-0.0949294
2.29451,0.389735,-0.0541566
2.27083,0.492629,-0.0405594
2.28858,0.380514,0
2.31463,0.155361,-0.0270073
2.3044,0.268258,-0.0134836
2.29504,0.381587,-0.250607
2.32464,0.156032,-0.217489
2.28796,0.380411,0.0539705
2.31064,0.155093,0.0269608
2.29088,0.380896,-0.162393
2.27822,0.494235,-0.149405
2.31884,0.155643,-0.135348
2.29062,0.266654,0.0939524
2.28216,0.379446,-0.107766
2.2771,0.493991,-0.0949294
2.29585,0.381723,-0.0541566
2.30037,0.260061,-0.0673737
2.28588,0.37228,0
2.31514,0.147685,-0.0270073
2.29772,0.374208,-0.362182
2.30925,0.261065,-0.0135069
2.30021,0.374614,-0.251036
2.32515,0.148323,-0.217489
2.28921,0.372822,0.0539705
2.30715,0.147176,0.0269142
2.29213,0.373298,-0.162393
2.30894,0.26103,0.0405594
2.27595,0.485844,-0.149149
2.32333,0.148208,-0.13558
2.2913,0.373161,-0.108138
2.27482,0.485603,-0.0947666
2.27804,0.477982,-0.0406292
2.30126,0.252029,-0.0673737
2.28322,0.363669,0
2.31564,0.139602,-0.0270073
2.29121,0.364941,-0.360952
2.31015,0.253002,-0.0135069
2.2905,0.364828,0.0539705
2.31165,0.139361,0.0269608
2.28948,0.364666,-0.162114
2.30586,0.252532,0.0404896
2.27763,0.477896,-0.149149
2.29513,0.365566,0.135348
2.29238,0.251056,0.0939524
2.29258,0.36516,-0.108138
2.27259,0.476838,-0.0946037
2.28361,0.470836,-0.040699
2.30213,0.243995,-0.0673737
2.29238,0.356928,0
2.31212,0.131292,-0.0269608
2.29637,0.35755,-0.361567
2.31623,0.24549,-0.296478
2.31102,0.244937,-0.0135069
2.29884,0.357934,-0.250607
2.29176,0.356831,0.0539705
2.31212,0.131292,0.0269608
2.29468,0.357286,-0.162393
2.30673,0.244482,0.0404896
2.27537,0.469137,-0.148893
2.32431,0.131984,-0.13558
2.2885,0.356324,0.134883
2.29779,0.357771,-0.108324
2.27424,0.468903,-0.0946037
2.29966,0.358062,-0.0541566
2.28132,0.462067,-0.0406292
2.29899,0.235549,-0.0672573
2.28966,0.348322,0
2.32055,0.123645,-0.0270539
2.30152,0.350126,-0.362182
2.31708,0.237403,-0.296478
2.3039,0.236053,-0.0134604
2.30008,0.349907,-0.250607
2.3009,0.350032,0.0541566
2.31656,0.123432,0.0270073
2.29591,0.349274,-0.162393
2.31155,0.236836,0.0405594
2.28091,0.461983,-0.149149
2.28184,0.347132,0.134417
2.29408,0.235046,0.0939524
2.30298,0.350348,-0.108511
2.27978,0.461754,-0.0947666
2.3009,0.350032,-0.0541566
2.279,0.453322,-0.0405594
2.29582,0.227131,-0.067141
2.29086,0.340329,0
2.32496,0.115745,-0.0271004
2.2949,0.34093,-0.360952
2.30869,0.228405,-0.0134836
2.29735,0.341293,-0.250179
2.32699,0.115846,-0.217489
2.29024,0.340237,0.0538774
2.31697,0.115347,0.0270073
2.29712,0.341259,-0.162393
2.30838,0.228374,0.0404896
2.27859,0.453242,-0.148893
2.28303,0.339166,0.134417
2.29886,0.227432,0.0941152
2.30023,0.341722,-0.108324
2.28138,0.453795,-0.0947666
2.30211,0.342,-0.0541566
2.28057,0.445363,-0.0405594
2.30455,0.219874,-0.0673737
2.32136,0.107443,-0.0270539
2.29608,0.332916,-0.360952
2.27695,0.444657,0.0134836
2.31346,0.220724,-0.0135069
2.3064,0.334413,-0.251036
2.3234,0.107537,-0.217117
2.29933,0.333387,0.0540635
2.31736,0.107258,0.0270073
2.29435,0.332665,-0.162114
2.30916,0.220314,0.0404896
2.27624,0.444519,-0.148637
2.28816,0.331767,0.13465
2.29566,0.219026,0.0939524
2.30141,0.33369,-0.108324
2.28295,0.445828,-0.0947666
2.28604,0.438152,-0.0406292
2.30133,0.211462,-0.0672573
2.28922,0.323766,0
2.30973,0.0988256,-0.0269142
2.29331,0.324345,-0.360337
2.27849,0.436706,0.0134836
2.31421,0.212646,-0.0135069
2.30755,0.326359,-0.251036
2.32774,0.0995962,-0.217489
2.30048,0.325358,0.0540635
2.30973,0.0988256,0.0269142
2.29945,0.325212,-0.162393
2.3139,0.212617,0.0405594
2.2817,0.437322,-0.148893
2.32593,0.0995186,-0.13558
2.2893,0.323778,0.13465
2.29641,0.211011,0.0939524
2.29861,0.325094,-0.108138
2.29181,0.324133,0.284199
2.27664,0.436351,-0.0944409
2.28763,0.429771,-0.0406292
2.30607,0.203378,-0.0673737
2.29039,0.315374,0
2.31807,0.0906725,-0.0270073
2.29449,0.315938,-0.360337
2.3202,0.204624,-0.296478
2.32809,0.0910644,-0.217489
2.31807,0.0906725,0.0270073
2.30062,0.316783,-0.162393
2.31466,0.204136,0.0405594
2.27937,0.42822,-0.148637
2.33027,0.0911496,-0.135813
2.29047,0.315385,0.13465
2.29717,0.202593,0.0939524
2.29978,0.316667,-0.108138
2.28512,0.314648,0.283224
2.28215,0.428742,-0.0946037
2.30562,0.317471,-0.0541566
2.28117,0.420731,-0.0404896
2.31072,0.196067,-0.06749
2.29539,0.308309,0
2.31836,0.0829843,-0.0270073
2.29944,0.308853,-0.360952
2.27755,0.420063,0.0134604
2.30368,0.19547,-0.0134371
2.30584,0.309712,-0.250607
2.33236,0.0834855,-0.217861
2.31436,0.0828413,0.0269608
2.30166,0.309151,-0.162393
2.31134,0.19612,0.0404896
2.2847,0.421382,-0.148893
2.32657,0.0832781,-0.13558
2.29783,0.194974,0.0939524
2.30478,0.309571,-0.108324
2.30189,0.309182,0.285174
2.28356,0.421172,-0.0946037
2.29873,0.308758,-0.0539705
2.28263,0.412766,-0.0404896
2.30341,0.187352,-0.0672573
2.29248,0.299776,0
2.32263,0.0750209,-0.0270539
2.3005,0.300825,-0.360952
2.28294,0.412822,0.0134836
2.31233,0.188077,-0.0134836
2.32866,0.0752155,-0.217489
2.29979,0.300732,0.0539705
2.32263,0.0750209,0.0270539
2.30668,0.301633,-0.162672
2.30803,0.187727,0.0404198
2.29008,0.414115,-0.149149
2.32684,0.0751569,-0.13558
2.28861,0.299269,0.134417
2.2985,0.186952,0.0939524
2.29792,0.300488,-0.107952
2.29508,0.300116,0.284199
2.28502,0.413198,-0.0946037
2.30376,0.301251,-0.0540635
2.29193,0.406192,-0.0406292
2.32284,0.180772,-0.465975
2.29352,0.291773,0
2.32688,0.0670286,-0.0271004
2.30154,0.292794,-0.360952
2.28042,0.404153,0.0134604
2.30898,0.179694,-0.0134604
2.304,0.293106,-0.250179
2.33289,0.0672017,-0.217861
2.31888,0.0667982,0.0270073
2.30376,0.293076,-0.162393
2.2795,0.403989,0.0673737
2.30867,0.17967,0.0404198
2.28759,0.405423,-0.148893
2.2936,0.291783,0.13465
2.29913,0.178928,0.0939524
2.28644,0.40522,-0.0946037
2.3048,0.293208,-0.0540635
2.28939,0.397505,-0.0405594
2.30865,0.171563,-0.0673737
2.29452,0.283765,0
2.3191,0.0587028,-0.0270073
2.27788,0.395506,0.0134371
2.30895,0.285549,-0.250607
2.32913,0.0589566,-0.217489
2.29787,0.284179,0.0538774
2.30081,0.284543,-0.162114
2.31327,0.171906,0.0404896
2.28899,0.397434,-0.148893
2.3313,0.0590117,-0.135813
2.29856,0.284265,0.134883
2.30393,0.284928,-0.108138
2.28391,0.396552,-0.0944409
2.28682,0.388841,-0.0404896
2.31323,0.163786,-0.06749
2.30741,0.277185,0
2.32729,0.0507823,-0.0271004
2.29568,0.275776,-0.359722
2.32339,0.164506,-0.296478
2.27925,0.387553,0.0134371
2.31816,0.164135,-0.0135069
2.30993,0.277488,-0.250607
2.32533,0.0507397,-0.217117
2.29885,0.276156,0.0538774
2.31529,0.0505205,0.0269608
2.30179,0.27651,-0.162114
2.31385,0.16383,0.0404896
2.28249,0.388104,-0.148382
2.30033,0.162873,0.0939524
2.28627,0.274646,0.282737
2.28134,0.387908,-0.0942781
2.30679,0.27711,-0.0540635
2.28817,0.380856,-0.0404896
2.31378,0.15571,-0.06749
2.30439,0.268665,0
2.33145,0.0427309,-0.027147
2.30055,0.268218,-0.360337
2.28059,0.379594,0.0134371
2.31473,0.155773,-0.0134836
2.31089,0.269423,-0.250607
2.33346,0.0427677,-0.217861
2.30774,0.269056,0.0540635
2.32345,0.0425843,0.0270539
2.3067,0.268935,-0.162393
2.3184,0.15602,0.0405594
2.29171,0.381444,-0.148893
2.33166,0.0427347,-0.135813
2.30983,0.2693,-0.108324
2.28268,0.379942,-0.0942781
2.30377,0.268593,-0.0539705
2.2933,0.37431,-0.0405594
2.31027,0.148184,-0.0673737
2.30522,0.261425,0
2.33157,0.0354067,-0.027147
2.29746,0.260544,-0.359722
2.29361,0.374361,0.0135069
2.31172,0.262162,-0.250607
2.32562,0.0353163,-0.217117
2.3046,0.261354,0.0539705
2.31958,0.0352245,0.0270073
2.3115,0.262137,-0.162672
2.30691,0.147969,0.04035
2.29289,0.374243,-0.148893
2.33178,0.0354098,-0.135813
2.31067,0.262042,-0.108324
2.29593,0.260371,0.283712
2.28386,0.372769,-0.0942781
2.30857,0.261805,-0.0540635
2.29466,0.365902,-0.0405594
2.3108,0.139716,-0.0673737
2.32953,0.140849,-0.466759
2.30617,0.252975,0
2.32769,0.0268152,-0.0271004
2.2984,0.252123,-0.359722
2.29102,0.365322,0.0134836
2.32372,0.140497,-0.0135301
2.31267,0.253688,-0.250607
2.3337,0.0268845,-0.217861
2.30554,0.252906,0.0539705
2.31969,0.0267231,0.0270073
2.30848,0.253229,-0.162393
2.31542,0.139996,0.0404896
2.29425,0.365838,-0.148893
2.33189,0.0268637,-0.135813
2.2983,0.252111,0.13465
2.30764,0.253136,-0.108138
2.30082,0.252388,0.284199
2.2931,0.365655,-0.0946037
2.30952,0.253342,-0.0540635
2.29592,0.35789,-0.0405594
2.31527,0.131876,-0.06749
2.30306,0.2445,0
2.31977,0.0186251,-0.0270073
2.29926,0.244097,-0.359722
2.32419,0.132385,-0.0135301
2.30959,0.245193,-0.250179
2.33378,0.0187376,-0.217861
2.31039,0.245278,0.0540635
2.32377,0.0186572,0.0270539
2.30935,0.245168,-0.162393
2.31989,0.132139,0.0405594
2.29551,0.357826,-0.148893
2.29916,0.244087,0.13465
2.31248,0.245501,-0.108324
2.31039,0.245278,-0.0540635
2.29709,0.350274,-0.0405594
2.3117,0.123983,-0.0673737
2.29988,0.236452,0
2.33582,0.0110071,-0.0271936
2.30399,0.236875,-0.360337
2.32462,0.124676,-0.0135301
2.33383,0.0109977,-0.217861
2.31119,0.237615,0.0540635
2.31982,0.0109317,0.0270073
2.31015,0.237508,-0.162393
2.31632,0.124231,0.0404896
2.28879,0.349008,-0.148382
2.33602,0.011008,-0.136045
2.29996,0.23646,0.13465
2.31076,0.123933,0.0942781
2.29159,0.349434,-0.0944409
2.31214,0.11551,-0.0673737
2.29675,0.227627,0
2.33184,0.00244217,-0.027147
2.30485,0.228429,-0.360337
2.32107,0.115956,-0.0135069
2.3152,0.229456,-0.250607
2.33385,0.00244428,-0.217861
2.30409,0.228354,0.0538774
2.32384,0.00243379,0.0270539
2.31101,0.22904,-0.162393
2.31276,0.115541,0.0404198
2.29006,0.340617,-0.148382
2.33604,0.00244657,-0.136045
2.29684,0.227636,0.134417
2.30721,0.115263,0.0941152
2.31414,0.229351,-0.108324
2.29148,0.227105,0.282737
2.29285,0.341033,-0.0944409
2.30806,0.228748,-0.0539705
2.30851,0.107656,-0.0672573
2.32733,0.108534,-0.465975
2.30545,0.220772,0
2.32784,-0.00528099,-0.0271004
2.30953,0.221162,-0.360952
2.28792,0.332549,0.0134371
2.32144,0.108259,-0.0135069
2.31199,0.221398,-0.250179
2.33385,-0.00529463,-0.217861
2.30483,0.220713,0.0538774
2.33184,-0.00529006,0.027147
2.31175,0.221376,-0.162393
2.32512,0.10843,0.0406292
2.29907,0.33417,-0.148893
2.33604,-0.00529959,-0.136045
2.30155,0.220399,0.13465
2.30758,0.107612,0.0941152
2.31091,0.221295,-0.108138
2.29793,0.334003,-0.0946037
2.30483,0.220713,-0.0538774
2.29668,0.325639,-0.0404896
2.31287,0.0997689,-0.0673737
2.32769,0.100408,-0.465975
2.30223,0.212355,0
2.3358,-0.0134533,-0.0271936
2.31028,0.213099,-0.360952
2.3218,0.100154,-0.0135069
2.31671,0.213691,-0.250607
2.3378,-0.0134648,-0.218233
2.30957,0.213033,0.0539705
2.3238,-0.0133842,0.0270539
2.30854,0.212938,-0.162114
2.32149,0.100141,0.0405594
2.29628,0.325582,-0.148637
2.30231,0.212363,0.13465
2.30794,0.0995561,0.0941152
2.30769,0.212859,-0.107952
2.29908,0.325979,-0.0946037
2.30559,0.212665,-0.0538774
2.30182,0.317766,-0.0405594
2.31322,0.0912916,-0.0673737
2.32805,0.0918768,-0.465975
2.30299,0.203916,0
2.32774,-0.0219385,-0.0271004
2.30317,0.203933,-0.359722
2.28628,0.315621,0.0134139
2.32615,0.0918019,-0.0135301
2.31747,0.205199,-0.250607
2.33773,-0.0220326,-0.218233
2.32374,-0.0219008,0.0270539
2.31725,0.205179,-0.162672
2.33043,0.0919707,-0.190393
2.32184,0.0916318,0.0405594
2.30141,0.31771,-0.148893
2.33993,-0.0220534,-0.136278
2.29909,0.203572,0.134417
2.30846,0.2044,-0.107952
2.29373,0.203097,0.282737
2.29234,0.316458,-0.0942781
2.31432,0.204919,-0.0540635
2.29498,0.308664,-0.0404198
2.32152,0.0835043,-0.0676064
2.31166,0.196555,0
2.33165,-0.0301148,-0.027147
2.30781,0.196227,-0.360337
2.33167,0.0838695,-0.296983
2.32246,0.0835383,-0.0135069
2.31818,0.197109,-0.250607
2.33764,-0.0301922,-0.218233
2.31502,0.19684,0.0540635
2.32765,-0.0300632,0.0271004
2.31796,0.19709,-0.162672
2.33073,0.083836,-0.190393
2.31815,0.0833832,0.0404896
2.29855,0.309143,-0.148637
2.33585,-0.0301691,-0.136045
2.30377,0.195884,0.13465
2.31259,0.0831831,0.0942781
2.29343,0.308455,-0.0942781
2.31103,0.196501,-0.0539705
2.28806,0.300011,-0.0402802
2.3123,0.188887,0
2.33553,-0.0379122,-0.0271936
2.30845,0.188573,-0.360337
2.32797,0.0760068,-0.296478
2.31873,0.0757051,-0.0134836
2.31485,0.189096,-0.250179
2.33753,-0.0379446,-0.218233
2.33153,-0.0378473,0.027147
2.31064,0.188752,-0.162114
2.31841,0.0756949,0.0404896
2.29956,0.301518,-0.148637
2.33973,-0.0379803,-0.136278
2.31776,0.189333,-0.108324
2.30237,0.301886,-0.0946037
2.30769,0.18851,-0.0538774
2.29312,0.292128,-0.04035
2.31405,0.0670623,-0.0673737
2.30899,0.180099,0
2.33938,-0.0465523,-0.0272401
2.31306,0.180417,-0.360952
2.32698,0.0674372,-0.0135301
2.3195,0.180919,-0.250607
2.32941,-0.046354,-0.217489
2.30836,0.18005,0.0538774
2.33138,-0.0463932,0.027147
2.31928,0.180902,-0.162672
2.33126,0.0675612,-0.190393
2.32267,0.0673122,0.0405594
2.30065,0.293087,-0.148637
2.33558,-0.0464767,-0.136045
2.3011,0.179484,0.134417
2.31844,0.180836,-0.108324
2.29969,0.179374,0.283224
2.30346,0.293445,-0.0946037
2.31235,0.180361,-0.0539705
2.29412,0.284122,-0.04035
2.31827,0.0590867,-0.06749
2.33302,0.0594629,-0.466759
2.30162,0.171444,0
2.3352,-0.054624,-0.0271936
2.30974,0.172049,-0.360337
2.3272,0.0593146,-0.0135301
2.32011,0.172822,-0.250607
2.33322,-0.0545775,-0.217861
2.30499,0.171695,0.0537844
2.32721,-0.0544369,0.0271004
2.31193,0.172212,-0.162114
2.31889,0.0591027,0.0404896
2.30958,0.286037,-0.149149
2.34339,-0.0548154,-0.13651
2.3057,0.171748,0.13465
2.31507,0.172446,-0.108138
2.29257,0.28393,-0.0941152
2.31296,0.172289,-0.0539705
2.30294,0.277872,-0.0404896
2.31444,0.0517145,-0.0673737
2.30215,0.164213,0
2.33102,-0.0618534,-0.027147
2.31027,0.164792,-0.360337
2.32338,0.0519143,-0.0135069
2.31668,0.16525,-0.250179
2.34099,-0.062118,-0.218604
2.31349,0.165022,0.0539705
2.33502,-0.0619595,0.0271936
2.31644,0.165233,-0.162393
2.33106,0.0520859,0.040699
2.31047,0.27878,-0.149149
2.30622,0.164504,0.13465
2.3135,0.0516935,0.0942781
2.31959,0.165457,-0.108324
2.29742,0.277205,-0.0942781
2.31349,0.165022,-0.0539705
2.3039,0.269831,-0.0404896
2.3266,0.0438608,-0.0677228
2.3067,0.156446,0
2.33079,-0.0699904,-0.027147
2.31083,0.156726,-0.360337
2.33155,0.043954,-0.0135534
2.31724,0.157161,-0.250179
2.34076,-0.0702899,-0.218604
2.31805,0.157216,0.0540635
2.33479,-0.0701105,0.0271936
2.31701,0.157145,-0.162393
2.33581,0.0440344,-0.190718
2.31923,0.0437219,0.0404896
2.30746,0.270248,-0.148893
2.34696,-0.070476,-0.136743
2.31367,0.043617,0.0942781
2.32015,0.157358,-0.108324
2.30234,0.269648,-0.0944409
2.32204,0.157486,-0.0541566
2.293,0.259633,-0.0402802
2.31876,0.0348075,-0.06749
2.30728,0.147589,0
2.3345,-0.0790743,-0.0271936
2.31536,0.148105,-0.360952
2.33688,0.0350795,-0.297488
2.3197,0.0348216,-0.0134836
2.31386,0.148009,-0.24975
2.34446,-0.0794115,-0.218976
2.31464,0.148059,0.0539705
2.3345,-0.0790743,0.0271936
2.32157,0.148503,-0.162672
2.32338,0.0348769,0.0405594
2.30055,0.260488,-0.148382
2.33869,-0.0792163,-0.136278
2.31782,0.0347934,0.0944409
2.29939,0.260357,-0.0942781
2.31065,0.147804,-0.0538774
2.29778,0.252866,-0.04035
2.31173,0.140583,0
2.33824,-0.0865555,-0.0272401
2.31581,0.140831,-0.360952
2.3198,0.0275344,-0.0134836
2.31828,0.140981,-0.250179
2.33624,-0.0864813,-0.218233
2.3111,0.140545,0.0538774
2.33824,-0.0865555,0.0272401
2.32748,0.0276256,0.0406292
2.30929,0.254134,-0.148893
2.34242,-0.0867104,-0.13651
2.30383,0.140102,0.134417
2.3172,0.140915,-0.108138
2.30814,0.254007,-0.0946037
2.3151,0.140787,-0.0539705
2.29873,0.244041,-0.04035
2.32294,0.0186508,-0.0676064
2.34189,-0.0956969,-0.0272867
2.31239,0.131712,-0.360337
2.29506,0.243652,0.0134139
2.33589,0.0187547,-0.0135766
2.32675,0.13253,-0.251036
2.33987,-0.0956144,-0.218604
2.30763,0.131442,0.0537844
2.33389,-0.0953703,0.0271936
2.32255,0.132291,-0.162672
2.32357,0.0186558,0.0405594
2.31025,0.245264,-0.148893
2.34606,-0.0958676,-0.136743
2.30834,0.131482,0.13465
2.32172,0.132244,-0.108324
2.3091,0.245142,-0.0946037
2.31961,0.132124,-0.0540635
2.29957,0.236015,-0.04035
2.32299,0.0105414,-0.0676064
2.3087,0.123418,0
2.33355,-0.103517,-0.0271936
2.2959,0.235638,0.0134139
2.33594,0.0106002,-0.0135766
2.3272,0.124407,-0.251036
2.3435,-0.103959,-0.218976
2.31607,0.123812,0.0539705
2.33754,-0.103694,0.0272401
2.32699,0.124396,-0.162951
2.32362,0.0105443,0.0405594
2.30712,0.23679,-0.148637
2.3497,-0.104234,-0.136976
2.31676,0.123849,0.135115
2.32216,0.124138,-0.108324
2.30199,0.236263,-0.0942781
2.32006,0.124025,-0.0540635
2.30428,0.229186,-0.0404198
2.32701,0.00324953,-0.0677228
2.30908,0.116165,0
2.33721,-0.111037,-0.0272401
2.34111,0.00326922,-0.297993
2.33196,0.00325644,-0.0135534
2.31566,0.116496,-0.24975
2.34316,-0.11132,-0.218976
2.31644,0.116536,0.0539705
2.33321,-0.110847,0.0271936
2.3194,0.116684,-0.162393
2.33224,0.00325683,-0.190393
2.31964,0.00323924,0.0404896
2.30785,0.229541,-0.148637
2.34937,-0.111615,-0.136976
2.31315,0.11637,0.134883
2.32207,0.00324263,0.0946037
2.32254,0.116842,-0.108324
2.30272,0.229031,-0.0942781
2.32443,0.116938,-0.0541566
2.29714,0.219976,-0.0402802
2.32301,-0.00526983,-0.0676064
2.30949,0.107702,0
2.33279,-0.119398,-0.0271936
2.31362,0.107895,-0.360337
2.33195,-0.00529012,-0.0135534
2.32004,0.108194,-0.250179
2.32085,0.108232,0.0540635
2.33678,-0.119602,0.0272401
2.32764,-0.00528033,0.0406292
2.30868,0.221082,-0.148637
2.34096,-0.119816,-0.13651
2.30558,0.10752,0.134417
2.32295,0.10833,-0.108324
2.31548,0.221733,-0.0947666
2.32085,0.108232,-0.0540635
2.30188,0.212323,-0.04035
2.31385,0.0998113,0
2.34034,-0.127977,-0.0272867
2.32188,0.100158,-0.361567
2.34107,-0.0134835,-0.297993
2.32792,-0.0134077,-0.0135301
2.31246,0.0997514,-0.249322
2.3423,-0.128084,-0.218976
2.31322,0.0997843,0.0538774
2.33236,-0.12754,0.0271936
2.32416,0.100256,-0.162672
2.32761,-0.0134059,0.0406292
2.30944,0.213021,-0.148637
2.34851,-0.128424,-0.136976
2.30993,0.0996425,0.13465
2.32332,0.10022,-0.108324
2.34075,-0.0134816,-0.122675
2.31226,0.213281,-0.0946037
2.32121,0.100129,-0.0540635
2.29858,0.204334,-0.0402802
2.32692,-0.0211194,-0.0677228
2.31417,0.0921371,0
2.33991,-0.135738,-0.0272867
2.31825,0.0922998,-0.360952
2.2989,0.204362,0.0134139
2.33186,-0.0211643,-0.0135534
2.31675,0.0922401,-0.24975
2.31754,0.0922713,0.0539705
2.31252,0.0920714,-0.161835
2.32355,-0.0210888,0.0405594
2.30616,0.205007,-0.148382
2.34807,-0.136211,-0.136976
2.33397,-0.0211833,0.0950922
2.31965,0.0923552,-0.108138
2.31693,0.205965,-0.0947666
2.32153,0.0924303,-0.0540635
2.30725,0.196991,-0.0404198
2.32283,-0.0291899,-0.0676064
2.31048,0.083915,0
2.33543,-0.143658,-0.0272401
2.29959,0.196337,0.0134139
2.33178,-0.0293023,-0.0135534
2.31706,0.0841541,-0.24975
2.31784,0.0841826,0.0539705
2.31681,0.0841451,-0.162114
2.32746,-0.029248,0.0406292
2.31083,0.197297,-0.148637
2.32395,0.0844042,-0.108324
2.30569,0.196858,-0.0942781
2.32584,0.0844729,-0.0541566
2.31593,0.189183,-0.0405594
2.33071,-0.0378348,-0.0678391
2.31477,0.075575,0
2.34287,-0.152739,-0.0273333
2.31885,0.0757084,-0.360952
2.34477,-0.0380631,-0.298498
2.33165,-0.0378502,-0.0135534
2.31735,0.0756594,-0.24975
2.31814,0.075685,0.0539705
2.32109,0.0757815,-0.162393
2.34389,-0.0380488,-0.191369
2.32734,-0.0377801,0.0406292
2.30756,0.1885,-0.148382
2.31883,0.0757077,0.135115
2.32424,0.0758843,-0.108324
2.3064,0.188404,-0.0942781
2.33013,0.0760765,-0.0542496
2.30063,0.179853,-0.0402802
2.32656,-0.0458898,-0.0677228
2.31502,0.067496,0
2.34232,-0.160914,-0.0273333
2.32751,-0.0459084,-0.0135301
2.3176,0.0675715,-0.24975
2.32238,0.0677109,0.0540635
2.32533,0.0677968,-0.162672
2.34375,-0.0462287,-0.191369
2.33119,-0.0459811,0.040699
2.31219,0.180756,-0.148637
2.35047,-0.161474,-0.137208
2.31509,0.0674982,0.134883
2.3205,0.0676558,-0.108138
2.31103,0.180665,-0.0944409
2.32638,0.0678274,-0.0541566
2.30517,0.172921,-0.04035
2.31922,0.0603251,0
2.3418,-0.168274,-0.0273333
2.32326,0.0604302,-0.361567
2.30149,0.172646,0.0134139
2.32735,-0.0532221,-0.0135301
2.3178,0.0602884,-0.24975
2.32658,0.0605168,0.0541566
2.32154,0.0603857,-0.162393
2.32704,-0.0532148,0.0406292
2.31672,0.173788,-0.148893
2.34995,-0.168859,-0.137208
2.3113,0.0601193,0.13465
2.31955,0.174,-0.0947666
2.33058,0.0606207,-0.0542496
2.31374,0.165445,-0.0404896
2.3302,-0.0614255,-0.0678391
2.35317,-0.177349,-0.027473
2.32345,0.0523208,-0.361567
2.33115,-0.0614505,-0.0135534
2.318,0.052198,-0.24975
2.31878,0.0522157,0.0539705
2.32174,0.0522822,-0.162393
2.33084,-0.0614422,0.040699
2.30935,0.165131,-0.148382
2.34935,-0.177061,-0.137208
2.31948,0.0522314,0.135115
2.32089,0.0522632,-0.108138
2.31217,0.165333,-0.0944409
2.32678,0.0523957,-0.0541566
2.31031,0.157096,-0.0404198
2.32998,-0.0695591,-0.0678391
2.31558,0.0440571,0
2.34057,-0.184618,-0.0273333
2.31967,0.0441349,-0.360952
2.348,-0.0700972,-0.299003
2.33492,-0.0697067,-0.0135766
2.32612,0.0442577,-0.250607
2.32695,0.0442734,0.0541566
2.3259,0.0442534,-0.162672
2.34714,-0.0700716,-0.191695
2.32661,-0.0694586,0.0406292
2.3139,0.15734,-0.148637
2.31566,0.0440586,0.134883
2.32106,0.0441614,-0.108138
2.30875,0.15699,-0.0942781
2.33095,0.0443495,-0.0542496
2.3109,0.148224,-0.0404198
2.33984,-0.193604,-0.0273333
2.31982,0.0352277,-0.360952
2.34263,-0.078941,-0.0136231
2.33423,0.0354465,-0.251464
2.3271,0.0353383,0.0541566
2.33403,0.0354435,-0.16323
2.32632,-0.0783916,0.0406292
2.31449,0.148454,-0.148637
2.32122,0.0352489,-0.108138
2.31332,0.14838,-0.0944409
2.3311,0.035399,-0.0542496
2.33343,-0.0859708,-0.0679555
2.31983,0.0279386,0
2.32387,0.0279872,-0.361567
2.33438,-0.0860057,-0.0135766
2.31842,0.0279216,-0.24975
2.3232,0.0279792,0.0540635
2.33014,0.0280627,-0.162951
2.33006,-0.0858468,0.040699
2.31893,0.141425,-0.148893
2.31591,0.0278913,0.134883
2.32131,0.0279564,-0.108138
2.31777,0.141355,-0.0946037
2.3312,0.0280755,-0.0542496
2.33311,-0.0941154,-0.0679555
2.32392,0.0198749,0
2.32396,0.0198752,-0.361567
2.33406,-0.0941537,-0.0135766
2.32329,0.0198695,0.0540635
2.32623,0.0198947,-0.162672
2.31542,0.133101,-0.148637
2.3174,0.0198192,-0.107952
2.31825,0.133263,-0.0946037
2.33528,0.0199721,-0.0543427
2.32029,0.12485,-0.0405594
2.32401,0.0113574,-0.361567
2.3337,-0.102708,-0.0135766
2.32254,0.0113501,-0.250179
2.32334,0.0113541,0.0540635
2.32629,0.0113685,-0.162672
2.31988,0.124828,-0.148893
2.32545,0.0113644,-0.108324
2.34651,-0.103271,-0.123094
2.31473,0.124551,-0.0944409
2.33534,0.0114127,-0.0543427
2.32071,0.11675,-0.0405594
2.33637,-0.110998,-0.0680718
2.32,0.00323933,0
2.33732,-0.111043,-0.0135999
2.32256,0.00324292,-0.250179
2.32737,0.00324963,0.0541566
2.32632,0.00324816,-0.162672
2.34953,-0.111623,-0.19202
2.31631,0.116529,-0.148637
2.32148,0.00324141,-0.108138
2.35012,-0.111651,-0.123304
2.32313,0.116872,-0.0947666
2.31709,0.108866,-0.0404896
2.33599,-0.118745,-0.0680718
2.324,-0.00446176,0
2.32799,-0.00446942,-0.362182
2.34493,-0.119199,-0.0136464
2.32654,-0.00446663,-0.250607
2.33136,-0.0044759,0.0542496
2.3343,-0.00448153,-0.16323
2.34914,-0.119413,-0.19202
2.3127,0.10866,-0.148382
2.32947,-0.00447226,-0.108511
2.31552,0.108792,-0.0944409
2.33136,-0.0044759,-0.0542496
2.31346,0.100603,-0.0404198
2.33956,-0.127115,-0.0681882
2.32397,-0.012574,0
2.32796,-0.0125956,-0.362182
2.33252,-0.126733,-0.0135766
2.33133,-0.0126139,0.0542496
2.33826,-0.0126513,-0.163509
2.35269,-0.127829,-0.192346
2.31705,0.10076,-0.148637
2.32944,-0.0126036,-0.108511
2.31988,0.100883,-0.0946037
2.33133,-0.0126139,-0.0542496
2.31381,0.0921234,-0.0404198
2.3239,-0.0210917,0
2.33976,-0.0212355,-0.364027
2.33603,-0.135513,-0.0135999
2.32328,-0.021086,0.0540635
2.3342,-0.0211851,-0.16323
2.35221,-0.136451,-0.192346
2.32139,0.0924252,-0.148893
2.31624,0.0922201,-0.0944409
2.33527,-0.0211948,-0.0543427
2.31411,0.08445,-0.0404198
2.33557,-0.143259,-0.0135999
2.32636,-0.0288294,-0.250607
2.32719,-0.0288397,0.0541566
2.33412,-0.0289255,-0.16323
2.32568,0.0848723,-0.149149
2.3253,-0.0288162,-0.108324
2.32452,0.0848301,-0.0947666
2.33919,-0.0289883,-0.0544357
2.31838,0.0765037,-0.0404896
2.32371,-0.0369094,0
2.34703,-0.152187,-0.0136696
2.33507,-0.0370899,0.0543427
2.32603,-0.0369462,-0.162672
2.32197,0.076622,-0.148893
2.32918,-0.0369963,-0.108511
2.31682,0.0764519,-0.0944409
2.33907,-0.0371534,-0.0544357
2.32356,-0.0450204,0
2.34649,-0.160379,-0.0136696
2.33406,-0.0452237,-0.251464
2.33093,-0.0451631,0.0542496
2.33386,-0.0452199,-0.16323
2.32222,0.0685163,-0.148893
2.32904,-0.0451264,-0.108511
2.31707,0.0683642,-0.0944409
2.31485,0.0606166,-0.0404198
2.34499,-0.168091,-0.0684209
2.3274,-0.0528161,0
2.33876,-0.053074,0.0544357
2.3337,-0.052959,-0.16323
2.31845,0.0607107,-0.148637
2.33287,-0.0529402,-0.108697
2.32128,0.0607848,-0.0946037
2.33876,-0.053074,-0.0544357
2.31906,0.0522219,-0.0404896
2.34037,-0.176384,-0.0683046
2.32719,-0.0613461,0
2.33369,-0.0615173,-0.251464
2.33056,-0.0614349,0.0542496
2.33349,-0.0615121,-0.16323
2.32264,0.0523026,-0.148893
2.33266,-0.0614902,-0.108697
2.32548,0.0523665,-0.0947666
2.33855,-0.0616456,-0.0544357
2.31923,0.0441265,-0.0404896
2.33743,-0.0697817,-0.251892
2.33033,-0.0695697,0.0542496
2.33326,-0.0696571,-0.16323
2.3268,0.0442707,-0.149149
2.33642,-0.0697516,-0.108883
2.35743,-0.185948,-0.123932
2.32565,0.0442487,-0.0947666
2.32337,0.0360927,-0.0405594
2.33908,-0.192718,-0.0683046
2.3332,-0.0778079,-0.251464
2.32608,-0.0775704,0.0541566
2.32902,-0.0776683,-0.162951
2.33617,-0.0779068,-0.108883
2.35677,-0.194176,-0.123932
2.32179,0.0360683,-0.0946037
2.34606,-0.0782368,-0.0546219
2.31948,0.0279343,-0.0404896
2.34636,-0.201567,-0.0685373
2.33689,-0.0860982,-0.251892
2.34178,-0.0862783,0.0545288
2.33272,-0.0859445,-0.16323
2.32307,0.0279775,-0.148893
2.33588,-0.0860611,-0.108883
2.32191,0.0279635,-0.0946037
2.34577,-0.0864256,-0.0546219
2.33012,-0.0935873,0
2.31587,0.0202103,0.0134604
2.33659,-0.0938471,-0.251892
2.33641,-0.0938398,-0.163509
2.32315,0.0202738,-0.148893
2.33957,-0.093967,-0.109069
2.32998,0.0203334,-0.0949294
2.33349,-0.0937225,-0.0543427
2.34493,-0.217533,-0.0685373
2.32978,-0.10172,0
2.34419,-0.10235,-0.252749
2.33606,-0.101995,-0.163509
2.32719,0.0121853,-0.149149
2.33125,-0.101785,-0.108697
2.33004,0.0122001,-0.0949294
2.34114,-0.102216,-0.0545288
2.32364,0.00405553,-0.0405594
2.34416,-0.225717,-0.0685373
2.32941,-0.109852,0
2.31996,0.00404909,0.0134836
2.33569,-0.110149,-0.163509
2.33121,0.00406874,-0.149405
2.33487,-0.11011,-0.108883
2.32607,0.00405976,-0.0947666
2.34476,-0.110576,-0.0546219
2.32764,-0.00406251,-0.0406292
2.34336,-0.233898,-0.0685373
2.32796,-0.00406306,0.0135301
2.3353,-0.118301,-0.163509
2.33121,-0.00406874,-0.149405
2.33846,-0.118461,-0.109069
2.32607,-0.00405976,-0.0947666
2.34436,-0.11876,-0.0546219
2.32761,-0.0121875,-0.0406292
2.31993,-0.0121472,0.0134836
2.33487,-0.126452,-0.163509
2.32719,-0.0121853,-0.149149
2.34202,-0.12684,-0.109255
2.32204,-0.0121583,-0.0946037
2.34393,-0.126943,-0.0546219
2.32356,-0.0202774,-0.0405594
2.33213,-0.13447,0
2.3384,-0.134831,-0.163788
2.33113,-0.0203435,-0.149405
2.33758,-0.134784,-0.109069
2.33398,-0.0203683,-0.0950922
2.34347,-0.135124,-0.0546219
2.32747,-0.0284368,-0.0406292
2.33963,-0.143098,0
2.34588,-0.14348,-0.164346
2.33104,-0.0284805,-0.149405
2.34507,-0.143431,-0.109441
2.32989,-0.0284664,-0.0949294
2.34299,-0.143303,-0.0546219
2.32336,-0.0364982,-0.0405594
2.32767,-0.036566,0.0135301
2.34536,-0.151668,-0.164346
2.33492,-0.0366799,-0.149661
2.34057,-0.151358,-0.109255
2.33378,-0.0366619,-0.0950922
2.35045,-0.151997,-0.054808
2.33521,-0.0448384,-0.0407688
2.34256,-0.1597,0
2.32753,-0.0446909,0.0135301
2.34482,-0.159854,-0.164346
2.33478,-0.04483,-0.149661
2.34003,-0.159527,-0.109255
2.32564,-0.0446546,-0.0947666
2.34991,-0.160201,-0.054808
2.33104,-0.0528988,-0.040699
2.34425,-0.168038,-0.164346
2.33062,-0.0528891,-0.149405
2.33945,-0.167694,-0.109255
2.33346,-0.0529537,-0.0950922
2.35332,-0.168688,-0.054901
2.32685,-0.0609306,-0.0406292
2.32716,-0.0609389,0.0135301
2.33441,-0.0611286,-0.149661
2.34682,-0.176459,-0.109627
2.33726,-0.0612033,-0.095255
2.34873,-0.176602,-0.054808
2.33063,-0.0687644,-0.040699
2.33818,-0.0689872,-0.149916
2.33826,-0.183614,-0.109255
2.32905,-0.0687178,-0.0949294
2.34813,-0.18439,-0.054808
2.33837,-0.0771632,-0.0408386
2.32669,-0.0767779,0.0135301
2.34192,-0.0772802,-0.150172
2.34557,-0.192429,-0.109627
2.34078,-0.0772428,-0.0954179
2.35146,-0.192912,-0.054901
2.33411,-0.0847719,-0.0407688
2.33042,-0.0846382,0.0135534
2.33766,-0.084901,-0.149916
2.34094,-0.199866,-0.109441
2.33652,-0.0848596,-0.095255
2.35479,-0.201049,-0.0549941
2.33378,-0.0933263,-0.0407688
2.33334,-0.0933089,-0.149661
2.35611,-0.209862,-0.110186
2.34019,-0.0935825,-0.0954179
2.35802,-0.210033,-0.0550871
2.33346,-0.101065,-0.0407688
2.33701,-0.101219,-0.149916
2.33986,-0.101342,-0.0954179
2.34537,-0.216748,-0.054808
2.33307,-0.109617,-0.0407688
2.33339,-0.109632,0.0135766
2.34061,-0.109971,-0.150172
2.34347,-0.110105,-0.0955807
2.33667,-0.117962,-0.0408386
2.3442,-0.118342,-0.150428
2.34307,-0.118285,-0.0955807
2.33624,-0.126117,-0.0408386
2.33256,-0.125919,0.0135766
2.34377,-0.126524,-0.150428
2.33865,-0.126248,-0.0954179
2.33978,-0.134501,-0.0409084
2.33933,-0.134475,-0.150172
2.34219,-0.13464,-0.0955807
2.33535,-0.141609,-0.0408386
2.3389,-0.141824,-0.150172
2.34574,-0.142239,-0.0957435
2.33834,-0.150803,-0.150172
2.34917,-0.151502,-0.0959064
2.3383,-0.158179,-0.0409084
2.34183,-0.158418,-0.150428
2.35267,-0.159151,-0.0960692
2.34166,-0.167442,-0.0409782
2.35315,-0.168263,-0.151196
2.34407,-0.167614,-0.0957435
2.34904,-0.176213,-0.0411179
2.34061,-0.17558,-0.150428
2.35144,-0.176393,-0.0960692
2.35081,-0.1846,-0.0960692
2.35018,-0.192394,-0.0960692
2.3471,-0.200392,-0.0411179
2.35348,-0.200937,-0.096232
2.34878,-0.208797,-0.0960692
