2.17985,0.00228299,0.0253776
2.1843,0.00228765,-0.127208
2.17585,-0.00493618,-0.025331
2.17985,-0.00494526,0.0253776
2.17631,-0.00493723,-0.126743
2.17981,-0.0129353,-0.0253776
2.17581,-0.0129116,0.025331
2.17228,-0.0128906,-0.126511
2.17576,-0.020506,-0.025331
2.19026,0.0864389,-0.0127397
2.17576,-0.020506,0.025331
2.17622,-0.0205104,-0.126743
2.17168,-0.0276706,-0.0252844
2.17614,-0.0277275,-0.126743
2.17157,-0.0352506,-0.0252844
2.1868,0.0713978,-0.0127165
2.17557,-0.0353155,0.025331
2.18002,-0.0353878,-0.126976
2.17142,-0.0432101,-0.0252844
2.19104,0.0634976,-0.0127397
2.17542,-0.0432897,0.025331
2.17987,-0.0433783,-0.126976
2.16728,-0.0499391,-0.0252379
2.19123,0.0566143,-0.0127397
2.17795,-0.050185,-0.203362
2.17528,-0.0501233,0.025331
2.17174,-0.0500419,-0.126511
2.17109,-0.0576096,-0.0252844
2.18742,0.0488762,-0.0127165
2.17509,-0.0577157,0.025331
2.16756,-0.057516,-0.126278
2.17085,-0.065945,-0.0252844
2.19159,0.0405513,-0.0127397
2.18151,-0.0662687,-0.203733
2.17085,-0.065945,0.0252844
2.18329,0.0403979,0.0381161
2.17132,-0.0659592,-0.126511
2.17063,-0.0727663,-0.0252844
2.18771,0.033603,-0.0127165
2.17731,-0.0729899,-0.203362
2.17463,-0.0729003,0.025331
2.1711,-0.0727819,-0.126511
2.17436,-0.0804892,-0.025331
2.18781,0.0259678,-0.0127165
2.18102,-0.0807356,-0.203733
2.17037,-0.0803413,0.0252844
2.17552,0.0258218,0.0379764
2.17083,-0.0803585,-0.126511
2.17686,0.0258378,-0.114092
2.17404,-0.0888381,-0.025331
2.18389,0.0175343,-0.0126932
2.18069,-0.08911,-0.203733
2.17004,-0.0886748,0.0252844
2.1756,0.0174677,0.0379764
2.16652,-0.0885308,-0.126278
2.18094,0.0175106,-0.114302
2.17371,-0.0964269,-0.025331
2.17994,0.0098923,-0.01267
2.17241,-0.0963691,-0.20299
2.16972,-0.0962497,0.0252844
2.17565,0.00987281,0.0379764
2.17019,-0.0962704,-0.126511
2.173,0.00986078,-0.113883
2.16541,-0.102875,-0.0252379
2.17607,-0.103382,-0.203362
2.16541,-0.102875,0.0252379
2.17967,0.00304377,0.0380462
2.16588,-0.102898,-0.126278
2.181,0.00304564,-0.114302
2.16901,-0.111015,-0.0252844
2.17966,-0.11156,-0.203733
2.16901,-0.111015,0.0252844
2.17966,-0.00494464,0.0380462
2.16948,-0.111039,-0.126511
2.181,-0.00494768,-0.114302
2.17105,-0.0125042,-0.0631846
2.17261,-0.118805,-0.025331
2.16063,-0.11815,0.0251913
2.17563,-0.0125306,0.0379764
2.17307,-0.11883,-0.126743
2.17698,-0.0125383,-0.114092
2.1722,-0.126009,-0.025331
2.18387,-0.0198211,-0.0126932
2.17885,-0.126395,-0.203733
2.16022,-0.125314,0.0251913
2.17158,-0.0197095,0.0379066
2.16469,-0.125574,-0.126278
2.17293,-0.0197217,-0.113883
2.17175,-0.13359,-0.025331
2.18379,-0.0274426,-0.0126932
2.17044,-0.133509,-0.20299
2.15578,-0.132607,0.0251447
2.1755,-0.0273384,0.0379764
2.16424,-0.133127,-0.126278
2.17003,-0.0272696,0.0884162
2.16885,-0.0272549,-0.113674
2.18197,0.0792477,-0.0508067
2.16725,-0.14129,-0.0252844
2.16994,-0.141465,-0.20299
2.15927,-0.140769,0.0251913
2.17538,-0.0353134,0.0379764
2.16373,-0.14106,-0.126278
2.16991,-0.0352246,0.0884162
2.16874,-0.0352055,-0.113674
2.18624,0.0713788,-0.0508998
2.1668,-0.148097,-0.0252844
2.17346,-0.148553,-0.203362
2.15882,-0.147552,0.0251913
2.17635,-0.0421681,-0.1777
2.17126,-0.0420695,0.0379066
2.1593,-0.147585,-0.126045
2.17379,-0.0421184,0.0885791
2.17261,-0.0420956,-0.113883
2.18246,0.0643926,-0.0508067
2.17526,0.0565808,0
2.16228,-0.155374,-0.0252379
2.15829,-0.155087,0.0251913
2.17619,-0.0497653,-0.1777
2.1711,-0.0496489,0.0379066
2.16673,-0.155694,-0.126511
2.16963,-0.0496153,0.0884162
2.16846,-0.0495884,-0.113674
2.17867,0.0566695,-0.0507136
2.17545,0.048988,0
2.16571,-0.163221,-0.0252844
2.16045,-0.162825,-0.202246
2.15773,-0.16262,0.0251913
2.176,-0.0573607,-0.1777
2.17092,-0.0572266,0.0379066
2.15423,-0.162355,-0.125813
2.16545,-0.0570825,0.0882534
2.17709,0.0490248,-0.101438
2.17886,0.0490647,-0.0507136
2.16212,-0.0645479,-0.0629519
2.17961,0.04147,0
2.16513,-0.17078,-0.0252844
2.15987,-0.170365,-0.202246
2.16114,-0.170465,0.0252379
2.17977,-0.065075,-0.178025
2.1707,-0.0648041,0.0379066
2.16161,-0.170502,-0.126278
2.16124,-0.0645218,0.0880906
2.16406,-0.064606,-0.113464
2.17502,0.0413827,-0.0506206
2.16446,-0.179092,-0.0252844
2.17873,-0.0734179,-0.01267
2.1592,-0.178657,-0.202246
2.15648,-0.178432,0.0251913
2.17552,-0.0733099,-0.1777
2.16644,-0.0730038,0.0378368
2.16094,-0.178801,-0.126278
2.16098,-0.0728198,0.0880906
2.17516,0.033031,-0.0506206
2.17184,0.0261563,0
2.16657,-0.186121,-0.20299
2.16388,-0.185891,0.0252844
2.1713,-0.0799974,-0.177375
2.1622,-0.0796623,0.037767
2.16037,-0.185589,-0.126278
2.15675,-0.0794612,0.0879277
2.17748,0.0262242,-0.101438
2.16356,-0.0797123,-0.113464
2.18325,0.0262937,-0.0508067
2.16133,-0.0871857,-0.0629519
2.17192,0.018575,0
2.15924,-0.193087,-0.0252379
2.1659,-0.193683,-0.20299
2.15525,-0.19273,0.0251913
2.17101,-0.0875762,-0.177375
2.16591,-0.0873705,0.0378368
2.15175,-0.192417,-0.125813
2.16444,-0.0873114,0.0882534
2.18155,0.0186574,-0.101624
2.16726,-0.0874251,-0.113674
2.17933,0.0186383,-0.0507136
2.17997,0.0106534,0
2.1625,-0.20137,-0.0252844
2.15787,-0.0949695,-0.0125537
2.16121,-0.201251,-0.202618
2.17539,0.010631,0.0506206
2.1625,-0.20137,0.0252844
2.17067,-0.0955327,-0.177375
2.16557,-0.0953084,0.0378368
2.15103,-0.200303,-0.125813
2.16411,-0.0952439,0.0882534
2.18161,0.0106614,-0.101624
2.16693,-0.0953679,-0.113674
2.17539,0.010631,-0.0506206
2.168,0.0030271,0
2.1578,-0.208533,-0.0252379
2.15753,-0.102501,-0.0125537
2.15653,-0.20841,-0.202246
2.17141,0.00303187,0.0505275
2.15382,-0.208148,0.0251913
2.17431,-0.103298,-0.1777
2.16922,-0.103057,0.0379066
2.1543,-0.208194,-0.126045
2.15977,-0.102608,0.0880906
2.17764,0.00304056,-0.101438
2.16658,-0.102931,-0.113674
2.17541,0.00303745,-0.0506206
2.1603,-0.109814,-0.0629519
2.15312,-0.215289,-0.0251913
2.16117,-0.109858,-0.012577
2.15979,-0.215957,-0.202618
2.17541,-0.00417648,0.0506206
2.1571,-0.215687,0.0252379
2.16997,-0.110306,-0.177375
2.15757,-0.215734,-0.126278
2.16341,-0.109972,0.0882534
2.18163,-0.00418843,-0.101624
2.16224,-0.109913,-0.113464
2.15404,-0.109496,0.176073
2.17541,-0.00417648,-0.0506206
2.18562,0.0946618,-0.0381859
2.15231,-0.223179,-0.0251913
2.18312,-0.118998,-0.278295
2.16874,-0.118214,-0.0126235
2.15503,-0.223461,-0.202246
2.17538,-0.0121497,0.0506206
2.15629,-0.223592,0.0252379
2.17353,-0.118475,-0.1777
2.16845,-0.118198,0.0379066
2.14882,-0.222817,-0.125813
2.16299,-0.117901,0.0882534
2.1856,-0.0122068,-0.10181
2.16581,-0.118054,-0.113674
2.15363,-0.11739,0.176073
2.17538,-0.0121497,-0.0506206
2.18194,0.0868728,-0.0381161
2.15546,-0.125038,-0.0628356
2.1555,-0.231117,-0.0252379
2.16832,-0.125784,-0.0126235
2.15819,-0.231406,-0.202618
2.17532,-0.0197431,0.0506206
2.1555,-0.231117,0.0252379
2.16913,-0.125831,-0.177375
2.16403,-0.125535,0.0378368
2.152,-0.230742,-0.126045
2.16257,-0.12545,0.0882534
2.18554,-0.0198359,-0.10181
2.1614,-0.125382,-0.113464
2.14923,-0.124676,0.175747
2.17532,-0.0197431,-0.0506206
2.17822,0.0794909,-0.0380462
2.14677,-0.237385,-0.0251447
2.15591,-0.132239,-0.0125537
2.15741,-0.238562,-0.202618
2.17125,-0.0269071,0.0505275
2.1825,-0.0270466,-0.152627
2.16074,-0.132535,-0.176724
2.1676,-0.132956,0.0379066
2.15519,-0.238316,-0.126278
2.15815,-0.132376,0.0880906
2.18147,-0.0270338,-0.101624
2.16894,-0.133038,-0.113883
2.1488,-0.131803,0.175747
2.17125,-0.0269071,-0.0505275
2.17848,0.0718871,-0.0380462
2.16373,-0.0343683,0
2.1499,-0.24533,-0.0251913
2.17386,-0.140958,-0.277285
2.18278,0.0720287,0.0126932
2.15544,-0.139764,-0.0125537
2.15657,-0.246091,-0.202618
2.17114,-0.034486,0.0505275
2.14593,-0.244877,0.0251447
2.17442,-0.034538,-0.152069
2.16822,-0.140592,-0.177375
2.16712,-0.140521,0.0379066
2.14641,-0.244932,-0.125813
2.16166,-0.140167,0.0882534
2.17337,-0.0345214,-0.101252
2.16049,-0.140091,-0.113464
2.15628,-0.139819,0.176398
2.17114,-0.034486,-0.0505275
2.16359,-0.0419209,0
2.14903,-0.252833,-0.0251913
2.17731,-0.148816,-0.27779
2.15095,-0.147014,-0.0125305
2.15174,-0.253152,-0.202246
2.16701,-0.041987,0.0504345
2.14903,-0.252833,0.0251913
2.17428,-0.042128,-0.152069
2.16374,-0.147888,-0.177049
2.16262,-0.147812,0.0378368
2.14554,-0.252423,-0.125813
2.16116,-0.147712,0.0882534
2.17723,-0.0421851,-0.101438
2.156,-0.14736,-0.113255
2.1518,-0.147073,0.176073
2.17101,-0.0420645,-0.0505275
2.18292,0.0571617,-0.0381161
2.15215,-0.260439,-0.0252379
2.17285,-0.155752,-0.277285
2.17922,0.0570648,0.01267
2.15843,-0.154718,-0.012577
2.15089,-0.260286,-0.202246
2.17085,-0.0492636,0.0505275
2.14024,-0.258997,0.0250982
2.17014,-0.0492474,-0.15179
2.16323,-0.155063,-0.177049
2.16212,-0.154983,0.0378368
2.15262,-0.260496,-0.126278
2.16465,-0.155164,0.0884162
2.17708,-0.0494048,-0.101438
2.16347,-0.15508,-0.113674
2.14733,-0.153922,0.175747
2.17885,-0.049445,-0.0507136
2.17912,0.0490705,-0.0380462
2.15298,-0.162261,-0.0628356
2.15118,-0.268325,-0.0252379
2.17226,-0.163715,-0.277285
2.17541,0.0489871,0.0126467
2.16183,-0.162928,-0.0126002
2.14992,-0.268168,-0.202246
2.17066,-0.0572198,0.0505275
2.15118,-0.268325,0.0252379
2.16995,-0.057201,-0.15179
2.1706,-0.163589,-0.1777
2.15755,-0.162606,0.037767
2.14769,-0.26789,-0.126045
2.16008,-0.162796,0.0882534
2.15891,-0.162708,-0.113464
2.14675,-0.161792,0.175747
2.17066,-0.0572198,-0.0505275
2.17528,0.0413876,-0.0379764
2.16304,-0.0645753,0
2.15023,-0.275833,-0.0252379
2.17168,-0.171296,-0.277285
2.17557,0.0413932,0.0126467
2.16524,-0.170788,-0.0126235
2.14897,-0.275671,-0.202246
2.17045,-0.0647965,0.0505275
2.17372,-0.0648943,-0.152069
2.16604,-0.170852,-0.177375
2.16096,-0.170451,0.0378368
2.14674,-0.275385,-0.126045
2.15938,-0.064466,0.125813
2.15551,-0.170021,0.0880906
2.17667,-0.0649823,-0.101438
2.16629,-0.170871,-0.113883
2.15015,-0.169598,0.176073
2.1778,0.0414356,-0.0887419
2.17045,-0.0647965,-0.0505275
2.17541,0.0337942,-0.0379764
2.1588,-0.071992,0
2.14926,-0.283337,-0.0252379
2.17107,-0.178876,-0.277285
2.1797,0.0338609,0.01267
2.16463,-0.178345,-0.0126235
2.148,-0.28317,-0.202246
2.16621,-0.0722391,0.0504345
2.14926,-0.283337,0.0252379
2.16949,-0.0723486,-0.15179
2.16941,-0.178739,-0.1777
2.16035,-0.177993,0.0378368
2.14973,-0.283399,-0.126278
2.15515,-0.0718702,0.12558
2.1549,-0.177544,0.0880906
2.17643,-0.0725799,-0.101438
2.15772,-0.177776,-0.113464
2.14954,-0.177102,0.176073
2.16621,-0.0722391,-0.0504345
2.17551,0.0262004,-0.0379764
2.14826,-0.290837,-0.0252379
2.17438,-0.186793,-0.27779
2.17581,0.026204,0.0126467
2.16399,-0.1859,-0.0126235
2.15094,-0.291201,-0.202618
2.16994,-0.0799473,0.0505275
2.14429,-0.290301,0.0251913
2.16524,-0.0797742,-0.151511
2.15685,-0.185287,-0.176724
2.15972,-0.185533,0.0378368
2.14872,-0.290901,-0.126278
2.15887,-0.0795396,0.125813
2.15825,-0.185407,0.0882534
2.16818,-0.0798824,-0.101066
2.15708,-0.185307,-0.113464
2.14494,-0.184263,0.175747
2.17404,0.0261827,-0.0885791
2.16994,-0.0799473,-0.0505275
2.17959,0.019021,-0.0380462
2.14332,-0.29741,-0.0251913
2.16585,-0.193297,-0.27678
2.17588,0.0189886,0.0126467
2.16336,-0.193075,-0.0126235
2.14996,-0.298332,-0.202618
2.16567,-0.0869822,0.0504345
2.18091,-0.0875945,-0.152627
2.15623,-0.192438,-0.176724
2.1551,-0.192338,0.037767
2.17545,0.0189849,-0.139427
2.14775,-0.298025,-0.126278
2.1586,-0.0866983,0.125813
2.15365,-0.192208,0.0880906
2.17189,-0.0872322,-0.101252
2.15248,-0.192104,-0.113255
2.14034,-0.191021,0.175422
2.16966,-0.0871427,-0.0505275
2.15794,-0.0942179,0
2.15019,-0.306017,-0.0252844
2.16516,-0.200856,-0.27678
2.17593,0.0113933,0.0126467
2.16268,-0.200626,-0.0126235
2.1568,-0.306957,-0.203362
2.17334,-0.0948901,0.0506206
2.14623,-0.305453,0.0252379
2.16863,-0.0946846,-0.15179
2.15554,-0.199964,-0.176724
2.15442,-0.19986,0.037767
2.14669,-0.30552,-0.126278
2.15828,-0.0942327,0.125813
2.15694,-0.200093,0.0882534
2.17157,-0.094813,-0.101252
2.1518,-0.199616,-0.113255
2.14363,-0.198859,0.175747
2.16535,-0.0945412,-0.0504345
2.17167,0.00379028,-0.0379066
2.14915,-0.206939,-0.0628356
2.1576,-0.10175,0
2.14515,-0.312943,-0.0252379
2.16444,-0.208412,-0.27678
2.17196,0.00379079,0.0126235
2.16196,-0.208173,-0.0126235
2.14389,-0.312759,-0.202246
2.16101,-0.101911,0.0503414
2.14515,-0.312943,0.0252379
2.17228,-0.102442,-0.152069
2.1588,-0.207869,-0.177049
2.16708,0.00378227,0.0630683
2.14973,-0.206995,0.0376972
2.14166,-0.312435,-0.126045
2.15794,-0.101766,0.125813
2.15225,-0.207238,0.0880906
2.17123,-0.102393,-0.101252
2.15506,-0.207509,-0.113464
2.14293,-0.20634,0.175747
2.16501,-0.102099,-0.0504345
2.17167,-0.00379028,-0.0379066
2.14404,-0.320429,-0.0252379
2.15976,-0.215572,-0.276275
2.17196,-0.00379079,0.0126235
2.16866,-0.109859,-0.2339
2.14278,-0.320241,-0.202246
2.16464,-0.109656,0.0504345
2.14404,-0.320429,0.0252379
2.16393,-0.10962,-0.151511
2.16203,-0.215799,-0.177375
2.17108,-0.00378925,0.0631846
2.15695,-0.215292,0.0378368
2.17953,-0.00380399,-0.139683
2.14846,-0.321089,-0.126511
2.16156,-0.1095,0.126045
2.14356,-0.213956,0.0877649
2.16687,-0.109769,-0.101066
2.15432,-0.21503,-0.113464
2.15013,-0.214611,0.176398
2.1702,-0.00378771,-0.0884162
2.16464,-0.109656,-0.0504345
2.16764,-0.0113499,-0.0378368
2.14367,-0.221527,-0.0627192
2.14291,-0.327911,-0.0252379
2.16294,-0.223518,-0.27678
2.17993,-0.0114142,0.01267
2.17223,-0.117644,-0.234328
2.14559,-0.328321,-0.202618
2.16823,-0.117427,0.0505275
2.14686,-0.328516,0.0252844
2.15955,-0.116957,-0.151232
2.15333,-0.222525,-0.176724
2.16705,-0.0113468,0.0630683
2.15619,-0.22282,0.0378368
2.17152,-0.0113701,-0.139172
2.14732,-0.328587,-0.126511
2.15718,-0.116829,0.125813
2.14678,-0.221848,0.0879277
2.17046,-0.117548,-0.101252
2.15753,-0.222959,-0.113674
2.14143,-0.221296,0.175747
2.17017,-0.0113631,-0.0884162
2.16823,-0.117427,-0.0505275
2.17559,-0.0189861,-0.0379764
2.14289,-0.229008,-0.0627192
2.14175,-0.335389,-0.0252379
2.16214,-0.231067,-0.27678
2.17188,-0.0189537,0.0126235
2.17975,-0.125684,-0.235185
2.1405,-0.335193,-0.202246
2.15983,-0.124535,0.0503414
2.1457,-0.336008,0.0252844
2.16312,-0.124725,-0.151511
2.15254,-0.23004,-0.176724
2.163,-0.0188762,0.0629519
2.15142,-0.22992,0.037767
2.15011,-0.336698,-0.126743
2.16473,-0.124818,0.126278
2.14599,-0.22934,0.0879277
2.16206,-0.124664,-0.100879
2.15277,-0.230065,-0.113464
2.13669,-0.228346,0.175422
2.17012,-0.0189383,-0.0884162
2.1718,-0.125225,-0.0506206
2.17151,-0.0265313,-0.0379066
2.14207,-0.236487,-0.0627192
2.15198,-0.131621,0
2.14057,-0.342864,-0.0252379
2.15738,-0.238177,-0.276275
2.1718,-0.0265349,0.0126235
2.15487,-0.2379,-0.0126002
2.17136,-0.132806,-0.234328
2.14324,-0.343292,-0.202618
2.16337,-0.132317,0.0504345
2.14452,-0.343496,0.0252844
2.15869,-0.132031,-0.151232
2.15173,-0.237553,-0.176724
2.16692,-0.0264753,0.0630683
2.1506,-0.237429,0.037767
2.13709,-0.342307,-0.126045
2.15232,-0.131642,0.12558
2.14518,-0.23683,0.0879277
2.16959,-0.132698,-0.101252
2.15195,-0.237578,-0.113464
2.1438,-0.236678,0.176073
2.17135,-0.132806,-0.0506206
2.1714,-0.0341111,-0.0379066
2.1555,-0.13939,0
2.14331,-0.35098,-0.0252844
2.15654,-0.245706,-0.276275
2.17569,-0.0341785,0.0126467
2.14608,-0.244515,-0.0125537
2.17088,-0.140385,-0.234328
2.14203,-0.350771,-0.202618
2.15891,-0.13961,0.0503414
2.14331,-0.35098,0.0252844
2.16618,-0.14008,-0.15179
2.15088,-0.245062,-0.176724
2.16682,-0.0340391,0.0630683
2.14579,-0.244482,0.0376972
2.17128,-0.0341091,-0.139172
2.13194,-0.349119,-0.125813
2.15185,-0.139154,0.12558
2.14037,-0.243864,0.0877649
2.16513,-0.140012,-0.101066
2.15508,-0.24554,-0.113674
2.139,-0.243708,0.175747
2.1629,-0.139868,-0.0504345
2.17127,-0.0416905,-0.0379066
2.155,-0.146913,0
2.14601,-0.359119,-0.025331
2.16355,-0.254158,-0.277285
2.17956,-0.0418497,0.01267
2.14918,-0.252471,-0.012577
2.17038,-0.147962,-0.234328
2.13687,-0.357589,-0.202246
2.1584,-0.147145,0.0503414
2.16169,-0.147369,-0.151511
2.15793,-0.253499,-0.177375
2.17068,-0.0416792,0.0631846
2.14889,-0.252437,0.037767
2.17114,-0.0416881,-0.139172
2.13071,-0.356559,-0.125813
2.15135,-0.146665,0.12558
2.14347,-0.2518,0.0879277
2.16861,-0.147841,-0.101252
2.15024,-0.252596,-0.113464
2.13814,-0.251173,0.175747
2.16239,-0.147417,-0.0504345
2.16711,-0.0491787,-0.0378368
2.1408,-0.365934,-0.0252844
2.15871,-0.261232,-0.27678
2.1754,-0.0493668,0.0126467
2.17382,-0.155821,-0.234757
2.13953,-0.365717,-0.202618
2.16187,-0.154965,0.0504345
2.13686,-0.36526,0.0252379
2.15718,-0.154629,-0.151232
2.14912,-0.260072,-0.176724
2.16652,-0.0491653,0.0630683
2.148,-0.259937,0.037767
2.17099,-0.0492666,-0.139172
2.14126,-0.366013,-0.126511
2.15083,-0.154173,0.12558
2.14258,-0.259281,0.0879277
2.17207,-0.155696,-0.101438
2.14538,-0.25962,-0.113255
2.1412,-0.259114,0.176073
2.16964,-0.0492361,-0.0884162
2.16984,-0.155536,-0.0506206
2.17093,-0.0568477,-0.0379066
2.13951,-0.373405,-0.0252844
2.14991,-0.267785,-0.27577
2.17922,-0.0570648,0.01267
2.15531,-0.268458,-0.0126235
2.17326,-0.163408,-0.234757
2.13824,-0.373183,-0.202618
2.16131,-0.16251,0.0504345
2.13557,-0.372717,0.0252379
2.16061,-0.162457,-0.151511
2.14424,-0.26708,-0.176398
2.16234,-0.0566229,0.0629519
2.14708,-0.267433,0.037767
2.1708,-0.0568444,-0.139172
2.13997,-0.373485,-0.126511
2.15028,-0.16168,0.12558
2.14166,-0.266758,0.0879277
2.16354,-0.162677,-0.101066
2.14843,-0.267601,-0.113464
2.13633,-0.266094,0.175747
2.16546,-0.0567046,-0.0882534
2.16929,-0.16311,-0.0506206
2.16273,-0.0638105,-0.037767
2.13826,-0.380498,-0.0252844
2.14901,-0.274913,-0.27577
2.16702,-0.0639371,0.0126002
2.16477,-0.169991,-0.2339
2.14091,-0.380969,-0.20299
2.16475,-0.169989,0.0505275
2.15608,-0.169309,-0.151232
2.15125,-0.2752,-0.177049
2.16614,-0.0639111,0.0630683
2.14221,-0.274044,0.0376972
2.16661,-0.063925,-0.138916
2.13086,-0.37918,-0.126045
2.14973,-0.16881,0.12558
2.14473,-0.274366,0.0880906
2.16697,-0.170164,-0.101252
2.14357,-0.274217,-0.113255
2.13939,-0.273683,0.176073
2.16926,-0.0640031,-0.0884162
2.16076,-0.169676,-0.0504345
2.16649,-0.0714914,-0.0378368
2.15277,-0.176611,0
2.13692,-0.387959,-0.0252844
2.15197,-0.28293,-0.276275
2.17078,-0.071633,0.0126235
2.14947,-0.282601,-0.0126002
2.16417,-0.177547,-0.2339
2.13173,-0.387017,-0.202246
2.15218,-0.176564,0.0502484
2.16343,-0.177486,-0.15179
2.15423,-0.283228,-0.177375
2.16191,-0.0713401,0.0629519
2.16637,-0.0714875,-0.138916
2.14515,-0.175986,0.125348
2.1398,-0.281329,0.0879277
2.1584,-0.177074,-0.100879
2.1426,-0.281698,-0.113255
2.13447,-0.280629,0.175747
2.16502,-0.071443,-0.0882534
2.16016,-0.177218,-0.0504345
2.17024,-0.0788205,-0.0379066
2.15347,-0.290396,-0.434596
2.15217,-0.183749,0
2.13956,-0.395771,-0.025331
2.15495,-0.290595,-0.27678
2.17453,-0.0789763,0.0126467
2.14852,-0.289727,-0.0126002
2.16357,-0.184722,-0.2339
2.13044,-0.394084,-0.202246
2.15159,-0.1837,0.0502484
2.13169,-0.394316,0.0252379
2.15328,-0.29037,-0.177375
2.16565,-0.078654,0.0630683
2.14426,-0.289153,0.037767
2.16612,-0.0786711,-0.138916
2.13215,-0.394402,-0.126278
2.14853,-0.183439,0.12558
2.13489,-0.28789,0.0877649
2.1578,-0.18423,-0.100879
2.14561,-0.289335,-0.113464
2.13748,-0.288239,0.176073
2.16478,-0.0786221,-0.0882534
2.16753,-0.18506,-0.0506206
2.16993,-0.0867743,-0.0379066
2.1475,-0.191281,0
2.1578,-0.299036,-0.277285
2.17423,-0.0869458,0.0126467
2.1514,-0.298149,-0.0126235
2.16288,-0.192651,-0.2339
2.13289,-0.402629,-0.202618
2.15488,-0.191939,0.0503414
2.13416,-0.402868,0.0252844
2.15419,-0.191877,-0.151232
2.14825,-0.297713,-0.177049
2.16535,-0.086591,0.0630683
2.14715,-0.29756,0.0378368
2.16981,-0.0867693,-0.139172
2.13462,-0.402955,-0.126511
2.14784,-0.191312,0.12558
2.13778,-0.296261,0.0879277
2.16109,-0.192492,-0.101066
2.14058,-0.296649,-0.113255
2.13246,-0.295524,0.175747
2.16447,-0.0865558,-0.0882534
2.16285,-0.192649,-0.0505275
2.16562,-0.0941745,-0.0378368
2.1376,-0.303845,-0.0628356
2.15522,-0.30635,-0.43538
2.14682,-0.198776,0
2.13667,-0.411071,-0.025331
2.16065,-0.200058,-0.337585
2.14496,-0.304891,-0.27577
2.16592,-0.0941872,0.0126002
2.14243,-0.304531,-0.012577
2.16219,-0.2002,-0.2339
2.13539,-0.410824,-0.20299
2.1542,-0.19946,0.0503414
2.12881,-0.40956,0.0252379
2.15351,-0.199396,-0.151232
2.14326,-0.304649,-0.176724
2.16504,-0.094149,0.0630683
2.1461,-0.305053,0.0378368
2.16551,-0.0941694,-0.138916
2.1332,-0.410403,-0.126511
2.15114,-0.199176,0.125813
2.13278,-0.303159,0.0877649
2.15643,-0.199666,-0.100879
2.13953,-0.304119,-0.113255
2.14268,-0.198393,0.264213
2.13141,-0.302966,0.175747
2.16129,-0.101546,-0.037767
2.14611,-0.206269,0
2.13915,-0.419296,-0.0253776
2.16388,-0.207977,-0.3382
2.14388,-0.312376,-0.27577
2.16557,-0.101747,0.0126002
2.14531,-0.312585,-0.0126002
2.15752,-0.207365,-0.233472
2.13785,-0.419042,-0.203362
2.15349,-0.206978,0.0503414
2.12737,-0.416988,0.0252379
2.15677,-0.207293,-0.151511
2.14612,-0.312703,-0.177049
2.1607,-0.101518,0.0629519
2.1371,-0.311389,0.0376972
2.16118,-0.10154,-0.13866
2.12784,-0.417079,-0.126278
2.15043,-0.206684,0.125813
2.13566,-0.311178,0.0879277
2.1597,-0.207575,-0.101066
2.13802,-0.205491,0.263725
2.13429,-0.310979,0.176073
2.16382,-0.101664,-0.0882534
2.15747,-0.207361,-0.0504345
2.16092,-0.109089,-0.037767
2.15303,-0.321389,-0.43538
2.13767,-0.426761,-0.0253776
2.15921,-0.215137,-0.337585
2.14278,-0.319858,-0.27577
2.1692,-0.109507,0.0126235
2.14421,-0.320071,-0.0126002
2.15283,-0.214501,-0.233043
2.13637,-0.426501,-0.203362
2.15276,-0.214494,0.0503414
2.13375,-0.425977,0.025331
2.16,-0.215216,-0.15179
2.14108,-0.319604,-0.176724
2.16033,-0.10906,0.0629519
2.13996,-0.319437,0.037767
2.16081,-0.109084,-0.13866
2.14175,-0.213397,0.125348
2.13456,-0.318631,0.0879277
2.15896,-0.215112,-0.101066
2.1413,-0.319638,-0.113464
2.13334,-0.212559,0.263238
2.13713,-0.319015,0.176398
2.16744,-0.109419,-0.0884162
2.15673,-0.214891,-0.0504345
2.16052,-0.116632,-0.037767
2.13225,-0.433423,-0.025331
2.16237,-0.223078,-0.3382
2.14557,-0.327935,-0.276275
2.16481,-0.116863,0.0126002
2.14703,-0.328158,-0.0126235
2.15602,-0.222423,-0.233472
2.12706,-0.43237,-0.202618
2.15199,-0.222007,0.0503414
2.12833,-0.432626,0.0252844
2.15527,-0.222345,-0.151511
2.13995,-0.327076,-0.176724
2.15994,-0.1166,0.0629519
2.14279,-0.32751,0.0378368
2.1644,-0.116841,-0.138916
2.12487,-0.431924,-0.126278
2.14099,-0.220872,0.125348
2.13738,-0.326684,0.0880906
2.15024,-0.221827,-0.100693
2.13623,-0.326507,-0.113255
2.14048,-0.22082,0.264213
2.13601,-0.326473,0.176398
2.16305,-0.116768,-0.0882534
2.15995,-0.222828,-0.0505275
2.1641,-0.124402,-0.0378368
2.15765,-0.230206,-0.337585
2.14833,-0.336036,-0.27678
2.16838,-0.124649,0.0126235
2.14587,-0.335651,-0.0126235
2.15918,-0.230369,-0.2339
2.13334,-0.441406,-0.203362
2.15121,-0.229518,0.0503414
2.12289,-0.439243,0.0252379
2.14655,-0.229021,-0.150953
2.14273,-0.33516,-0.177049
2.15154,-0.12368,0.0627192
2.14163,-0.334987,0.0378368
2.16398,-0.124395,-0.138916
2.12726,-0.440147,-0.126511
2.15212,-0.229615,0.126045
2.13228,-0.333525,0.0879277
2.14946,-0.229331,-0.100693
2.13507,-0.333962,-0.113255
2.13091,-0.333311,0.176073
2.15864,-0.124089,-0.0880906
2.15518,-0.229942,-0.0504345
2.1637,-0.1312,-0.0378368
2.1458,-0.342549,-0.434596
2.1431,-0.235465,0
2.13324,-0.448378,-0.0253776
2.16085,-0.237414,-0.3382
2.15119,-0.343409,-0.277285
2.16798,-0.13146,0.0126235
2.14086,-0.34176,-0.0126002
2.1624,-0.237586,-0.234328
2.13195,-0.448106,-0.203362
2.1465,-0.235838,0.0502484
2.12933,-0.447555,0.025331
2.15375,-0.236635,-0.151511
2.13773,-0.341261,-0.176724
2.15513,-0.130681,0.0628356
2.14057,-0.341714,0.0378368
2.16358,-0.131193,-0.138916
2.12978,-0.44765,-0.126743
2.14742,-0.235939,0.125813
2.13122,-0.340222,0.0879277
2.14873,-0.236083,-0.100693
2.13401,-0.340668,-0.113255
2.13502,-0.234577,0.263725
2.12198,-0.338747,0.175422
2.15445,-0.236712,-0.0504345
2.15918,-0.13925,-0.037767
2.13471,-0.34919,-0.0629519
2.14834,-0.351419,-0.43538
2.14218,-0.243692,0
2.1315,-0.456565,-0.0253776
2.15992,-0.24571,-0.3382
2.14202,-0.350385,-0.276275
2.16347,-0.139526,0.0126002
2.13953,-0.349978,-0.0126002
2.15752,-0.245437,-0.2339
2.1341,-0.457123,-0.203733
2.12368,-0.45489,0.0252844
2.14886,-0.244452,-0.151232
2.14034,-0.35011,-0.177049
2.1586,-0.139212,0.0629519
2.13529,-0.349285,0.037767
2.15908,-0.139243,-0.13866
2.12414,-0.454988,-0.126511
2.13856,-0.24328,0.125348
2.1299,-0.348403,0.0879277
2.15574,-0.245235,-0.101066
2.13269,-0.348859,-0.113255
2.13805,-0.243222,0.264213
2.12854,-0.34818,0.176073
2.15352,-0.244982,-0.0504345
2.1547,-0.146515,-0.0376972
2.12954,-0.35598,-0.0628356
2.1471,-0.358916,-0.43538
2.14529,-0.251634,0
2.1299,-0.464003,-0.0253776
2.15512,-0.252787,-0.337585
2.14078,-0.35786,-0.276275
2.16696,-0.147349,0.0126235
2.14224,-0.358104,-0.0126235
2.13249,-0.464569,-0.203733
2.14868,-0.252032,0.0503414
2.12599,-0.463152,0.025331
2.14403,-0.251486,-0.150953
2.14304,-0.358237,-0.177375
2.1581,-0.146746,0.0629519
2.138,-0.357396,0.0378368
2.15858,-0.146779,-0.13866
2.11863,-0.46155,-0.126278
2.14166,-0.251209,0.12558
2.12473,-0.355177,0.0877649
2.15487,-0.252758,-0.101066
2.13324,-0.250221,0.263725
2.12731,-0.355608,0.176073
2.15722,-0.146687,-0.0880906
2.14868,-0.252032,-0.0503414
2.15422,-0.153283,-0.0376972
2.12452,-0.469828,-0.025331
2.15432,-0.259557,-0.337585
2.13965,-0.364584,-0.276275
2.1625,-0.153872,0.0126002
2.13716,-0.36416,-0.0126002
2.15585,-0.259741,-0.2339
2.12714,-0.470406,-0.203362
2.15185,-0.25926,0.0504345
2.12062,-0.468965,0.0252844
2.15115,-0.259175,-0.151511
2.1419,-0.364968,-0.177375
2.15763,-0.153525,0.0629519
2.13687,-0.364111,0.0378368
2.15811,-0.153559,-0.13866
2.12497,-0.469928,-0.126743
2.1369,-0.257458,0.125348
2.12361,-0.36185,0.0877649
2.14614,-0.258571,-0.100693
2.13245,-0.256922,0.263725
2.13011,-0.362959,0.176398
2.15277,-0.153179,-0.0879277
2.14788,-0.258781,-0.0503414
2.15362,-0.161553,-0.0376972
2.13051,-0.47974,-0.0254241
2.15723,-0.268315,-0.3382
2.13823,-0.372797,-0.276275
2.16189,-0.162174,0.0126002
2.15483,-0.268017,-0.2339
2.12531,-0.47857,-0.203362
2.14687,-0.267027,0.0503414
2.1188,-0.477104,0.0252844
2.15014,-0.267433,-0.151511
2.13263,-0.37182,-0.176724
2.13546,-0.372313,0.0378368
2.1575,-0.161845,-0.13866
2.1359,-0.265661,0.125348
2.12614,-0.370688,0.0879277
2.15702,-0.268289,-0.101252
2.13145,-0.265108,0.263725
2.12085,-0.369765,0.175747
2.15216,-0.161444,-0.0879277
2.14687,-0.267027,-0.0503414
2.15703,-0.169383,-0.037767
2.12102,-0.485389,-0.025331
2.14844,-0.27484,-0.336971
2.13692,-0.380258,-0.276275
2.16131,-0.169719,0.0126002
2.14231,-0.381218,-0.0126467
2.14994,-0.275032,-0.233472
2.13139,-0.487763,-0.204105
2.14593,-0.274519,0.0503414
2.11712,-0.484497,0.0252844
2.14919,-0.274937,-0.151511
2.13524,-0.37996,-0.177049
2.15246,-0.169024,0.0628356
2.13414,-0.379765,0.0378368
2.15692,-0.169375,-0.13866
2.12147,-0.485492,-0.126743
2.13892,-0.273622,0.12558
2.12483,-0.378107,0.0879277
2.14418,-0.274296,-0.100693
2.12761,-0.378602,-0.113255
2.12657,-0.272043,0.263238
2.11954,-0.377166,0.175747
2.15159,-0.168956,-0.0879277
2.14989,-0.275026,-0.0504345
2.16047,-0.176484,-0.0378368
2.14167,-0.280815,0
2.12338,-0.492955,-0.0253776
2.1554,-0.282616,-0.3382
2.13962,-0.387677,-0.27678
2.16077,-0.176508,0.0126002
2.13717,-0.387233,-0.0126235
2.14907,-0.281785,-0.233472
2.12985,-0.494457,-0.204105
2.14902,-0.281779,0.0504345
2.12338,-0.492955,0.0253776
2.14436,-0.281169,-0.151232
2.13012,-0.385956,-0.176724
2.14793,-0.17546,0.0627192
2.12901,-0.385754,0.037767
2.1524,-0.175825,-0.138404
2.11993,-0.492154,-0.126743
2.13805,-0.28034,0.12558
2.12756,-0.385493,0.0880906
2.15123,-0.282069,-0.101066
2.12964,-0.279238,0.263725
2.12227,-0.384534,0.176073
2.14902,-0.281779,-0.0504345
2.15583,-0.184062,-0.037767
2.14062,-0.288663,0
2.12545,-0.501653,-0.0254241
2.15043,-0.289986,-0.337585
2.13818,-0.395517,-0.27678
2.15612,-0.184086,0.012577
2.13967,-0.395791,-0.0126467
2.14408,-0.289129,-0.233043
2.12415,-0.501345,-0.203733
2.14797,-0.289654,0.0504345
2.12545,-0.501653,0.0254241
2.14727,-0.28956,-0.151511
2.13653,-0.395211,-0.177375
2.15524,-0.184012,0.0629519
2.13151,-0.394282,0.0378368
2.15572,-0.184052,-0.13866
2.13305,-0.287641,0.125348
2.12221,-0.392562,0.0879277
2.14623,-0.289418,-0.100879
2.12891,-0.393802,-0.113464
2.1286,-0.287042,0.263725
2.11693,-0.391585,0.175747
2.14401,-0.289119,-0.0503414
2.15517,-0.191586,-0.037767
2.1396,-0.296133,0
2.12369,-0.509069,-0.0254241
2.14941,-0.29749,-0.337585
2.13679,-0.402978,-0.27678
2.15546,-0.191612,0.012577
2.13827,-0.403257,-0.0126467
2.147,-0.297156,-0.233472
2.11851,-0.507828,-0.203362
2.14299,-0.296601,0.0503414
2.11202,-0.506272,0.0252844
2.1423,-0.296506,-0.151232
2.13905,-0.403405,-0.1777
2.15061,-0.19118,0.0628356
2.13405,-0.402462,0.0379066
2.15904,-0.191929,-0.138916
2.11636,-0.507311,-0.126743
2.13203,-0.295085,0.125348
2.12082,-0.399967,0.0879277
2.14124,-0.29636,-0.100693
2.13152,-0.295015,0.264213
2.11946,-0.399711,0.176073
2.14973,-0.191102,-0.0879277
2.13902,-0.296053,-0.0502484
2.14652,-0.198371,-0.0376274
2.11801,-0.515533,-0.0253776
2.13147,-0.409685,-0.276275
2.15876,-0.199503,0.0126002
2.14988,-0.305208,-0.2339
2.11673,-0.51522,-0.203362
2.14194,-0.30408,0.0503414
2.11024,-0.513641,0.0252844
2.13763,-0.410869,-0.1777
2.14594,-0.198318,0.0627192
2.12871,-0.409153,0.0378368
2.15438,-0.199097,-0.13866
2.11457,-0.514696,-0.126743
2.13099,-0.302525,0.125348
2.11942,-0.407368,0.0879277
2.14811,-0.304956,-0.101066
2.11806,-0.407106,0.176073
2.1459,-0.304642,-0.0504345
2.14984,-0.20587,-0.0376972
2.13754,-0.31069,0
2.12406,-0.524471,-0.0254707
2.1301,-0.416751,-0.276275
2.15411,-0.206279,0.012577
2.13548,-0.417803,-0.0126467
2.14886,-0.312336,-0.2339
2.12274,-0.524146,-0.204105
2.14092,-0.311181,0.0503414
2.11629,-0.522554,0.0253776
2.14023,-0.311081,-0.151232
2.14129,-0.205052,0.0626028
2.12734,-0.41621,0.0378368
2.14974,-0.20586,-0.138404
2.11673,-0.522662,-0.126976
2.13392,-0.310165,0.12558
2.11805,-0.414394,0.0879277
2.14709,-0.312078,-0.101066
2.12946,-0.309517,0.264213
2.11278,-0.413363,0.175747
2.14488,-0.311757,-0.0504345
2.15305,-0.214144,-0.037767
2.12522,-0.42389,-0.0630683
2.13639,-0.318523,0
2.11824,-0.53128,-0.0254241
2.14617,-0.319982,-0.337585
2.13245,-0.425332,-0.27678
2.15334,-0.214173,0.012577
2.13393,-0.425627,-0.0126467
2.13983,-0.319037,-0.233043
2.12081,-0.531923,-0.204105
2.14372,-0.319616,0.0504345
2.11048,-0.529334,0.025331
2.13908,-0.318924,-0.151232
2.1308,-0.425003,-0.177375
2.14849,-0.21369,0.0628356
2.1258,-0.424005,0.0378368
2.11093,-0.529446,-0.126743
2.12882,-0.317395,0.125348
2.12044,-0.422936,0.0880906
2.12321,-0.423488,-0.113464
2.12831,-0.317319,0.264213
2.11516,-0.421883,0.176073
2.15159,-0.213999,-0.0880906
2.14372,-0.319616,-0.0504345
2.14831,-0.221248,-0.0376972
2.11981,-0.43051,-0.0629519
2.13526,-0.325978,0
2.12025,-0.539657,-0.0254707
2.14504,-0.327472,-0.337585
2.15258,-0.221688,0.012577
2.12851,-0.432277,-0.0126235
2.13871,-0.326504,-0.233043
2.1228,-0.540305,-0.204477
2.13864,-0.326493,0.0503414
2.11637,-0.538671,0.0254241
2.14584,-0.327593,-0.15179
2.1254,-0.431644,-0.177049
2.14773,-0.221188,0.0628356
2.1243,-0.431422,0.0378368
2.14821,-0.221238,-0.138404
2.11294,-0.537796,-0.126976
2.14085,-0.326831,-0.100879
2.12172,-0.430897,-0.113464
2.12719,-0.324747,0.264213
2.11758,-0.430058,0.176398
2.14685,-0.221098,-0.0879277
2.13864,-0.326493,-0.0503414
2.15953,-0.229263,-0.0379066
2.12242,-0.547314,-0.0255173
2.14791,-0.334818,-0.3382
2.12958,-0.439465,-0.27678
2.15187,-0.228449,0.012577
2.13498,-0.440579,-0.01267
2.1416,-0.333834,-0.233472
2.11723,-0.545976,-0.204105
2.13365,-0.332595,0.0502484
2.1108,-0.544318,0.0253776
2.14086,-0.333718,-0.151511
2.13184,-0.439931,-0.1777
2.151,-0.228357,0.0629519
2.11902,-0.437286,0.037767
2.1475,-0.227985,-0.138404
2.11511,-0.545428,-0.127208
2.12667,-0.331507,0.125348
2.11367,-0.436182,0.0879277
2.13586,-0.33294,-0.100693
2.12224,-0.330816,0.263725
2.12013,-0.437514,0.176724
2.15012,-0.228264,-0.0880906
2.14155,-0.333826,-0.0504345
2.15466,-0.237116,-0.0378368
2.1203,-0.55546,-0.0255173
2.15051,-0.343686,-0.338815
2.13176,-0.448456,-0.277285
2.15893,-0.237585,0.0126235
2.12936,-0.447949,-0.0126467
2.11127,-0.553093,-0.203733
2.1363,-0.341416,0.0503414
2.10482,-0.551405,0.025331
2.13956,-0.341936,-0.151511
2.12623,-0.447293,-0.177375
2.13818,-0.235302,0.0626028
2.12124,-0.446242,0.0378368
2.15058,-0.236666,-0.13866
2.10913,-0.552534,-0.126976
2.12538,-0.33967,0.125348
2.11589,-0.445117,0.0880906
2.13851,-0.341769,-0.100879
2.12095,-0.338963,0.263725
2.11453,-0.44483,0.176398
2.14526,-0.236081,-0.0879277
2.1363,-0.341416,-0.0503414
2.15382,-0.244635,-0.0378368
2.11062,-0.560803,-0.0254241
2.15411,-0.244669,0.0126002
2.13169,-0.456217,-0.01267
2.13909,-0.349523,-0.233472
2.11702,-0.562504,-0.204477
2.14299,-0.350161,0.0505275
2.10675,-0.559776,0.0253776
2.14623,-0.350689,-0.152069
2.14132,-0.243215,0.0627192
2.11967,-0.453644,0.0378368
2.14577,-0.243721,-0.138404
2.11105,-0.560918,-0.127208
2.13207,-0.348375,0.125813
2.11433,-0.452501,0.0880906
2.14125,-0.349876,-0.101066
2.12368,-0.347004,0.264213
2.10907,-0.451374,0.176073
2.14442,-0.243568,-0.0879277
2.13905,-0.349516,-0.0504345
2.14898,-0.251687,-0.037767
2.1305,-0.355759,0
2.11251,-0.569208,-0.0254707
2.15325,-0.252186,0.0126002
2.13009,-0.463655,-0.01267
2.14571,-0.358298,-0.234328
2.11889,-0.570927,-0.204849
2.14176,-0.357639,0.0505275
2.10865,-0.568167,0.0254241
2.14105,-0.357521,-0.15179
2.12306,-0.462125,-0.177375
2.1484,-0.251619,0.0629519
2.11807,-0.46104,0.0378368
2.14491,-0.25121,-0.138404
2.1269,-0.355157,0.12558
2.11664,-0.460728,0.0882534
2.1479,-0.358664,-0.101438
2.1194,-0.461328,-0.113674
2.12637,-0.355069,0.2647
2.11137,-0.459582,0.176398
2.1515,-0.251982,-0.0882534
2.13781,-0.35698,-0.0504345
2.14818,-0.258437,-0.037767
2.12937,-0.362451,0
2.11457,-0.576894,-0.0255173
2.14303,-0.364774,-0.3382
2.12324,-0.469156,-0.27678
2.15244,-0.25895,0.0126002
2.12471,-0.469481,-0.0126467
2.13673,-0.363703,-0.233472
2.11709,-0.577581,-0.204849
2.13668,-0.363695,0.0504345
2.10685,-0.574789,0.0254241
2.13992,-0.364246,-0.15179
2.1216,-0.468793,-0.177375
2.1476,-0.258367,0.0629519
2.12052,-0.468555,0.0379066
2.10728,-0.574907,-0.127208
2.12971,-0.362508,0.125813
2.11128,-0.466513,0.0880906
2.14282,-0.36474,-0.101252
2.11794,-0.467984,-0.113674
2.12133,-0.361081,0.264213
2.10992,-0.466212,0.176398
2.1507,-0.258739,-0.0882534
2.1288,-0.362352,-0.0502484
2.14325,-0.265816,-0.0376972
2.12409,-0.369567,0
2.10859,-0.583574,-0.0254707
2.14167,-0.372627,-0.3382
2.15545,-0.267329,0.0126235
2.12688,-0.478143,-0.01267
2.14322,-0.372895,-0.234328
2.10728,-0.583212,-0.204105
2.12745,-0.370152,0.0502484
2.10473,-0.582507,0.0254241
2.13464,-0.371403,-0.151511
2.12764,-0.478315,-0.178025
2.14267,-0.265744,0.0628356
2.11879,-0.476324,0.0379066
2.10901,-0.583691,-0.127441
2.12443,-0.369626,0.12558
2.10956,-0.474248,0.0880906
2.13754,-0.371906,-0.101066
2.11608,-0.368173,0.263725
2.1082,-0.473943,0.176398
2.14973,-0.26662,-0.0882534
2.13533,-0.371523,-0.0504345
2.15024,-0.274308,-0.0378368
2.10654,-0.590931,-0.0254707
2.12757,-0.486105,-0.27779
2.15054,-0.274345,0.0126002
2.1213,-0.484673,-0.0126467
2.13407,-0.378983,-0.233472
2.13009,-0.378276,0.0503414
2.10269,-0.58985,0.0254241
2.13333,-0.378852,-0.151511
2.11819,-0.483963,-0.177375
2.14173,-0.273222,0.0628356
2.11711,-0.483717,0.0379066
2.14617,-0.273788,-0.13866
2.10696,-0.59105,-0.127441
2.12313,-0.37704,0.12558
2.11568,-0.48339,0.0884162
2.14016,-0.380064,-0.101252
2.11478,-0.375558,0.263725
2.14086,-0.273111,-0.0879277
2.13402,-0.378975,-0.0504345
2.14927,-0.281812,-0.0378368
2.10446,-0.59828,-0.0254707
2.12199,-0.492632,-0.277285
2.14956,-0.281851,0.0126002
2.13274,-0.38643,-0.233472
2.13269,-0.386422,0.0504345
2.10446,-0.59828,0.0254707
2.132,-0.386296,-0.151511
2.1368,-0.280177,0.0627192
2.11541,-0.491104,0.0379066
2.14124,-0.280759,-0.138404
2.11257,-0.600585,-0.127906
2.12966,-0.385873,0.126045
2.13489,-0.38682,-0.101066
2.11736,-0.383645,0.264213
2.13989,-0.280582,-0.0879277
2.13662,-0.387135,-0.0505275
2.14828,-0.289313,-0.0378368
2.12404,-0.392517,0
2.10236,-0.605623,-0.0254707
2.13766,-0.395033,-0.3382
2.13667,-0.287751,0.0125305
2.11786,-0.499471,-0.0126467
2.13137,-0.393873,-0.233472
2.13133,-0.393864,0.0504345
2.09852,-0.604515,0.0254241
2.13063,-0.393736,-0.151511
2.13977,-0.288167,0.0628356
2.11368,-0.498485,0.0379066
2.14025,-0.288232,-0.138404
2.12044,-0.391853,0.12558
2.11225,-0.498148,0.0884162
2.13745,-0.394996,-0.101252
2.115,-0.498795,-0.113883
2.11992,-0.391755,0.2647
2.107,-0.496908,0.176724
2.1389,-0.28805,-0.0879277
2.13133,-0.393864,-0.0504345
2.14731,-0.296435,-0.0378368
2.12272,-0.399558,0
2.10418,-0.613711,-0.0255173
2.11859,-0.507064,-0.277285
2.13967,-0.295381,0.0125537
2.1162,-0.506491,-0.0126467
2.12608,-0.40019,0.0503414
2.10034,-0.612591,0.0254707
2.13716,-0.402275,-0.152069
2.11697,-0.506676,-0.1777
2.14276,-0.295808,0.0629519
2.11202,-0.505492,0.0379066
2.14324,-0.295874,-0.13866
2.11913,-0.398882,0.12558
2.1067,-0.504219,0.0882534
2.12828,-0.400604,-0.100879
2.11722,-0.506735,-0.114092
2.11861,-0.398783,0.2647
2.10921,-0.50482,0.177049
2.14189,-0.295688,-0.0880906
2.12608,-0.40019,-0.0503414
2.1462,-0.304304,-0.0378368
2.12517,-0.40809,0
2.10575,-0.622553,-0.0255638
2.13485,-0.409947,-0.3382
2.14253,-0.303783,0.012577
2.11821,-0.515189,-0.01267
2.13638,-0.410243,-0.234328
2.12852,-0.408734,0.0504345
2.12783,-0.408601,-0.151511
2.13771,-0.303099,0.0628356
2.11404,-0.514175,0.0379764
2.15004,-0.304848,-0.139172
2.10872,-0.512882,0.0884162
2.13464,-0.409908,-0.101252
2.11713,-0.406545,0.2647
2.10735,-0.512548,0.177049
2.13684,-0.302976,-0.0879277
2.12852,-0.408734,-0.0504345
2.14909,-0.312369,-0.0379066
2.09973,-0.628752,-0.0255173
2.14938,-0.312411,0.0126235
2.1164,-0.52258,-0.01267
2.12709,-0.416161,0.0504345
2.0959,-0.627605,0.0254707
2.13031,-0.416792,-0.15179
2.11329,-0.521812,-0.1777
2.13663,-0.310559,0.0628356
2.11611,-0.52251,0.0380462
2.14501,-0.311777,-0.138916
2.12014,-0.414803,0.125813
2.10692,-0.52024,0.0884162
2.1332,-0.417357,-0.101252
2.1118,-0.413171,0.264213
2.10168,-0.518945,0.176724
2.13577,-0.310433,-0.0879277
2.12316,-0.415393,-0.0503414
2.14013,-0.318317,-0.037767
2.10147,-0.636872,-0.0255638
2.14042,-0.31836,0.012577
2.11854,-0.530567,-0.0126932
2.12964,-0.423998,-0.2339
2.12569,-0.423212,0.0504345
2.09764,-0.635712,0.0255173
2.12892,-0.423854,-0.15179
2.11541,-0.529786,-0.178025
2.13164,-0.317054,0.0627192
2.11049,-0.528552,0.0379764
2.14002,-0.318301,-0.13866
2.10187,-0.636996,-0.127906
2.12659,-0.423391,0.126278
2.10518,-0.527224,0.0884162
2.1318,-0.424429,-0.101252
2.11179,-0.528879,-0.114092
2.11821,-0.421722,0.265188
2.10381,-0.52688,0.177049
2.12962,-0.423993,-0.0505275
2.14685,-0.327364,-0.0379066
2.09912,-0.64457,-0.0255638
2.13528,-0.3256,0.0125537
2.11658,-0.538329,-0.0126932
2.12807,-0.431801,-0.2339
2.12805,-0.431796,0.0505275
2.09147,-0.642222,0.0254707
2.13126,-0.432448,-0.152069
2.13046,-0.324865,0.0627192
2.13884,-0.326142,-0.13866
2.1172,-0.429594,0.125813
2.10711,-0.535921,0.0885791
2.13415,-0.433034,-0.101438
2.11665,-0.429483,0.265188
2.13355,-0.325335,-0.0879277
2.13197,-0.432591,-0.0506206
2.13779,-0.333623,-0.037767
2.11383,-0.545492,-0.0635337
2.11927,-0.437722,0
2.09303,-0.650706,-0.0255173
2.12891,-0.439714,-0.3382
2.14204,-0.334285,0.0126002
2.11468,-0.545714,-0.0126932
2.12655,-0.439227,-0.2339
2.13044,-0.44003,0.0506206
2.09685,-0.651893,0.0255638
2.13364,-0.440692,-0.152348
2.11157,-0.54491,-0.178025
2.13326,-0.332916,0.0628356
2.10665,-0.543641,0.0379764
2.14163,-0.334222,-0.138916
2.11568,-0.436982,0.125813
2.10136,-0.542274,0.0884162
2.12871,-0.439673,-0.101252
2.11125,-0.436066,0.2647
2.1324,-0.332781,-0.0879277
2.12261,-0.438413,-0.0504345
2.13668,-0.34071,-0.037767
2.0985,-0.660043,-0.0256104
2.14487,-0.342016,0.0126235
2.10899,-0.551711,-0.01267
2.12898,-0.447094,-0.234328
2.12115,-0.445449,0.0504345
2.11746,-0.553927,-0.178676
2.1361,-0.340618,0.0629519
2.13657,-0.340693,-0.13866
2.09509,-0.658971,-0.127906
2.11422,-0.443995,0.125813
2.09955,-0.54924,0.0884162
2.12724,-0.446729,-0.101252
2.11368,-0.44388,0.265188
2.13128,-0.33985,-0.0879277
2.12897,-0.447093,-0.0506206
2.13942,-0.34881,-0.0378368
2.09618,-0.667364,-0.0256104
2.14366,-0.349501,0.0126235
2.11479,-0.561121,-0.0127165
2.1274,-0.454522,-0.234328
2.12349,-0.453686,0.0505275
2.08856,-0.664937,0.0255173
2.13095,-0.347429,0.0628356
2.13537,-0.348149,-0.13866
2.11266,-0.451372,0.125813
2.12958,-0.454987,-0.101438
2.13403,-0.347931,-0.0880906
2.1274,-0.454521,-0.0506206
2.14214,-0.356933,-0.0379066
2.09003,-0.67345,-0.0255638
2.13848,-0.356324,0.0126002
2.11668,-0.569539,-0.0127397
2.13358,-0.463635,-0.235185
2.12189,-0.461096,0.0505275
2.09003,-0.67345,0.0255638
2.10094,-0.565305,0.0379764
2.13414,-0.355601,-0.13866
2.11497,-0.459592,0.126045
2.12407,-0.461569,-0.101252
2.1328,-0.355378,-0.0880906
2.12189,-0.461096,-0.0505275
2.13693,-0.363738,-0.0378368
2.09147,-0.681982,-0.0256104
2.12934,-0.362444,0.0125537
2.11082,-0.575871,-0.0127165
2.12806,-0.470221,-0.234757
2.12417,-0.469362,0.0506206
2.12347,-0.469207,-0.152069
2.1077,-0.575021,-0.178351
2.12847,-0.362297,0.0628356
2.09896,-0.572635,0.0379764
2.13288,-0.363048,-0.13866
2.10946,-0.46611,0.125813
2.09754,-0.572248,0.0885791
2.12245,-0.468981,-0.101252
2.12027,-0.4685,-0.0505275
2.13171,-0.37051,-0.037767
2.08908,-0.689278,-0.0256104
2.13594,-0.371245,0.0126002
2.10494,-0.582169,-0.0126932
2.12253,-0.476775,-0.234328
2.12252,-0.476774,0.0506206
2.12571,-0.477491,-0.152348
2.12326,-0.36904,0.0627192
2.13554,-0.371175,-0.138916
2.1247,-0.477262,-0.101438
2.13027,-0.370259,-0.0880906
2.13434,-0.378647,-0.0378368
2.11362,-0.482531,0
2.10675,-0.590593,-0.0127165
2.12473,-0.485067,-0.234757
2.11695,-0.48329,0.0505275
2.10747,-0.590797,-0.178676
2.12983,-0.377846,0.0629519
2.09876,-0.588354,0.0380462
2.1303,-0.37793,-0.13866
2.11394,-0.482603,0.126278
2.12302,-0.484676,-0.101438
2.12896,-0.377693,-0.0880906
2.12085,-0.48418,-0.0506206
2.13694,-0.386808,-0.0379066
2.088,-0.705126,-0.0256569
2.13723,-0.38686,0.0126235
2.10467,-0.597944,-0.0127165
2.12302,-0.49248,-0.234757
2.11914,-0.491581,0.0506206
2.1285,-0.385278,0.0629519
2.09669,-0.595677,0.0380462
2.10835,-0.489077,0.126045
2.12131,-0.492084,-0.101438
2.11914,-0.491581,-0.0506206
2.13565,-0.393892,-0.0379066
2.11029,-0.496906,0
2.13594,-0.393945,0.0126235
2.10652,-0.606025,-0.0127397
2.12912,-0.501341,-0.235614
2.1175,-0.498605,0.0506206
2.12457,-0.500269,-0.152627
2.1034,-0.605129,-0.178676
2.12327,-0.391609,0.0628356
2.12768,-0.392421,-0.13866
2.10672,-0.496066,0.126045
2.12356,-0.500031,-0.101624
2.11361,-0.497689,-0.0505275
2.13033,-0.400605,-0.0378368
2.12669,-0.39992,0.012577
2.10439,-0.613375,-0.0127397
2.11962,-0.50692,-0.234757
2.11964,-0.506924,0.0507136
2.11505,-0.505826,-0.152069
2.12629,-0.399846,-0.13866
2.10497,-0.503417,0.126045
2.09501,-0.61064,0.0889047
2.11403,-0.505582,-0.101252
2.11186,-0.505063,-0.0505275
2.12892,-0.408039,-0.0378368
2.12921,-0.408094,0.0126002
2.10224,-0.620717,-0.0127397
2.11008,-0.512432,0.0505275
2.12102,-0.515089,-0.152627
2.12442,-0.407176,0.0629519
2.1288,-0.408017,-0.138916
2.0967,-0.619081,0.0890675
2.11613,-0.513901,-0.101438
2.09939,-0.619877,-0.11472
2.12748,-0.407763,-0.0882534
2.11008,-0.512432,-0.0505275
2.12356,-0.414701,-0.037767
2.1317,-0.416291,0.0126235
2.10006,-0.628051,-0.0127397
2.11989,-0.522657,-0.235185
2.11216,-0.520752,0.0506206
2.11921,-0.522489,-0.152627
2.12298,-0.414589,0.0629519
2.11821,-0.522241,-0.101624
2.12212,-0.414421,-0.0880906
2.11216,-0.520752,-0.0506206
2.12994,-0.423672,-0.0379066
2.10168,-0.636538,-0.012763
2.11805,-0.530054,-0.235185
2.11033,-0.528121,0.0506206
2.1135,-0.528915,-0.152348
2.1176,-0.421217,0.0628356
2.09374,-0.634133,0.0381859
2.12982,-0.423647,-0.139172
2.10733,-0.527371,0.126511
2.11249,-0.528662,-0.101438
2.11033,-0.528121,-0.0506206
2.12845,-0.431104,-0.0379066
2.10905,-0.53563,0
2.13266,-0.431956,0.0126467
2.09945,-0.64387,-0.012763
2.1239,-0.539402,-0.236042
2.10848,-0.535485,0.0506206
2.11551,-0.537271,-0.152627
2.11612,-0.428606,0.0628356
2.12442,-0.430287,-0.138916
2.10935,-0.535706,0.126743
2.11451,-0.537016,-0.101624
2.11623,-0.537453,-0.0508067
2.12693,-0.438531,-0.0379066
2.1233,-0.437783,0.0126002
2.09719,-0.651194,-0.012763
2.11815,-0.54582,-0.235614
2.11047,-0.543839,0.0507136
2.11362,-0.544653,-0.152627
2.11852,-0.436797,0.0629519
2.1229,-0.4377,-0.138916
2.1036,-0.54207,0.126511
2.12036,-0.546388,-0.101996
2.12158,-0.437427,-0.0882534
2.11434,-0.544837,-0.0508067
2.12938,-0.446402,-0.0379764
2.12575,-0.445642,0.0126235
2.11248,-0.551835,-0.235185
2.10865,-0.550835,0.0507136
2.11181,-0.551659,-0.152627
2.11315,-0.443,0.0628356
2.11854,-0.553417,-0.101996
2.12012,-0.44446,-0.0882534
2.10865,-0.550835,-0.0507136
2.12006,-0.451794,-0.0378368
2.12818,-0.453523,0.0126467
2.09282,-0.665089,-0.012763
2.10681,-0.557824,0.0507136
2.10996,-0.558659,-0.152627
2.11949,-0.451672,0.0630683
2.12385,-0.452602,-0.139172
2.10681,-0.557824,-0.0507136
2.12629,-0.460886,-0.0379764
2.10156,-0.564291,0
2.12658,-0.460948,0.0126467
2.0943,-0.673615,-0.0127862
2.10485,-0.565175,0.0507136
2.108,-0.56602,-0.152627
2.1179,-0.459067,0.0630683
2.098,-0.563336,0.126511
2.107,-0.565752,-0.101624
2.11704,-0.458881,-0.0882534
2.10871,-0.566212,-0.0508067
2.12467,-0.468305,-0.0379764
2.12105,-0.467508,0.0126235
2.10673,-0.573569,0.0508067
2.11629,-0.466457,0.0630683
2.09988,-0.571705,0.126743
2.10887,-0.574153,-0.10181
2.11058,-0.57462,-0.0508998
2.11912,-0.474845,-0.0379066
2.10142,-0.580013,0
2.12331,-0.475783,0.0126467
2.10857,-0.581984,0.0508998
2.11169,-0.582846,-0.153185
2.11464,-0.473842,0.0630683
2.09787,-0.579032,0.126743
2.10685,-0.581511,-0.10181
2.10471,-0.58092,-0.0508067
2.12135,-0.483127,-0.0379764
2.12164,-0.483192,0.0126467
2.10652,-0.58934,0.0508998
2.1058,-0.589139,-0.152906
2.11298,-0.48122,0.0630683
2.10866,-0.589938,-0.101996
2.11956,-0.490899,-0.0379764
2.11985,-0.490965,0.0126467
2.1005,-0.595966,0.0508067
2.11509,-0.489864,0.0631846
2.11555,-0.489968,-0.139172
2.10819,-0.598149,-0.0509928
2.12173,-0.499211,-0.0380462
2.12591,-0.500194,0.0126932
2.10609,-0.605504,0.0509928
2.10948,-0.496328,0.0630683
2.12159,-0.499178,-0.139683
2.10822,-0.606116,-0.102182
2.11251,-0.497042,-0.0884162
2.10609,-0.605504,-0.0509928
2.11998,-0.506614,-0.0380462
2.12026,-0.506682,0.01267
2.10013,-0.611734,0.0508998
2.11596,-0.505653,-0.139427
2.10226,-0.612354,-0.101996
2.10013,-0.611734,-0.0508998
2.1144,-0.512698,-0.0379764
2.11468,-0.512768,0.0126467
2.10192,-0.619826,0.0509928
2.11554,-0.623843,-0.102741
2.09809,-0.618695,-0.0508998
2.1125,-0.520445,-0.0379764
2.09637,-0.62655,0
2.11667,-0.521472,0.01267
2.09581,-0.62638,0.0508998
2.10274,-0.628452,-0.153464
2.11193,-0.520304,0.063301
2.11238,-0.520413,-0.139427
2.10559,-0.629304,-0.102368
2.11107,-0.520093,-0.0885791
2.11086,-0.527079,-0.0379764
2.11502,-0.528119,0.01267
2.09383,-0.632961,0.0508998
2.10457,-0.636209,-0.153743
2.11288,-0.535426,-0.0380462
2.11705,-0.536481,0.0126932
2.09925,-0.642607,0.0510859
2.11275,-0.535392,-0.139683
2.09755,-0.642085,-0.102182
2.09543,-0.641437,-0.0509928
2.11468,-0.544532,-0.0381161
2.11497,-0.544606,0.0126932
2.09295,-0.649478,0.0509928
2.10637,-0.542391,0.063301
2.11068,-0.5435,-0.139683
2.1027,-0.652503,-0.102555
2.10909,-0.550164,-0.0380462
2.11325,-0.551248,0.0126932
2.0909,-0.65605,0.0509928
2.10078,-0.547996,0.0631846
2.10445,-0.660302,-0.102741
2.11093,-0.558914,-0.0381161
2.11121,-0.55899,0.0126932
2.10263,-0.556716,0.063301
2.0944,-0.66559,-0.102368
2.10896,-0.566279,-0.0381161
2.10925,-0.566356,0.0126932
2.10067,-0.564052,0.063301
2.10312,-0.572587,-0.0380462
2.11112,-0.574766,0.0127165
2.11068,-0.574647,-0.140195
2.0914,-0.680749,-0.0511789
2.10892,-0.581684,-0.0381859
2.1092,-0.581763,0.0127165
2.10064,-0.579401,0.0634174
2.10492,-0.580582,-0.139939
2.10302,-0.587966,-0.0381161
2.10331,-0.588045,0.0126932
2.0986,-0.58673,0.0634174
2.1047,-0.596761,-0.0381859
2.10499,-0.596841,0.0127165
2.09644,-0.594418,0.0634174
2.1026,-0.604104,-0.0381859
2.10289,-0.604185,0.0127165
2.10118,-0.603695,-0.0890675
2.10432,-0.612557,-0.0382557
2.10845,-0.613758,0.012763
2.10612,-0.620663,-0.0383255
2.09873,-0.618485,0.0127165
2.09656,-0.625807,0.0127165
2.09187,-0.624409,0.0635337
2.09808,-0.634646,0.0127397
2.0934,-0.63323,0.0636501
2.09939,-0.64305,-0.0383255
2.09967,-0.643137,0.012763
2.09764,-0.64973,0.012763
2.09508,-0.656959,-0.0383255
2.09536,-0.657048,0.012763
