2.04375,0.129657,-0.0238409
2.04061,0.115159,-0.0237944
2.04168,0.108072,-0.119069
2.0457,0.0939688,-0.0238409
2.04637,0.0939994,-0.119301
2.05002,0.0869964,-0.0238875
2.05068,0.0870245,-0.119534
2.05031,0.0798394,-0.0238875
2.05031,0.0798394,0.0238875
2.05402,0.065627,-0.191837
2.05881,0.0657801,0.0239806
2.05547,0.0656733,-0.119766
2.05822,0.0585705,-0.192208
2.05922,0.0514053,-0.0239806
2.05922,0.0514053,0.0239806
2.05939,0.0442164,-0.0239806
2.06738,0.0443881,0.0240738
2.06003,0.0442303,-0.119999
2.06753,0.0371718,0.0240738
2.05256,0.137411,-0.167936
2.06679,0.0303034,-0.192952
2.07164,0.0303745,0.0241203
2.06827,0.0303251,-0.120464
2.07173,0.0231424,-0.0241203
2.04827,0.123125,-0.011926
2.06773,0.0230977,0.0240738
2.06837,0.0231048,-0.120464
2.0758,0.0159417,-0.0241669
2.06695,0.0158738,-0.192952
2.0758,0.0159417,0.0241669
2.07243,0.0159158,-0.120697
2.07184,0.0086784,-0.0241203
2.07098,0.00867479,-0.193324
2.07584,0.00869516,0.0241669
2.07247,0.00868104,-0.120697
2.07186,0.00144671,-0.0241203
2.04945,0.101669,-0.011926
2.07498,0.00144889,-0.193695
2.07986,0.0014523,0.0242135
2.08047,0.00145273,-0.121162
2.07585,-0.00579619,-0.0241669
2.05778,0.0948835,-0.0119725
2.08785,-0.00582969,0.0243066
2.08446,-0.00582022,-0.121394
2.05012,0.087001,-0.011926
2.07892,-0.0134251,-0.194067
2.08382,-0.0134567,0.02426
2.07644,-0.0134091,-0.120929
2.08776,-0.0204055,-0.0243066
2.05839,0.0805152,-0.0119725
2.08376,-0.0203664,0.02426
2.08437,-0.0203723,-0.121394
2.05161,0.0802501,-0.107603
2.08767,-0.0276935,-0.0243066
2.05866,0.073329,-0.0119725
2.08368,-0.0276405,0.02426
2.05187,0.0730871,-0.167611
2.08428,-0.0276486,-0.121394
2.0629,0.0662714,-0.0119958
2.08663,-0.0349647,-0.194811
2.08357,-0.0349133,0.02426
2.06662,0.0663908,0.0360916
2.10015,-0.0351911,-0.122325
2.05612,0.0660534,-0.107812
2.08743,-0.0422676,-0.0243066
2.06312,0.0590696,-0.0119958
2.0865,-0.0422487,-0.194811
2.09143,-0.0423486,0.0243531
2.05884,0.0589471,0.035952
2.09602,-0.0424415,-0.122092
2.05633,0.0588753,-0.107812
2.08727,-0.0495534,-0.0243066
2.06331,0.051868,-0.0119958
2.08634,-0.0495313,-0.194811
2.09927,-0.0498382,0.0244463
2.06303,0.051861,0.0360218
2.09187,-0.0496625,-0.121859
2.06052,0.0517978,-0.108021
2.09508,-0.0570564,-0.0243997
2.05948,0.0445793,-0.0119725
2.09013,-0.0569216,-0.195183
2.09108,-0.0569475,0.0243531
2.0672,0.0447463,0.0360916
2.09966,-0.0571811,-0.122325
2.06069,0.0446054,-0.108021
2.09888,-0.0641263,-0.0244463
2.06301,0.037811,-0.262638
2.06762,0.0378955,-0.012019
2.08993,-0.0638531,-0.195183
2.09488,-0.0640042,0.0243997
2.0608,0.0377705,-0.168262
2.07134,0.0379637,0.0361614
2.09946,-0.0641441,-0.122325
2.03485,0.136938,-0.0474568
2.07174,0.0307368,-0.0120423
2.09766,-0.0714195,-0.195926
2.09464,-0.0713168,0.0243997
2.07546,0.0307919,0.0362312
2.09922,-0.0714728,-0.122325
2.06494,0.0306359,-0.108231
2.0393,0.130088,-0.0475499
2.09838,-0.0787767,-0.0244463
2.07983,0.0235971,-0.0120888
2.10536,-0.0790386,-0.19667
2.10238,-0.0789267,0.0244928
2.07155,0.0235031,0.0361614
2.10694,-0.0790982,-0.12279
2.07415,0.0235325,0.0845083
2.07302,0.0235198,-0.108649
2.03974,0.122971,-0.0475499
2.11008,-0.0865935,-0.024586
2.0759,0.016305,-0.0120655
2.10109,-0.0862245,-0.196298
2.09809,-0.0861015,0.0244463
2.07962,0.0163342,0.036301
2.09867,-0.0861254,-0.122325
2.08221,0.0163545,0.084834
2.07709,0.0163143,-0.108859
2.10577,-0.0937811,-0.0245394
2.07195,0.00904061,-0.0120423
2.10078,-0.0935587,-0.196298
2.10177,-0.0936032,0.0244928
2.0691,0.00902819,-0.168913
2.08366,0.00909174,0.0363708
2.10235,-0.0936288,-0.122557
2.07826,0.00906815,0.0846712
2.07314,0.00904581,-0.108649
2.11742,-0.101706,-0.0246791
2.07996,0.00181554,-0.0120888
2.10441,-0.101082,-0.19667
2.10543,-0.101131,0.0245394
2.0731,0.00180955,-0.169238
2.08768,0.00182228,0.0364406
2.11398,-0.101541,-0.123255
2.08227,0.00181756,0.084834
2.07715,0.00181308,-0.108859
2.10506,-0.10848,-0.0245394
2.07596,-0.00543498,-0.0120655
2.10803,-0.108633,-0.197041
2.10906,-0.108686,0.024586
2.09167,-0.00547613,0.0365104
2.11361,-0.10892,-0.123255
2.08227,-0.00545149,0.084834
2.08513,-0.005459,-0.109277
2.04925,0.0948479,-0.047736
2.10867,-0.116047,-0.024586
2.08393,-0.0127298,-0.012112
2.11266,-0.116266,0.0246325
2.08764,-0.0127525,0.0364406
2.12518,-0.116955,-0.123952
2.08623,-0.0127439,0.0849968
2.0851,-0.012737,-0.109277
2.04957,0.0876945,-0.047736
2.11224,-0.123641,-0.0246325
2.08387,-0.0200046,-0.012112
2.11914,-0.124045,-0.198157
2.11224,-0.123641,0.0246325
2.09159,-0.0200786,0.0365104
2.11678,-0.123907,-0.123487
2.09017,-0.0200651,0.0851596
2.08504,-0.0200158,-0.109277
2.04986,0.0805391,-0.047736
2.12377,-0.131756,-0.0247722
2.11472,-0.131194,-0.197785
2.07011,0.0740989,0.0482012
2.11579,-0.13126,0.0246791
2.08489,-0.0272924,-0.170214
2.0955,-0.0274314,0.0365802
2.12032,-0.131542,-0.12372
2.09009,-0.0273605,0.0851596
2.09295,-0.027398,-0.109696
2.05413,0.0735267,-0.047829
2.11931,-0.138906,-0.0247257
2.09168,-0.0346839,-0.0121585
2.11931,-0.138906,0.0247257
2.08478,-0.0345695,-0.170214
2.09939,-0.0348118,0.0366501
2.12384,-0.139203,-0.123952
2.08998,-0.0346557,0.0851596
2.08485,-0.0345707,-0.109277
2.05437,0.0663565,-0.047829
2.11482,-0.146028,-0.0246791
2.09554,-0.0420658,-0.0121818
2.11376,-0.145955,-0.197785
2.10326,-0.0422206,0.0367199
2.13131,-0.147166,-0.124418
2.09384,-0.0420316,0.0853225
2.05692,0.0592514,-0.0958541
2.0967,-0.042089,-0.109906
2.05859,0.0592996,-0.0479221
2.05934,0.0521279,0
2.11829,-0.153698,-0.0247257
2.10338,-0.0495684,-0.0122283
2.12118,-0.153908,-0.198529
2.11829,-0.153698,0.0247257
2.0991,-0.0494675,0.0366501
2.1268,-0.154316,-0.124185
2.09368,-0.0493398,0.0853225
2.05711,0.0520715,-0.0958541
2.10053,-0.0495013,-0.110115
2.09246,-0.0493109,0.170865
2.05878,0.0521138,-0.0479221
2.12173,-0.161396,-0.0247722
2.0912,-0.0565862,-0.0121585
2.1246,-0.161614,-0.1989
2.12173,-0.161396,0.0247722
2.08829,-0.0565074,-0.17054
2.10291,-0.0569031,0.0367199
2.12624,-0.161739,-0.124185
2.10149,-0.0568646,0.0856481
2.10434,-0.0569418,-0.110324
2.09227,-0.0566152,0.170865
2.06295,0.0450137,-0.0480151
2.06365,0.0378227,0
2.12912,-0.169435,-0.0248654
2.09499,-0.0640076,-0.0121818
2.07909,0.0381055,0.0483873
2.12514,-0.169118,0.0248188
2.09605,-0.06404,-0.171191
2.1067,-0.0643654,0.0367897
2.12965,-0.169477,-0.124418
2.10128,-0.0641998,0.0856481
2.06541,0.0378549,-0.0962264
2.10413,-0.064287,-0.110324
2.10003,-0.0641617,0.171516
2.0631,0.0378124,-0.0480151
2.13257,-0.176453,-0.0249119
2.10277,-0.0708583,-0.0122283
2.0752,0.031513,0.0482943
2.13257,-0.176453,0.0249119
2.09982,-0.0707589,-0.171516
2.11048,-0.0711181,0.0368595
2.13308,-0.176496,-0.12465
2.10106,-0.0708008,0.0856481
2.06552,0.0313661,-0.0962264
2.10392,-0.0708969,-0.110324
2.09982,-0.0707589,0.171516
2.0672,0.0313916,-0.0481082
2.10648,-0.0790819,-0.0122515
2.0833,0.0236353,0.0484804
2.13586,-0.184985,0.0249585
2.09953,-0.078821,-0.171516
2.11419,-0.0793713,0.0369293
2.13637,-0.18503,-0.124883
2.10477,-0.0790177,0.085811
2.06962,0.0234801,-0.0964125
2.10363,-0.0789749,-0.110324
2.09555,-0.0786715,0.171191
2.06731,0.0234539,-0.0481082
2.06794,0.0162419,0
2.13122,-0.192081,-0.0249119
2.11418,-0.0867625,-0.012298
2.08337,0.0163631,0.0484804
2.1352,-0.19244,0.0249585
2.09924,-0.0861493,-0.171516
2.1139,-0.0867507,0.0369293
2.14366,-0.193203,-0.125348
2.10847,-0.0865281,0.0859738
2.06969,0.0162557,-0.0964125
2.11132,-0.086645,-0.110743
2.10323,-0.0863128,0.171842
2.07138,0.0162689,-0.0482012
2.07198,0.00976403,0
2.13459,-0.199147,-0.0249585
2.04902,0.109895,0.011926
2.10591,-0.0930508,-0.0122515
2.13857,-0.199518,0.025005
2.10295,-0.0929198,-0.171842
2.13907,-0.199565,-0.125115
2.11618,-0.0935045,0.0862994
2.06973,0.00975346,-0.0964125
2.11503,-0.0934538,-0.110952
2.07142,0.00976139,-0.0482012
2.076,0.00253631,0
2.13786,-0.206982,-0.025005
2.11756,-0.100973,-0.0123213
2.09143,0.00255517,0.0486665
2.14582,-0.207753,0.0250982
2.07094,0.00253014,-0.144814
2.10659,-0.10045,-0.172167
2.11727,-0.100959,0.0369991
2.14234,-0.207416,-0.125348
2.10785,-0.10051,0.0859738
2.11868,-0.101026,-0.111162
2.11057,-0.10064,0.172493
2.10833,-0.108279,-0.0614392
2.14504,-0.215616,-0.0250982
2.12117,-0.108938,-0.0123445
2.08343,-0.00509079,0.0484804
2.14106,-0.215216,0.0250516
2.11019,-0.108375,-0.172493
2.14553,-0.215666,-0.12558
2.08846,-0.00510307,0.121627
2.11545,-0.108645,0.0862994
2.07774,-0.00507689,-0.0967847
2.11032,-0.108381,-0.110743
2.11019,-0.108375,0.172493
2.07943,-0.00508102,-0.0483873
2.07597,-0.0119568,0
2.1483,-0.223142,-0.0251447
2.05805,0.0887768,0.0119725
2.1208,-0.115972,-0.0123445
2.0874,-0.0120227,0.0485734
2.14432,-0.222728,0.0250982
2.14878,-0.223192,-0.125813
2.08843,-0.0120286,0.121627
2.11508,-0.11566,0.0862994
2.08171,-0.0119899,-0.0969709
2.12191,-0.116033,-0.111371
2.10982,-0.115372,0.172493
2.0794,-0.0119766,-0.0483873
2.11153,-0.12286,-0.0615556
2.08391,-0.0192772,0
2.1475,-0.230639,-0.0251447
2.12437,-0.123607,-0.0123678
2.13835,-0.229657,-0.200759
2.15148,-0.231066,0.0251913
2.11736,-0.123199,-0.173144
2.12808,-0.123822,0.0372085
2.15593,-0.231544,-0.126278
2.12265,-0.123506,0.0866251
2.08565,-0.0192933,-0.097157
2.1215,-0.123439,-0.111371
2.07935,-0.019235,-0.0483873
2.11506,-0.130845,-0.0616719
2.15062,-0.23895,-0.0251913
2.05464,0.0739038,0.0119493
2.1239,-0.131392,-0.0123678
2.14146,-0.237932,-0.201131
2.15062,-0.23895,0.0251913
2.12088,-0.131205,-0.173469
2.12761,-0.131621,0.0372085
2.14713,-0.238562,-0.125813
2.08829,-0.0269726,0.121627
2.12617,-0.131532,0.0867879
2.08956,-0.0269891,-0.0973431
2.129,-0.131707,-0.11179
2.11292,-0.130712,0.172818
2.09172,-0.0339549,0
2.15776,-0.246991,-0.0252844
2.12745,-0.138695,-0.012391
2.15776,-0.246991,0.0252844
2.12043,-0.138237,-0.173469
2.13115,-0.138936,0.0372783
2.15426,-0.246589,-0.126278
2.09617,-0.0340271,0.122092
2.11376,-0.137802,0.0862994
2.08546,-0.0338533,-0.097157
2.12855,-0.138767,-0.11179
2.12043,-0.138237,0.173469
2.08716,-0.0338808,-0.0485734
2.15689,-0.254521,-0.0252844
2.05909,0.0600333,0.0119725
2.12695,-0.14612,-0.012391
2.15292,-0.254052,0.0252379
2.12391,-0.145911,-0.173795
2.13464,-0.146648,0.0373482
2.14942,-0.25364,-0.126045
2.10402,-0.0415014,0.122557
2.12522,-0.146001,0.0867879
2.09332,-0.0412903,-0.0975292
2.12407,-0.145922,-0.11158
2.11993,-0.145638,0.173469
2.09103,-0.041245,-0.0486665
2.11756,-0.153275,-0.0617883
2.09143,-0.048922,0
2.15594,-0.262425,-0.0252844
2.11733,-0.153258,-0.270214
2.0633,0.0525879,0.0119958
2.13039,-0.154203,-0.0124142
2.09886,-0.0490958,0.0488526
2.15594,-0.262425,0.0252844
2.12336,-0.153695,-0.173795
2.1564,-0.262481,-0.126511
2.10386,-0.0492128,0.122557
2.12866,-0.154078,0.0869508
2.12751,-0.153995,-0.11179
2.11939,-0.153407,0.173469
2.08686,-0.0488153,-0.0485734
2.121,-0.160968,-0.0619047
2.09524,-0.0563296,0
2.16692,-0.27144,-0.0254241
2.06347,0.0453853,0.0119958
2.13383,-0.161942,-0.0124375
2.14978,-0.269293,-0.202246
2.15501,-0.269949,0.0252844
2.12679,-0.161407,-0.17412
2.06662,0.0454548,0.0601592
2.15944,-0.270503,-0.126743
2.13608,-0.162112,0.0872764
2.10096,-0.0564834,-0.0979015
2.13492,-0.162025,-0.112208
2.12679,-0.161407,0.17412
2.09068,-0.0562069,-0.0486665
2.12444,-0.168316,-0.062021
2.09904,-0.0633982,0
2.16204,-0.278114,-0.0253776
2.06361,0.0385424,0.0119958
2.13727,-0.169333,-0.0124607
2.15283,-0.276929,-0.202618
2.16204,-0.278114,0.0253776
2.13022,-0.168774,-0.174445
2.06277,0.0385267,0.0600429
2.14096,-0.169626,0.0374878
2.16249,-0.278172,-0.126976
2.10347,-0.063532,0.122557
2.13553,-0.169195,0.0872764
2.10076,-0.0634501,-0.0979015
2.13437,-0.169103,-0.112208
2.12624,-0.168459,0.17412
2.06193,0.0385111,-0.0840198
2.09048,-0.0631396,-0.0486665
2.12782,-0.176061,-0.0621374
2.10281,-0.0708595,0
2.16898,-0.286708,-0.0254707
2.06373,0.0313388,0.0119958
2.14065,-0.177122,-0.012484
2.11023,-0.0711097,0.0491318
2.17295,-0.287232,0.0255173
2.13359,-0.176538,-0.174771
2.06689,0.0313868,0.0601592
2.16546,-0.286242,-0.127208
2.13493,-0.176648,0.0872764
2.09654,-0.0706482,-0.0977154
2.14173,-0.177211,-0.112627
2.12961,-0.176209,0.174445
2.06605,0.031374,-0.0841827
2.09424,-0.070571,-0.0487595
2.09855,-0.0780506,0
2.16797,-0.294277,-0.0254707
2.06782,0.0241816,0.012019
2.13603,-0.184249,-0.0124607
2.17193,-0.294815,0.0255173
2.13296,-0.183984,-0.174771
2.06698,0.0241718,0.0601592
2.16841,-0.294336,-0.127441
2.11495,-0.0786606,0.123255
2.13828,-0.184443,0.0874392
2.09628,-0.0779661,-0.0977154
2.13712,-0.184343,-0.112418
2.13693,-0.184327,0.175096
2.06614,0.024162,-0.0841827
2.09798,-0.0780295,-0.0488526
2.11024,-0.0862316,0
2.1748,-0.303326,-0.0255638
2.0719,0.0166346,0.0120423
2.14331,-0.192794,-0.0125072
2.1748,-0.303326,0.0255638
2.1283,-0.191443,-0.174445
2.17127,-0.302834,-0.127673
2.14157,-0.192637,0.0876021
2.10396,-0.0859751,-0.0980876
2.14439,-0.192891,-0.112836
2.13227,-0.191801,0.174771
2.10168,-0.0858817,-0.0489456
2.10197,-0.0925089,0
2.16988,-0.309592,-0.0255173
2.16063,-0.308273,-0.203733
2.1778,-0.310722,0.0256104
2.10083,-0.092459,-0.147047
2.13563,-0.198868,-0.175096
2.0711,0.0101214,0.0602756
2.17426,-0.310217,-0.127906
2.14891,-0.200105,0.0879277
2.10368,-0.0925844,-0.0980876
2.14377,-0.199626,-0.112836
2.13166,-0.198498,0.174771
2.10539,-0.0926597,-0.0490387
2.13308,-0.206896,-0.0623701
2.11358,-0.101153,0
2.17263,-0.318502,-0.0255638
2.07196,0.00216975,0.0120423
2.14987,-0.208524,-0.0125537
2.16337,-0.317144,-0.204105
2.1845,-0.320242,0.0257035
2.13485,-0.207067,-0.175096
2.17305,-0.318564,-0.127906
2.12197,-0.101554,0.12372
2.15211,-0.208741,0.0880906
2.11129,-0.101043,-0.0984599
2.14696,-0.208242,-0.113046
2.14278,-0.207836,0.175747
2.07827,0.00217636,-0.0846712
2.10901,-0.100934,-0.0491318
2.11725,-0.107996,0
2.17953,-0.326511,-0.0256569
2.07596,-0.00434789,0.0120655
2.12067,-0.108171,0.0494109
2.18349,-0.327103,0.0257035
2.13815,-0.21417,-0.175422
2.07512,-0.00434613,0.060392
2.17599,-0.32598,-0.128138
2.14746,-0.215102,0.0879277
2.11096,-0.107676,-0.0984599
2.15027,-0.215384,-0.113255
2.14212,-0.214567,0.175747
2.07428,-0.00434436,-0.0845083
2.10869,-0.107559,-0.0491318
2.11286,-0.115168,0
2.18628,-0.335329,-0.0257501
2.07993,-0.0116167,0.0120888
2.15242,-0.223191,-0.012577
2.10468,-0.114722,-0.227046
2.16909,-0.332693,-0.204849
2.18233,-0.334723,0.0257035
2.14532,-0.222454,-0.176073
2.07909,-0.0116119,0.0605083
2.17879,-0.33418,-0.128371
2.12524,-0.115843,0.123952
2.15068,-0.223009,0.0880906
2.11058,-0.115044,-0.0984599
2.14951,-0.222889,-0.113255
2.14929,-0.222866,0.176398
2.1083,-0.114919,-0.0491318
2.11243,-0.122912,0
2.17714,-0.342099,-0.0256569
2.07988,-0.0192399,0.0120888
2.15954,-0.231932,-0.0126235
2.18899,-0.343961,0.0257966
2.14449,-0.230316,-0.176073
2.07903,-0.0192321,0.0605083
2.17755,-0.342163,-0.128371
2.12879,-0.123863,0.124185
2.15779,-0.231744,0.0884162
2.11812,-0.123243,-0.0988321
2.15265,-0.231192,-0.113464
2.14846,-0.230742,0.176398
2.11585,-0.123111,-0.0493179
2.14195,-0.237609,-0.0627192
2.11598,-0.130531,0
2.17988,-0.350331,-0.0257035
2.11175,-0.13027,-0.227903
2.17845,-0.350102,-0.205964
2.18383,-0.350965,0.0257501
2.14368,-0.2378,-0.176073
2.08695,-0.026591,0.060741
2.18422,-0.351029,-0.128836
2.16094,-0.239715,0.0885791
2.11767,-0.130635,-0.0988321
2.15977,-0.239586,-0.113883
2.1516,-0.238679,0.176724
2.1194,-0.130742,-0.0494109
2.14512,-0.245164,-0.0628356
2.11952,-0.137807,0
2.18265,-0.358205,-0.0257501
2.16189,-0.247081,-0.0126467
2.17728,-0.357324,-0.205964
2.19449,-0.360149,0.0258898
2.15476,-0.246266,-0.177049
2.08685,-0.0335115,0.060741
2.17517,-0.356977,-0.128371
2.13188,-0.13861,0.124418
2.14822,-0.245519,0.0880906
2.11324,-0.137398,-0.098646
2.16293,-0.2472,-0.114092
2.14684,-0.24536,0.176398
2.11895,-0.137769,-0.0494109
2.12701,-0.145751,0
2.19322,-0.367807,-0.0258898
2.08757,-0.0408123,0.0121353
2.16499,-0.255094,-0.01267
2.11387,-0.14485,-0.148163
2.15389,-0.253786,-0.177049
2.09072,-0.0408739,0.0608574
2.18178,-0.365888,-0.128836
2.13138,-0.146051,0.124418
2.15529,-0.253951,0.0884162
2.15389,-0.253786,0.177049
2.08587,-0.0407791,-0.0849968
2.12245,-0.145438,-0.049504
2.12247,-0.153258,0
2.18792,-0.375167,-0.0258432
2.14675,-0.260926,-0.275265
2.0914,-0.0485562,0.0121585
2.16801,-0.26351,-0.0126932
2.19974,-0.377195,0.0259829
2.16086,-0.26264,-0.1777
2.10254,-0.0488148,0.0612065
2.08715,-0.0484576,-0.133799
2.16228,-0.262813,0.0887419
2.11619,-0.152804,-0.0988321
2.16111,-0.262671,-0.114092
2.09769,-0.0487023,-0.0854853
2.12988,-0.153792,-0.0496901
2.12195,-0.160295,0
2.1906,-0.383109,-0.0258898
2.18519,-0.382163,-0.207079
2.20242,-0.385176,0.0260295
2.15206,-0.268816,-0.177049
2.09438,-0.0555747,0.0609738
2.19098,-0.383175,-0.129534
2.16933,-0.270973,0.0890675
2.11966,-0.160122,-0.0990182
2.16419,-0.270331,-0.114302
2.15602,-0.26931,0.177375
2.12138,-0.160252,-0.049504
2.09073,-0.063147,-0.0365104
2.12534,-0.168388,0
2.18918,-0.391135,-0.0258898
2.09101,-0.0631556,0.0121585
2.12105,-0.168047,-0.229188
2.18769,-0.39087,-0.207451
2.19706,-0.392542,0.0259829
2.12016,-0.167977,-0.148721
2.15897,-0.277719,-0.1777
2.09815,-0.0633713,0.0610901
2.19349,-0.391905,-0.129766
2.16436,-0.278412,0.0889047
2.12304,-0.168205,-0.0992044
2.16318,-0.278261,-0.114302
2.16292,-0.278228,0.178025
2.09331,-0.063225,-0.0853225
2.13274,-0.168974,-0.0497831
2.12873,-0.176135,0
2.19567,-0.400209,-0.0259829
2.17306,-0.287246,-0.0127397
2.19024,-0.399218,-0.207823
2.20354,-0.401644,0.026076
2.12354,-0.175706,-0.149
2.16194,-0.285776,-0.178025
2.09792,-0.0706949,0.0610901
2.18818,-0.398843,-0.129534
2.17526,-0.287537,0.0893932
2.1304,-0.176274,-0.0995766
2.17012,-0.286858,-0.11472
2.16194,-0.285776,0.178025
2.09707,-0.0706662,-0.0854853
2.13213,-0.176417,-0.0497831
2.13613,-0.183507,0
2.20227,-0.408564,-0.026076
2.09854,-0.0773167,0.012205
2.18897,-0.406097,-0.207823
2.21014,-0.410023,0.0261692
2.17288,-0.294172,-0.179002
2.10168,-0.0774325,0.0612065
2.17582,-0.294569,0.0383255
2.19477,-0.407172,-0.129999
2.16642,-0.293297,0.0890675
2.12586,-0.182624,-0.0993905
2.17317,-0.29421,-0.11493
2.17288,-0.294172,0.179002
2.10083,-0.0774011,-0.0856481
2.13555,-0.183457,-0.0498762
2.15834,-0.299879,-0.0634174
2.20083,-0.416249,-0.026076
2.10225,-0.0848028,0.0122283
2.17903,-0.302753,-0.0127862
2.19537,-0.415216,-0.208567
2.20083,-0.416249,0.026076
2.16395,-0.300657,-0.178351
2.1054,-0.0849295,0.0613228
2.19726,-0.415573,-0.130231
2.1733,-0.301957,0.0893932
2.12919,-0.190399,-0.0995766
2.17608,-0.302343,-0.115139
2.17974,-0.302852,0.179653
2.10853,-0.0850561,-0.0859738
2.1349,-0.19091,-0.0498762
2.13082,-0.198045,0
2.19936,-0.423929,-0.026076
2.16057,-0.307879,-0.27779
2.10195,-0.0921405,0.0122283
2.18192,-0.310922,-0.0128095
2.20172,-0.424384,-0.20931
2.20722,-0.425443,0.0261692
2.17078,-0.309334,-0.179002
2.10509,-0.0922782,0.0613228
2.17619,-0.310106,0.089556
2.13249,-0.1982,-0.0997627
2.17501,-0.309938,-0.115139
2.17472,-0.309896,0.179327
2.10024,-0.0920657,-0.0856481
2.14617,-0.199472,-0.0501553
2.10133,-0.0994636,-0.0367199
2.16411,-0.316095,-0.0636501
2.13808,-0.20625,0
2.19787,-0.431604,-0.026076
2.20023,-0.432067,-0.20931
2.20965,-0.433916,0.0262157
2.17363,-0.317486,-0.179327
2.10875,-0.0998148,0.0614392
2.18448,-0.319071,0.0385349
2.20214,-0.432442,-0.130697
2.18301,-0.318855,0.0898817
2.13974,-0.20641,-0.100135
2.18182,-0.318683,-0.115558
2.17363,-0.317486,0.179327
2.1039,-0.0995853,-0.085811
2.14944,-0.207346,-0.0502484
2.13734,-0.213712,0
2.2042,-0.440842,-0.0261692
2.18365,-0.326739,-0.0128327
2.20261,-0.440525,-0.209682
2.21204,-0.442411,0.0262623
2.17251,-0.325071,-0.179327
2.11637,-0.107581,0.0616719
2.20062,-0.440126,-0.130697
2.18583,-0.327065,0.0900445
2.18039,-0.326251,0.179978
2.11152,-0.107334,-0.0861366
2.1487,-0.214848,-0.0502484
2.14052,-0.221957,0
2.2104,-0.450515,-0.0262623
2.10883,-0.114949,0.0122748
2.18244,-0.33474,-0.0128327
2.20489,-0.449391,-0.210054
2.22216,-0.452912,0.026402
2.13531,-0.221416,-0.150116
2.17918,-0.33424,-0.179978
2.11596,-0.115337,0.0616719
2.20681,-0.449784,-0.131162
2.18462,-0.335074,0.0900445
2.1382,-0.221716,-0.100135
2.18738,-0.335498,-0.115976
2.18312,-0.334845,0.180304
2.11111,-0.115073,-0.0861366
2.15188,-0.223134,-0.0503414
2.10813,-0.122293,-0.0368595
2.13974,-0.229427,0
2.21273,-0.459041,-0.0263088
2.11241,-0.122541,0.012298
2.18521,-0.342976,-0.012856
2.2072,-0.457894,-0.210425
2.15904,-0.231497,0.0505275
2.21665,-0.459853,0.0263554
2.18194,-0.342463,-0.180304
2.11954,-0.122954,0.0617883
2.10812,-0.122292,-0.135334
2.20914,-0.458295,-0.131394
2.18738,-0.343318,0.0902073
2.14139,-0.229605,-0.100321
2.18225,-0.342512,-0.115767
2.18982,-0.3437,0.180955
2.11469,-0.122673,-0.0862994
2.15108,-0.230644,-0.0503414
2.11171,-0.129528,-0.0369293
2.14294,-0.236961,0
2.20729,-0.46555,-0.0262623
2.11998,-0.130035,0.0123445
2.22126,-0.468498,-0.211912
2.21511,-0.467201,0.0263554
2.17686,-0.349066,-0.179978
2.11114,-0.129493,0.0615556
2.20761,-0.465618,-0.131394
2.19018,-0.351202,0.0903702
2.18505,-0.350379,-0.115976
2.18079,-0.349697,0.180304
2.11427,-0.129685,-0.0862994
2.20956,-0.474092,-0.0263088
2.11552,-0.137175,0.0123213
2.21572,-0.475413,-0.211541
2.2252,-0.477448,0.0264951
2.17956,-0.357307,-0.180304
2.11865,-0.137378,0.0617883
2.11521,-0.137155,-0.135846
2.21768,-0.475835,-0.132092
2.18894,-0.358845,0.0903702
2.14375,-0.244628,-0.100507
2.18381,-0.358004,-0.115976
2.18743,-0.358597,0.180955
2.11779,-0.137323,-0.0864623
2.14913,-0.253226,0
2.21562,-0.483894,-0.026402
2.115,-0.144928,0.0123213
2.19333,-0.367825,-0.0129257
2.21396,-0.483531,-0.211541
2.22344,-0.4856,0.0264951
2.18217,-0.365953,-0.180629
2.1301,-0.145963,0.0621374
2.19698,-0.368437,0.038884
2.21202,-0.483108,-0.131859
2.18643,-0.366667,-0.116186
2.19396,-0.367931,0.181606
2.12525,-0.14563,-0.0867879
2.15649,-0.254093,-0.0505275
2.21791,-0.492105,-0.0264485
2.1185,-0.152228,0.0123445
2.21623,-0.491733,-0.211912
2.22572,-0.493837,0.0265417
2.18094,-0.373187,-0.180629
2.12163,-0.152452,0.0619047
2.2221,-0.493035,-0.132557
2.16843,-0.262793,0.127208
2.19032,-0.374792,0.090533
2.19307,-0.375263,-0.116605
2.12077,-0.152391,-0.0866251
2.16358,-0.262205,-0.0507136
2.22008,-0.500723,-0.0264951
2.1811,-0.381055,-0.281831
2.12992,-0.160524,0.0124142
2.2026,-0.384811,-0.0129954
2.21839,-0.500342,-0.212284
2.22008,-0.500723,0.0264951
2.18355,-0.381484,-0.180955
2.13304,-0.160759,0.0622537
2.12162,-0.159898,-0.136357
2.22426,-0.501668,-0.13279
2.19687,-0.383811,0.0908587
2.19175,-0.382916,-0.116605
2.12819,-0.160393,-0.0869508
2.16662,-0.270251,-0.0508067
2.12906,-0.167935,-0.0372783
2.1846,-0.389531,-0.064581
2.22611,-0.510257,-0.0265882
2.12935,-0.167957,0.0124142
2.20124,-0.392498,-0.0129954
2.22439,-0.509863,-0.213028
2.22222,-0.509364,0.0265417
2.12051,-0.16726,0.0619047
2.12503,-0.167616,-0.136613
2.22639,-0.510321,-0.133022
2.15598,-0.276569,-0.101252
2.19826,-0.391966,-0.117023
2.17373,-0.278847,0.269088
2.13161,-0.168135,-0.0871136
2.16963,-0.278321,-0.0508998
2.12849,-0.174994,-0.0372783
2.22441,-0.517636,-0.0265882
2.12878,-0.175018,0.0124142
2.22269,-0.517236,-0.213028
2.22831,-0.518543,0.0266348
2.19267,-0.398476,-0.181931
2.1319,-0.175274,0.0622537
2.19963,-0.399741,0.0390236
2.22858,-0.518606,-0.133255
2.15901,-0.284239,-0.101438
2.19302,-0.39854,-0.116814
2.13104,-0.175203,-0.0871136
2.16869,-0.285514,-0.0508998
2.23037,-0.527238,-0.0266814
2.13214,-0.182789,0.0124375
2.20639,-0.40893,-0.0130419
2.22648,-0.526318,0.0266348
2.19519,-0.406854,-0.182256
2.13128,-0.182715,0.0622537
2.21002,-0.409603,0.039233
2.23064,-0.527301,-0.133487
2.17648,-0.294271,0.127906
2.16196,-0.292309,-0.101624
2.2034,-0.408376,-0.117442
2.13041,-0.182641,-0.0871136
2.16768,-0.293082,-0.0508998
2.12719,-0.190221,-0.0372783
2.15926,-0.300006,0
2.23621,-0.537278,-0.0267745
2.13544,-0.190959,0.0124607
2.2088,-0.417757,-0.0130652
2.17848,-0.302676,0.0511789
2.24009,-0.538213,0.0268211
2.19368,-0.414897,-0.182256
2.14254,-0.191594,0.0626028
2.20457,-0.416957,0.0391632
2.12713,-0.190216,-0.136869
2.24034,-0.538271,-0.134185
2.20701,-0.417418,0.09151
2.16088,-0.300231,-0.101624
2.20581,-0.417192,-0.117651
2.13769,-0.19116,-0.0874392
2.17056,-0.301576,-0.0509928
2.13049,-0.198015,-0.0373482
2.2382,-0.546029,-0.0268211
2.13875,-0.198782,0.012484
2.21126,-0.426222,-0.0130884
2.20397,-0.424816,-0.183233
2.14186,-0.199071,0.0626028
2.20703,-0.425407,0.039233
2.13043,-0.198009,-0.137125
2.23845,-0.546089,-0.134185
2.20946,-0.425876,0.0916728
2.20434,-0.424889,-0.117651
2.13701,-0.198621,-0.0874392
2.18137,-0.310843,-0.051272
2.1338,-0.205462,-0.037418
2.16508,-0.315851,0
2.2325,-0.552487,-0.0267745
2.13807,-0.205873,0.012484
2.21376,-0.434322,-0.0131117
2.19863,-0.431354,-0.182907
2.14119,-0.206173,0.0626028
2.21738,-0.435033,0.0394424
2.13373,-0.205455,-0.137381
2.2405,-0.554468,-0.134417
2.21196,-0.43397,0.0918356
2.16274,-0.315509,-0.10181
2.20684,-0.432965,-0.117861
2.13634,-0.205706,-0.0874392
2.18032,-0.318075,-0.051272
2.13705,-0.213306,-0.0374878
2.14132,-0.213732,0.0125072
2.21615,-0.442831,-0.0131349
2.20884,-0.44137,-0.183884
2.14841,-0.21444,0.0628356
2.21977,-0.443555,0.0395123
2.133,-0.212902,-0.137381
2.2463,-0.564231,-0.134883
2.21827,-0.443254,0.0921613
2.17348,-0.324828,-0.102368
2.20923,-0.441449,-0.11807
2.14356,-0.213956,-0.0877649
2.1363,-0.220765,-0.0374878
2.20194,-0.447989,-0.0653955
2.24021,-0.571023,-0.0269142
2.14852,-0.222028,0.0125537
2.21851,-0.451361,-0.0131582
2.16939,-0.331963,-0.153464
2.2151,-0.450667,-0.184535
2.14765,-0.221938,0.0628356
2.22213,-0.452098,0.0395821
2.13622,-0.220757,-0.137637
2.24431,-0.572068,-0.134883
2.17233,-0.332413,-0.102368
2.21551,-0.45075,-0.118489
2.14678,-0.221848,-0.0879277
2.182,-0.333894,-0.051365
2.14347,-0.22907,-0.0376274
2.14773,-0.229527,0.0125537
2.22084,-0.459914,-0.0131814
2.17216,-0.340151,-0.153743
2.21742,-0.459205,-0.18486
2.15084,-0.229858,0.0629519
2.22446,-0.460663,0.0396519
2.1394,-0.228636,-0.137892
2.22295,-0.460351,0.0924869
2.21392,-0.458481,-0.118489
2.14996,-0.229765,-0.0880906
2.18478,-0.342127,-0.0514581
2.14265,-0.236551,-0.0376274
2.24778,-0.589694,-0.0270539
2.1509,-0.237461,0.012577
2.21922,-0.467663,-0.0131814
2.2197,-0.467765,-0.185186
2.15797,-0.238242,0.0631846
2.14256,-0.236541,-0.138148
2.1739,-0.348203,-0.102555
2.22403,-0.468678,-0.119117
2.15312,-0.237707,-0.0882534
2.19147,-0.351016,-0.0516442
2.17503,-0.356175,0
2.24571,-0.597536,-0.0270539
2.158,-0.245873,0.0126235
2.2254,-0.477084,-0.0132279
2.21416,-0.474674,-0.18486
2.15315,-0.245321,0.0630683
2.2251,-0.477019,0.0397217
2.18056,-0.357081,-0.102927
2.22629,-0.477275,-0.119326
2.15228,-0.245221,-0.0882534
2.19417,-0.35931,-0.0517372
2.15287,-0.252904,-0.0378368
2.2111,-0.482097,-0.065861
2.17772,-0.364425,0
2.15316,-0.252938,0.0126002
2.22372,-0.484849,-0.0132279
2.22417,-0.484948,-0.185836
2.16022,-0.253768,0.063301
2.22342,-0.484783,0.0397217
2.19767,-0.367763,0.129766
2.19112,-0.366668,-0.103485
2.22461,-0.485044,-0.119326
2.15538,-0.253199,-0.0884162
2.148,-0.259937,-0.037767
2.2133,-0.490677,-0.0659773
2.18038,-0.372698,0
2.15226,-0.260452,0.0126002
2.22592,-0.493474,-0.0132512
2.179,-0.372463,-0.15458
2.21468,-0.490983,-0.185186
2.15933,-0.261307,0.063301
2.22952,-0.494273,0.0398613
2.14789,-0.259923,-0.13866
2.2003,-0.376105,0.129999
2.18983,-0.374314,-0.103485
2.2268,-0.493671,-0.119535
2.15845,-0.261201,-0.0885791
2.19555,-0.375293,-0.0518303
2.15502,-0.268422,-0.0379066
2.19088,-0.38237,0
2.16325,-0.269447,0.01267
2.22808,-0.50212,-0.0132744
2.20211,-0.384329,0.0520164
2.22073,-0.500464,-0.185836
2.16634,-0.269831,0.0635337
2.23558,-0.503811,0.0400009
2.15093,-0.267913,-0.138916
2.20291,-0.38447,0.130231
2.18457,-0.381269,-0.103299
2.23286,-0.503197,-0.119954
2.15752,-0.268734,-0.0885791
2.19817,-0.383642,-0.0519233
2.15407,-0.275942,-0.0379066
2.1856,-0.389314,0
2.16626,-0.277504,0.0126932
2.23022,-0.510788,-0.0132977
2.22675,-0.509993,-0.186487
2.16935,-0.2779,0.0636501
2.23771,-0.512504,0.0400707
2.1579,-0.276434,-0.139427
2.20549,-0.392857,0.130464
2.1911,-0.390294,-0.103671
2.23109,-0.510988,-0.119954
2.16054,-0.276771,-0.0887419
2.20075,-0.392014,-0.0520164
2.19603,-0.399087,0
2.16924,-0.285587,0.0127165
2.23621,-0.520383,-0.0133442
2.20724,-0.401124,0.0522025
2.22883,-0.518666,-0.186813
2.16836,-0.28547,0.0636501
2.16088,-0.284486,-0.139683
2.20803,-0.401268,0.130697
2.19758,-0.399369,-0.104044
2.23318,-0.519678,-0.120163
2.15956,-0.284311,-0.0887419
2.20724,-0.401124,-0.0522025
2.16001,-0.292045,-0.0380462
2.19463,-0.40675,0
2.16823,-0.293157,0.0127165
2.23827,-0.529105,-0.0133674
2.20976,-0.409555,0.0522955
2.23477,-0.528277,-0.187464
2.17528,-0.294109,0.0638828
2.15592,-0.291492,-0.139427
2.21054,-0.4097,0.130929
2.20011,-0.407765,-0.10423
2.23913,-0.529308,-0.120582
2.16251,-0.292383,-0.0889047
2.20976,-0.409555,-0.0522955
2.15898,-0.299583,-0.0380462
2.22773,-0.53483,-0.0666755
2.19712,-0.415151,0
2.17512,-0.301823,0.012763
2.23252,-0.535982,-0.0133442
2.19177,-0.414139,-0.155975
2.1782,-0.30225,0.0639992
2.15884,-0.299564,-0.139683
2.2091,-0.417414,0.130929
2.20652,-0.416926,-0.104602
2.24504,-0.538986,-0.121001
2.1694,-0.301029,-0.0892304
2.20832,-0.417266,-0.0522955
2.16194,-0.307304,-0.0381161
2.22983,-0.543161,-0.0667919
2.20359,-0.423946,0
2.17411,-0.309034,0.012763
2.24628,-0.547168,-0.0134371
2.21085,-0.425342,0.0523886
2.18114,-0.310034,0.0641155
2.16574,-0.307845,-0.140195
2.19728,-0.422732,-0.10423
2.16839,-0.308221,-0.0892304
2.21085,-0.425342,-0.0523886
2.16486,-0.315048,-0.0381859
2.20217,-0.431251,0
2.17703,-0.316818,0.0127862
2.24445,-0.554614,-0.0134371
2.21727,-0.434208,0.0525747
2.16471,-0.315025,-0.140195
2.19587,-0.430016,-0.10423
2.24529,-0.554822,-0.12121
2.16735,-0.31541,-0.0892304
2.21727,-0.434208,-0.0525747
2.16765,-0.323571,-0.0382557
2.2045,-0.440102,0
2.18377,-0.325977,0.0128327
2.24628,-0.563811,-0.0134604
2.19962,-0.439128,-0.241611
2.21959,-0.443115,0.0526678
2.18288,-0.325844,0.0642319
2.16749,-0.323547,-0.140451
2.20603,-0.440408,-0.104788
2.25099,-0.564992,-0.121629
2.17409,-0.324532,-0.089556
2.21959,-0.443115,-0.0526678
2.17052,-0.331361,-0.0383255
2.23574,-0.569052,-0.067141
2.20695,-0.448206,0
2.17477,-0.332009,0.0127862
2.24828,-0.572243,-0.0134836
2.20984,-0.448795,-0.242896
2.18574,-0.333684,0.0643483
2.20847,-0.448516,-0.104974
2.25685,-0.574425,-0.122047
2.17695,-0.332343,-0.0897188
2.21811,-0.450473,-0.0526678
2.17324,-0.339932,-0.0383953
2.24525,-0.580244,-0.06749
2.20921,-0.457103,0
2.18539,-0.341832,0.012856
2.20773,-0.456798,-0.15765
2.21855,-0.459036,-0.105533
2.17572,-0.340319,-0.0897188
2.21644,-0.458599,-0.0526678
2.17204,-0.347516,-0.0383953
2.24321,-0.588078,-0.06749
2.21151,-0.465636,0
2.19208,-0.350722,0.0129024
2.20658,-0.464596,-0.242896
2.22265,-0.467981,0.0528539
2.21393,-0.466146,-0.158208
2.17581,-0.348118,-0.141218
2.21303,-0.465954,-0.105346
2.18636,-0.349806,-0.0902073
2.22265,-0.467981,-0.0528539
2.17877,-0.356006,-0.0385349
2.20996,-0.472967,0
2.19091,-0.35799,0.0129024
2.20891,-0.472743,-0.243325
2.22891,-0.477023,0.05304
2.20847,-0.47265,-0.157929
2.17858,-0.355975,-0.141474
2.21147,-0.473291,-0.105346
2.18913,-0.357699,-0.0903702
2.21718,-0.474512,-0.0527608
2.17745,-0.36399,-0.0385349
2.2545,-0.607888,-0.0679555
2.21212,-0.481915,0
2.19747,-0.367336,0.0129489
2.21105,-0.481683,-0.243753
2.23105,-0.48604,0.053133
2.21452,-0.48244,-0.158487
2.19264,-0.366528,0.0646974
2.1812,-0.364616,-0.14173
2.22143,-0.483944,-0.105905
2.18386,-0.365061,-0.0902073
2.22715,-0.485189,-0.05304
2.18011,-0.372261,-0.0386047
2.22995,-0.493959,0
2.19618,-0.375005,0.0129489
2.23325,-0.49469,0.0532261
2.21672,-0.49103,-0.158766
2.19134,-0.374179,0.0646974
2.22753,-0.493424,-0.106277
2.18651,-0.373355,-0.0903702
2.22934,-0.493825,-0.053133
2.25405,-0.62468,-0.0680718
2.2165,-0.499104,0
2.20273,-0.384043,0.0129954
2.23541,-0.503361,0.0533191
2.20184,-0.383886,0.0650464
2.2258,-0.501196,-0.106277
2.19307,-0.382358,-0.0906958
2.22761,-0.501604,-0.053133
2.18533,-0.388873,-0.0387443
2.23034,-0.510407,0
2.20138,-0.391729,0.0129954
2.22102,-0.508274,-0.159324
2.20442,-0.39227,0.0651628
2.18512,-0.388836,-0.142242
2.22793,-0.509854,-0.106463
2.19566,-0.390711,-0.0908587
2.22194,-0.508485,-0.05304
2.19183,-0.397928,-0.038884
2.22855,-0.518189,0
2.20787,-0.40084,0.0130419
2.22312,-0.516927,-0.159603
2.20697,-0.400677,0.0652792
2.18768,-0.397174,-0.142497
2.22613,-0.517628,-0.106463
2.19821,-0.399087,-0.0910215
2.23573,-0.51986,-0.0534122
2.23062,-0.526885,0
2.21039,-0.409273,0.0130652
2.22518,-0.525601,-0.159882
2.20556,-0.408379,0.0652792
2.1902,-0.405535,-0.142753
2.2282,-0.526314,-0.106649
2.19288,-0.40603,-0.0908587
2.23001,-0.526742,-0.0533191
2.19307,-0.413197,-0.0389538
2.23284,-0.534822,0
2.20516,-0.415474,0.0130419
2.23516,-0.535378,-0.160719
2.20427,-0.415305,0.0652792
2.24208,-0.537034,-0.107394
2.19945,-0.414397,-0.0911843
2.23613,-0.535608,-0.0535052
2.19547,-0.421987,-0.0390236
2.24253,-0.54584,0
2.21148,-0.425064,0.0130884
2.22931,-0.542623,-0.16044
2.20666,-0.424136,0.0653955
2.24398,-0.546193,-0.10758
2.20184,-0.42321,-0.0913472
2.23803,-0.544746,-0.0535983
2.2407,-0.553273,0
2.21399,-0.433163,0.0131117
2.24299,-0.553838,-0.161556
2.21309,-0.432987,0.0656282
2.19774,-0.429984,-0.143521
2.24604,-0.55459,-0.107766
2.20434,-0.431277,-0.09151
2.2401,-0.553123,-0.0536913
2.20039,-0.438484,-0.0391632
2.24264,-0.562064,0
2.2194,-0.442272,0.065861
2.24409,-0.562426,-0.107766
2.20674,-0.43975,-0.0916728
2.24203,-0.561912,-0.0537844
2.21867,-0.450587,0.0131582
2.21385,-0.449608,0.0657446
2.20634,-0.448083,-0.144288
2.24588,-0.571633,-0.107952
2.20903,-0.44863,-0.0918356
2.24771,-0.572098,-0.0539705
2.21317,-0.457519,0.0131349
2.21618,-0.458143,0.065861
2.24387,-0.579469,-0.107952
2.21528,-0.457957,-0.0921613
2.25344,-0.58194,-0.0541566
2.2233,-0.467712,0.0132047
2.21848,-0.466699,0.0659773
2.25343,-0.590336,-0.108511
2.21758,-0.466509,-0.0923241
2.24753,-0.588789,-0.0540635
2.22556,-0.476307,0.0132279
2.22466,-0.476113,0.0662101
2.20933,-0.472834,-0.1448
2.25136,-0.598198,-0.108511
2.22376,-0.47592,-0.0926498
2.24932,-0.597658,-0.0541566
2.22797,-0.484146,0.0132512
2.22315,-0.4831,0.0662101
2.21954,-0.482315,-0.145567
2.22616,-0.483753,-0.0928126
2.25902,-0.607839,-0.0544357
2.22197,-0.491378,-0.0397217
2.23008,-0.493172,0.0132744
2.22166,-0.491309,-0.145823
2.22047,-0.491046,-0.0926498
2.25678,-0.616114,-0.0544357
2.22414,-0.500009,-0.0397915
2.22835,-0.500953,0.0132744
2.23044,-0.501423,-0.0931383
2.21857,-0.506491,-0.0397217
2.23057,-0.50923,0.0132977
2.21826,-0.50642,-0.145823
2.23266,-0.509707,-0.0933011
2.22069,-0.515136,-0.0397915
2.23657,-0.518821,0.0133442
2.22814,-0.516866,-0.146591
2.23476,-0.5184,-0.0934639
2.22657,-0.525108,-0.0399311
2.23855,-0.527933,0.0133674
2.23012,-0.525945,-0.146847
2.23673,-0.527505,-0.0936268
2.2325,-0.53474,-0.0400707
2.24058,-0.536676,0.0133907
2.23215,-0.534656,-0.147102
2.23876,-0.53624,-0.0937896
2.24228,-0.545365,-0.0402802
2.23027,-0.542445,-0.147102
2.24076,-0.544996,-0.0939524
2.2326,-0.551271,-0.0401405
2.23224,-0.551184,-0.147358
2.25049,-0.555689,-0.0944409
2.23454,-0.560034,-0.0402103
2.24817,-0.571381,-0.0404896
2.24617,-0.579225,-0.0404896
2.24852,-0.579831,-0.0946037
2.25574,-0.590099,-0.040699
2.25808,-0.590711,-0.0950922
2.25377,-0.597576,-0.040699
2.26383,-0.600244,-0.0954179
