3.20441,0.829313,-0.115587
3.19953,0.816147,-0.115308
3.15524,0.769749,-0.0378102
3.14209,0.75609,-0.037624
3.13706,0.742727,-0.0375309
3.15139,0.746121,-0.188603
3.15502,0.782544,-0.0946024
3.15242,0.781899,-0.0188771
3.15979,0.783726,-0.170615
3.14609,0.768679,-0.0942533
3.14736,0.768991,-0.0188306
3.16251,0.772691,-0.170615
3.13696,0.755432,-0.0939042
3.14212,0.756676,-0.0187841
3.16117,0.761263,-0.170406
3.14346,0.745403,-0.0940206
3.14826,0.746539,-0.169569
3.34709,0.917544,-0.97155
3.34284,0.903845,-0.969393
3.14444,0.781085,0
3.15103,0.771054,0
3.16703,0.774967,-0.151878
3.14241,0.768944,-0.0752795
3.15819,0.760548,-0.151319
3.14132,0.756486,-0.0751865
3.14005,0.744592,-0.0750934
3.12793,0.730769,-0.224616
3.15159,0.783443,-0.0566854
3.15417,0.772988,-0.0566854
3.13754,0.756734,-0.0563364
3.14319,0.758096,-0.131729
3.14003,0.746325,-0.0563364
3.12631,0.743064,-0.205943
3.14569,0.747668,-0.131729
3.13679,0.733419,-0.206455
2.81208,0.394212,-0.305869
2.41182,-0.0092598,0.0280783
2.4037,-0.0260107,-0.0279852
2.4077,-0.026054,0.0280317
2.3956,-0.0338691,-0.027892
2.3956,-0.0338691,0.027892
2.38747,-0.0420907,-0.0277989
2.39547,-0.0422317,0.027892
2.39131,-0.0500908,-0.0278455
2.37932,-0.0498396,0.0277058
2.40201,-0.0503149,-0.0838984
2.37913,-0.0581441,-0.0277058
2.37113,-0.0579487,0.0276127
2.3709,-0.0666395,-0.0276127
2.3749,-0.0667519,0.0276592
2.37067,-0.074502,-0.0276127
2.36267,-0.0742508,0.0275195
2.3664,-0.0826355,-0.0275661
2.3584,-0.0823564,0.027473
2.35808,-0.0909993,-0.027473
2.34609,-0.0905365,0.0273333
2.34978,-0.0984841,-0.0273798
2.34978,-0.0984841,0.0273798
2.34542,-0.106505,-0.0273333
2.34143,-0.106324,0.0272867
2.34104,-0.114497,-0.0272867
2.32906,-0.11391,0.027147
2.33724,-0.114311,-0.136278
2.33663,-0.122458,-0.0272401
2.32066,-0.121621,0.0270539
2.32885,-0.12205,-0.135813
2.31223,-0.129273,0.0269608
2.32443,-0.129955,-0.13558
2.39983,-0.0251309,-0.0139486
2.30378,-0.136869,0.0268676
2.31997,-0.137831,-0.135348
2.30728,-0.145162,-0.0269142
2.39573,-0.0334525,-0.0139253
2.30329,-0.14491,0.0268676
2.3914,-0.0333921,0.0417462
2.30752,-0.145177,-0.13465
2.30681,-0.152409,-0.0269142
2.39161,-0.0409098,-0.0139021
2.29484,-0.151618,0.0267745
2.38329,-0.0407675,0.0416065
2.30307,-0.152161,-0.134417
2.29031,-0.15935,-0.0267279
2.37946,-0.0490114,-0.0138324
2.29247,-0.159501,-0.214515
2.28632,-0.159073,0.0266814
2.37913,-0.0490047,0.0415367
2.29854,-0.159923,-0.134185
2.37353,-0.0488893,0.0967205
2.29373,-0.167635,-0.0267745
2.37927,-0.0573164,-0.0138324
2.28575,-0.167052,0.0266814
2.37495,-0.0572123,0.0414669
2.29398,-0.167654,-0.133952
2.2811,-0.175521,-0.0266348
2.36704,-0.0661173,-0.0137626
2.26914,-0.174601,0.0264951
2.36672,-0.0661084,0.0413273
2.28536,-0.175849,-0.133487
2.26851,-0.18252,-0.0264951
2.37079,-0.0745051,-0.0137859
2.28267,-0.183659,-0.213771
2.26851,-0.18252,0.0264951
2.35848,-0.0741181,0.0411877
2.28473,-0.183825,-0.133487
2.34889,-0.0738169,0.0957435
2.26793,-0.189646,-0.0264951
2.35455,-0.0813999,-0.0136929
2.27811,-0.190497,-0.2134
2.25597,-0.188646,0.0263554
2.35024,-0.0812507,0.0410481
2.27221,-0.190004,-0.13279
2.35264,-0.0813338,0.0959064
2.35026,-0.0894662,-0.0136696
2.27346,-0.198103,-0.213028
2.25929,-0.196867,0.026402
2.34594,-0.089302,0.0409782
2.27153,-0.197934,-0.13279
2.33637,-0.0889375,0.095255
2.25062,-0.20403,-0.0263088
2.33794,-0.0971713,-0.0135999
2.25689,-0.204599,-0.211541
2.24265,-0.203308,0.0262157
2.33763,-0.0971581,0.0408386
2.26287,-0.205141,-0.132324
2.32806,-0.0967604,0.0949294
2.34276,-0.0973715,-0.122885
2.43198,0.00933819,0
2.24989,-0.211885,-0.0263088
2.34158,-0.105512,-0.0136231
2.25617,-0.212476,-0.211541
2.23795,-0.21076,0.0261692
2.32928,-0.104957,0.040699
2.25817,-0.212664,-0.132092
2.32771,-0.104886,0.0949294
2.2372,-0.218571,-0.0261692
2.33321,-0.113297,-0.0135766
2.25145,-0.219963,-0.211169
2.23322,-0.218182,0.0261226
2.3289,-0.113087,0.040699
2.24946,-0.219769,-0.131627
2.31934,-0.112623,0.0946037
2.33005,-0.113143,-0.122257
2.32387,-0.120975,-0.0677228
2.22846,-0.225573,-0.026076
2.32881,-0.121232,-0.0135534
2.2467,-0.227419,-0.210797
2.22846,-0.225573,0.026076
2.3205,-0.1208,0.0405594
2.24471,-0.227217,-0.131394
2.31893,-0.120719,0.0946037
2.32565,-0.121068,-0.122047
2.31545,-0.128643,-0.06749
2.40795,-0.0159703,0
2.2197,-0.232517,-0.0259829
2.31239,-0.128473,-0.0134604
2.24193,-0.234845,-0.210425
2.2197,-0.232517,0.0259829
2.31208,-0.128456,0.0404198
2.23199,-0.233803,-0.130697
2.30254,-0.127926,0.0939524
2.32123,-0.128964,-0.121838
2.29681,-0.127607,0.187789
2.2149,-0.239833,-0.0259363
2.31593,-0.13678,-0.0134836
2.22922,-0.241384,-0.20931
2.21093,-0.239403,0.0258898
2.31561,-0.136762,0.0404896
2.22719,-0.241163,-0.130464
2.31279,-0.136595,-0.121419
2.29237,-0.135389,0.187464
2.29856,-0.143405,-0.0670246
2.20614,-0.246289,-0.0258432
2.30747,-0.143961,-0.0134371
2.20614,-0.246289,0.0258432
2.30716,-0.143942,0.04035
2.2224,-0.248104,-0.130231
2.28965,-0.142849,0.0934639
2.30834,-0.144015,-0.12121
2.28395,-0.142493,0.186813
2.29804,-0.151427,-0.0670246
2.20527,-0.253989,-0.0258432
2.30297,-0.151752,-0.0134139
2.22357,-0.256096,-0.208938
2.38301,-0.0403475,0.0554593
2.20527,-0.253989,0.0258432
2.30333,-0.151775,-0.18844
2.29866,-0.151468,0.0402103
2.21359,-0.254947,-0.129766
2.28116,-0.150315,0.0931383
2.30782,-0.152072,-0.12121
2.27548,-0.149941,0.186162
2.29747,-0.159849,-0.0670246
2.19241,-0.260653,-0.0257035
2.29042,-0.159359,-0.0133442
2.21866,-0.263774,-0.208567
2.37885,-0.0489991,0.0553663
2.19638,-0.261125,0.0257501
2.2948,-0.159663,-0.187789
2.28612,-0.159059,0.0400009
2.20471,-0.262115,-0.129301
2.2766,-0.158397,0.0929754
2.29529,-0.159697,-0.120582
2.26298,-0.157449,0.185186
2.28095,-0.166702,-0.0665591
2.19149,-0.268304,-0.0257035
2.28586,-0.167061,-0.0133209
2.37467,-0.0572062,0.0552732
2.19149,-0.268304,0.0257035
2.29025,-0.167382,-0.187464
2.28556,-0.167039,0.0400009
2.19189,-0.268354,-0.128604
2.26408,-0.165469,0.0924869
2.28675,-0.167126,-0.120163
2.25844,-0.165057,0.18486
2.2764,-0.17396,-0.0664428
2.36711,-0.064879,0
2.18265,-0.274572,-0.0256104
2.27333,-0.173726,-0.0132512
2.19706,-0.276384,-0.206708
2.37047,-0.064971,0.0551802
2.18265,-0.274572,0.0256104
2.28571,-0.174672,-0.187138
2.27701,-0.174007,0.0398613
2.19099,-0.275621,-0.128604
2.25555,-0.172367,0.0921613
2.28619,-0.174708,-0.120163
2.25391,-0.172242,0.184535
2.36647,-0.0648615,-0.0550871
2.27976,-0.182224,-0.0665591
2.18168,-0.282189,-0.0256104
2.27271,-0.181661,-0.0132512
2.19608,-0.284052,-0.206708
2.35824,-0.0728746,0.054901
2.17374,-0.281163,0.0255173
2.28111,-0.182332,-0.186813
2.27639,-0.181955,0.0398613
2.18605,-0.282755,-0.128371
2.25095,-0.179921,0.0919985
2.27362,-0.181733,-0.119535
2.24932,-0.179791,0.184209
2.27114,-0.189516,-0.0663264
2.35461,-0.0809904,0
2.17671,-0.289276,-0.0255638
2.26409,-0.188927,-0.0132047
2.18718,-0.290666,-0.205964
2.35397,-0.0809684,0.054808
2.17275,-0.288749,0.0255173
2.27649,-0.189962,-0.186487
2.26379,-0.188902,0.0396519
2.25031,-0.187777,0.0919985
2.26899,-0.189336,-0.119326
2.23676,-0.186647,0.183233
2.35397,-0.0809684,-0.054808
2.27047,-0.197442,-0.0663264
2.34232,-0.0887546,0
2.17173,-0.296331,-0.0255173
2.25146,-0.19579,-0.0131349
2.17826,-0.297222,-0.205221
2.34968,-0.0890334,0.0547149
2.16776,-0.295791,0.0254707
2.26787,-0.197216,-0.185836
2.25913,-0.196456,0.0395821
2.1682,-0.29585,-0.127441
2.24566,-0.195285,0.0918356
2.35575,-0.0892637,-0.109813
2.26036,-0.196563,-0.118907
2.23212,-0.194108,0.182907
2.2618,-0.204646,-0.0660937
2.34599,-0.0970957,0
2.1588,-0.302247,-0.0253776
2.2428,-0.202927,-0.0130884
2.16537,-0.303167,-0.204105
2.34935,-0.0972348,0.0547149
2.25923,-0.204413,-0.185186
2.25046,-0.20362,0.0394424
2.1632,-0.302863,-0.127208
2.33005,-0.0964361,0.135813
2.33946,-0.0968253,-0.109069
2.26363,-0.204812,-0.119117
2.22746,-0.201539,0.182582
2.33365,-0.104746,0
2.15773,-0.30978,-0.0253776
2.24208,-0.210754,-0.0130884
2.16036,-0.310158,-0.203733
2.34101,-0.105076,0.0545288
2.15773,-0.30978,0.0253776
2.26247,-0.212671,-0.185511
2.24576,-0.2111,0.0393726
2.15818,-0.309845,-0.126976
2.32172,-0.104211,0.135348
2.22434,-0.209087,0.0910215
2.247,-0.211217,-0.118279
2.22277,-0.20894,0.182256
2.32902,-0.104538,-0.0542496
2.24042,-0.218491,-0.0655119
2.32528,-0.112505,0
2.15268,-0.316728,-0.025331
2.23337,-0.217803,-0.0130419
2.15532,-0.317118,-0.203362
2.32864,-0.112668,0.0542496
2.24981,-0.219406,-0.184535
2.24103,-0.21855,0.0393028
2.15313,-0.316795,-0.126743
2.31736,-0.112121,0.135115
2.21962,-0.216462,0.0908587
2.23432,-0.217896,-0.117651
2.21013,-0.215537,0.18128
2.32487,-0.120621,0
2.1476,-0.323644,-0.0252844
2.22861,-0.225195,-0.0130187
2.15027,-0.324046,-0.20299
2.32824,-0.120795,0.0542496
2.14365,-0.323048,0.0252379
2.24109,-0.226457,-0.183884
2.22433,-0.224763,0.0390236
2.14412,-0.323119,-0.126278
2.32493,-0.120624,0.13558
2.21487,-0.223807,0.0906958
2.32236,-0.12049,-0.108324
2.23355,-0.225694,-0.117651
2.21333,-0.223651,0.181606
2.32025,-0.120381,-0.0540635
2.23486,-0.23371,-0.0653955
2.31246,-0.128072,0
2.13855,-0.329919,-0.0251913
2.23765,-0.234001,-0.286376
2.22384,-0.232557,-0.0129954
2.14519,-0.330942,-0.202618
2.32381,-0.128701,0.0541566
2.24029,-0.234278,-0.183884
2.21956,-0.23211,0.0389538
2.14297,-0.330601,-0.126278
2.31253,-0.128076,0.134883
2.2101,-0.231121,0.090533
2.31793,-0.128375,-0.108138
2.22877,-0.233073,-0.117442
2.20064,-0.230132,0.180629
2.30784,-0.127816,-0.0537844
2.22211,-0.240221,-0.0650464
2.31599,-0.136378,0
2.13344,-0.336759,-0.0251447
2.23287,-0.241384,-0.285871
2.22301,-0.240319,-0.0129954
2.13615,-0.337186,-0.201875
2.31536,-0.136341,0.0539705
2.31831,-0.136515,-0.162393
2.22757,-0.240811,-0.182907
2.21873,-0.239856,0.0389538
2.12997,-0.336212,-0.12558
2.30011,-0.135443,0.134185
2.19736,-0.237546,0.0900445
2.3055,-0.135761,-0.10758
2.22,-0.239993,-0.117023
2.19982,-0.237812,0.180629
2.21335,-0.246703,-0.0648137
2.30355,-0.143312,0
2.22811,-0.248348,-0.285366
2.39175,-0.0317272,0.0139021
2.2063,-0.245917,-0.0129024
2.12716,-0.343,-0.201131
2.30292,-0.143274,0.0536913
2.12441,-0.342558,0.0250516
2.30988,-0.143707,-0.161835
2.22676,-0.248197,-0.182907
2.20998,-0.246326,0.0388142
2.12885,-0.343273,-0.12558
2.29965,-0.14307,0.134185
2.19656,-0.244832,0.0900445
2.29706,-0.142909,-0.107208
2.21125,-0.246469,-0.116605
2.19506,-0.244664,0.180304
2.29893,-0.143025,-0.0535983
2.20846,-0.254356,-0.0646974
2.29901,-0.151491,0
2.12314,-0.350342,-0.0250516
2.22719,-0.256513,-0.285366
2.20141,-0.253544,-0.0128792
2.12196,-0.350146,-0.200759
2.29839,-0.15145,0.0535983
2.1192,-0.349691,0.025005
2.2974,-0.151385,-0.160998
2.20603,-0.254076,-0.18128
2.20906,-0.254425,0.0388142
2.12364,-0.350423,-0.125348
2.29513,-0.151235,0.133952
2.19565,-0.252881,0.0900445
2.29254,-0.151065,-0.107022
2.2024,-0.253658,-0.116186
2.19019,-0.252251,0.179978
2.29839,-0.15145,-0.0535983
2.37914,-0.0485897,-0.0415367
2.19962,-0.26112,-0.0644646
2.29049,-0.158962,0
2.11796,-0.357086,-0.025005
2.21052,-0.262415,-0.283346
2.37546,-0.0485146,0.0138091
2.19654,-0.260755,-0.012856
2.11287,-0.356227,-0.200016
2.11008,-0.355756,0.0249119
2.29685,-0.159403,-0.160998
2.20117,-0.261305,-0.180955
2.19624,-0.26072,0.0386047
2.1224,-0.357834,-0.125348
2.28263,-0.158416,0.133255
2.19079,-0.260072,0.0898817
2.28801,-0.158789,-0.106835
2.2015,-0.261344,-0.116186
2.18533,-0.259425,0.179653
2.17268,-0.257922,0.398916
2.29386,-0.159195,-0.0535052
2.19477,-0.267929,-0.0643483
2.28197,-0.165976,0
2.10888,-0.362751,-0.0249119
2.2057,-0.269263,-0.282841
2.37529,-0.0563916,0.0138091
2.19169,-0.267553,-0.0128327
2.1156,-0.363906,-0.200387
2.29233,-0.166729,-0.160719
2.19633,-0.26812,-0.180629
2.18743,-0.267032,0.0384651
2.10939,-0.362839,-0.12465
2.27015,-0.165116,0.132557
2.18595,-0.266851,0.0897188
2.28747,-0.166376,-0.106835
2.19666,-0.268159,-0.115976
2.17259,-0.265221,0.178676
2.164,-0.264172,0.397481
2.28534,-0.166221,-0.0533191
2.18985,-0.27509,-0.0642319
2.2734,-0.173332,0
2.1076,-0.370111,-0.0249119
2.19687,-0.275971,-0.281831
2.17884,-0.273706,-0.012763
2.10255,-0.369222,-0.199272
2.09579,-0.368035,0.0247722
2.28776,-0.174427,-0.16044
2.18747,-0.274791,-0.179978
2.17854,-0.273669,0.0383255
2.10025,-0.368819,-0.124185
2.26557,-0.172735,0.132324
2.17707,-0.273484,0.0893932
2.27891,-0.173752,-0.106463
2.19174,-0.275327,-0.115767
2.17165,-0.272803,0.178676
2.15525,-0.270743,0.396046
2.27279,-0.173285,-0.05304
2.17302,-0.280684,-0.0637664
2.2688,-0.180949,0
2.09843,-0.376054,-0.0248188
2.18409,-0.282113,-0.280315
2.36284,-0.0726042,0.0137394
2.1739,-0.280798,-0.0127397
2.08948,-0.374452,-0.198157
2.27615,-0.181536,0.053133
2.09449,-0.375349,0.0247722
2.27918,-0.181777,-0.159882
2.1865,-0.282425,-0.179978
2.3499,-0.0722063,0.0684209
2.17758,-0.281272,0.0383255
2.10288,-0.376852,-0.124418
2.26098,-0.180325,0.132092
2.17214,-0.28057,0.0892304
2.2743,-0.181388,-0.106277
2.17888,-0.281441,-0.115139
2.16673,-0.279871,0.178351
2.15429,-0.278265,0.396046
2.26818,-0.1809,-0.0529469
2.35426,-0.0805671,-0.0411179
2.17203,-0.288267,-0.0637664
2.26416,-0.188535,0
2.08923,-0.381938,-0.0247257
2.18309,-0.289735,-0.280315
2.35458,-0.0805781,0.0136929
2.17291,-0.288384,-0.0127397
2.09208,-0.382459,-0.198529
2.26754,-0.188816,0.0529469
2.08923,-0.381938,0.0247257
2.2666,-0.188738,-0.159045
2.17365,-0.288482,-0.179002
2.16469,-0.287293,0.0381161
2.08977,-0.382036,-0.12372
2.2484,-0.187222,0.131394
2.16718,-0.287624,0.0890675
2.26968,-0.188994,-0.106091
2.16997,-0.287994,-0.11472
2.15784,-0.286384,0.1777
2.14941,-0.285265,0.395329
2.26355,-0.188484,-0.0528539
2.34597,-0.0884831,-0.0409782
2.15912,-0.294227,-0.0634174
2.26349,-0.196438,0
2.08002,-0.387763,-0.0246325
2.1742,-0.296282,-0.279305
2.34629,-0.088495,0.0136464
2.08682,-0.38903,-0.198157
2.08395,-0.388496,0.0246791
2.26593,-0.196649,-0.159045
2.16868,-0.295529,-0.178676
2.33735,-0.0881577,0.0680718
2.16367,-0.294847,0.0381161
2.09235,-0.39006,-0.123952
2.25171,-0.195415,0.131627
2.16221,-0.294648,0.0889047
2.26104,-0.196225,-0.105719
2.16499,-0.295027,-0.114511
2.15287,-0.293376,0.177375
2.1406,-0.291704,0.393894
2.25491,-0.195693,-0.0526678
2.34166,-0.0965068,-0.0409084
2.15412,-0.301209,-0.063301
2.25483,-0.203618,0
2.08258,-0.395768,-0.0246791
2.33398,-0.0961905,0.0135766
2.07762,-0.394825,-0.197413
2.25023,-0.203203,0.0525747
2.07473,-0.394274,0.024586
2.26125,-0.204199,-0.158766
2.15973,-0.301993,-0.178025
2.32904,-0.0959867,0.0678391
2.15075,-0.300737,0.0379066
2.0792,-0.395125,-0.123255
2.23908,-0.202196,0.130929
2.15325,-0.301087,0.0885791
2.26432,-0.204476,-0.105905
2.15999,-0.30203,-0.114302
2.14789,-0.300337,0.177049
2.13567,-0.298629,0.393177
2.24625,-0.202844,-0.0524816
2.33331,-0.104323,-0.0407688
2.14514,-0.307591,-0.0630683
2.24614,-0.21074,0
2.15637,-0.309201,-0.277285
2.33763,-0.104516,0.0135999
2.16185,-0.309987,-0.0126932
2.07623,-0.402075,-0.197413
2.07334,-0.401514,0.024586
2.25258,-0.211345,-0.158208
2.15867,-0.30953,-0.178025
2.32469,-0.103937,0.0677228
2.14968,-0.308242,0.0379066
2.07781,-0.40238,-0.123255
2.23438,-0.209638,0.130697
2.14823,-0.308034,0.0884162
2.25166,-0.211259,-0.105346
2.15497,-0.309001,-0.114092
2.13894,-0.306701,0.176398
2.12683,-0.304965,0.391742
2.24553,-0.210683,-0.0524816
2.32495,-0.112082,-0.0406292
2.13614,-0.313915,-0.0628356
2.23344,-0.217417,0
2.07192,-0.408749,-0.024586
2.15135,-0.316149,-0.27678
2.32127,-0.111904,0.0135069
2.067,-0.407778,-0.19667
2.23284,-0.217358,0.0522025
2.06407,-0.4072,0.0244928
2.24389,-0.218434,-0.15765
2.14968,-0.315904,-0.177375
2.31633,-0.111666,0.06749
2.14859,-0.315744,0.0379066
2.07248,-0.408858,-0.123022
2.22967,-0.217049,0.130464
2.13528,-0.313787,0.0879277
2.23898,-0.217956,-0.104788
2.14598,-0.315359,-0.113674
2.13785,-0.314166,0.176398
2.12964,-0.312959,0.392459
2.2408,-0.218133,-0.0523886
2.32055,-0.11999,-0.0405594
2.22471,-0.224409,0
2.05872,-0.413615,-0.0244463
2.15023,-0.323657,-0.27678
2.32086,-0.120006,0.0135069
2.06166,-0.414206,-0.196298
2.05088,-0.412039,0.0243531
2.2312,-0.225064,-0.156813
2.13674,-0.321626,-0.176398
2.30794,-0.119338,0.0672573
2.05929,-0.41373,-0.122325
2.22095,-0.224029,0.129999
2.13417,-0.321239,0.0879277
2.2382,-0.22577,-0.104788
2.13696,-0.321659,-0.113255
2.12886,-0.320439,0.175747
2.12075,-0.31922,0.391024
2.22809,-0.224749,-0.0521094
2.30813,-0.127428,-0.04035
2.22789,-0.232588,0
2.13733,-0.329348,-0.275265
2.30845,-0.127446,0.0134371
2.22694,-0.23249,-0.241183
2.0524,-0.419804,-0.195554
2.22331,-0.23211,0.0520164
2.05334,-0.419997,0.0243997
2.2304,-0.232851,-0.156813
2.13167,-0.328476,-0.176073
2.29952,-0.126953,0.0670246
2.13843,-0.329518,0.037767
2.06175,-0.421716,-0.122557
2.22015,-0.23178,0.129999
2.13303,-0.328686,0.0879277
2.2374,-0.233581,-0.104788
2.13188,-0.328508,-0.113046
2.1159,-0.326047,0.174771
2.22331,-0.23211,-0.0520164
2.30368,-0.13525,-0.0402802
2.12879,-0.335644,-0.0627192
2.21116,-0.238647,0
2.13224,-0.336188,-0.27476
2.3,-0.135034,0.0133907
2.21821,-0.239408,-0.240326
2.05482,-0.427777,-0.195926
2.22249,-0.23987,0.0520164
2.04403,-0.425532,0.0243066
2.22561,-0.240207,-0.156534
2.29507,-0.134745,0.0669082
2.13332,-0.336358,0.0376972
2.30729,-0.135462,-0.148126
2.05635,-0.428096,-0.122325
2.20742,-0.238243,0.129301
2.12793,-0.335508,0.0877649
2.22863,-0.240532,-0.104416
2.12283,-0.334704,-0.112627
2.11475,-0.333431,0.174771
2.30611,-0.135393,-0.0941152
2.21851,-0.239441,-0.0519233
2.3032,-0.143291,-0.0402802
2.11971,-0.3418,-0.0624865
2.21031,-0.246364,0
2.13106,-0.343629,-0.27476
2.29153,-0.142565,0.0133442
2.21341,-0.246709,-0.239897
2.04163,-0.432471,-0.194811
2.21369,-0.24674,0.0518303
2.03862,-0.431836,0.02426
2.21683,-0.24709,-0.155975
2.12932,-0.343349,-0.176073
2.29459,-0.142755,0.0669082
2.30281,-0.143267,-0.14787
2.04703,-0.433617,-0.121859
2.20261,-0.245505,0.129069
2.1149,-0.341025,0.0872764
2.21983,-0.247425,-0.104044
2.1177,-0.341476,-0.112418
2.11358,-0.340811,0.174771
2.20177,-0.245411,-0.0515511
2.2947,-0.150805,-0.0401405
2.10667,-0.347246,-0.0621374
2.19354,-0.25225,0
2.12201,-0.349775,-0.27375
2.28703,-0.150301,0.0133209
2.21649,-0.254888,-0.240326
2.03621,-0.438756,-0.194439
2.20487,-0.253552,0.0516442
2.02928,-0.437264,0.0241669
2.21199,-0.254371,-0.155696
2.12024,-0.349483,-0.175422
2.29009,-0.150502,0.0667919
2.29832,-0.151042,-0.147614
2.0416,-0.439918,-0.121627
2.1938,-0.252279,0.128604
2.1137,-0.348405,0.0872764
2.21498,-0.254716,-0.103857
2.10861,-0.347567,-0.111999
2.19297,-0.252184,0.271037
2.10451,-0.34689,0.17412
2.19692,-0.252638,-0.0514581
2.2902,-0.158138,-0.0400707
2.1927,-0.259523,0
2.20981,-0.261548,-0.346194
2.12084,-0.35681,-0.27375
2.28652,-0.157884,0.0133209
2.20773,-0.261302,-0.239469
2.03474,-0.445506,-0.194439
2.19607,-0.259922,0.0514581
2.02001,-0.44228,0.0240738
2.2032,-0.260766,-0.155138
2.10728,-0.354528,-0.174445
2.2816,-0.157544,0.0665591
2.28586,-0.157838,-0.146847
2.03623,-0.445832,-0.121394
2.18502,-0.258614,0.128138
2.09677,-0.35276,0.0866251
2.19826,-0.260181,-0.103113
2.10745,-0.354557,-0.111999
2.18818,-0.258988,0.27055
2.09941,-0.353205,0.173795
2.19607,-0.259922,-0.0514581
2.28564,-0.165842,-0.0400009
2.18781,-0.266691,0
2.02626,-0.451067,-0.0241669
2.11567,-0.363539,-0.273244
2.27398,-0.164996,0.0132512
2.20286,-0.268526,-0.239041
2.02929,-0.451741,-0.194067
2.19118,-0.267103,0.051365
2.01455,-0.448459,0.0240272
2.19436,-0.26749,-0.15458
2.26508,-0.16435,0.0660937
2.28131,-0.165527,-0.146591
2.18014,-0.265757,0.127906
2.09946,-0.360754,0.0867879
2.2013,-0.268336,-0.103299
2.1062,-0.361911,-0.111999
2.08638,-0.358506,0.172818
2.18721,-0.266619,-0.051272
2.27704,-0.17361,-0.0398613
2.0911,-0.367213,-0.0617883
2.17888,-0.273711,0
2.02459,-0.45849,-0.0241669
2.11042,-0.370605,-0.272739
2.26539,-0.172721,0.0132047
2.19791,-0.276102,-0.238612
2.02373,-0.458296,-0.193695
2.01679,-0.456723,0.0240738
2.19336,-0.275531,-0.15458
2.10076,-0.368908,-0.17412
2.26048,-0.172347,0.0659773
2.09955,-0.368696,0.0372085
2.27273,-0.173281,-0.146079
2.0252,-0.458628,-0.120929
2.17519,-0.273248,0.127673
2.09025,-0.367064,0.0864623
2.19634,-0.275904,-0.103113
2.09699,-0.368247,-0.11158
2.17445,-0.273155,0.269088
2.08505,-0.36615,0.172818
2.27152,-0.173189,-0.0928126
2.17829,-0.273637,-0.0510859
2.26848,-0.180525,-0.0397217
2.08987,-0.374145,-0.0617883
2.17399,-0.280423,0
2.19519,-0.283157,-0.344349
2.10137,-0.376203,-0.271729
2.26081,-0.179915,0.0131814
2.09466,-0.375002,-0.0123678
2.18515,-0.281863,-0.237327
2.01444,-0.463219,-0.192952
2.17737,-0.280859,0.0510859
2.18848,-0.282292,-0.154301
2.0956,-0.37517,-0.173795
2.25192,-0.179208,0.0657446
2.27214,-0.180817,-0.146079
2.01978,-0.464446,-0.120697
2.16239,-0.278927,0.126976
2.08509,-0.373289,0.0862994
2.18749,-0.282164,-0.102741
2.09576,-0.375199,-0.11158
2.1696,-0.279856,0.2686
2.07598,-0.371657,0.172167
2.26296,-0.180086,-0.0924869
2.17737,-0.280859,-0.0510859
2.13618,-0.390136,-1.01259
2.25987,-0.18778,-0.0395821
2.08069,-0.380001,-0.0615556
2.173,-0.28801,0
2.09614,-0.382823,-0.271224
2.25619,-0.187475,0.0131582
2.18415,-0.289489,-0.237327
2.01281,-0.470248,-0.192952
2.16844,-0.287407,0.0508998
1.99416,-0.465891,0.0238409
2.17957,-0.288881,-0.153743
2.09036,-0.381767,-0.173469
2.25527,-0.187398,0.065861
2.25956,-0.187755,-0.145312
2.01037,-0.469677,-0.120232
2.15745,-0.285949,0.126743
2.07984,-0.379847,0.0861366
2.17857,-0.288748,-0.102368
2.08658,-0.381077,-0.111162
2.16074,-0.286385,0.267625
2.07075,-0.378185,0.171842
2.26232,-0.187984,-0.0924869
2.16844,-0.287407,-0.0508998
2.25521,-0.195323,-0.0395123
2.07935,-0.387262,-0.0615556
2.15612,-0.293436,0
2.00031,-0.474696,-0.0239341
2.09869,-0.390864,-0.271729
2.24755,-0.194659,0.0131117
2.17919,-0.296575,-0.236899
2.01116,-0.477271,-0.192952
2.16743,-0.294974,0.0508998
1.98863,-0.471925,0.0237944
2.16669,-0.294873,-0.152906
2.08509,-0.388331,-0.173144
2.24663,-0.19458,0.0656282
2.25492,-0.195297,-0.145056
2.0126,-0.477613,-0.120464
2.15643,-0.293478,0.126743
2.07458,-0.386373,0.0859738
2.17358,-0.295812,-0.102182
2.08131,-0.387626,-0.110952
2.15185,-0.292855,0.26665
2.06549,-0.384681,0.171516
2.2497,-0.194846,-0.0919985
2.16347,-0.294435,-0.0508067
2.12984,-0.404363,-1.0109
2.25053,-0.202835,-0.0394424
2.07013,-0.393026,-0.0613228
2.15509,-0.30096,0
1.99475,-0.480738,-0.0238875
2.08562,-0.395967,-0.270214
2.2349,-0.201426,0.0130419
2.1742,-0.30363,-0.23647
2.00174,-0.482422,-0.192208
2.1545,-0.300879,0.0506206
1.99475,-0.480738,0.0238875
2.16169,-0.301883,-0.152627
2.07197,-0.393376,-0.172167
2.24627,-0.20245,-0.144544
2.00316,-0.482764,-0.119999
2.14749,-0.299899,0.126278
2.06536,-0.392121,0.0856481
2.16462,-0.302292,-0.10181
2.07994,-0.394889,-0.110952
2.14296,-0.299266,0.265675
2.05239,-0.389658,0.17054
2.24503,-0.202339,-0.0918356
2.15846,-0.301432,-0.0507136
2.12486,-0.411107,-1.00921
2.23787,-0.20957,-0.039233
2.06874,-0.40025,-0.0613228
2.1461,-0.307347,0
1.99306,-0.487698,-0.0238875
2.07643,-0.401737,-0.269204
2.2302,-0.208853,0.0130187
2.07351,-0.401173,-0.0122748
2.15345,-0.308398,-0.234328
2.00004,-0.489407,-0.192208
2.15344,-0.308398,0.0506206
1.9814,-0.484846,0.0237478
2.15668,-0.308861,-0.152348
2.07059,-0.400606,-0.172167
2.2293,-0.208768,0.0651628
2.24555,-0.21029,-0.144544
1.9937,-0.487856,-0.119534
2.14643,-0.307393,0.126278
2.06006,-0.398569,0.0854853
2.16751,-0.310413,-0.101996
2.07463,-0.401388,-0.110743
2.1419,-0.306744,0.265675
2.0471,-0.396063,0.170214
2.23635,-0.209429,-0.09151
2.15344,-0.308398,-0.0506206
2.12341,-0.418521,-1.00921
2.22916,-0.216607,-0.0390934
2.06341,-0.406696,-0.0612065
2.14898,-0.315417,0
1.98746,-0.493688,-0.0238409
2.07501,-0.408983,-0.269204
2.22548,-0.21625,0.0129954
2.06033,-0.406087,-0.012205
2.15236,-0.315913,-0.234328
2.14444,-0.314751,0.0504345
1.9797,-0.49176,0.0237478
2.15558,-0.316387,-0.152348
2.06918,-0.407832,-0.172167
2.2206,-0.215775,0.0649301
2.23288,-0.216969,-0.143777
1.98811,-0.493849,-0.119301
2.13744,-0.313724,0.125813
2.05473,-0.404985,0.0853225
2.15455,-0.316236,-0.101438
2.07321,-0.408628,-0.110743
2.04571,-0.403206,0.170214
2.22765,-0.216461,-0.0911843
2.14444,-0.314751,-0.0504345
2.12549,-0.426644,-1.0109
2.23635,-0.225188,-0.039233
2.05806,-0.413109,-0.0610901
2.14391,-0.322322,0
1.97797,-0.498667,-0.0237478
2.06968,-0.415442,-0.268699
2.22471,-0.224017,0.0129954
2.06282,-0.414064,-0.0122283
2.14337,-0.322242,-0.233472
2.14333,-0.322235,0.0504345
1.98185,-0.499645,0.0237944
2.14658,-0.322723,-0.15179
2.06383,-0.414267,-0.171842
2.21585,-0.223125,0.0648137
2.23211,-0.224762,-0.143777
1.9825,-0.49981,-0.119069
2.13633,-0.321183,0.125813
2.04155,-0.409795,0.084834
2.13763,-0.321379,-0.100693
2.06394,-0.41429,-0.110324
2.12793,-0.319919,0.264213
2.04429,-0.410344,0.170214
2.22688,-0.224235,-0.0911843
2.15123,-0.323424,-0.0506206
2.12044,-0.433335,-1.00921
2.22759,-0.232164,-0.0390934
2.04877,-0.418689,-0.0608574
2.123,-0.326761,0
1.97234,-0.504577,-0.0237012
2.06433,-0.42187,-0.268194
2.21994,-0.231366,0.0129722
2.0496,-0.418859,-0.0121585
2.13831,-0.329117,-0.233043
2.13824,-0.329106,0.0503414
1.96072,-0.501603,0.0235616
2.1336,-0.328393,-0.150953
2.05847,-0.420671,-0.171516
2.05324,-0.419603,0.0365802
2.22734,-0.232138,-0.143521
1.98461,-0.507717,-0.119301
2.13125,-0.328031,0.12558
2.03619,-0.416119,0.0846712
2.1365,-0.328838,-0.100693
2.05857,-0.420692,-0.110115
2.12287,-0.326741,0.263725
2.03503,-0.415881,0.169564
2.21814,-0.231178,-0.0908587
2.13824,-0.329106,-0.0503414
2.21484,-0.238653,-0.038884
2.04338,-0.425024,-0.060741
2.12185,-0.33417,0
1.9667,-0.510454,-0.0236547
2.05896,-0.428265,-0.267689
2.20719,-0.237828,0.0129024
2.04813,-0.426011,-0.0121585
2.14107,-0.337197,-0.233472
2.12917,-0.335324,0.0501553
1.9667,-0.510454,0.0236547
2.13639,-0.33646,-0.151232
2.05308,-0.427042,-0.171191
2.20231,-0.237303,0.0644646
2.04785,-0.425954,0.0365104
1.97123,-0.511632,-0.118604
2.0269,-0.421596,0.0843455
2.1235,-0.334429,-0.100135
2.04536,-0.425435,-0.109487
2.1178,-0.333532,0.263238
2.13707,-0.336568,-0.0503414
2.20604,-0.245498,-0.0387443
2.04189,-0.432154,-0.060741
2.11277,-0.340302,0
1.94943,-0.513243,-0.0234684
2.04581,-0.432985,-0.266173
2.19839,-0.244647,0.012856
2.04272,-0.43233,-0.0121353
2.12418,-0.342139,-0.231758
1.95717,-0.515279,0.0235616
2.11944,-0.341377,-0.150116
2.04378,-0.432555,-0.17054
2.03461,-0.430615,0.036301
2.20583,-0.245475,-0.142242
1.95785,-0.515459,-0.117906
2.11708,-0.340996,0.124883
2.02542,-0.428669,0.0843455
2.13021,-0.34311,-0.100507
2.04777,-0.433399,-0.109696
2.10878,-0.33966,0.262263
2.20455,-0.245332,-0.0903702
2.13194,-0.34339,-0.0502484
2.19334,-0.251063,-0.0385349
2.03661,-0.437727,-0.0606247
2.11169,-0.346938,0
1.95554,-0.521425,-0.0235616
2.19364,-0.251097,0.0128327
2.02571,-0.435383,-0.0120423
2.11901,-0.348141,0.0499692
1.94781,-0.519364,0.0234684
2.1223,-0.34868,-0.150395
2.04241,-0.438973,-0.17054
2.03325,-0.437005,0.036301
2.20108,-0.251949,-0.141986
1.96008,-0.522636,-0.118138
2.11206,-0.346998,0.12465
2.01625,-0.43335,0.0840198
2.11729,-0.347858,-0.0999489
2.03858,-0.438151,-0.109277
2.1077,-0.346283,0.262263
2.01123,-0.432271,0.167936
2.1998,-0.251802,-0.0902073
2.11506,-0.347492,-0.0498762
2.19642,-0.259186,-0.0386047
2.03116,-0.443979,-0.0605083
2.10258,-0.352982,0
1.95371,-0.528248,-0.0235616
2.19672,-0.259222,0.012856
2.02417,-0.442451,-0.0120423
2.11402,-0.354903,-0.230901
2.11384,-0.354873,0.0498762
1.94212,-0.525117,0.0234219
2.1132,-0.354765,-0.149837
2.03697,-0.445249,-0.170214
2.18392,-0.257711,0.0639992
2.03171,-0.4441,0.036301
1.95439,-0.528433,-0.117906
2.11083,-0.354369,0.12465
2.10818,-0.353923,-0.0995766
2.03704,-0.445264,-0.109277
2.09865,-0.352323,0.261288
2.00971,-0.439289,0.167936
2.11778,-0.355535,-0.0499692
2.18355,-0.265785,-0.0383953
2.02172,-0.449685,-0.0602756
1.93633,-0.531173,-0.0233753
2.19179,-0.266788,0.0128327
2.01863,-0.448999,-0.012019
2.10858,-0.361942,0.0497831
1.93633,-0.531173,0.0233753
2.10402,-0.361158,-0.149279
2.03143,-0.451846,-0.169889
2.17899,-0.26523,0.0638828
2.02617,-0.450675,0.0362312
2.1913,-0.266728,-0.141474
2.00919,-0.446899,0.083857
2.11081,-0.362324,-0.0997627
2.0237,-0.450126,-0.108649
2.00419,-0.445787,0.167611
2.18604,-0.266088,-0.0897188
2.11252,-0.362618,-0.0498762
2.18261,-0.273406,-0.0383953
2.01233,-0.454976,-0.0600429
2.08818,-0.365948,0
1.93832,-0.539001,-0.0234219
2.17893,-0.272946,0.012763
2.01705,-0.456043,-0.012019
2.10359,-0.368648,-0.230044
1.93832,-0.539001,0.0234219
2.09881,-0.367811,-0.149
2.02207,-0.457176,-0.169238
2.16615,-0.271344,0.0635337
2.01678,-0.455981,0.0360916
2.00372,-0.453028,0.0836942
2.09379,-0.366931,-0.0990182
2.01822,-0.456306,-0.10844
2.08825,-0.365961,0.260313
2.10731,-0.3693,-0.0497831
2.16979,-0.279111,-0.0381859
2.01471,-0.462541,-0.0601592
2.08695,-0.37287,0
1.92497,-0.542172,-0.0232822
2.17405,-0.279659,0.0127397
2.00383,-0.460044,-0.0119493
1.92497,-0.542172,0.0232822
2.08972,-0.373366,-0.148442
2.01665,-0.462987,-0.168913
2.16524,-0.278525,0.0635337
2.01136,-0.461771,0.0360218
2.17359,-0.279601,-0.140451
1.99831,-0.458776,0.0835313
2.09649,-0.374575,-0.0992044
2.0167,-0.462996,-0.10844
1.99334,-0.457634,0.16696
2.17228,-0.279432,-0.0892304
2.10213,-0.375583,-0.0496901
2.16484,-0.286159,-0.0381161
2.0014,-0.466846,-0.0598101
2.0817,-0.379436,0
1.92691,-0.549986,-0.0233287
2.1691,-0.286722,0.0127165
2.00222,-0.467036,-0.0119493
1.92307,-0.548888,0.0232822
2.08448,-0.379942,-0.148163
2.01114,-0.469118,-0.168587
2.16425,-0.286082,0.0635337
2.00584,-0.467881,0.035952
2.08604,-0.380226,0.123487
1.98891,-0.463933,0.0832057
2.08731,-0.380458,-0.0988321
2.01118,-0.469126,-0.108231
1.98785,-0.463684,0.166634
2.09688,-0.382201,-0.049597
2.15986,-0.293176,-0.0380462
1.99587,-0.472907,-0.0596938
1.92114,-0.555598,-0.0232822
2.16015,-0.293216,0.01267
1.9889,-0.471255,-0.0118796
2.08373,-0.387326,0.0493179
1.92114,-0.555598,0.0232822
2.07922,-0.386487,-0.147884
2.00949,-0.476135,-0.168587
2.16324,-0.293635,0.0635337
2.00419,-0.47488,0.035952
2.08077,-0.386775,0.123255
2.08204,-0.387011,-0.098646
2.00175,-0.474301,-0.107812
1.97846,-0.468782,0.165984
2.1584,-0.292978,-0.0887419
2.0798,-0.386595,-0.0492248
2.1509,-0.29961,-0.0379066
2.06721,-0.391725,0
1.91919,-0.5623,-0.0232822
2.15912,-0.300755,0.01267
1.98335,-0.477259,-0.0118563
1.91151,-0.560051,0.023189
2.07002,-0.392257,-0.147326
2.00007,-0.481281,-0.167936
2.15032,-0.299529,0.0631846
1.99475,-0.480001,0.0358123
2.15473,-0.300144,-0.139427
2.07156,-0.392549,0.12279
1.97786,-0.475937,0.08288
2.07675,-0.393532,-0.0984599
1.9962,-0.480351,-0.107603
1.97293,-0.474752,0.165658
2.07844,-0.393853,-0.0492248
2.14979,-0.307492,-0.0379066
1.98467,-0.485278,-0.0594611
2.06184,-0.39854,0
1.90561,-0.565915,-0.0231425
2.15008,-0.307533,0.0126235
1.98159,-0.484525,-0.0118563
2.0695,-0.400022,-0.227046
1.90944,-0.567053,0.023189
2.07248,-0.400598,-0.147605
1.99442,-0.487662,-0.167611
2.14525,-0.306842,0.0630683
1.98909,-0.486359,0.0357425
1.97222,-0.482233,0.0827172
2.07137,-0.400383,-0.0982737
1.98667,-0.485767,-0.107184
1.96731,-0.481033,0.165333
2.14438,-0.306718,-0.0882534
2.07698,-0.401468,-0.0492248
2.14084,-0.31346,-0.037767
1.98305,-0.491857,-0.0594611
2.0605,-0.405375,0
1.90755,-0.573382,-0.023189
2.13718,-0.312923,0.0125537
1.97609,-0.490131,-0.0118331
2.06779,-0.406809,0.0490387
1.90372,-0.572231,0.0231425
2.06331,-0.405928,-0.147047
1.98505,-0.492353,-0.16696
2.13631,-0.312796,0.0628356
1.98359,-0.49199,0.0356727
1.97061,-0.488771,0.0827172
2.06611,-0.406479,-0.0980876
1.98117,-0.491391,-0.106975
1.9657,-0.487554,0.165333
2.06387,-0.406037,-0.0489456
2.13177,-0.320117,-0.0376274
1.97348,-0.497168,-0.0592283
2.05116,-0.411351,0
1.90161,-0.579204,-0.0231425
2.13601,-0.320754,0.0125537
1.9704,-0.496393,-0.0118098
1.90161,-0.579204,0.0231425
2.0579,-0.412703,-0.146768
1.9755,-0.497677,-0.166309
2.13515,-0.320624,0.0628356
1.96626,-0.495349,0.0353935
2.04377,-0.40987,0.121394
2.05677,-0.412477,-0.0977154
1.98323,-0.499624,-0.107184
1.96003,-0.493782,0.165007
2.13428,-0.320494,-0.0879277
2.05845,-0.412813,-0.0488526
2.12674,-0.326577,-0.0375576
2.04978,-0.418151,0
1.89968,-0.585507,-0.0231425
2.13099,-0.327229,0.0125305
1.96487,-0.501935,-0.0117866
2.05358,-0.418926,-0.225761
2.05315,-0.418837,0.0487595
1.88439,-0.580795,0.0229562
2.05261,-0.418728,-0.146489
2.13407,-0.327703,0.0628356
1.96848,-0.502856,0.0354633
2.13455,-0.327776,-0.138404
2.05148,-0.418497,-0.0975292
1.97382,-0.504221,-0.106765
1.95452,-0.499292,0.164682
2.13321,-0.32757,-0.0879277
2.05707,-0.419637,-0.0488526
2.12164,-0.333378,-0.0374878
1.95844,-0.50758,-0.0588792
2.03656,-0.422864,0
1.89763,-0.592135,-0.0231425
2.12983,-0.334665,0.0125305
1.95923,-0.507787,-0.0117633
1.88617,-0.588561,0.0230028
2.04723,-0.425079,-0.14621
2.11317,-0.332047,0.0622537
1.95897,-0.507718,0.0353237
2.04485,-0.424584,0.121627
2.05783,-0.42728,-0.0979015
1.96431,-0.509104,-0.106347
1.95277,-0.506112,0.164682
2.1202,-0.333153,-0.0874392
2.04776,-0.425189,-0.0486665
2.11646,-0.340517,-0.037418
1.9527,-0.513737,-0.0587629
2.03109,-0.429498,0
2.12464,-0.341834,0.0125072
1.96123,-0.515982,-0.0117866
2.04275,-0.431964,-0.224904
1.87637,-0.593059,0.0229097
2.04566,-0.432579,-0.14621
2.11193,-0.339789,0.0622537
1.94936,-0.512859,0.0351841
2.11639,-0.340506,-0.137381
1.94417,-0.511495,0.0819031
2.04843,-0.433166,-0.0975292
1.95857,-0.515283,-0.106137
1.94319,-0.511237,0.164031
2.04227,-0.431864,-0.0485734
2.11143,-0.346517,-0.0373482
1.95494,-0.520899,-0.0588792
2.02973,-0.435877,0
2.11171,-0.346563,0.0124375
1.95187,-0.520081,-0.0117401
2.03361,-0.43671,-0.224047
1.88212,-0.601386,0.0230028
2.04039,-0.438166,-0.145931
2.11086,-0.346423,0.0622537
1.94387,-0.517951,0.0351142
2.11137,-0.346506,-0.137125
2.0302,-0.435978,0.120929
1.94256,-0.5176,0.0819031
2.04315,-0.43876,-0.0973431
1.95308,-0.520405,-0.105928
2.02918,-0.435759,-0.0482943
2.10219,-0.353296,-0.0372085
1.94134,-0.525269,-0.0585302
2.02022,-0.441957,0
2.11431,-0.355332,0.0124607
1.94599,-0.526527,-0.0117168
2.0358,-0.445365,-0.224475
1.8798,-0.608608,0.0230028
2.03869,-0.445997,-0.145931
2.10557,-0.353863,0.0621374
1.93801,-0.524366,0.0350444
2.02461,-0.442917,0.120697
1.93284,-0.522968,0.0815774
2.02974,-0.44404,-0.0967847
2.02358,-0.442692,-0.0482012
2.10095,-0.360631,-0.0372085
2.01867,-0.449006,0
2.09729,-0.360004,0.0123678
1.94029,-0.532258,-0.0116936
2.02259,-0.449878,-0.22319
1.87006,-0.612675,0.0229097
2.03323,-0.452245,-0.145652
2.10038,-0.360534,0.062021
1.93617,-0.531128,0.0350444
2.01525,-0.448247,0.120232
2.02038,-0.449388,-0.0964125
1.93766,-0.531538,-0.1053
2.09559,-0.359711,-0.0866251
2.01422,-0.448017,-0.0480151
2.0918,-0.366582,-0.0370689
2.01319,-0.455168,0
2.09602,-0.367322,0.0123678
1.93071,-0.536885,-0.0116471
2.021,-0.456935,-0.22319
2.02044,-0.456809,0.0482012
1.85272,-0.614165,0.0227234
2.01996,-0.456699,-0.144814
2.09517,-0.367173,0.0619047
1.9343,-0.537883,0.0350444
2.01368,-0.455279,0.120232
1.92529,-0.535378,0.0814146
2.02659,-0.4582,-0.0967847
2.09038,-0.366334,-0.0864623
2.01654,-0.455927,-0.0481082
2.09064,-0.373152,-0.0370689
2.00785,-0.460596,0
2.08698,-0.3725,0.0123213
1.93286,-0.544031,-0.0116703
2.03119,-0.46595,-0.224475
1.85458,-0.621253,0.02277
2.01462,-0.462151,-0.144535
2.07826,-0.370943,0.0614392
1.9249,-0.54179,0.0349048
2.09453,-0.373848,-0.136357
2.00834,-0.46071,0.119999
1.9236,-0.541424,0.0814146
2.01736,-0.462777,-0.0964125
2.00341,-0.459577,-0.047829
2.08145,-0.379014,-0.0369293
1.99844,-0.465786,0
1.92711,-0.549678,-0.0116471
2.00958,-0.468383,0.0480151
2.00911,-0.468275,-0.144256
2.07695,-0.378195,0.0614392
1.91915,-0.547409,0.034835
2.08143,-0.379011,-0.13559
1.99506,-0.464998,0.119301
1.91401,-0.545943,0.0810889
2.01184,-0.46891,-0.0962264
2.08398,-0.379474,-0.0862994
2.00179,-0.466568,-0.047829
2.07218,-0.385179,-0.0367897
1.99672,-0.473108,0
2.07246,-0.385231,0.0122515
1.91355,-0.553403,-0.0115773
2.00396,-0.474824,0.0479221
2.00738,-0.475635,-0.144256
2.07162,-0.385075,0.0613228
1.90945,-0.552217,0.0346954
2.07611,-0.385908,-0.135334
1.99334,-0.472307,0.119301
1.90816,-0.551844,0.0809261
2.00233,-0.474438,-0.0958541
2.07471,-0.385649,-0.0859738
1.99228,-0.472058,-0.0476429
2.0709,-0.392049,-0.0367897
1.99902,-0.480661,0
2.06725,-0.391358,0.0122283
1.91554,-0.56087,-0.0116006
1.99071,-0.478662,0.0476429
1.99804,-0.480424,-0.143698
2.06641,-0.391199,0.0612065
1.91528,-0.560794,0.034835
2.07089,-0.392048,-0.135078
1.98788,-0.477981,0.119069
1.90632,-0.558168,0.0809261
1.99297,-0.479207,-0.0954819
2.07342,-0.392527,-0.0859738
1.98682,-0.477727,-0.0475499
2.06944,-0.399636,-0.0367897
1.97782,-0.483238,0
2.06187,-0.398173,0.012205
1.90964,-0.566749,-0.0115773
1.99282,-0.486904,0.047736
1.98851,-0.485849,-0.14314
2.06103,-0.398012,0.0610901
1.90171,-0.564396,0.0346256
2.06944,-0.399636,-0.135078
1.98223,-0.484316,0.118836
1.98732,-0.48556,-0.0952957
2.0602,-0.39785,-0.0854853
2.06811,-0.406496,-0.0367897
1.98009,-0.490756,0
2.05661,-0.404237,0.0121818
1.90775,-0.573078,-0.0115773
1.98732,-0.492548,0.0476429
1.98689,-0.492441,-0.14314
2.05185,-0.403302,0.0608574
1.89983,-0.5707,0.0346256
1.98062,-0.490887,0.118836
1.89089,-0.568014,0.0804376
1.9857,-0.492147,-0.0952957
2.05494,-0.403909,-0.0853225
1.97567,-0.489662,-0.0473638
2.05491,-0.411358,-0.0365802
1.97449,-0.496689,0
2.04735,-0.409843,0.0121353
1.89808,-0.577406,-0.0115308
1.97783,-0.497531,0.0474568
1.98516,-0.499373,-0.14314
2.04259,-0.408892,0.0606247
1.894,-0.576164,0.0345558
2.05885,-0.412145,-0.134567
1.96727,-0.494875,0.118138
1.8889,-0.574611,0.0804376
1.9801,-0.498101,-0.0951096
2.05744,-0.411864,-0.0854853
1.97395,-0.496555,-0.0473638
2.05339,-0.418887,-0.0365802
1.96878,-0.502933,0
2.03799,-0.415745,0.0120888
1.89213,-0.583181,-0.0115076
1.97212,-0.503787,0.0473638
1.97945,-0.505658,-0.142861
2.03716,-0.415576,0.0605083
1.88806,-0.581924,0.034486
2.0495,-0.418093,-0.134055
1.96158,-0.501094,0.117906
1.88296,-0.580353,0.0802748
1.97052,-0.503377,-0.0947374
2.04417,-0.417006,-0.0849968
2.04423,-0.423712,-0.0364406
1.95557,-0.506109,0
2.03668,-0.422146,0.0120888
1.88265,-0.586742,-0.0114611
1.96666,-0.508978,0.0472707
1.97012,-0.509875,-0.142303
2.03585,-0.421974,0.0605083
1.8824,-0.586663,0.0344161
2.04036,-0.422909,-0.133543
1.95613,-0.506253,0.117673
1.96506,-0.508564,-0.0945512
2.03484,-0.42955,-0.036301
1.9537,-0.513273,0
2.03511,-0.429608,0.0120888
1.88431,-0.594842,-0.0114843
1.95704,-0.51415,0.0470846
2.02646,-0.427782,0.0602756
1.87642,-0.592354,0.0343463
2.03879,-0.430385,-0.133543
1.94267,-0.510375,0.116976
1.95931,-0.514748,-0.0943651
2.03346,-0.429259,-0.0846712
1.95317,-0.513134,-0.0469915
2.0334,-0.436295,-0.036301
1.95199,-0.519749,0
2.02195,-0.433837,0.012019
1.95533,-0.520637,0.0470846
2.02503,-0.434499,0.0602756
1.87064,-0.597357,0.0342765
2.02955,-0.435468,-0.133032
1.94483,-0.517842,0.117208
1.9576,-0.521242,-0.0943651
2.02812,-0.435161,-0.0845083
1.95146,-0.519608,-0.0469915
2.02015,-0.440832,-0.0360916
1.93858,-0.523432,0
1.9535,-0.52746,0.0470846
2.01569,-0.43986,0.0600429
1.9353,-0.522546,0.116743
1.94805,-0.525989,-0.0939929
2.02268,-0.441386,-0.0843455
2.01852,-0.448234,-0.0360916
1.93665,-0.530533,0
2.01488,-0.447427,0.0119958
1.94384,-0.532503,0.0468985
2.01407,-0.447245,0.0600429
1.86632,-0.610727,0.0342765
2.02248,-0.449115,-0.132776
1.92952,-0.528581,0.116511
1.94226,-0.53207,-0.0938067
2.01715,-0.44793,-0.0841827
2.01312,-0.454045,-0.0360218
1.92717,-0.534813,0
2.00559,-0.452346,0.0119493
1.92665,-0.534668,0.0465263
2.00087,-0.451283,0.0596938
1.85289,-0.613143,0.0340671
1.93278,-0.536371,-0.0934345
1.93435,-0.536807,-0.0467124
2.01152,-0.461069,-0.0360218
2.0001,-0.458451,0.011926
1.93247,-0.543556,0.0467124
1.99539,-0.457371,0.0595774
1.84695,-0.618338,0.0339973
2.0116,-0.461087,-0.132264
1.92705,-0.542032,-0.0932484
2.00626,-0.459864,-0.083857
1.92477,-0.54139,-0.0465263
2.006,-0.467181,-0.035952
1.99459,-0.464522,0.0119028
1.93056,-0.550298,0.0467124
1.91629,-0.546232,0.116045
1.91902,-0.54701,-0.0464332
1.9926,-0.471766,-0.0357425
1.91368,-0.553079,0
1.92084,-0.55515,0.0465263
1.90661,-0.551035,0.11558
1.91316,-0.552929,-0.0463402
1.98317,-0.476848,-0.0356029
1.91122,-0.559604,0.0463402
1.97874,-0.475784,0.0592283
1.99881,-0.480611,-0.131753
1.98571,-0.47746,-0.0832057
1.97769,-0.482474,-0.0355331
1.97796,-0.48254,0.0118331
1.90552,-0.564802,0.0462471
1.90935,-0.565939,-0.0463402
1.97599,-0.489375,-0.0355331
1.97238,-0.488479,0.0118098
1.89971,-0.570301,0.0461541
1.98,-0.490366,-0.130729
1.98203,-0.498219,-0.0356727
1.97066,-0.495361,0.0118098
1.89388,-0.575765,0.046061
1.88814,-0.580866,0.045968
1.96689,-0.509038,-0.0354633
1.88218,-0.586593,0.0458749
1.95474,-0.505895,0.0587629
1.95358,-0.512513,-0.0352539
1.87641,-0.591629,0.0457819
1.94532,-0.510345,0.0585302
1.95613,-0.51318,-0.0823915
1.94432,-0.517343,0.0116936
1.87814,-0.599391,0.0458749
1.94224,-0.524055,-0.0351142
1.93864,-0.523084,0.0116703
1.86843,-0.603485,0.0456888
1.93654,-0.529776,-0.0350444
1.93294,-0.528793,0.0116471
1.86251,-0.608761,0.0455958
1.93108,-0.535537,0.0116471
1.92535,-0.541192,0.0116238
1.91934,-0.546739,-0.034835
1.9196,-0.546813,0.0116006
1.91384,-0.552401,0.0115773
1.9119,-0.559079,0.0115773
1.90227,-0.563477,0.0115308
1.89766,-0.562112,0.0575993
1.89646,-0.568964,0.0115076
1.89569,-0.568733,0.0575993
1.89446,-0.575581,0.0115076
1.88479,-0.579838,0.0114611
1.87699,-0.591451,0.0114378
1.87241,-0.590009,0.0571338
1.88264,-0.600102,0.0114843
1.86901,-0.603312,0.0114146
1.85928,-0.607348,0.0113681
