2.00006,0.354106,-0.189606
1.9975,0.353652,-0.118138
2.00647,0.340452,-0.189978
2.00366,0.333142,-0.189606
2.00481,0.326145,-0.189606
2.00618,0.326368,-0.118371
2.01057,0.319883,-0.0237012
2.00987,0.319772,-0.189978
2.01125,0.319991,-0.118604
2.01563,0.313477,-0.0237478
2.01098,0.312753,-0.189978
2.01671,0.30644,-0.0237478
2.01599,0.306331,-0.190349
2.01739,0.306542,-0.118836
2.02173,0.299986,-0.0237944
2.01705,0.299292,-0.190349
2.02239,0.300085,-0.119069
2.02203,0.29282,-0.190721
2.03133,0.294167,-0.119534
2.02377,0.285864,-0.0237944
2.02303,0.28576,-0.190721
2.0363,0.287634,-0.119766
2.02872,0.279343,-0.0238409
2.03191,0.279783,-0.191465
2.0336,0.273147,-0.0238875
2.03283,0.273043,-0.191465
1.98775,0.366614,-0.165007
2.03425,0.273235,-0.119534
2.04247,0.267083,-0.0239806
1.98902,0.359673,-0.165007
2.04339,0.259953,-0.0239806
2.03468,0.258845,-0.191465
1.99419,0.353424,-0.165333
2.04403,0.260034,-0.119999
2.04429,0.252818,-0.0239806
2.03953,0.252229,-0.191837
2.05286,0.253878,-0.120464
2.04516,0.245681,-0.0239806
2.0483,0.246059,-0.19258
2.00447,0.34083,-0.165984
2.0458,0.245758,-0.119999
2.05792,0.23993,-0.0241203
2.05311,0.239369,-0.192952
2.04665,0.238616,-0.119999
2.05477,0.232295,-0.0240738
2.04997,0.231753,-0.19258
2.01073,0.327469,-0.166309
2.05937,0.232815,-0.120697
2.05955,0.225557,-0.0241203
2.05473,0.22503,-0.192952
2.01186,0.320448,-0.166309
2.06414,0.226061,-0.120929
2.0079,0.319817,-0.106556
2.0643,0.218788,-0.0241669
2.05946,0.218275,-0.193324
2.01691,0.314036,-0.166634
2.06492,0.218854,-0.120929
2.06505,0.211581,-0.0241669
2.01676,0.306807,-0.0118563
2.06813,0.211897,-0.194067
2.06567,0.211645,-0.120929
1.97765,0.400562,-0.0939929
2.06976,0.204765,-0.0242135
2.0649,0.204284,-0.193695
2.01905,0.299948,-0.166634
2.06639,0.204432,-0.120929
2.07046,0.197538,-0.0242135
2.0656,0.197075,-0.193695
2.02403,0.29347,-0.16696
2.07505,0.197976,-0.121394
2.08308,0.191409,-0.0243531
2.02779,0.286792,-0.0119028
2.07024,0.190229,-0.194067
2.07572,0.190733,-0.121394
2.07571,0.184158,-0.02426
2.03213,0.280897,-0.261123
2.02868,0.280421,-0.0119028
2.07479,0.184077,-0.194439
2.02593,0.280041,-0.16696
2.07631,0.184211,-0.121394
2.02593,0.280041,-0.107184
2.08832,0.177563,-0.0243997
2.02921,0.272917,-0.260618
2.08339,0.177144,-0.195183
2.03485,0.273676,-0.167611
2.02942,0.272945,0.0357425
2.08493,0.177275,-0.121859
2.0309,0.273145,-0.107393
2.0889,0.170638,-0.0243997
2.03404,0.266703,-0.261123
2.08,0.169911,-0.194811
2.08491,0.170312,0.0243531
1.99065,0.360685,-0.141466
2.0397,0.267445,-0.167936
2.03428,0.266734,0.0358123
2.08949,0.170686,-0.122092
2.0318,0.266409,-0.107393
2.0855,0.163034,-0.0243531
2.03496,0.259601,-0.261123
2.03547,0.259667,-0.011926
2.08058,0.16265,-0.194811
2.04457,0.260828,-0.168262
2.09007,0.163392,-0.122092
2.04064,0.260326,-0.107812
2.09004,0.15605,-0.0243997
2.04373,0.253473,-0.262133
2.04033,0.253052,-0.0119493
2.08511,0.155682,-0.195183
2.04943,0.25418,-0.168587
2.04403,0.25351,0.035952
2.09461,0.156392,-0.122325
2.03757,0.252709,-0.107603
2.09057,0.148754,-0.0243997
2.04854,0.246812,-0.262638
2.05312,0.247364,-0.012019
2.08564,0.148403,-0.195183
1.99825,0.340491,-0.141745
2.0503,0.247025,-0.168587
2.0449,0.246374,0.035952
2.09913,0.149363,-0.122557
2.04637,0.246552,-0.108021
1.99864,0.340558,-0.0471777
2.10308,0.141898,-0.0245394
2.05337,0.239762,-0.263143
2.05401,0.239837,-0.012019
2.09809,0.141562,-0.196298
2.00342,0.33382,-0.142024
2.05119,0.239508,-0.168587
2.04579,0.238877,0.035952
2.09966,0.141668,-0.122557
2.0022,0.333616,-0.0945512
2.05123,0.239512,-0.108231
2.09954,0.134668,-0.0244928
2.0581,0.233399,-0.263648
2.05082,0.232574,-0.0119958
2.09855,0.134604,-0.196298
2.09555,0.134412,0.0244463
2.00452,0.327175,-0.142024
2.0599,0.233604,-0.169238
2.05452,0.232993,0.0360916
2.10012,0.134705,-0.122557
2.00723,0.327618,-0.0947374
2.05201,0.232709,-0.108231
2.11198,0.128065,-0.0246325
2.0589,0.226214,-0.263648
2.0556,0.225851,-0.012019
2.09503,0.127037,-0.195926
2.00959,0.320805,-0.142303
2.05674,0.225977,-0.168913
2.05134,0.225384,0.0360218
2.10855,0.127857,-0.123022
2.00836,0.32061,-0.0947374
2.05281,0.225545,-0.108231
2.10844,0.120096,-0.024586
2.05971,0.218667,-0.263648
2.05641,0.218316,-0.012019
2.10343,0.119811,-0.19667
2.06152,0.218858,-0.169238
2.05613,0.218286,0.0360916
2.10103,0.119674,-0.122557
2.06157,0.218864,-0.108649
2.11681,0.113532,-0.0246791
2.06832,0.212646,-0.264658
2.06508,0.212313,-0.0120655
2.11177,0.113261,-0.197413
2.10483,0.112889,0.0245394
2.01572,0.307369,-0.142582
2.0662,0.212428,-0.169564
2.11338,0.113347,-0.123255
2.01845,0.307786,-0.0951096
2.06228,0.212026,-0.108649
2.12519,0.106542,-0.0247722
2.0651,0.205033,-0.264153
2.06979,0.205498,-0.0120888
2.11613,0.106088,-0.197785
2.10521,0.10554,0.0245394
2.01678,0.300331,-0.142582
2.0709,0.205608,-0.169889
2.06155,0.20468,0.0361614
2.10977,0.105769,-0.123022
2.01952,0.300738,-0.0951096
2.06301,0.204825,-0.108649
2.12157,0.0985667,-0.0247257
2.07374,0.198218,-0.265163
2.07053,0.197911,-0.0120888
2.11253,0.0981467,-0.197413
2.11358,0.0981955,0.0246325
2.02577,0.294084,-0.14314
2.0756,0.198396,-0.170214
2.06627,0.197504,0.0362312
2.11413,0.0982213,-0.123255
2.02061,0.293334,-0.0951096
2.0717,0.198023,-0.109068
2.12589,0.0913315,-0.0247722
2.08232,0.191705,-0.266173
2.07121,0.190682,-0.0120888
2.11286,0.0907714,-0.197413
2.11391,0.0908165,0.0246325
2.07628,0.191149,-0.170214
2.07093,0.190656,0.036301
2.12244,0.0911832,-0.12372
2.02953,0.287399,-0.0954819
2.0684,0.190423,-0.108859
2.1262,0.0839107,-0.0247722
2.07903,0.184086,-0.265668
2.07983,0.184157,-0.0121353
2.12112,0.0837102,-0.198157
2.07694,0.183901,-0.170214
2.08353,0.184484,0.0365104
2.13073,0.0840894,-0.124185
2.07701,0.183907,-0.109277
2.12645,0.07723,-0.0247722
2.0875,0.178228,-0.266678
2.08438,0.177961,-0.0121585
2.12137,0.0770455,-0.198157
2.11846,0.0769397,0.0246791
2.03655,0.274628,-0.143698
2.08148,0.177714,-0.17054
2.07613,0.177257,0.0363708
2.13497,0.0775394,-0.124418
2.03139,0.273933,-0.0954819
2.08156,0.177721,-0.109487
2.02908,0.273621,-0.0476429
2.07617,0.169963,-0.0606247
2.1387,0.0702009,-0.0249119
2.0802,0.170293,-0.265668
2.08499,0.170685,-0.0121585
2.12959,0.0699018,-0.1989
2.12671,0.0698073,0.0247722
2.03354,0.266999,-0.143419
2.08209,0.170447,-0.17054
2.07674,0.170009,0.0363708
2.13523,0.0700869,-0.124418
2.04422,0.268401,-0.0960402
2.08615,0.17078,-0.109696
2.03952,0.259822,0
2.13896,0.0619889,-0.0249119
2.08875,0.162922,-0.266678
2.08164,0.162367,-0.0121353
2.12586,0.0616094,-0.198529
2.04293,0.260257,0.0479221
2.04247,0.260197,-0.143977
2.0867,0.162762,-0.170865
2.08535,0.162656,0.0365104
2.13948,0.0620039,-0.12465
2.03731,0.25954,-0.095668
2.09077,0.163079,-0.109906
2.0813,0.155763,-0.060741
2.09321,0.156655,-0.267184
2.0981,0.15702,-0.0122283
2.12604,0.0549299,-0.198529
2.03977,0.253344,0.047829
2.13114,0.0550617,0.0248188
2.04723,0.254271,-0.144256
2.0872,0.156205,-0.170865
2.08585,0.156104,0.0365104
2.13966,0.0552817,-0.12465
2.04208,0.253631,-0.0958541
2.09127,0.15651,-0.109906
2.14332,0.0478907,-0.0249585
2.10166,0.149912,-0.268194
2.10262,0.149981,-0.0122515
2.13817,0.0477756,-0.199644
2.04461,0.246702,0.0479221
2.04415,0.246645,-0.143977
2.09171,0.149202,-0.171191
2.09037,0.149107,0.0365802
2.14383,0.0479022,-0.124883
2.04692,0.24698,-0.0960402
2.08782,0.148925,-0.109696
2.15148,0.0401846,-0.0250516
2.10615,0.142476,-0.268699
2.13833,0.039939,-0.199644
2.04948,0.239671,0.0480151
2.13948,0.0399606,0.0249119
2.05296,0.240079,-0.144535
2.08826,0.141266,-0.170865
2.09888,0.141984,0.0367199
2.14799,0.0401194,-0.125115
2.04781,0.239476,-0.0960402
2.09633,0.141811,-0.110115
2.09877,0.134986,-0.0612065
2.09803,0.134938,-0.420475
2.1556,0.0331107,-0.0250982
2.0987,0.134981,-0.267689
2.10362,0.135298,-0.0122515
2.14243,0.0329084,-0.200016
2.05821,0.233776,0.0482012
2.1436,0.0329264,0.0249585
2.04978,0.232819,-0.144256
2.10066,0.135107,-0.171842
2.09934,0.135023,0.0367199
2.1521,0.0330569,-0.125348
2.09393,0.134675,0.0854853
2.05653,0.233586,-0.0964125
2.09678,0.134858,-0.110115
2.09524,0.127416,-0.0610901
2.10632,0.12809,-0.422044
2.05161,0.225775,0
2.1557,0.0255854,-0.0250982
2.10708,0.128136,-0.268699
2.10807,0.128196,-0.0122748
2.1505,0.0255237,-0.200759
2.05901,0.226589,0.0482012
2.1477,0.0254905,0.025005
2.05852,0.226535,-0.144814
2.10112,0.127773,-0.171842
2.10778,0.128179,0.0368595
2.1522,0.0255439,-0.125348
2.05336,0.225968,-0.0962264
2.10123,0.12778,-0.110324
2.05106,0.225714,-0.0480151
2.10677,0.120369,-0.422044
2.16378,0.0177503,-0.0251913
2.05554,0.218586,-0.321598
2.10753,0.120413,-0.268699
2.11252,0.120698,-0.012298
2.1466,0.0176094,-0.200387
2.05983,0.219041,0.0482012
2.15178,0.0176519,0.0250516
2.05933,0.218989,-0.144814
2.10555,0.1203,-0.172167
2.11223,0.120681,0.0369293
2.15627,0.0176887,-0.12558
2.05815,0.218863,-0.0964125
2.10567,0.120306,-0.110534
2.10408,0.112848,-0.0613228
2.1111,0.113224,-0.422829
2.16383,0.0101966,-0.0251913
2.11586,0.11348,-0.269709
2.11293,0.113322,-0.012298
2.14664,0.0101157,-0.200387
2.06456,0.212258,0.0482943
2.15583,0.0101589,0.0250982
2.06405,0.212207,-0.145093
2.10596,0.112948,-0.172167
2.12063,0.113735,0.0370689
2.15632,0.0101613,-0.12558
2.06685,0.212495,-0.0967847
2.10608,0.112955,-0.110534
2.06058,0.211849,-0.0482012
2.01739,0.300781,-0.0356029
2.10844,0.106071,-0.0614392
2.11146,0.106223,-0.422829
2.15985,0.00301593,-0.0251447
2.11226,0.106264,-0.269204
2.12528,0.106918,-0.0123678
2.06184,0.205072,-0.22319
2.15861,0.0030142,-0.201503
2.07321,0.206203,0.0484804
2.15985,0.00301593,0.0251447
2.06475,0.205361,-0.145093
2.1103,0.106165,-0.172493
2.117,0.106502,0.0369991
2.16433,0.00302218,-0.126045
2.06231,0.205119,0.120697
2.06755,0.20564,-0.0967847
2.11442,0.106372,-0.110952
2.06923,0.205807,-0.0483873
2.11277,0.0992659,-0.0615556
2.11572,0.0994044,-0.423613
2.06648,0.198615,0
2.17185,-0.00417005,-0.0252844
2.11657,0.0994442,-0.269709
2.12562,0.0998695,-0.0123678
2.16259,-0.00415228,-0.201875
2.07388,0.199326,0.0484804
2.16385,-0.00415469,0.0251913
2.06939,0.198894,-0.145372
2.11463,0.0993529,-0.172818
2.12134,0.0996682,0.0370689
2.16433,-0.00415562,-0.126045
2.06696,0.198661,0.120929
2.11192,0.0992257,0.0861366
2.07219,0.199164,-0.0969709
2.11875,0.0995468,-0.111162
2.11311,0.0918908,-0.0615556
2.11605,0.0920189,-0.423613
2.06716,0.191401,0
2.17582,-0.0117724,-0.025331
2.07014,0.191676,-0.323443
2.12483,0.0924006,-0.270719
2.12196,0.0922757,-0.0123445
2.16655,-0.0117222,-0.202246
2.07854,0.192455,0.0485734
2.16782,-0.0117291,0.0252379
2.07404,0.192038,-0.145652
2.12293,0.0923177,-0.173469
2.12966,0.0926107,0.0372085
2.16829,-0.0117317,-0.126278
2.07161,0.191813,0.121162
2.07685,0.192298,-0.097157
2.12308,0.0923243,-0.111371
2.02594,0.287973,-0.0833685
2.0666,0.191349,-0.0482943
2.03226,0.281639,-0.0358123
2.11342,0.0845146,-0.0615556
2.12028,0.0847891,-0.424398
2.0718,0.184539,0
2.17177,-0.0193313,-0.0252844
2.06685,0.184099,-0.322828
2.12514,0.0849835,-0.270719
2.12626,0.0850284,-0.0123678
2.17048,-0.0193198,-0.202618
2.0792,0.185199,0.0485734
2.16377,-0.0192601,0.0251913
2.0747,0.184798,-0.145652
2.11925,0.0847479,-0.173144
2.12997,0.0851767,0.0372085
2.16824,-0.0192999,-0.126278
2.11655,0.08464,0.0862994
2.07353,0.184694,-0.0969709
2.12339,0.0849133,-0.111371
2.11925,0.0847479,0.173144
2.03485,0.281997,-0.0836942
2.07522,0.184844,-0.0484804
2.03328,0.274188,-0.0358123
2.11771,0.0769125,-0.0616719
2.1245,0.0771592,-0.425182
2.18368,-0.0274424,-0.0254241
2.1294,0.0773374,-0.271224
2.13855,0.0776697,-0.0124375
2.17437,-0.0273255,-0.20299
2.08385,0.177916,0.0486665
2.17168,-0.0272916,0.0252844
2.07934,0.177531,-0.145931
2.12353,0.0771241,-0.173469
2.13427,0.077514,0.0372783
2.02943,0.273668,-0.131241
2.17614,-0.0273477,-0.126743
2.07293,0.176984,0.121162
2.08216,0.177772,-0.0973431
2.11969,0.0769846,-0.111162
2.11955,0.0769794,0.173144
2.07588,0.177236,-0.0484804
2.03819,0.26761,-0.0358821
2.12475,0.0697433,-0.425182
2.07705,0.170035,0
2.17957,-0.035,-0.0253776
2.12966,0.0699043,-0.271224
2.18223,-0.0350427,-0.203733
2.08845,0.170968,0.0487595
2.17557,-0.0349358,0.025331
2.0879,0.170923,-0.146489
2.1198,0.0695807,-0.173144
2.13453,0.070064,0.0372783
2.18402,-0.0350714,-0.127208
2.07752,0.170073,0.121394
2.12509,0.0697543,0.0866251
2.08277,0.170503,-0.0973431
2.12793,0.0698476,-0.11158
2.12379,0.0697115,0.173469
2.08845,0.170968,-0.0487595
2.0351,0.260341,-0.0358123
2.12889,0.062812,-0.425967
2.18344,-0.0423057,-0.0254241
2.07655,0.163063,-0.324057
2.14178,0.0631922,-0.272739
2.14303,0.0632291,-0.0124607
2.18608,-0.0423568,-0.204105
2.09698,0.164667,0.0489456
2.18744,-0.0423831,0.0254707
2.08846,0.163998,-0.146489
2.12799,0.0627854,-0.173795
2.13475,0.0629847,0.0372783
2.18389,-0.0423143,-0.127208
2.09001,0.16412,0.122092
2.1333,0.0629421,0.0869508
2.09129,0.16422,-0.0977154
2.13215,0.0629079,-0.11179
2.12799,0.0627854,0.173795
2.14087,0.0553132,-0.42832
2.09016,0.156426,0
2.18727,-0.0503997,-0.0254707
2.08896,0.156337,-0.325902
2.142,0.0553422,-0.272739
2.14725,0.0554779,-0.012484
2.1899,-0.0504602,-0.204477
2.09756,0.156981,0.0489456
2.19527,-0.050584,0.0255638
2.10098,0.157236,-0.147326
2.13219,0.0550889,-0.17412
2.14296,0.0553671,0.037418
2.04011,0.253386,-0.131753
2.18372,-0.0503179,-0.127208
2.08662,0.156162,0.121859
2.12952,0.0550199,0.0867879
2.09188,0.156555,-0.0977154
2.13635,0.0551965,-0.111999
2.12821,0.054986,0.173795
2.03863,0.253203,-0.0836942
2.08959,0.156384,-0.0487595
2.04088,0.246252,-0.0358821
2.13713,0.0477527,-0.427536
2.0867,0.148845,0
2.19108,-0.0581401,-0.0255173
2.09738,0.149607,-0.327132
2.14614,0.047954,-0.273244
2.15143,0.0480721,-0.0125072
2.18572,-0.057998,-0.204105
2.10209,0.149943,0.0490387
2.18708,-0.058034,0.0254707
2.09754,0.149618,-0.147047
2.13636,0.0477354,-0.174445
2.14714,0.0479762,0.0374878
2.04098,0.246263,-0.131753
2.18752,-0.0580457,-0.127441
2.09512,0.149446,0.122325
2.13769,0.0477652,0.0871136
2.09639,0.149537,-0.0979015
2.13254,0.0476501,-0.11179
2.13636,0.0477354,0.174445
2.04347,0.246564,-0.083857
2.09411,0.149374,-0.0488526
2.13728,0.0406658,-0.427536
2.09117,0.142196,0
2.19887,-0.0656439,-0.0256104
2.09392,0.142383,-0.326517
2.14629,0.0408373,-0.273244
2.19348,-0.065483,-0.204849
2.10656,0.143243,0.0491318
2.18688,-0.0652859,0.0254707
2.09802,0.142662,-0.147047
2.14049,0.040727,-0.174771
2.15128,0.0409323,0.0375576
2.04971,0.240424,-0.132264
2.19131,-0.0654182,-0.127673
2.09959,0.142768,0.122557
2.09289,0.142313,-0.0977154
2.13668,0.0406545,-0.111999
2.1365,0.0406511,0.174445
2.04825,0.240252,-0.0840198
2.09459,0.142429,-0.0488526
2.05845,0.233802,-0.0361614
2.14526,0.032951,-0.429105
2.09567,0.134786,0
2.19462,-0.0735703,-0.0255638
2.09443,0.134706,-0.326517
2.14643,0.0329689,-0.273244
2.19323,-0.0735237,-0.204849
2.10707,0.135519,0.0491318
2.19862,-0.0737043,0.0256104
2.09853,0.13497,-0.147047
2.13664,0.0328186,-0.174445
2.15142,0.0330456,0.0375576
2.04662,0.232458,-0.132008
2.20303,-0.0738522,-0.128371
2.1001,0.135071,0.122557
2.14197,0.0329005,0.0872764
2.09739,0.134896,-0.0979015
2.14081,0.0328826,-0.112208
2.10308,0.135263,-0.0490387
2.14294,0.0254352,-0.0623701
2.14536,0.0254639,-0.429105
2.19835,-0.081377,-0.0256104
2.09488,0.127396,-0.326517
2.15446,0.025572,-0.274255
2.15981,0.0256354,-0.0125537
2.20092,-0.0814722,-0.205592
2.10754,0.128165,0.0491318
2.19835,-0.081377,0.0256104
2.10695,0.12813,-0.147605
2.1487,0.0255036,-0.175422
2.05075,0.225681,0.0600429
2.15152,0.025537,0.0375576
2.20276,-0.0815403,-0.128371
2.10454,0.127983,0.12279
2.14207,0.0254249,0.0872764
2.10582,0.128061,-0.0982737
2.14491,0.0254585,-0.112418
2.04991,0.225589,-0.0840198
2.10354,0.127922,-0.0490387
2.15328,0.018416,-0.430674
2.10053,0.120749,0
2.20206,-0.0888283,-0.0256569
2.09924,0.120674,-0.327132
2.15454,0.0184268,-0.274255
2.15988,0.0184725,-0.0125537
2.09639,0.120511,-0.226189
2.20859,-0.0890919,-0.206336
2.19806,-0.0886671,0.0256104
2.10737,0.121141,-0.147605
2.15276,0.0184116,-0.175747
2.15959,0.01847,0.0376972
2.20646,-0.089006,-0.128604
2.10495,0.121003,0.12279
2.14614,0.018355,0.0874392
2.10225,0.120847,-0.0980876
2.14897,0.0183792,-0.112627
2.14479,0.0183434,0.175096
2.10396,0.120945,-0.0490387
2.06075,0.212594,-0.0361614
2.15725,0.0109188,-0.431458
2.10494,0.113631,0
2.20573,-0.0966902,-0.0257035
2.10754,0.113771,-0.328362
2.15856,0.0109254,-0.27476
2.16394,0.0109527,-0.012577
2.10077,0.113406,-0.226617
2.20429,-0.096627,-0.205964
2.11634,0.114247,0.0493179
2.20174,-0.096515,0.0256569
2.10778,0.113784,-0.147605
2.1568,0.0109165,-0.176073
2.16764,0.0109714,0.0378368
2.06081,0.212601,-0.132776
2.21013,-0.0968829,-0.128836
2.10935,0.113869,0.123022
2.10664,0.113723,-0.0982737
2.15302,0.0108974,-0.112836
2.14882,0.0108762,0.175422
2.05935,0.21245,-0.0843455
2.10836,0.113815,-0.0491318
2.0774,0.206986,-0.0364406
2.15335,0.00338283,-0.430674
2.20938,-0.104578,-0.0257501
2.10793,0.106414,-0.328362
2.06574,0.205824,0.0120655
2.16796,0.00340578,-0.0126002
2.2119,-0.104697,-0.206708
2.12072,0.107061,0.0494109
2.21337,-0.104767,0.0257966
2.11215,0.106627,-0.147884
2.16081,0.00339455,-0.176398
2.06092,0.205344,0.0602756
2.16767,0.00340532,0.0378368
2.06949,0.206198,-0.133288
2.21377,-0.104785,-0.129069
2.11771,0.106908,0.123487
2.15821,0.00339046,0.0879277
2.11501,0.106772,-0.098646
2.15304,0.00338235,-0.112836
2.15682,0.00338828,0.176073
2.06406,0.205657,-0.0845083
2.11673,0.106859,-0.0493179
2.07807,0.200096,-0.0364406
2.15727,-0.00376437,-0.431458
2.20902,-0.111903,-0.0257501
2.11222,0.0996103,-0.328977
2.16255,-0.00377358,-0.275265
2.16796,-0.00378302,-0.0126002
2.21949,-0.112434,-0.207451
2.12506,0.100216,0.049504
2.20902,-0.111903,0.0257501
2.11647,0.0998112,-0.148163
2.16081,-0.00377054,-0.176398
2.16367,-0.00377553,0.037767
2.07413,0.199717,-0.133543
2.12204,0.100074,0.12372
2.1622,-0.00377297,0.0880906
2.11535,0.0997583,-0.098646
2.15704,-0.00376396,-0.113046
2.15682,-0.00376358,0.176073
2.06473,0.198812,-0.0845083
2.12506,0.100216,-0.049504
2.07876,0.192841,-0.0364406
2.17294,-0.0113774,-0.434596
2.2166,-0.120047,-0.0258432
2.11255,0.0922361,-0.328977
2.16649,-0.0113436,-0.27577
2.17593,-0.0113931,-0.0126467
2.12939,0.0929716,0.049597
2.21261,-0.11983,0.0257966
2.11681,0.0924221,-0.148163
2.17274,-0.0113763,-0.177375
2.06625,0.19168,0.060392
2.17564,-0.0113915,0.0379764
2.06687,0.191738,-0.133032
2.21699,-0.120068,-0.129301
2.12238,0.0926652,0.12372
2.16617,-0.011342,0.0882534
2.11968,0.0925474,-0.0988321
2.161,-0.0113149,-0.113255
2.16078,-0.0113137,0.176398
2.07337,0.192341,-0.084834
2.11741,0.0924483,-0.0493179
2.08343,0.185576,-0.0365104
2.16896,-0.0193061,-0.433811
2.1223,0.0848702,0
2.22813,-0.128862,-0.0259829
2.12472,0.0849669,-0.330821
2.1704,-0.019319,-0.276275
2.17188,-0.0193321,-0.0126235
2.22261,-0.128543,-0.207823
2.12972,0.0851668,0.049597
2.22014,-0.128401,0.0258898
2.12112,0.0848229,-0.148442
2.1687,-0.0193038,-0.177049
2.07092,0.184461,0.0605083
2.17158,-0.0193295,0.0379066
2.07153,0.184516,-0.133288
2.22052,-0.128423,-0.129534
2.11871,0.0847266,0.123487
2.16612,-0.0192808,0.0882534
2.124,0.0849379,-0.0990182
2.16494,-0.0192704,-0.113464
2.12632,0.0850308,0.261288
2.07008,0.184386,-0.0846712
2.12173,0.0848472,-0.0494109
2.08008,0.17796,-0.0364406
2.1728,-0.0269262,-0.434596
2.12259,0.0774609,0
2.22367,-0.136395,-0.0259363
2.12501,0.0775492,-0.330821
2.17429,-0.0269447,-0.27678
2.07638,0.177644,0.012112
2.1838,-0.0270625,-0.0126932
2.22612,-0.136545,-0.208195
2.134,0.0778775,0.0496901
2.21968,-0.13615,0.0258898
2.12539,0.0775633,-0.148721
2.17659,-0.0269732,-0.1777
2.1715,-0.0269102,0.0379066
2.07614,0.177623,-0.133543
2.23202,-0.136907,-0.130231
2.13097,0.0777668,0.124185
2.17003,-0.026892,0.0884162
2.12428,0.0775227,-0.0990182
2.16886,-0.0268774,-0.113674
2.11867,0.0773179,0.260313
2.16862,-0.0268744,0.177049
2.08266,0.178181,-0.0851596
2.13001,0.0777316,-0.049597
2.08066,0.171061,-0.0364406
2.16682,-0.0340395,-0.0630683
2.17662,-0.0341936,-0.43538
2.12283,0.0704211,0
2.2272,-0.144027,-0.0259829
2.1213,0.0703703,-0.330207
2.17815,-0.0342177,-0.277285
2.08094,0.171084,0.0121353
2.18769,-0.0343675,-0.0127165
2.11857,0.0702798,-0.228331
2.2336,-0.144441,-0.208938
2.21921,-0.143511,0.0258898
2.12165,0.0703819,-0.148442
2.18048,-0.0342542,-0.178025
2.1834,-0.0343,0.0381161
2.08468,0.171391,-0.134055
2.23155,-0.144308,-0.130231
2.13121,0.0706992,0.124185
2.17393,-0.0341513,0.0885791
2.12453,0.0704773,-0.0990182
2.16876,-0.03407,-0.113674
2.12288,0.0704227,0.2608
2.17649,-0.0341915,0.1777
2.08324,0.171273,-0.0851596
2.13425,0.0707998,-0.0496901
2.09321,0.16474,-0.0366501
2.17068,-0.0416782,-0.0631846
2.18041,-0.041865,-0.436165
2.22668,-0.151799,-0.0259829
2.12548,0.0630839,-0.330821
2.17802,-0.0418192,-0.277285
2.19156,-0.0420791,-0.0127397
2.13073,0.0632396,-0.229616
2.22668,-0.151799,0.0259829
2.12986,0.0632137,-0.149
2.18034,-0.0418637,-0.178025
2.17927,-0.041843,0.0380462
2.08526,0.164115,-0.134055
2.13544,0.0633794,0.124418
2.1738,-0.041738,0.0885791
2.13674,0.063418,-0.0995766
2.1806,-0.0418687,-0.114302
2.17636,-0.0417872,0.1777
2.08382,0.164001,-0.0851596
2.13848,0.0634696,-0.0497831
2.08981,0.156766,-0.0365802
2.17851,-0.0498183,-0.0634174
2.18024,-0.0498579,-0.436165
2.23808,-0.160821,-0.0261226
2.13755,0.0555999,-0.332666
2.17785,-0.0498033,-0.277285
2.08211,0.156189,0.0121353
2.19139,-0.0501129,-0.0127397
2.12697,0.0553247,-0.229188
2.24443,-0.161277,-0.210054
2.22611,-0.159961,0.0259829
2.13008,0.0554054,-0.149
2.18815,-0.0500387,-0.178676
2.1871,-0.0500146,0.0381859
2.08983,0.156768,-0.134311
2.13566,0.0555506,0.124418
2.18562,-0.0499808,0.0890675
2.13696,0.0555845,-0.0995766
2.18443,-0.0499537,-0.114511
2.18018,-0.0498564,0.178025
2.09238,0.156959,-0.0854853
2.1427,0.0557336,-0.0498762
2.09433,0.149756,-0.0366501
2.19182,-0.0577775,-0.438518
2.13546,0.0480874,0
2.24548,-0.169233,-0.0262157
2.13774,0.0481387,-0.332666
2.1856,-0.0576137,-0.278295
2.08664,0.149206,0.0121585
2.1872,-0.0576559,-0.0127165
2.23988,-0.168811,-0.209682
2.14687,0.0483445,0.0499692
2.23351,-0.168331,0.026076
2.14621,0.0483296,-0.150116
2.18796,-0.0576759,-0.178676
2.08579,0.149145,0.0608574
2.18691,-0.0576481,0.0381859
2.09036,0.149472,-0.134311
2.24183,-0.168958,-0.130929
2.13584,0.048096,0.124418
2.18143,-0.0575038,0.0889047
2.13714,0.0481253,-0.0995766
2.18824,-0.0576832,-0.11472
2.13542,0.0480865,0.262263
2.18397,-0.0575708,0.178351
2.09292,0.149655,-0.0854853
2.13888,0.0481645,-0.0497831
2.09883,0.142716,-0.0367199
2.1916,-0.0654281,-0.438518
2.13561,0.040633,0
2.24886,-0.177384,-0.0262623
2.14184,0.0407515,-0.333281
2.19332,-0.0654793,-0.279305
2.09513,0.142464,0.012205
2.19099,-0.0654097,-0.0127397
2.24325,-0.176942,-0.210054
2.15103,0.0409263,0.0500623
2.23291,-0.176126,0.026076
2.1344,0.0406099,-0.149279
2.1997,-0.0656698,-0.179653
2.09029,0.142135,0.0609738
2.19469,-0.0655202,0.0383255
2.09485,0.142446,-0.134567
2.24919,-0.17741,-0.131394
2.13999,0.0407162,0.12465
2.18921,-0.0653566,0.0892304
2.14129,0.040741,-0.0997627
2.18802,-0.0653212,-0.11472
2.18774,-0.0653129,0.178676
2.09741,0.142619,-0.0856481
2.15103,0.0409263,-0.0500623
2.10329,0.136013,-0.0367897
2.19137,-0.0726953,-0.438518
2.24826,-0.184841,-0.0262623
2.20102,-0.0730154,-0.280315
2.09559,0.135516,0.012205
2.19875,-0.0729402,-0.0127862
2.14334,0.0336702,-0.230901
2.24662,-0.184706,-0.210425
2.24029,-0.184185,0.0261692
2.14649,0.0337198,-0.150116
2.19947,-0.0729639,-0.179653
2.19446,-0.0727977,0.0383255
2.10328,0.136013,-0.135078
2.14809,0.033745,0.125115
2.19297,-0.0727484,0.0893932
2.14141,0.03364,-0.0997627
2.18779,-0.0725766,-0.11472
2.18752,-0.0725674,0.178676
2.09787,0.135663,-0.0856481
2.14715,0.0337302,-0.0499692
2.10774,0.128915,-0.0368595
2.1936,-0.0804355,-0.0638828
2.19111,-0.0803442,-0.438518
2.14384,0.0261933,0
2.25159,-0.193029,-0.0263088
2.14997,0.0262682,-0.334511
2.20075,-0.0806979,-0.280315
2.09605,0.1282,0.012205
2.20248,-0.0807614,-0.0128095
2.15139,0.0262855,-0.231758
2.2539,-0.193227,-0.211169
2.15925,0.0263816,0.0502484
2.24362,-0.192346,0.0262157
2.1466,0.0262269,-0.150116
2.20717,-0.0809332,-0.180304
2.19419,-0.0804573,0.0383255
2.09976,0.128427,-0.134823
2.15219,0.0262953,0.125348
2.19271,-0.0804029,0.0893932
2.1535,0.0263113,-0.100321
2.19551,-0.0805057,-0.115139
2.14374,0.026192,0.263238
2.19123,-0.0803489,0.179002
2.10232,0.128584,-0.085811
2.15526,0.0263327,-0.0501553
2.10019,0.121096,-0.0367199
2.1933,-0.0880921,-0.0638828
2.14392,0.0187097,0
2.25488,-0.201243,-0.0263554
2.15005,0.0187632,-0.334511
2.20046,-0.0883795,-0.280315
2.20219,-0.088449,-0.0128095
2.1475,0.0187409,-0.23133
2.25718,-0.201448,-0.211541
2.16333,0.0188791,0.0503414
2.24692,-0.200532,0.0262623
2.15067,0.0187686,-0.150395
2.20687,-0.0886372,-0.180304
2.09962,0.121063,0.0612065
2.20189,-0.088437,0.0384651
2.10418,0.121326,-0.135078
2.15227,0.0187826,0.125348
2.19641,-0.0882168,0.089556
2.15758,0.0188289,-0.100507
2.2032,-0.0884896,-0.115558
2.14779,0.0187435,0.263725
2.10675,0.121474,-0.0859738
2.15533,0.0188093,-0.0501553
2.10859,0.114197,-0.0368595
2.20097,-0.0960964,-0.0641155
2.14797,0.0112469,0
2.15406,0.0112787,-0.335126
2.20806,-0.0964061,-0.281326
2.10887,0.114213,0.0122748
2.20586,-0.09631,-0.0128327
2.14755,0.0112446,-0.23133
2.25646,-0.209325,-0.211541
2.16738,0.0113485,0.0504345
2.25417,-0.209113,0.0263554
2.1587,0.011303,-0.150953
2.21053,-0.096514,-0.180629
2.20956,-0.0964714,0.0386047
2.11256,0.114412,-0.13559
2.25846,-0.209511,-0.132092
2.15232,0.0112696,0.125348
2.20008,-0.0960574,0.0897188
2.15364,0.0112765,-0.100321
2.20687,-0.0963539,-0.115767
2.15181,0.011267,0.264213
2.11115,0.114336,-0.0861366
2.15939,0.0113066,-0.0502484
2.11297,0.107038,-0.0369293
2.152,0.00375595,0
2.26935,-0.218514,-0.0265417
2.16199,0.00377339,-0.336356
2.20771,-0.104113,-0.281326
2.20551,-0.104009,-0.0128327
2.25572,-0.217201,-0.211541
2.16341,0.00377587,0.0503414
2.25741,-0.217363,0.026402
2.15474,0.00376073,-0.150674
2.1124,0.107009,0.0615556
2.20921,-0.104184,0.0386047
2.10896,0.106835,-0.135334
2.15235,0.00375657,0.125348
2.19973,-0.103737,0.0897188
2.16565,0.00377978,-0.100879
2.21051,-0.104245,-0.115976
2.15184,0.00375567,0.264213
2.11553,0.107168,-0.0862994
2.16341,0.00377587,-0.0503414
2.11333,0.0996621,-0.0369293
2.27255,-0.226831,-0.0265882
2.15804,-0.00376649,-0.335741
2.2113,-0.11202,-0.281831
2.11362,0.0996756,0.012298
2.21712,-0.112314,-0.0129024
2.15553,-0.00376211,-0.232186
2.26683,-0.22626,-0.212656
2.16741,-0.00378285,0.0504345
2.25663,-0.225242,0.026402
2.15474,-0.00376073,-0.150674
2.22175,-0.112549,-0.181606
2.10876,0.0994467,0.0614392
2.21283,-0.112097,0.0386745
2.11331,0.0996612,-0.13559
2.27284,-0.226859,-0.133022
2.16832,-0.00378445,0.126278
2.20734,-0.111819,0.0900445
2.16565,-0.00377978,-0.100879
2.21013,-0.11196,-0.115976
2.15581,-0.0037626,0.2647
2.1119,0.0995946,-0.0861366
2.16341,-0.00377587,-0.0503414
2.11764,0.0928286,-0.0369991
2.20785,-0.119186,-0.0643483
2.26781,-0.233955,-0.0265417
2.15801,-0.0109228,-0.335741
2.21884,-0.11978,-0.282841
2.12193,0.0930164,0.0123445
2.22073,-0.119882,-0.0129257
2.17141,-0.0109906,-0.2339
2.27399,-0.234593,-0.2134
2.17538,-0.0110107,0.0506206
2.26383,-0.233545,0.0264951
2.16668,-0.0109667,-0.151511
2.22137,-0.119916,-0.181606
2.21643,-0.11965,0.0387443
2.12161,0.0930023,-0.136102
2.27604,-0.234805,-0.133255
2.1683,-0.0109748,0.126278
2.21493,-0.119569,0.0903702
2.17362,-0.0110017,-0.101252
2.21772,-0.119719,-0.116395
2.16372,-0.0109517,0.265675
2.1202,0.0929408,-0.0864623
2.17138,-0.0109905,-0.0505275
2.12195,0.0855973,-0.0370689
2.21141,-0.127122,-0.0644646
2.27891,-0.243143,-0.0266814
2.16982,-0.018557,-0.337585
2.21445,-0.127296,-0.282336
2.11424,0.0852864,0.012298
2.2203,-0.127633,-0.0129257
2.17136,-0.0185702,-0.2339
2.27316,-0.242529,-0.2134
2.17933,-0.0186383,0.0507136
2.17062,-0.0185638,-0.15179
2.22889,-0.128127,-0.182256
2.11738,0.0854129,0.0616719
2.22399,-0.127845,0.038884
2.12192,0.0855959,-0.136102
2.27918,-0.243172,-0.133487
2.16825,-0.0185435,0.126278
2.21849,-0.127529,0.090533
2.17756,-0.0186232,-0.101438
2.22128,-0.127689,-0.116605
2.12052,0.0855394,-0.0864623
2.17133,-0.0185699,-0.0505275
2.12222,0.0785602,-0.0370689
2.21497,-0.134697,-0.064581
2.16785,-0.0257297,0
2.28207,-0.251136,-0.0267279
2.1737,-0.0257992,-0.3382
2.2259,-0.135362,-0.283851
2.12251,0.0785708,0.0123445
2.21986,-0.134995,-0.0129257
2.2763,-0.250502,-0.213771
2.18326,-0.0259126,0.0508067
2.17055,-0.0257618,-0.15179
2.12564,0.0786868,0.0619047
2.22755,-0.135462,0.0389538
2.12618,0.0787066,-0.136357
2.28233,-0.251165,-0.13372
2.16817,-0.0257336,0.126278
2.21407,-0.134643,0.0903702
2.17749,-0.0258441,-0.101438
2.22882,-0.135539,-0.117023
2.12478,0.0786549,-0.0866251
2.17126,-0.0257702,-0.0505275
2.13049,0.0710479,-0.0372085
2.21845,-0.143072,-0.0646974
2.16774,-0.0336751,0
2.28511,-0.259951,-0.0267745
2.17359,-0.033766,-0.3382
2.22934,-0.143774,-0.284356
2.13078,0.0710575,0.012391
2.23133,-0.143902,-0.0129954
2.17118,-0.0337285,-0.2339
2.27933,-0.259293,-0.214143
2.18315,-0.0339145,0.0508067
2.17842,-0.033841,-0.152348
2.2359,-0.144197,-0.182907
2.12192,0.0707621,0.0617883
2.23102,-0.143883,0.0390236
2.13044,0.0710463,-0.136613
2.28536,-0.25998,-0.133952
2.17206,-0.0337422,0.126511
2.21755,-0.143014,0.090533
2.17338,-0.0337628,-0.101252
2.22831,-0.143708,-0.117023
2.12905,0.0709998,-0.0867879
2.17515,-0.0337902,-0.0506206
2.13071,0.0639826,-0.0372085
2.22594,-0.150969,-0.0649301
2.18137,-0.0411227,-0.33943
2.22886,-0.151166,-0.284356
2.139,0.0642314,0.0124375
2.23084,-0.151301,-0.0129954
2.17901,-0.0410782,-0.234757
2.2745,-0.266387,-0.213771
2.17902,-0.0410785,0.0507136
2.17829,-0.0410647,-0.152348
2.23939,-0.151881,-0.183233
2.13014,0.0639652,0.062021
2.23453,-0.151551,0.0390934
2.13067,0.0639811,-0.136613
2.28845,-0.268022,-0.134185
2.17593,-0.0410201,0.126743
2.22105,-0.150637,0.0906958
2.17725,-0.0410451,-0.101438
2.2318,-0.151366,-0.117233
2.12927,0.0639393,-0.0867879
2.18302,-0.0411539,-0.0508067
2.13492,0.0566507,-0.0372783
2.17546,-0.0486083,0
2.29123,-0.276457,-0.0268676
2.17726,-0.0486485,-0.338815
2.23227,-0.159228,-0.284861
2.13921,0.0567645,0.0124375
2.2303,-0.159087,-0.0129954
2.17885,-0.048684,-0.234757
2.28542,-0.275756,-0.214887
2.19486,-0.0490417,0.0510859
2.1901,-0.0489355,-0.153185
2.23885,-0.159697,-0.183233
2.13035,0.0565293,0.062021
2.22999,-0.159066,0.0390236
2.13487,0.0566492,-0.136869
2.29543,-0.276965,-0.13465
2.17976,-0.0487044,0.126976
2.2245,-0.158674,0.0908587
2.18508,-0.0488234,-0.10181
2.23525,-0.15944,-0.117442
2.12948,0.0565063,-0.0867879
2.19086,-0.0489524,-0.0509928
2.13512,0.0488254,-0.0372783
2.22879,-0.167192,-0.0650464
2.17926,-0.0566854,0
2.29814,-0.285841,-0.0269608
2.19287,-0.0570393,-0.341275
2.23563,-0.167705,-0.285366
2.1394,0.0489235,0.0124375
2.23768,-0.167859,-0.0130419
2.18661,-0.0568764,-0.235614
2.19466,-0.057086,0.0510859
2.18991,-0.0569623,-0.153185
2.13854,0.0489036,0.0622537
2.24136,-0.168135,0.039233
2.13506,0.0488241,-0.136869
2.2944,-0.285376,-0.13465
2.17957,-0.0566933,0.126976
2.19687,-0.0571435,-0.102368
2.24261,-0.168229,-0.117861
2.13767,0.0488838,-0.0871136
2.19067,-0.056982,-0.0509928
2.24015,-0.17591,-0.0653955
2.18871,-0.064577,-0.34066
2.23899,-0.175819,-0.285871
2.14356,0.0415327,0.0124607
2.24106,-0.175982,-0.0130652
2.1864,-0.0645088,-0.235614
2.19445,-0.0647464,0.0510859
2.19767,-0.0648416,-0.153743
2.14669,0.0415933,0.0624865
2.24873,-0.176584,0.0393726
2.1432,0.0415257,-0.137381
2.29735,-0.29389,-0.134883
2.19666,-0.0648117,-0.102368
2.24998,-0.176682,-0.118279
2.14182,0.041499,-0.0872764
2.18646,-0.0645106,-0.0508998
2.1474,0.034109,-0.0374878
2.23953,-0.183729,-0.0653955
2.18681,-0.0721619,0
2.19637,-0.0724773,-0.34189
2.25022,-0.184607,-0.287386
2.15169,0.0341771,0.0125072
2.24841,-0.184458,-0.0131117
2.19013,-0.0722715,-0.236042
2.19821,-0.072538,0.0511789
2.18946,-0.0722493,-0.153185
2.14682,0.0340997,0.0624865
2.2481,-0.184433,0.0393726
2.14333,0.0340443,-0.137381
2.30423,-0.302949,-0.135348
2.19109,-0.0723032,0.127673
2.20041,-0.0726108,-0.102555
2.24536,-0.184208,-0.11807
2.14595,0.0340859,-0.0874392
2.19421,-0.0724061,-0.0510859
2.1515,0.027038,-0.0375576
2.24687,-0.191835,-0.0656282
2.19455,-0.0797035,0
2.19217,-0.0796169,-0.341275
2.25751,-0.192743,-0.288397
2.15579,0.0270919,0.0125305
2.24778,-0.191913,-0.0131117
2.19783,-0.0798225,-0.236899
2.20195,-0.0799722,0.051272
2.20516,-0.0800887,-0.154301
2.25626,-0.192636,-0.18486
2.25545,-0.192567,0.0395123
2.15142,0.0270369,-0.137892
2.30322,-0.310588,-0.135348
2.19483,-0.0797137,0.127906
2.20416,-0.0800523,-0.102741
2.24872,-0.191993,-0.118279
2.15005,0.0270197,-0.0876021
2.19796,-0.0798271,-0.0511789
2.15558,0.019564,-0.0376274
2.25017,-0.200031,-0.0657446
2.19426,-0.0873635,0
2.19977,-0.0875829,-0.342505
2.25682,-0.200622,-0.288397
2.15188,0.0195304,0.0125072
2.25507,-0.200466,-0.0131582
2.20548,-0.0878103,-0.237755
2.20965,-0.0879762,0.0514581
2.20088,-0.0876269,-0.154022
2.25557,-0.200511,-0.18486
2.155,0.0195587,0.0627192
2.26273,-0.201147,0.0396519
2.15549,0.0195632,-0.138148
2.31398,-0.320268,-0.136045
2.20252,-0.0876923,0.128371
2.21185,-0.0880636,-0.103113
2.25997,-0.200902,-0.118907
2.15013,0.0195145,-0.0876021
2.19766,-0.0874989,-0.0511789
2.15964,0.0116849,-0.0376972
2.25738,-0.209014,-0.0659773
2.20592,-0.0959266,0
2.20339,-0.0958166,-0.34312
2.25212,-0.208526,-0.287892
2.15993,0.0116865,0.0125537
2.2583,-0.209099,-0.0131814
2.20912,-0.096066,-0.238184
2.21331,-0.0962481,0.0515511
2.2125,-0.096213,-0.154859
2.26276,-0.209512,-0.185511
2.15506,0.0116601,0.0627192
2.26596,-0.209808,0.0397217
2.15155,0.0116412,-0.137892
2.30884,-0.328186,-0.135813
2.20218,-0.0957643,0.128371
2.21151,-0.0961699,-0.103113
2.2632,-0.209552,-0.119117
2.15818,0.011677,-0.0879277
2.20532,-0.0959006,-0.051365
2.15567,0.00489107,-0.0376274
2.26468,-0.216867,-0.0662101
2.21359,-0.103229,0
2.20702,-0.102922,-0.343735
2.16396,0.00490989,0.012577
2.26162,-0.216574,-0.0132047
2.20086,-0.102635,-0.237327
2.213,-0.103201,0.0515511
2.21219,-0.103163,-0.154859
2.26606,-0.216999,-0.185836
2.16708,0.00491697,0.0630683
2.26529,-0.216926,0.0397217
2.15956,0.00489992,-0.138404
2.31175,-0.336012,-0.136045
2.20586,-0.102868,0.128604
2.21519,-0.103303,-0.103299
2.1582,0.00489683,-0.0879277
2.20101,-0.102642,-0.051272
2.16367,-0.00339869,-0.037767
2.25587,-0.224768,-0.0659773
2.20919,-0.111526,0
2.21451,-0.111795,-0.344964
2.17196,-0.00341172,0.0126235
2.26873,-0.226049,-0.0132512
2.21237,-0.111687,-0.238612
2.21658,-0.111899,0.0516442
2.21576,-0.111858,-0.155138
2.27315,-0.226489,-0.186487
2.17108,-0.00341033,0.0631846
2.16356,-0.00339852,-0.13866
2.20944,-0.111539,0.128836
2.22276,-0.112211,-0.103671
2.26566,-0.225743,-0.119326
2.1662,-0.00340267,-0.0882534
2.20859,-0.111496,-0.0514581
2.16764,-0.0109715,-0.0378368
2.26303,-0.233462,-0.0662101
2.21278,-0.119452,0
2.20621,-0.119098,-0.343735
2.16794,-0.010973,0.0126002
2.26793,-0.233967,-0.0132512
2.21991,-0.119837,-0.239469
2.22416,-0.120067,0.0518303
2.21934,-0.119807,-0.155417
2.27234,-0.234423,-0.186487
2.16306,-0.0109483,0.0629519
2.16353,-0.0109507,-0.13866
2.221,-0.119896,0.129534
2.22634,-0.120185,-0.103857
2.26883,-0.23406,-0.119535
2.16218,-0.0109439,-0.0880906
2.21617,-0.119636,-0.0516442
2.1676,-0.0177813,-0.0378368
2.27023,-0.241416,-0.0664428
2.21639,-0.126632,0
2.20977,-0.126254,-0.344349
2.17589,-0.0178493,0.0126467
2.27911,-0.24236,-0.0133209
2.22349,-0.127038,-0.239897
2.22692,-0.127234,-0.155975
2.27159,-0.24156,-0.186487
2.17101,-0.0178093,0.0631846
2.16748,-0.0177804,-0.138916
2.22061,-0.126873,0.129534
2.22994,-0.127406,-0.104044
2.27205,-0.241609,-0.119745
2.16613,-0.0177693,-0.0882534
2.22377,-0.127054,-0.0518303
2.16751,-0.0261041,-0.0378368
2.27326,-0.250569,-0.0665591
2.21321,-0.134978,-0.344964
2.17981,-0.0262522,0.01267
2.28214,-0.251547,-0.0133442
2.22299,-0.135574,-0.239897
2.27857,-0.251154,-0.187138
2.17492,-0.0261933,0.063301
2.17139,-0.0261508,-0.139172
2.27905,-0.251207,-0.120163
2.18203,-0.026279,-0.0889047
2.22726,-0.135835,-0.0519233
2.17541,-0.0337942,-0.0379764
2.27238,-0.258503,-0.0665591
2.22737,-0.143647,0
2.22456,-0.143466,-0.346809
2.1837,-0.0339231,0.0126932
2.28125,-0.259512,-0.0133442
2.22647,-0.143589,-0.240326
2.23874,-0.144381,0.0522025
2.28165,-0.259557,-0.187464
2.17881,-0.0338472,0.0634174
2.17527,-0.0337922,-0.139427
2.17793,-0.0338335,-0.0887419
2.22278,-0.143351,-0.0518303
2.17528,-0.0413876,-0.0379764
2.27543,-0.266899,-0.0666755
2.23085,-0.151693,0
2.23193,-0.151767,-0.348039
2.19157,-0.0416976,0.0127397
2.22992,-0.15163,-0.240754
2.23423,-0.151923,0.0521094
2.28468,-0.267985,-0.187789
2.17868,-0.0414525,0.0634174
2.17913,-0.041461,-0.139683
2.24039,-0.152342,-0.104602
2.29311,-0.268973,-0.121001
2.18179,-0.0415117,-0.0889047
2.23024,-0.151652,-0.0520164
2.19112,-0.0489582,-0.0382557
2.2785,-0.274922,-0.0667919
2.23432,-0.159374,0
2.19142,-0.0489649,0.0127397
2.24131,-0.159873,-0.242039
2.24568,-0.160185,0.0523886
2.23684,-0.159554,-0.156813
2.28774,-0.276037,-0.188115
2.18253,-0.0487663,0.0635337
2.18298,-0.0487763,-0.139939
2.24386,-0.160055,-0.104788
2.28031,-0.27514,-0.120373
2.18564,-0.0488358,-0.0890675
2.22973,-0.159047,-0.0520164
2.18694,-0.0565031,-0.0381859
2.2815,-0.283367,-0.0669082
2.23774,-0.167471,0
2.19123,-0.056614,0.0127397
2.23677,-0.167398,-0.241611
2.2491,-0.168321,0.0524816
2.24423,-0.167957,-0.157371
2.29072,-0.284512,-0.18844
2.18634,-0.0564878,0.0636501
2.18678,-0.0564991,-0.140195
2.29123,-0.284575,-0.121001
2.18546,-0.0564648,-0.0890675
2.23714,-0.167426,-0.0522025
2.18274,-0.0636383,-0.0381161
2.28451,-0.291437,-0.0670246
2.24515,-0.175514,0
2.19503,-0.0639967,0.012763
2.24413,-0.175435,-0.242468
2.24764,-0.175709,-0.15765
2.18615,-0.0637376,0.0636501
2.18658,-0.0637504,-0.140195
2.30216,-0.293688,-0.121629
2.18925,-0.0638282,-0.0892304
2.24056,-0.175155,-0.0522955
2.18649,-0.0717693,-0.0381859
2.29136,-0.300849,-0.0672573
2.25247,-0.184395,0
2.19878,-0.0721726,0.0127862
2.24347,-0.183659,-0.242468
2.25186,-0.184345,0.0525747
2.25493,-0.184597,-0.158208
2.19789,-0.0721433,0.0639992
2.1983,-0.0721571,-0.140962
2.25401,-0.184521,-0.105346
2.19699,-0.072114,-0.089556
2.24388,-0.183692,-0.0523886
2.19822,-0.0798366,-0.0383953
2.29425,-0.30938,-0.0673737
2.25181,-0.192256,0
2.20651,-0.0801377,0.0128327
2.24282,-0.191489,-0.242468
2.25427,-0.192467,-0.158208
2.20162,-0.0799601,0.0641155
2.19405,-0.0796853,-0.140707
2.3,-0.310154,-0.121629
2.20472,-0.0800727,-0.0898817
2.24323,-0.191524,-0.0523886
2.20192,-0.0876684,-0.0384651
2.29712,-0.317935,-0.06749
2.25112,-0.200115,0
2.20621,-0.0878394,0.0128327
2.25006,-0.200021,-0.243325
2.25848,-0.200769,0.0527608
2.26154,-0.201041,-0.158766
2.20132,-0.0876446,0.0641155
2.20572,-0.0878198,-0.141474
2.26062,-0.20096,-0.105719
2.2989,-0.318181,-0.121629
2.20442,-0.0877681,-0.0898817
2.25051,-0.200061,-0.0525747
2.25841,-0.208314,0
2.20991,-0.0953274,0.012856
2.25334,-0.207846,-0.243753
2.26086,-0.20854,-0.158766
2.20102,-0.094944,0.0641155
2.20542,-0.0951338,-0.141474
2.31365,-0.328046,-0.122466
2.20412,-0.0950777,-0.0898817
2.25382,-0.20789,-0.0526678
2.20527,-0.102841,-0.0385349
2.26564,-0.216959,0
2.20956,-0.103041,0.012856
2.2526,-0.215711,-0.243753
2.26806,-0.217191,-0.159324
2.20866,-0.102999,0.0643483
2.20109,-0.102646,-0.141218
2.26716,-0.217105,-0.106091
2.30854,-0.335545,-0.122257
2.21176,-0.103143,-0.0902073
2.25706,-0.216138,-0.0527608
2.21688,-0.111138,-0.0387443
2.26885,-0.225261,0
2.21718,-0.111154,0.0129024
2.2558,-0.223966,-0.244181
2.27126,-0.225501,-0.159603
2.20829,-0.110708,0.0643483
2.21268,-0.110928,-0.141986
2.26639,-0.225017,-0.106091
2.31921,-0.345367,-0.122885
2.21139,-0.110863,-0.0902073
2.26027,-0.22441,-0.0528539
2.2165,-0.118489,-0.0387443
2.27206,-0.233192,0
2.22479,-0.118932,0.0129489
2.26295,-0.232257,-0.245038
2.2705,-0.233031,-0.159603
2.2159,-0.118457,0.064581
2.22027,-0.118691,-0.142497
2.2696,-0.232939,-0.106277
2.322,-0.353657,-0.123094
2.21899,-0.118623,-0.090533
2.26747,-0.232721,-0.05304
2.22403,-0.127069,-0.038884
2.27119,-0.241518,0
2.22433,-0.127086,0.0129489
2.26963,-0.241352,-0.159603
2.21944,-0.126806,0.0646974
2.2238,-0.127055,-0.142753
2.26873,-0.241256,-0.106277
2.22652,-0.127211,-0.0908587
2.27456,-0.241875,-0.0532261
2.22757,-0.135073,-0.0389538
2.27829,-0.250318,0
2.22388,-0.134849,0.0129489
2.27671,-0.250144,-0.160161
2.22297,-0.134795,0.0648137
2.22335,-0.134817,-0.142753
2.27582,-0.250047,-0.106649
2.22207,-0.13474,-0.0906958
2.28165,-0.250687,-0.0534122
2.22711,-0.142459,-0.0389538
2.28937,-0.259222,0
2.22741,-0.142479,0.0129722
2.27586,-0.257693,-0.160161
2.2305,-0.142676,0.0650464
2.22687,-0.142444,-0.143009
2.27895,-0.258042,-0.106835
2.22959,-0.142618,-0.0910215
2.2808,-0.258252,-0.0534122
2.23056,-0.150891,-0.0390236
2.23086,-0.150912,0.0129954
2.29076,-0.267886,-0.161277
2.23395,-0.15112,0.0651628
2.23032,-0.150875,-0.143265
2.28196,-0.266857,-0.107022
2.23703,-0.151329,-0.0913472
2.28779,-0.267539,-0.0535983
2.23002,-0.158676,-0.0390236
2.2383,-0.159266,0.0130419
2.28585,-0.275404,-0.160998
2.23739,-0.159201,0.0652792
2.23774,-0.159226,-0.143777
2.28101,-0.274821,-0.107022
2.24446,-0.159704,-0.0916728
2.29478,-0.27648,-0.0537844
2.23746,-0.166665,-0.0391632
2.24175,-0.166984,0.0130652
2.28888,-0.283473,-0.161277
2.23287,-0.166322,0.0651628
2.24516,-0.167238,-0.144288
2.28802,-0.283366,-0.107394
2.24392,-0.167146,-0.0916728
2.28591,-0.283105,-0.0535983
2.24484,-0.175096,-0.0393028
2.24116,-0.174809,0.0130652
2.29579,-0.292469,-0.161835
2.24423,-0.175048,0.0655119
2.24854,-0.175385,-0.144544
2.29098,-0.291856,-0.10758
2.2473,-0.175288,-0.0918356
2.29681,-0.292599,-0.0538774
2.25219,-0.183581,-0.0394424
2.24452,-0.182955,0.0130884
2.29872,-0.300999,-0.162114
2.25556,-0.183856,0.065861
2.23996,-0.182584,-0.144032
2.29787,-0.300889,-0.107952
2.25465,-0.183781,-0.0921613
2.29974,-0.301133,-0.0539705
2.25552,-0.19178,-0.0395123
2.25184,-0.191467,0.0131349
2.30556,-0.310085,-0.162672
2.25124,-0.191416,-0.1448
2.30077,-0.30944,-0.108138
2.25487,-0.199258,-0.0395123
2.25517,-0.199285,0.0131582
2.25457,-0.199232,-0.145056
2.29577,-0.316523,-0.107952
2.2613,-0.199827,-0.0924869
2.26607,-0.208621,-0.0397217
2.26239,-0.208283,0.0132047
2.26178,-0.208226,-0.145567
2.30251,-0.326055,-0.108324
2.26931,-0.216911,-0.0397915
2.26165,-0.216179,0.0132047
2.26501,-0.2165,-0.145823
2.30926,-0.335239,-0.108697
2.26777,-0.216764,-0.0928126
2.26487,-0.224467,0.0132279
2.27218,-0.225192,-0.146335
2.31203,-0.343885,-0.108883
2.27098,-0.225073,-0.0929754
2.27574,-0.233168,-0.0399311
2.26411,-0.231976,0.0132279
2.2754,-0.233133,-0.146591
2.31878,-0.352752,-0.109255
2.27487,-0.241507,-0.0399311
2.2785,-0.241892,-0.146847
2.2773,-0.241766,-0.0933011
2.28201,-0.24992,-0.0400707
2.28443,-0.250186,-0.0936268
2.28509,-0.258334,-0.0401405
2.28076,-0.257844,-0.147102
2.28752,-0.258608,-0.0937896
2.29212,-0.267235,-0.0402802
2.28381,-0.266266,-0.147358
2.29057,-0.267054,-0.0939524
2.29118,-0.275234,-0.0402802
2.2908,-0.275189,-0.14787
2.29814,-0.284212,-0.0404198
2.29378,-0.283673,-0.148126
2.30055,-0.28451,-0.0944409
2.3007,-0.292686,-0.148637
2.30351,-0.293043,-0.0946037
2.30362,-0.301233,-0.148893
2.30247,-0.301082,-0.0946037
2.30256,-0.309272,-0.148893
2.30537,-0.30965,-0.0947666
2.30937,-0.318398,-0.149405
2.30823,-0.318241,-0.0949294
2.31106,-0.326856,-0.0950922
2.31782,-0.336068,-0.0954179
