2.27276,0.0785721,-0.212284
2.27478,0.0786422,-0.132557
2.26926,0.0629896,-0.211912
2.26728,0.0629348,-0.132092
2.26947,0.0546724,-0.211912
2.2675,0.0546249,-0.132092
2.26964,0.0471467,-0.211912
2.25968,0.0469398,-0.131627
2.25584,0.0389822,-0.131394
2.26195,0.0311907,-0.211169
2.25596,0.0311081,-0.131394
2.25807,0.0228591,-0.210797
2.25207,0.0227984,-0.131162
2.26211,0.0153974,-0.211169
2.28484,0.127342,-0.186813
2.26411,0.015411,-0.131859
2.26215,0.00750262,-0.211169
2.24818,0.00745627,-0.130929
2.2542,4.03082e-07,-0.210425
2.2442,4.01294e-07,-0.130697
2.24622,-0.00823196,-0.209682
2.2741,0.10287,-0.185836
2.24818,-0.00823913,-0.130929
2.25016,-0.0161018,-0.210054
2.27445,0.0949302,-0.185836
2.24813,-0.0160873,-0.130929
2.24372,-0.023889,-0.0261226
2.25407,-0.0239992,-0.210425
2.27477,0.0869897,-0.185836
2.25206,-0.0239778,-0.131162
2.25,-0.0314178,-0.210054
2.27903,0.0795854,-0.186162
2.24398,-0.0313338,-0.130697
2.24987,-0.0392711,-0.210054
2.2753,0.0715049,-0.185836
2.23986,-0.0390964,-0.130464
2.23536,-0.0468241,-0.0260295
2.23778,-0.0468748,-0.208938
2.27155,0.0634503,-0.185511
2.23971,-0.0469153,-0.130464
2.22718,-0.0544307,-0.0259363
2.24158,-0.0547826,-0.20931
2.26778,0.0554238,-0.185186
2.24353,-0.0548301,-0.130697
2.2374,-0.0624963,-0.208938
2.26397,0.0474233,-0.18486
2.23933,-0.0625503,-0.130464
2.22275,-0.0698535,-0.0258898
2.24513,-0.0705566,-0.209682
2.22275,-0.0698535,0.0258898
2.26412,0.0395197,-0.18486
2.23112,-0.0701164,-0.129999
2.25257,0.039318,-0.11807
2.22249,-0.0776104,-0.0258898
2.27343,0.031746,-0.289407
2.23293,-0.0779747,-0.208567
2.26425,0.0316177,-0.18486
2.23485,-0.0780418,-0.130231
2.25668,0.0315121,-0.118279
2.21821,-0.0852149,-0.0258432
2.23662,-0.085922,-0.208938
2.26434,0.0237132,-0.18486
2.23057,-0.0856897,-0.129999
2.24879,0.0235504,-0.117861
2.2179,-0.0929569,-0.0258432
2.23233,-0.0935615,-0.208567
2.21391,-0.0927894,0.0257966
2.26043,0.0157817,-0.184535
2.22228,-0.0931404,-0.129534
2.24303,0.00861274,-0.0652792
2.2136,-0.0997448,-0.0257966
2.2657,0.00869978,-0.288397
2.236,-0.100754,-0.208938
2.2136,-0.0997448,0.0257966
2.25249,0.00864905,-0.183884
2.22995,-0.100482,-0.129999
2.2449,0.00861991,-0.117651
2.22121,-0.108246,-0.0258898
2.26175,0.000395316,-0.287892
2.23164,-0.108754,-0.208567
2.21322,-0.107857,0.0257966
2.25251,0.0003937,-0.183884
2.2216,-0.108265,-0.129534
2.21685,-0.115404,-0.0258432
2.25777,-0.00709309,-0.287386
2.23127,-0.116155,-0.208567
2.21685,-0.115404,0.0258432
2.26047,-0.00710156,-0.184535
2.21724,-0.115424,-0.129301
2.24491,-0.00705268,-0.117651
2.239,-0.0148494,-0.0651628
2.20844,-0.122698,-0.0257501
2.25773,-0.0149737,-0.287386
2.22687,-0.123721,-0.208195
2.21244,-0.122919,0.0257966
2.24847,-0.0149122,-0.183558
2.21682,-0.123163,-0.129301
2.208,-0.130406,-0.0257501
2.26164,-0.0228953,-0.287892
2.22642,-0.131494,-0.208195
2.208,-0.130406,0.0257501
2.27274,0.0881042,-0.159045
2.25239,-0.0228017,-0.183884
2.21638,-0.130901,-0.129301
2.23682,-0.022644,-0.117233
2.20352,-0.138247,-0.0257035
2.25757,-0.0311292,-0.287386
2.22195,-0.139404,-0.207823
2.20352,-0.138247,0.0257035
2.26906,0.0796341,-0.158766
2.24432,-0.0309466,-0.183233
2.21987,-0.139273,-0.129534
2.23473,-0.0382263,-0.0650464
2.20305,-0.145553,-0.0257035
2.24952,-0.0384793,-0.286376
2.22943,-0.147296,-0.208567
2.20305,-0.145553,0.0257035
2.26931,0.0721097,-0.158766
2.24819,-0.0384566,-0.183558
2.21142,-0.146107,-0.129069
2.24459,-0.038395,-0.117651
2.23058,-0.0459449,-0.0649301
2.20652,-0.15352,-0.0257501
2.22095,-0.154525,-0.207823
2.20253,-0.153243,0.0257035
2.26955,0.0641872,-0.158766
2.24406,-0.0462225,-0.183233
2.2109,-0.153826,-0.129069
2.24444,-0.0462304,-0.117651
2.22641,-0.0536341,-0.0648137
2.20597,-0.161221,-0.0257501
2.24919,-0.0541829,-0.286376
2.22732,-0.0536559,-0.0129489
2.2204,-0.162276,-0.207823
2.19799,-0.160638,0.0256569
2.26178,0.0560674,-0.158208
2.24388,-0.054055,-0.183233
2.21035,-0.161542,-0.129069
2.26884,0.0562424,-0.105719
2.23628,-0.0538718,-0.117233
2.22621,-0.061406,-0.0648137
2.2014,-0.168616,-0.0257035
2.25296,-0.0621438,-0.286881
2.22712,-0.061431,-0.0129489
2.26637,0.0482652,-0.244181
2.21982,-0.170026,-0.207823
2.2014,-0.168616,0.0257035
2.25797,0.0480863,-0.157929
2.24368,-0.0618879,-0.183233
2.20579,-0.168952,-0.128836
2.23608,-0.0616782,-0.117233
2.23398,-0.0694249,-0.0650464
2.19681,-0.17598,-0.0256569
2.2448,-0.0697612,-0.285871
2.22689,-0.0692047,-0.0129489
2.26255,0.040283,-0.243753
2.21127,-0.177138,-0.207079
2.2008,-0.176299,0.0257035
2.25813,0.0402042,-0.157929
2.23548,-0.0694717,-0.182582
2.21315,-0.177288,-0.129301
2.26119,0.0402588,-0.105346
2.23585,-0.0694832,-0.117233
2.1922,-0.183314,-0.0256104
2.24057,-0.0774595,-0.285366
2.22264,-0.0768393,-0.0129257
2.26268,0.032385,-0.243753
2.21064,-0.184856,-0.207079
2.20017,-0.18398,0.0257035
2.25825,0.0323217,-0.157929
2.23522,-0.0772746,-0.182582
2.1966,-0.183681,-0.128371
2.25732,0.0323083,-0.10516
2.22761,-0.0770113,-0.116814
2.19155,-0.190965,-0.0256104
2.24425,-0.085431,-0.285871
2.22235,-0.0845973,-0.0129257
2.2588,0.0244435,-0.243325
2.21395,-0.192917,-0.207451
2.19553,-0.191312,0.0256569
2.26234,0.0244819,-0.158208
2.24291,-0.0853798,-0.183233
2.2039,-0.192041,-0.128836
2.25342,0.0243854,-0.104974
2.22334,-0.0846347,-0.116605
2.21713,-0.0925376,-0.064581
2.19482,-0.199358,-0.0256569
2.24789,-0.0938215,-0.286376
2.22203,-0.0927421,-0.0129257
2.20133,-0.199949,-0.206336
2.19482,-0.199358,0.0256569
2.25045,0.0161041,-0.157371
2.2386,-0.0934336,-0.182907
2.20318,-0.200118,-0.128836
2.2495,0.0160974,-0.104788
2.22301,-0.0927831,-0.116605
2.22082,-0.0996818,-0.0646974
2.18621,-0.205503,-0.0255638
2.24362,-0.100705,-0.285871
2.22173,-0.0997223,-0.0129257
2.25891,0.00906791,-0.243325
2.20862,-0.207609,-0.207079
2.18621,-0.205503,0.0255638
2.25049,0.00903408,-0.157371
2.23431,-0.100287,-0.182582
2.21343,-0.0993501,0.0386745
2.19459,-0.206291,-0.128371
2.25354,0.00904633,-0.104974
2.22271,-0.0997664,-0.116605
2.21247,-0.107047,-0.0644646
2.18548,-0.213133,-0.0255638
2.24326,-0.108536,-0.285871
2.21337,-0.10709,-0.0128792
2.25893,0.00118277,-0.243325
2.20392,-0.214931,-0.206708
2.1815,-0.212745,0.0255173
2.24651,0.00117627,-0.157092
2.22996,-0.107893,-0.182256
2.20908,-0.106883,0.0386047
2.19783,-0.214337,-0.128604
2.25356,0.00117996,-0.104974
2.21836,-0.107331,-0.116395
2.22007,-0.115184,-0.0646974
2.18473,-0.220761,-0.0255638
2.23494,-0.115955,-0.284861
2.21698,-0.115023,-0.0129024
2.25097,-0.00667878,-0.242468
2.20712,-0.223023,-0.207079
2.18075,-0.220359,0.0255173
2.25049,-0.00667737,-0.157371
2.22559,-0.11547,-0.181931
2.2047,-0.114386,0.0385349
2.1931,-0.221607,-0.128371
2.25355,-0.00668642,-0.104974
2.21797,-0.115074,-0.116395
2.21566,-0.122711,-0.064581
2.18394,-0.228385,-0.0255638
2.23452,-0.123755,-0.284861
2.21257,-0.12254,-0.0128792
2.24695,-0.0145104,-0.242039
2.1984,-0.229898,-0.206336
2.18792,-0.228801,0.0256104
2.25445,-0.0145588,-0.15765
2.22518,-0.123238,-0.181931
2.20429,-0.122081,0.0385349
2.19628,-0.229676,-0.128604
2.24951,-0.0145269,-0.104788
2.22154,-0.123037,-0.116605
2.18711,-0.236437,-0.0256104
2.23407,-0.131555,-0.284861
2.21612,-0.130498,-0.0129024
2.25087,-0.0223932,-0.242468
2.19759,-0.23757,-0.206336
2.18711,-0.236437,0.0256104
2.25039,-0.0223885,-0.157371
2.23269,-0.131473,-0.182582
2.20385,-0.129775,0.0385349
2.1915,-0.236912,-0.128371
2.24545,-0.0223394,-0.104602
2.21312,-0.130321,-0.116186
2.23129,-0.0221984,-0.0519233
2.20278,-0.137429,-0.0642319
2.17832,-0.243183,-0.0255173
2.2606,-0.0303821,-0.351728
2.23756,-0.139599,-0.285366
2.21166,-0.137983,-0.0128792
2.2468,-0.0301966,-0.242039
2.19674,-0.24524,-0.206336
2.18229,-0.243627,0.0255638
2.24631,-0.0301901,-0.157092
2.22028,-0.138521,-0.181606
2.21136,-0.137965,0.0386745
2.26593,0.0803158,-0.145312
2.18669,-0.244117,-0.128138
2.24536,-0.0301773,-0.104602
2.21266,-0.138045,-0.116186
2.23119,-0.0299869,-0.0519233
2.24654,-0.148034,-0.450285
2.17348,-0.250327,-0.0254707
2.22122,-0.146365,-0.283346
2.21516,-0.145966,-0.0129024
2.24668,-0.0380392,-0.242039
2.19983,-0.253362,-0.206708
2.17746,-0.250785,0.0255173
2.2422,-0.0379634,-0.156813
2.21581,-0.146009,-0.18128
2.1989,-0.144894,0.0384651
2.2622,0.0722783,-0.145056
2.18582,-0.251749,-0.128138
2.23725,-0.0378796,-0.10423
2.21615,-0.146031,-0.116395
2.23108,-0.0377751,-0.0519233
2.20576,-0.153081,-0.0643483
2.23427,-0.15506,-0.447932
2.17657,-0.258384,-0.0255173
2.24848,-0.0459211,-0.349884
2.22466,-0.154393,-0.283851
2.20666,-0.153143,-0.012856
2.23858,-0.045719,-0.241183
2.19498,-0.26057,-0.206336
2.1726,-0.257913,0.0254707
2.24206,-0.0457899,-0.156813
2.21528,-0.153742,-0.18128
2.19838,-0.152569,0.0384651
2.18096,-0.258906,-0.127906
2.19689,-0.152466,0.0897188
2.2411,-0.0457705,-0.104416
2.20765,-0.153213,-0.115976
2.19724,-0.160198,-0.0641155
2.23763,-0.163143,-0.448716
2.17962,-0.266466,-0.0255638
2.24435,-0.053675,-0.349269
2.2241,-0.162157,-0.283851
2.20212,-0.160554,-0.0128327
2.23841,-0.0535328,-0.241183
2.19406,-0.26823,-0.206336
2.17962,-0.266466,0.0255638
2.24587,-0.0537113,-0.157092
2.21871,-0.161764,-0.181606
2.20182,-0.160532,0.0385349
2.25866,0.0563838,-0.1448
2.18401,-0.267002,-0.128138
2.18837,-0.159552,0.0893932
2.23693,-0.0534976,-0.10423
2.21109,-0.161208,-0.116186
2.22922,-0.170355,-0.447147
2.17074,-0.273074,-0.0254707
2.24415,-0.0615089,-0.349269
2.22352,-0.16992,-0.283851
2.20553,-0.168545,-0.012856
2.23821,-0.061346,-0.241183
2.1852,-0.274893,-0.205592
2.17868,-0.274072,0.0255638
2.24168,-0.0614412,-0.156813
2.22211,-0.169812,-0.181931
2.19726,-0.167913,0.0384651
2.25884,0.0484993,-0.1448
2.18307,-0.274624,-0.128138
2.1878,-0.16719,0.0893932
2.24073,-0.0614151,-0.104416
2.19856,-0.168012,-0.115558
2.25361,0.0483869,-0.0918356
2.22256,-0.0609172,-0.0517372
2.2208,-0.177511,-0.445579
2.21894,-0.0685701,0
2.17374,-0.281163,-0.0255173
2.22687,-0.177996,-0.284356
2.20493,-0.176243,-0.012856
2.23798,-0.0691584,-0.241183
2.18423,-0.282519,-0.205592
2.17374,-0.281163,0.0255173
2.23747,-0.0691425,-0.156534
2.20958,-0.176614,-0.180955
2.20065,-0.1759,0.0385349
2.25501,0.0405424,-0.144544
2.18209,-0.282243,-0.128138
2.1872,-0.174826,0.0893932
2.23651,-0.0691129,-0.10423
2.19796,-0.175686,-0.115558
2.22798,-0.185914,-0.447147
2.21469,-0.0761777,0
2.16482,-0.287695,-0.0254241
2.24762,-0.0773102,-0.349884
2.21833,-0.185109,-0.283346
2.23375,-0.0768333,-0.240754
2.18718,-0.290666,-0.205964
2.16482,-0.287695,0.0254241
2.22924,-0.076678,-0.155975
2.20895,-0.184326,-0.180955
2.18806,-0.182583,0.0383255
2.1811,-0.289858,-0.128138
2.18658,-0.182459,0.0893932
2.23625,-0.0769193,-0.10423
2.20132,-0.183689,-0.115767
2.21809,-0.0762945,-0.0516442
2.19478,-0.190861,-0.0641155
2.23513,-0.19437,-0.448716
2.22241,-0.0842109,0
2.16776,-0.295791,-0.0254707
2.23943,-0.0848561,-0.348654
2.21767,-0.192851,-0.283346
2.19966,-0.191285,-0.0128327
2.23744,-0.0847806,-0.241183
2.1822,-0.297761,-0.205592
2.1638,-0.29525,0.0254241
2.23294,-0.0846101,-0.156255
2.20829,-0.192035,-0.180955
2.19139,-0.190566,0.0383953
2.17216,-0.29639,-0.127673
2.18991,-0.190437,0.089556
2.20066,-0.191372,-0.115767
2.1941,-0.198521,-0.0641155
2.22663,-0.201464,-0.447147
2.2141,-0.0916372,0
2.16276,-0.302801,-0.0254241
2.23912,-0.0926727,-0.348654
2.21698,-0.200591,-0.283346
2.20296,-0.199322,-0.012856
2.23316,-0.0924258,-0.240754
2.17721,-0.304824,-0.205221
2.16672,-0.303356,0.0254707
2.23662,-0.092569,-0.156534
2.21158,-0.200102,-0.18128
2.19072,-0.198214,0.0383953
2.16716,-0.303417,-0.127441
2.18127,-0.19736,0.0892304
2.22768,-0.0921988,-0.103857
2.20396,-0.199413,-0.115976
2.22204,-0.20848,-0.446363
2.21379,-0.0989789,0
2.17362,-0.311675,-0.0255638
2.2388,-0.100097,-0.348654
2.2084,-0.2072,-0.282336
2.23284,-0.0998307,-0.240754
2.17618,-0.312042,-0.205221
2.1657,-0.310539,0.0254707
2.22434,-0.0994507,-0.155696
2.20693,-0.207062,-0.180955
2.18606,-0.205104,0.0383255
2.24737,0.00941384,-0.144032
2.17009,-0.311168,-0.127673
2.17663,-0.204219,0.0890675
2.22337,-0.0994071,-0.103671
2.19931,-0.206347,-0.115767
2.18872,-0.213064,-0.0639992
2.22521,-0.216615,-0.447147
2.17252,-0.31926,-0.0255638
2.23844,-0.107912,-0.348654
2.19758,-0.213925,-0.0128327
2.23248,-0.107624,-0.240754
2.17508,-0.319637,-0.205221
2.1646,-0.318097,0.0254707
2.22398,-0.107214,-0.155696
2.21017,-0.215151,-0.18128
2.18534,-0.212734,0.0383255
2.24739,0.001569,-0.144032
2.16899,-0.318742,-0.127673
2.17988,-0.212203,0.0892304
2.227,-0.10736,-0.103857
2.1946,-0.213636,-0.115558
2.18797,-0.220702,-0.0639992
2.21663,-0.223594,-0.445579
2.20505,-0.114018,0
2.15952,-0.325055,-0.0254241
2.2341,-0.11552,-0.348039
2.2148,-0.223409,-0.283346
2.19682,-0.221595,-0.0128327
2.23606,-0.115622,-0.241183
2.17789,-0.32782,-0.205592
2.22043,-0.114814,0.0517372
2.16348,-0.325651,0.0254707
2.21961,-0.114771,-0.155417
2.1975,-0.221664,-0.180304
2.1806,-0.219959,0.0382557
2.24738,-0.0062759,-0.144032
2.17181,-0.326905,-0.127906
2.17913,-0.219811,0.0892304
2.22661,-0.115133,-0.103857
2.19384,-0.221295,-0.115558
2.23813,-0.00625008,-0.0911843
2.21644,-0.114607,-0.0516442
2.18321,-0.227923,-0.0638828
2.21974,-0.231737,-0.446363
2.20864,-0.121935,0
2.16233,-0.333201,-0.0254707
2.23369,-0.123318,-0.348039
2.21006,-0.230727,-0.282841
2.19205,-0.228847,-0.0128095
2.23167,-0.123207,-0.240754
2.17673,-0.33542,-0.205592
2.21602,-0.122343,0.0516442
2.16233,-0.333201,0.0254707
2.23115,-0.123178,-0.156255
2.19671,-0.229334,-0.180304
2.17982,-0.22757,0.0382557
2.24335,-0.0140956,-0.143777
2.16671,-0.333876,-0.127673
2.17834,-0.227416,0.0892304
2.2222,-0.122684,-0.103671
2.18511,-0.228122,-0.115139
2.21203,-0.122123,-0.0515511
2.23155,-0.0218115,-0.0389538
2.18637,-0.235972,-0.0639992
2.21112,-0.238642,-0.444794
2.2082,-0.129644,0
2.16511,-0.34137,-0.0255173
2.22535,-0.130651,-0.346809
2.2053,-0.238014,-0.282336
2.18726,-0.236068,-0.0127862
2.22329,-0.13053,-0.239897
2.17555,-0.343016,-0.205592
2.21159,-0.129843,0.0515511
2.1572,-0.340124,0.0254241
2.21875,-0.130264,-0.155417
2.1959,-0.237,-0.180304
2.18299,-0.235606,0.0383255
2.15764,-0.340193,-0.127208
2.17356,-0.234589,0.0890675
2.22575,-0.130675,-0.103857
2.19224,-0.236605,-0.115558
2.16815,-0.234006,0.178025
2.23804,-0.0218749,-0.0911843
2.23546,-0.0296541,-0.0390236
2.21027,-0.246359,-0.444794
2.20773,-0.137351,0
2.15205,-0.347015,-0.0253776
2.2084,-0.24615,-0.282841
2.18642,-0.243701,-0.0127862
2.22282,-0.13829,-0.239897
2.16648,-0.34934,-0.204849
2.20713,-0.137314,0.0514581
2.156,-0.347652,0.0254241
2.22625,-0.138503,-0.155975
2.20298,-0.245547,-0.180955
2.18215,-0.243225,0.0383255
2.2432,-0.0297567,-0.143777
2.16039,-0.348359,-0.127441
2.1767,-0.242618,0.0892304
2.22129,-0.138195,-0.103671
2.18346,-0.243371,-0.115139
2.16336,-0.241131,0.1777
2.23395,-0.029634,-0.0910215
2.23934,-0.0375241,-0.0390934
2.17673,-0.250316,-0.0637664
2.2094,-0.254073,-0.444794
2.20325,-0.144795,0
2.15872,-0.355826,-0.0254707
2.22439,-0.146184,-0.346809
2.20752,-0.253857,-0.282841
2.18953,-0.251789,-0.0128095
2.21439,-0.145527,-0.239041
2.16917,-0.357548,-0.205221
2.20664,-0.145018,0.0514581
2.14688,-0.353874,0.025331
2.22177,-0.146012,-0.155696
2.19023,-0.251869,-0.179978
2.18526,-0.251298,0.0383953
2.24308,-0.0375867,-0.143777
2.15522,-0.355248,-0.127208
2.16393,-0.248845,0.0887419
2.21681,-0.145686,-0.103485
2.1826,-0.250992,-0.115139
2.16251,-0.248681,0.1777
2.20265,-0.144755,-0.051365
2.2392,-0.0453406,-0.0390934
2.17981,-0.258383,-0.0638828
2.2085,-0.261784,-0.444794
2.20273,-0.152485,0
2.15352,-0.362695,-0.0254241
2.19874,-0.260627,-0.281831
2.22577,-0.154079,-0.240326
2.16791,-0.365118,-0.205221
2.20213,-0.152443,0.051365
2.15352,-0.362695,0.0254241
2.21727,-0.153491,-0.155417
2.18538,-0.259044,-0.179653
2.1804,-0.258453,0.0383255
2.16184,-0.364096,-0.127673
2.16702,-0.256867,0.0889047
2.21629,-0.153423,-0.103485
2.18568,-0.259079,-0.115348
2.15767,-0.255759,0.177375
2.20612,-0.152719,-0.0514581
2.22304,-0.0527769,-0.0388142
2.17493,-0.265506,-0.0637664
2.20757,-0.269491,-0.444794
2.20218,-0.160173,0
2.1483,-0.369532,-0.0253776
2.20176,-0.268782,-0.282336
2.18375,-0.266584,-0.0127862
2.22125,-0.161559,-0.239897
2.17055,-0.373358,-0.205592
2.15224,-0.37021,0.0254241
2.21274,-0.16094,-0.155138
2.18446,-0.26667,-0.179653
2.17552,-0.265578,0.0382557
2.23079,-0.0529611,-0.143009
2.14875,-0.369609,-0.126976
2.17008,-0.264914,0.0890675
2.21972,-0.161448,-0.103671
2.1808,-0.266223,-0.115139
2.15676,-0.263289,0.177375
2.20159,-0.160129,-0.051365
2.22684,-0.0606453,-0.038884
2.19883,-0.276217,-0.443225
2.19762,-0.167555,0
2.147,-0.377029,-0.0253776
2.21485,-0.168868,-0.345579
2.189,-0.274982,-0.280821
2.18281,-0.274205,-0.0127862
2.20878,-0.168405,-0.238612
2.16531,-0.380244,-0.205221
2.20101,-0.167813,0.051365
2.147,-0.377029,0.0253776
2.22012,-0.16927,-0.155696
2.18352,-0.274294,-0.179653
2.17061,-0.272672,0.0381859
2.23459,-0.0608564,-0.143265
2.15138,-0.377798,-0.127208
2.16517,-0.271989,0.0889047
2.20719,-0.168284,-0.103113
2.17985,-0.273833,-0.115139
2.15978,-0.271312,0.1777
2.22261,-0.0682952,-0.0388142
2.20174,-0.284394,-0.44401
2.18905,-0.174589,0
2.14961,-0.385226,-0.0254241
2.19196,-0.28313,-0.281326
2.22291,-0.0683045,0.0129257
2.17787,-0.28131,-0.012763
2.20817,-0.176114,-0.238612
2.16005,-0.387097,-0.204849
2.18846,-0.174541,0.0510859
2.14567,-0.384521,0.0253776
2.2036,-0.17575,-0.15458
2.1865,-0.282425,-0.179978
2.16964,-0.280247,0.0381859
2.23037,-0.0685336,-0.143009
2.15398,-0.386009,-0.127441
2.16025,-0.279034,0.0887419
2.21058,-0.176306,-0.103299
2.17888,-0.281441,-0.115139
2.15487,-0.278339,0.177375
2.2251,-0.0683718,-0.0906958
2.19244,-0.174859,-0.0511789
2.22636,-0.07619,-0.038884
2.20074,-0.292077,-0.44401
2.19241,-0.182561,0
2.14038,-0.391289,-0.025331
2.19489,-0.291301,-0.281831
2.22266,-0.0760635,0.0129257
2.18084,-0.289437,-0.0127862
2.21151,-0.184151,-0.239041
2.1626,-0.395351,-0.205221
2.1958,-0.182843,0.051272
2.13645,-0.39057,0.0252844
2.20298,-0.18344,-0.15458
2.18155,-0.289531,-0.179653
2.17262,-0.288345,0.0382557
2.24209,-0.0767282,-0.143777
2.15262,-0.393526,-0.127441
2.1887,-0.182252,0.127906
2.15926,-0.286573,0.0887419
2.20995,-0.184021,-0.103299
2.17393,-0.288519,-0.11493
2.15389,-0.285859,0.177375
2.22086,-0.0760017,-0.090533
2.19182,-0.182511,-0.0511789
2.23009,-0.0837225,-0.0389538
2.1671,-0.294929,-0.0636501
2.19198,-0.298316,-0.442441
2.18781,-0.189485,0
2.14693,-0.399849,-0.0254241
2.18998,-0.298043,-0.281326
2.2184,-0.0832836,0.0129024
2.1759,-0.296128,-0.012763
2.20692,-0.19114,-0.238612
2.15736,-0.401791,-0.204849
2.19917,-0.190469,0.051365
2.143,-0.399117,0.0253776
2.20236,-0.190745,-0.15458
2.17268,-0.295688,-0.179002
2.16768,-0.295009,0.0381859
2.22985,-0.0837135,-0.143009
2.1513,-0.400662,-0.127441
2.17615,-0.188475,0.127208
2.16622,-0.294809,0.0890675
2.20932,-0.191348,-0.103299
2.17296,-0.295727,-0.11493
2.14898,-0.292463,0.177049
2.22059,-0.0833659,-0.090533
2.19917,-0.190469,-0.051365
2.22179,-0.0911784,-0.0388142
2.16605,-0.302492,-0.0636501
2.1987,-0.30705,-0.44401
2.18714,-0.197121,0
2.14553,-0.407341,-0.0254241
2.20838,-0.199035,-0.344964
2.18107,-0.304588,-0.280315
2.2101,-0.0906988,0.012856
2.17486,-0.303721,-0.012763
2.20228,-0.198486,-0.238184
2.15986,-0.410062,-0.205221
2.19053,-0.197426,0.0511789
2.1416,-0.406595,0.0253776
2.1977,-0.198073,-0.154301
2.17558,-0.303822,-0.179327
2.16268,-0.302021,0.0381161
2.14597,-0.407424,-0.127208
2.18344,-0.196787,0.127673
2.16122,-0.301816,0.0889047
2.20864,-0.199059,-0.103299
2.17191,-0.30331,-0.11493
2.14794,-0.299962,0.177049
2.21629,-0.0909529,-0.0903702
2.19451,-0.197785,-0.051272
2.19373,-0.314167,-0.443225
2.18245,-0.204381,0
2.14016,-0.414068,-0.0253776
2.17606,-0.311637,-0.27981
2.16587,-0.310177,-0.0127165
2.19762,-0.205801,-0.237755
2.1506,-0.416086,-0.204477
2.18982,-0.205071,0.0511789
2.20892,-0.20686,-0.155138
2.17845,-0.31198,-0.179653
2.16953,-0.310702,0.0382557
2.22124,-0.0989235,-0.142497
2.14061,-0.414154,-0.126976
2.17478,-0.203663,0.127208
2.16015,-0.309358,0.0889047
2.20794,-0.206767,-0.103299
2.17875,-0.312022,-0.115348
2.14688,-0.307458,0.177049
2.21596,-0.0986886,-0.0903702
2.18584,-0.204699,-0.0510859
2.21711,-0.106495,-0.0387443
2.18874,-0.321253,-0.442441
2.18571,-0.212385,0
2.14263,-0.422309,-0.0254241
2.17889,-0.319807,-0.280315
2.20542,-0.105934,0.0128327
2.16873,-0.318316,-0.0127397
2.2048,-0.21424,-0.238612
2.14522,-0.42282,-0.204105
2.18909,-0.212714,0.0511789
2.13086,-0.419989,0.0252844
2.20421,-0.214183,-0.154859
2.1813,-0.320161,-0.179978
2.15656,-0.316531,0.0380462
2.22487,-0.106868,-0.142753
2.13915,-0.421624,-0.126976
2.17406,-0.211253,0.127208
2.1551,-0.316316,0.0887419
2.19527,-0.213314,-0.102741
2.16579,-0.317885,-0.11472
2.14579,-0.31495,0.177049
2.18909,-0.212714,-0.0511789
2.22071,-0.11444,-0.0388142
2.18097,-0.219612,0
2.14114,-0.429786,-0.0254241
2.20617,-0.22215,-0.344964
2.18168,-0.328001,-0.280821
2.20903,-0.113837,0.012856
2.17156,-0.326479,-0.012763
2.208,-0.222334,-0.239041
2.14373,-0.430306,-0.204105
2.18436,-0.219953,0.0510859
2.1333,-0.428212,0.025331
2.19948,-0.221476,-0.15458
2.16834,-0.325995,-0.179002
2.20015,-0.11338,0.0641155
2.1594,-0.324651,0.0381161
2.22049,-0.114428,-0.142497
2.13767,-0.429088,-0.126976
2.17331,-0.218841,0.127208
2.15399,-0.323837,0.0887419
2.19451,-0.220976,-0.102741
2.16467,-0.325443,-0.11472
2.14468,-0.322439,0.177049
2.18436,-0.219953,-0.0510859
2.21631,-0.121971,-0.0387443
2.15372,-0.331489,-0.0634174
2.18644,-0.336526,-0.442441
2.18417,-0.227639,0
2.13571,-0.436457,-0.0253776
2.1766,-0.335011,-0.280315
2.20862,-0.121548,0.012856
2.16645,-0.333449,-0.0127397
2.20325,-0.229627,-0.238612
2.14222,-0.437786,-0.204105
2.18358,-0.227577,0.0510859
2.12396,-0.434054,0.0252379
2.19472,-0.228739,-0.154301
2.16325,-0.332955,-0.178676
2.19974,-0.121059,0.0641155
2.15035,-0.33097,0.0379764
2.14398,-0.438146,-0.127441
2.17253,-0.226426,0.127208
2.14889,-0.330746,0.0885791
2.20167,-0.229463,-0.103113
2.15957,-0.33239,-0.114511
2.1396,-0.329316,0.176724
2.21082,-0.121669,-0.0902073
2.18358,-0.227577,-0.0510859
2.20788,-0.129239,-0.0386047
2.15255,-0.339004,-0.0634174
2.18913,-0.344766,-0.443225
2.17938,-0.234833,0
2.12634,-0.44228,-0.0252844
2.1715,-0.341989,-0.27981
2.20419,-0.129023,0.0128327
2.16527,-0.341009,-0.0127397
2.20244,-0.237317,-0.238612
2.14068,-0.445262,-0.204105
2.18675,-0.235626,0.0511789
2.13026,-0.443094,0.025331
2.19391,-0.236398,-0.154301
2.16995,-0.341745,-0.179327
2.1993,-0.128737,0.0641155
2.15313,-0.339096,0.0380462
2.21565,-0.129694,-0.142242
2.13462,-0.444001,-0.126976
2.1757,-0.234436,0.127441
2.14772,-0.338245,0.0885791
2.19689,-0.236719,-0.102927
2.1584,-0.339926,-0.114511
2.15525,-0.232232,0.266163
2.13844,-0.336783,0.176724
2.18277,-0.235198,-0.0510859
2.20343,-0.136698,-0.0385349
2.18404,-0.351782,-0.442441
2.17458,-0.241996,0
2.1287,-0.450528,-0.025331
2.19587,-0.244366,-0.343735
2.17421,-0.350198,-0.280315
2.19973,-0.136468,0.0128095
2.16407,-0.348565,-0.0127397
2.19369,-0.244123,-0.237755
2.13521,-0.451907,-0.203733
2.17796,-0.242373,0.0509928
2.13261,-0.451356,0.0253776
2.19704,-0.244496,-0.15458
2.1648,-0.348683,-0.179002
2.15193,-0.34661,0.0380462
2.2112,-0.13718,-0.141986
2.13306,-0.45145,-0.126976
2.16693,-0.241145,0.126976
2.14653,-0.34574,0.0885791
2.19208,-0.243944,-0.102741
2.16509,-0.348729,-0.11493
2.14119,-0.34488,0.177049
2.20991,-0.1371,-0.0902073
2.17796,-0.242373,-0.0509928
2.20294,-0.144388,-0.0385349
2.17506,-0.358129,-0.440872
2.16974,-0.249129,0
2.13493,-0.459639,-0.0254241
2.195,-0.252029,-0.343735
2.16906,-0.357141,-0.27981
2.19924,-0.144146,0.0128095
2.16284,-0.356117,-0.0127397
2.19282,-0.251779,-0.237755
2.17313,-0.249518,0.0508998
2.13493,-0.459639,0.0254241
2.18824,-0.251254,-0.154022
2.16357,-0.356238,-0.179002
2.19835,-0.144087,0.0641155
2.15071,-0.35412,0.0380462
2.20673,-0.144637,-0.14173
2.13147,-0.458893,-0.126976
2.16607,-0.248708,0.126976
2.13742,-0.351932,0.0882534
2.19121,-0.251594,-0.102741
2.15991,-0.355635,-0.11472
2.14391,-0.352999,0.177375
2.1771,-0.249974,-0.0509928
2.20242,-0.152077,-0.0385349
2.17766,-0.36637,-0.441656
2.12941,-0.466233,-0.0253776
2.1678,-0.36471,-0.27981
2.19873,-0.151822,0.0128095
2.16159,-0.363665,-0.0127397
2.18798,-0.258965,-0.237327
2.17225,-0.257102,0.0508998
2.11769,-0.463667,0.0252379
2.18735,-0.25889,-0.154022
2.16232,-0.363788,-0.179002
2.1534,-0.362288,0.0381161
2.21417,-0.152889,-0.142242
2.13375,-0.467184,-0.127208
2.16123,-0.255798,0.126743
2.14012,-0.360054,0.0884162
2.18635,-0.258772,-0.102555
2.15472,-0.36251,-0.114511
2.16452,-0.256188,0.267625
2.20093,-0.151974,-0.0898817
2.18416,-0.258512,-0.0511789
2.20586,-0.160053,-0.0386047
2.17637,-0.373969,-0.441656
2.16795,-0.264271,0
2.12386,-0.472794,-0.025331
2.1626,-0.371603,-0.279305
2.19818,-0.159496,0.0128095
2.18707,-0.266601,-0.237327
2.13425,-0.475107,-0.204105
2.16737,-0.264199,0.0508067
2.12777,-0.473663,0.0253776
2.18644,-0.266524,-0.154022
2.15711,-0.370658,-0.178676
2.14819,-0.369126,0.0380462
2.13211,-0.47463,-0.127208
2.16429,-0.263824,0.126976
2.13491,-0.366845,0.0882534
2.1775,-0.265435,-0.102182
2.1495,-0.369352,-0.114302
2.17927,-0.265651,-0.0510859
2.2013,-0.167449,-0.0385349
2.16702,-0.271837,0
2.1222,-0.480205,-0.025331
2.19224,-0.275001,-0.343735
2.15738,-0.378464,-0.2788
2.19363,-0.166865,0.0127862
2.18218,-0.273738,-0.236899
2.13258,-0.482554,-0.204105
2.17833,-0.273256,0.0510859
2.1222,-0.480205,0.025331
2.18945,-0.274651,-0.154301
2.15973,-0.378875,-0.179002
2.18875,-0.166494,0.0638828
2.13901,-0.37524,0.0379066
2.20111,-0.167434,-0.141474
2.12654,-0.481188,-0.126976
2.15939,-0.27088,0.126743
2.14149,-0.375677,0.0885791
2.18449,-0.274029,-0.102555
2.15214,-0.377544,-0.114511
2.19981,-0.167336,-0.0898817
2.17437,-0.272759,-0.0509928
2.19678,-0.174048,-0.0384651
2.17384,-0.388395,-0.441656
2.17409,-0.279664,0
2.12458,-0.487765,-0.0253776
2.18745,-0.281382,-0.34312
2.16009,-0.385937,-0.279305
2.1891,-0.17344,0.012763
2.1813,-0.280593,-0.236899
2.12717,-0.48836,-0.203733
2.16953,-0.279078,0.0508998
2.12068,-0.48687,0.025331
2.19254,-0.282037,-0.15458
2.15852,-0.385658,-0.179002
2.18821,-0.173369,0.0638828
2.14569,-0.383365,0.0380462
2.20058,-0.174348,-0.141474
2.15457,-0.277153,0.126511
2.13637,-0.3817,0.0884162
2.17569,-0.279871,-0.102182
2.15487,-0.385005,-0.11472
2.14607,-0.27606,0.265675
2.19529,-0.17393,-0.0897188
2.1735,-0.279588,-0.0509928
2.19616,-0.181715,-0.0384651
2.17247,-0.395981,-0.441656
2.1612,-0.285679,0
2.12286,-0.495178,-0.0253776
2.18645,-0.289016,-0.34312
2.15483,-0.392764,-0.2788
2.19247,-0.18141,0.0127862
2.18425,-0.288726,-0.237327
2.16458,-0.286125,0.0508067
2.11897,-0.494269,0.025331
2.17967,-0.28812,-0.153743
2.15324,-0.392475,-0.178676
2.18361,-0.180677,0.0637664
2.1404,-0.390135,0.0379764
2.20393,-0.182358,-0.14173
2.12331,-0.495281,-0.126976
2.13109,-0.388438,0.0882534
2.1747,-0.287464,-0.102182
2.14566,-0.391092,-0.114302
2.14509,-0.283549,0.265675
2.19866,-0.181921,-0.0898817
2.16854,-0.28665,-0.0508998
2.19548,-0.189763,-0.0384651
2.13838,-0.39787,-0.063301
2.16014,-0.293598,0
2.11714,-0.502032,-0.025331
2.16117,-0.402111,-0.27981
2.19179,-0.189444,0.0127862
2.15105,-0.400226,-0.0127165
2.18318,-0.29673,-0.237327
2.1275,-0.504488,-0.204105
2.16748,-0.294596,0.0508998
2.10936,-0.500187,0.0252379
2.1786,-0.296107,-0.153743
2.14787,-0.399635,-0.178351
2.14289,-0.398709,0.0380462
2.19927,-0.190091,-0.141474
2.15649,-0.293101,0.126743
2.13751,-0.397708,0.0885791
2.16968,-0.294894,-0.101996
2.14421,-0.398954,-0.114302
2.14404,-0.29141,0.265675
2.17144,-0.295134,-0.0509928
2.19082,-0.197067,-0.0383953
2.16188,-0.410054,-0.440087
2.1591,-0.301137,0
2.11149,-0.508483,-0.0252844
2.15196,-0.408173,-0.2788
2.18713,-0.196736,0.012763
2.14964,-0.407733,-0.0127165
2.17819,-0.303799,-0.236899
2.12185,-0.510979,-0.203733
2.16644,-0.30216,0.0508998
2.1076,-0.507547,0.0252379
2.1736,-0.303159,-0.153464
2.14646,-0.407131,-0.178351
2.18226,-0.196297,0.0637664
2.13363,-0.404696,0.0379066
2.19462,-0.197409,-0.141218
2.12359,-0.511397,-0.127208
2.15545,-0.300627,0.126743
2.12826,-0.403678,0.0882534
2.17655,-0.30357,-0.102368
2.1428,-0.406436,-0.114302
2.19332,-0.197292,-0.0897188
2.1704,-0.302712,-0.0509928
2.18617,-0.20396,-0.0383255
2.13955,-0.413174,-0.0634174
2.16436,-0.417965,-0.440872
2.15809,-0.308295,0
2.10979,-0.515482,-0.0252844
2.17939,-0.311338,-0.342505
2.15059,-0.415307,-0.2788
2.18647,-0.203987,0.012763
2.14827,-0.414859,-0.0127165
2.17717,-0.311021,-0.236899
2.12015,-0.518012,-0.203733
2.16147,-0.308777,0.0508067
2.17258,-0.310365,-0.153464
2.14901,-0.415002,-0.178676
2.1816,-0.203533,0.0637664
2.1362,-0.412528,0.0379764
2.19395,-0.204685,-0.141218
2.15049,-0.307209,0.126511
2.13083,-0.411491,0.0884162
2.17553,-0.310786,-0.102368
2.14929,-0.415055,-0.11472
2.18867,-0.204193,-0.089556
2.16147,-0.308777,-0.0508067
2.13417,-0.419868,-0.063301
2.15904,-0.42476,-0.440087
2.15304,-0.315246,0
2.11186,-0.523807,-0.025331
2.17829,-0.318943,-0.342505
2.18176,-0.211233,0.0127397
2.14681,-0.422355,-0.0127165
2.17608,-0.318619,-0.236899
2.11446,-0.524451,-0.203362
2.16037,-0.31632,0.0508067
2.17544,-0.318525,-0.153743
2.14755,-0.422501,-0.178676
2.18485,-0.211532,0.0638828
2.13082,-0.41921,0.0379066
2.18925,-0.211958,-0.140962
2.14545,-0.314135,0.126278
2.12546,-0.418155,0.0882534
2.17443,-0.318378,-0.102368
2.14783,-0.422554,-0.11472
2.18795,-0.211832,-0.089556
2.16433,-0.316899,-0.0508998
2.18867,-0.219616,-0.0383953
2.15193,-0.32276,0
2.11002,-0.531175,-0.025331
2.17716,-0.326545,-0.342505
2.15153,-0.43109,-0.279305
2.18101,-0.218847,0.0127397
2.1414,-0.42906,-0.0126932
2.17495,-0.326213,-0.236899
2.11648,-0.532801,-0.203733
2.1553,-0.323266,0.0507136
2.17036,-0.325525,-0.153464
2.14606,-0.429995,-0.178676
2.18012,-0.218758,0.0637664
2.13327,-0.427431,0.0379764
2.19247,-0.219997,-0.141218
2.11047,-0.531287,-0.126743
2.12007,-0.424786,0.0880906
2.16541,-0.324781,-0.101996
2.1385,-0.42848,-0.114302
2.19117,-0.219867,-0.0897188
2.16321,-0.324452,-0.0508998
2.18388,-0.227223,-0.0383255
2.15594,-0.440199,-0.440087
2.10418,-0.537915,-0.0252844
2.14605,-0.438179,-0.2788
2.18019,-0.22684,0.0127397
2.17767,-0.334787,-0.237327
2.11065,-0.539568,-0.203362
2.15015,-0.330556,0.0506206
2.16521,-0.332871,-0.153185
2.14447,-0.437858,-0.178676
2.17533,-0.226334,0.0636501
2.13561,-0.436047,0.0380462
2.19165,-0.228031,-0.141218
2.10851,-0.539019,-0.126743
2.12633,-0.434153,0.0884162
2.16025,-0.332108,-0.10181
2.13692,-0.436315,-0.114302
2.1824,-0.227069,-0.0893932
2.16201,-0.332379,-0.0508998
2.17913,-0.234036,-0.0382557
2.09852,-0.543886,-0.0252379
2.17545,-0.233641,0.0127165
2.16869,-0.340771,-0.23647
2.10885,-0.546564,-0.203362
2.15694,-0.338925,0.0508067
2.1641,-0.34005,-0.153185
2.13911,-0.444156,-0.178351
2.17059,-0.233119,0.0635337
2.13023,-0.442313,0.0379764
2.18691,-0.234872,-0.140962
2.10671,-0.546008,-0.126743
2.14204,-0.336584,0.126278
2.15914,-0.33927,-0.10181
2.13546,-0.443399,-0.114302
2.15694,-0.338925,-0.0508067
2.18224,-0.242463,-0.0383255
2.15665,-0.456051,-0.440872
2.10425,-0.553609,-0.025331
2.16966,-0.349077,-0.34189
2.13906,-0.45233,-0.278295
2.17458,-0.241613,0.0127165
2.13671,-0.451834,-0.0126932
2.16743,-0.348718,-0.23647
2.11454,-0.556317,-0.204105
2.15569,-0.346829,0.0508067
2.1589,-0.347345,-0.152906
2.13356,-0.451169,-0.178025
2.12077,-0.448463,0.0378368
2.18207,-0.242445,-0.140707
2.10469,-0.553726,-0.126743
2.14079,-0.344433,0.126278
2.16182,-0.347816,-0.101996
2.13382,-0.451223,-0.114302
2.15174,-0.346194,-0.0507136
2.1774,-0.249624,-0.0382557
2.12253,-0.456581,-0.0631846
2.15121,-0.462751,-0.440087
2.14715,-0.353149,0
2.16843,-0.356649,-0.34189
2.1777,-0.249658,0.0127397
2.13512,-0.45929,-0.0126932
2.10873,-0.562668,-0.203733
2.15841,-0.355,0.0508998
2.16555,-0.356174,-0.153464
2.13587,-0.459452,-0.178351
2.17284,-0.249101,0.0636501
2.11919,-0.455863,0.0378368
2.18121,-0.25006,-0.140707
2.15665,-0.354712,-0.10181
2.13223,-0.458668,-0.114302
2.1799,-0.24991,-0.0893932
2.15052,-0.353702,-0.0507136
2.18054,-0.257312,-0.0383255
2.14584,-0.469045,-0.439303
2.14202,-0.359605,0
2.16724,-0.363838,-0.34189
2.13981,-0.467727,-0.2788
2.17686,-0.256878,0.0127397
2.13359,-0.466368,-0.0126932
2.16108,-0.362804,-0.236042
2.14539,-0.36017,0.0506206
2.16042,-0.362693,-0.153185
2.13823,-0.467383,-0.178676
2.16803,-0.255836,0.0635337
2.12158,-0.463742,0.0379066
2.18433,-0.25776,-0.140962
2.1384,-0.358997,0.126278
2.15547,-0.361862,-0.10181
2.1307,-0.465736,-0.114302
2.18303,-0.257606,-0.089556
2.15328,-0.361494,-0.0508067
2.17962,-0.264922,-0.0383255
2.16595,-0.3714,-0.34189
2.14203,-0.476054,-0.279305
2.17198,-0.263992,0.0127165
2.1598,-0.370346,-0.236042
2.14412,-0.367656,0.0506206
2.15914,-0.370232,-0.153185
2.12881,-0.473114,-0.178025
2.16316,-0.26292,0.0634174
2.12385,-0.472013,0.0379764
2.17946,-0.264901,-0.140707
2.1332,-0.365784,0.126045
2.15419,-0.369383,-0.10181
2.12516,-0.472305,-0.114092
2.17418,-0.26426,-0.0892304
2.152,-0.369008,-0.0508067
2.17864,-0.272909,-0.0383255
2.14334,-0.375614,0
2.16458,-0.379336,-0.34189
2.13253,-0.482152,-0.278295
2.16703,-0.271454,0.0126932
2.16626,-0.379632,-0.236899
2.1467,-0.376203,0.0507136
2.15777,-0.378143,-0.153185
2.16218,-0.270847,0.0634174
2.1182,-0.478912,0.0379066
2.17847,-0.272887,-0.140707
2.1006,-0.584128,-0.126976
2.13971,-0.374979,0.126511
2.14889,-0.376587,-0.101624
2.11952,-0.47921,-0.113883
2.1467,-0.376203,-0.0507136
2.17371,-0.280001,-0.0382557
2.13807,-0.382389,0
2.16324,-0.38689,-0.34189
2.13084,-0.489593,-0.278295
2.16607,-0.279017,0.0126932
2.1571,-0.385791,-0.236042
2.10067,-0.592055,-0.203733
2.14931,-0.384398,0.0508067
2.15251,-0.38497,-0.152906
2.10872,-0.484512,0.037767
2.13053,-0.38104,0.126045
2.15149,-0.384789,-0.10181
2.11783,-0.486605,-0.113883
2.14537,-0.383694,-0.0507136
2.16479,-0.286537,-0.0381161
2.13673,-0.38985,0
2.16576,-0.395148,-0.342505
2.16111,-0.286051,0.01267
2.12678,-0.496483,-0.0126932
2.15182,-0.392605,-0.235614
2.14008,-0.390462,0.0506206
2.15507,-0.393198,-0.153185
2.15627,-0.28541,0.063301
2.17255,-0.287565,-0.140451
2.12918,-0.388474,0.126045
2.1462,-0.391579,-0.101624
2.1239,-0.495811,-0.114302
2.16728,-0.286868,-0.0890675
2.14402,-0.39118,-0.0507136
2.1718,-0.294411,-0.0382557
2.13549,-0.396561,0
2.16451,-0.40195,-0.342505
2.12754,-0.503714,-0.278295
2.16021,-0.292839,0.01267
2.15058,-0.399363,-0.235614
2.14278,-0.397914,0.0507136
2.15775,-0.400695,-0.153464
2.12596,-0.503339,-0.178351
2.15933,-0.29272,0.0634174
2.1756,-0.294926,-0.140707
2.12795,-0.395161,0.126045
2.14496,-0.39832,-0.101624
2.11456,-0.50064,-0.113883
2.17033,-0.294212,-0.0892304
2.14671,-0.398644,-0.0508067
2.1668,-0.301439,-0.0381859
2.15533,-0.408033,-0.341275
2.12963,-0.512065,-0.2788
2.16313,-0.300929,0.0126932
2.15308,-0.407607,-0.236042
2.13352,-0.403904,0.0505275
2.12031,-0.509825,-0.178025
2.15829,-0.300256,0.0634174
2.17851,-0.303068,-0.140962
2.14356,-0.405805,-0.101624
2.11668,-0.508952,-0.114092
2.16533,-0.301235,-0.0890675
2.1453,-0.406135,-0.0508067
2.16959,-0.310323,-0.0382557
2.15375,-0.416306,-0.341275
2.12379,-0.519296,-0.278295
2.16196,-0.309232,0.0126932
2.11758,-0.517777,-0.01267
2.1476,-0.415117,-0.235614
2.13588,-0.412852,0.0506206
2.143,-0.414229,-0.152627
2.15317,-0.307975,0.063301
2.16547,-0.309735,-0.140195
2.08626,-0.619563,-0.126743
2.14199,-0.414033,-0.101624
2.1398,-0.413611,-0.0507136
2.16068,-0.31598,-0.0381161
2.1273,-0.41813,0
2.15702,-0.315444,0.01267
2.11983,-0.525389,-0.0126932
2.13457,-0.41956,0.0506206
2.14169,-0.42096,-0.152627
2.15219,-0.314737,0.063301
2.14068,-0.42076,-0.101624
2.1092,-0.522756,-0.113883
2.15922,-0.315766,-0.0889047
2.13849,-0.420331,-0.0507136
2.15561,-0.322928,-0.0380462
2.12582,-0.425553,0
2.15986,-0.323564,0.0126932
2.11022,-0.530834,-0.0126467
2.14089,-0.42857,-0.235185
2.13309,-0.427008,0.0506206
2.1363,-0.42765,-0.152348
2.11099,-0.531028,-0.1777
2.15503,-0.32284,0.0634174
2.16337,-0.32409,-0.140195
2.13528,-0.427445,-0.101438
2.11124,-0.53109,-0.114092
2.12917,-0.426223,-0.0505275
2.15436,-0.331202,-0.0380462
2.15314,-0.439627,-0.34189
2.1586,-0.331855,0.0126932
2.11592,-0.540914,-0.0126932
2.14313,-0.437583,-0.235614
2.1236,-0.433595,0.0504345
2.14246,-0.437446,-0.152906
2.1128,-0.540117,-0.178025
2.14982,-0.330505,0.063301
2.16211,-0.332394,-0.140195
2.13362,-0.435641,-0.101438
2.10531,-0.538203,-0.113883
2.15685,-0.331586,-0.0889047
2.13535,-0.435995,-0.0507136
2.15726,-0.338589,-0.0381161
2.12037,-0.549154,-0.2788
2.1615,-0.339255,0.0127165
2.14564,-0.445122,-0.236042
2.12614,-0.441077,0.0505275
2.13326,-0.442553,-0.152348
2.11109,-0.546752,-0.178025
2.14877,-0.337257,0.063301
2.15711,-0.338566,-0.139939
2.13224,-0.442342,-0.101438
2.13006,-0.441889,-0.0506206
2.16001,-0.346751,-0.0381859
2.14631,-0.453081,-0.341275
2.15635,-0.346164,0.0126932
2.14018,-0.451787,-0.235614
2.13242,-0.450148,0.0507136
2.1317,-0.449997,-0.152348
2.10532,-0.553105,-0.1777
2.13068,-0.449782,-0.101438
2.13633,-0.450974,-0.0508067
2.15484,-0.353641,-0.0381161
2.15119,-0.353041,0.01267
2.1347,-0.45842,-0.235185
2.12692,-0.456749,0.0506206
2.10337,-0.56045,-0.1777
2.1547,-0.353617,-0.139939
2.1291,-0.457217,-0.101438
2.12692,-0.456749,-0.0506206
2.15359,-0.361161,-0.0381161
2.11807,-0.462589,0
2.14696,-0.468897,-0.34189
2.146,-0.359887,0.0126467
2.12531,-0.464171,0.0506206
2.1363,-0.466571,-0.152906
2.1014,-0.567789,-0.1777
2.14118,-0.359079,0.0631846
2.10165,-0.567855,-0.114092
2.1482,-0.360255,-0.0887419
2.14444,-0.367326,-0.0379764
2.14531,-0.476389,-0.34189
2.14867,-0.368051,0.01267
2.13145,-0.473312,-0.235185
2.11587,-0.469853,0.0504345
2.12687,-0.472295,-0.152348
2.13991,-0.366551,0.0631846
2.12586,-0.472069,-0.101438
2.14692,-0.367752,-0.0887419
2.12368,-0.471586,-0.0506206
2.14701,-0.375873,-0.0380462
2.13584,-0.482507,-0.34066
2.15125,-0.376613,0.0126932
2.13358,-0.481997,-0.235614
2.13462,-0.373702,0.0630683
2.1495,-0.376307,-0.0889047
2.12194,-0.479367,-0.0506206
2.14175,-0.382661,-0.0379764
2.14204,-0.382713,0.0126467
2.12801,-0.488552,-0.235185
2.1333,-0.381151,0.0630683
2.14555,-0.38334,-0.139683
2.09164,-0.589115,-0.113883
2.12415,-0.487666,-0.0507136
2.14447,-0.390104,-0.0380462
2.13644,-0.497558,-0.341275
2.14083,-0.389441,0.0126467
2.13209,-0.387851,0.0630683
2.12088,-0.493935,-0.101438
2.11482,-0.492523,-0.0505275
2.14303,-0.397961,-0.0380462
2.11357,-0.500406,0
2.14332,-0.398015,0.01267
2.12395,-0.502864,-0.152627
2.13066,-0.395663,0.0630683
2.113,-0.50027,-0.0505275
2.13384,-0.403579,-0.0379066
2.12907,-0.511537,-0.34066
2.13806,-0.404377,0.0126467
2.12295,-0.510068,-0.235185
2.09298,-0.612428,-0.178025
2.13326,-0.40347,0.0631846
2.14056,-0.412595,0.01267
2.12791,-0.410157,0.0630683
2.1349,-0.411503,-0.0885791
2.10954,-0.514641,-0.0505275
2.13875,-0.420381,-0.0380462
2.12535,-0.526759,-0.34066
2.13904,-0.420438,0.01267
2.1264,-0.417953,0.0630683
2.13861,-0.420354,-0.139683
2.10764,-0.52237,-0.0505275
2.12743,-0.534768,-0.341275
2.12978,-0.425959,0.0126235
2.10908,-0.530155,-0.152069
2.12892,-0.425786,0.0631846
2.10806,-0.5299,-0.101252
2.12172,-0.541214,-0.34066
2.12828,-0.433391,0.0126235
2.1235,-0.432417,0.0630683
2.10404,-0.536704,-0.0505275
2.13031,-0.441942,-0.0379764
2.1306,-0.442002,0.0126467
2.12582,-0.44101,0.0631846
2.10206,-0.544412,-0.0505275
2.12492,-0.448178,-0.0379066
2.12912,-0.449064,0.0126467
2.12043,-0.447232,0.0630683
2.10024,-0.55138,-0.0505275
2.12725,-0.456432,-0.0379764
2.12754,-0.456494,0.0126467
2.10533,-0.560578,-0.152348
2.11886,-0.454631,0.0630683
2.12712,-0.456404,-0.139427
2.10046,-0.559282,-0.101252
2.0983,-0.558708,-0.0505275
2.12573,-0.463484,-0.0379764
2.12211,-0.462694,0.0126235
2.10346,-0.567556,-0.152348
2.09644,-0.565663,-0.0505275
2.12019,-0.470035,-0.0379066
2.12438,-0.470965,0.0126467
2.10146,-0.574895,-0.152348
2.11846,-0.477803,-0.0379066
2.12264,-0.478748,0.0126467
2.10386,-0.583847,-0.235185
2.11677,-0.485195,-0.0379066
2.11706,-0.485261,0.0126235
2.11507,-0.492581,-0.0379066
2.11146,-0.49174,0.0126002
2.10778,-0.506032,-0.0378368
2.11584,-0.507969,0.0126467
2.10591,-0.513754,-0.0378368
2.10419,-0.520735,-0.0378368
2.10051,-0.535412,-0.0378368
2.09862,-0.542741,-0.0378368
2.10638,-0.560464,-0.0380462
