2.93981,0.901035,-0.179068
2.78214,0.726768,-0.268423
2.78466,0.717052,-0.268423
2.77556,0.704388,-0.267307
2.80279,0.753629,-0.236933
2.80155,0.742818,-0.236608
2.80799,0.734043,-0.236933
2.77658,0.716004,-0.308868
2.77111,0.705317,-0.308011
2.7738,0.69467,-0.308011
2.37942,0.312411,-0.0279386
2.39636,0.306131,-0.0281249
2.38953,0.296362,-0.0280317
2.37466,0.286105,-0.0278455
2.37466,0.286105,0.0278455
2.36766,0.277298,-0.0277523
2.36071,0.267717,-0.0276592
2.3497,0.258165,0.0275195
2.33459,0.249084,0.0273333
2.34271,0.24995,-0.137208
2.33151,0.240116,0.0272867
2.33567,0.240544,-0.136743
2.32453,0.23161,-0.136045
2.3134,0.222348,-0.135348
2.31,0.21348,0.0270073
2.3142,0.213868,-0.135348
2.30273,0.205108,0.0269142
2.31092,0.205838,-0.135115
2.39326,0.323155,-0.0702827
2.30552,0.197247,-0.216002
2.28749,0.195704,0.0267279
2.29035,0.187496,-0.214515
2.2842,0.186993,0.0266814
2.29243,0.187667,-0.133952
2.37568,0.303488,-0.0697009
2.28305,0.178877,-0.213771
2.28511,0.179039,-0.133487
2.38466,0.29618,-0.0699336
2.38166,0.295807,-0.0139486
2.27571,0.170313,-0.213028
2.26551,0.169549,0.0264485
2.27776,0.170466,-0.133022
2.37372,0.286832,-0.0695846
2.37866,0.287428,-0.0139253
2.27229,0.162482,-0.212656
2.25808,0.161466,0.0263554
2.27035,0.162343,-0.132557
2.37074,0.278078,-0.0694682
2.26887,0.154278,-0.212284
2.25065,0.153039,0.0262623
2.35977,0.268445,-0.0691191
2.36073,0.268555,-0.0138091
2.26145,0.145845,-0.211541
2.24718,0.144925,0.0262157
2.36548,0.269094,-0.124769
2.34476,0.258864,-0.0686537
2.25,0.137616,-0.210425
2.23168,0.136496,0.0260295
2.35047,0.259495,-0.123932
2.33372,0.249403,-0.0683046
2.3466,0.250779,-0.0137161
2.24649,0.129532,-0.210054
2.22415,0.128244,0.0259363
2.3423,0.25032,0.0411179
2.24048,0.129185,-0.130697
2.33151,0.249166,-0.122885
2.33064,0.240438,-0.0681882
2.22461,0.120092,-0.0259363
2.23501,0.120653,-0.208938
2.22897,0.120327,-0.129999
2.31379,0.238699,0.0947666
2.32446,0.2398,-0.122466
2.32351,0.231507,-0.0679555
2.21703,0.111922,-0.0258432
2.23144,0.11265,-0.208567
2.32472,0.231628,-0.190718
2.32528,0.231684,-0.122466
2.21378,0.104399,-0.129069
2.31138,0.22256,0.0946037
2.31808,0.223205,-0.122047
2.31309,0.214579,-0.0676064
2.3183,0.215063,-0.190067
2.20616,0.0963238,-0.128604
2.29623,0.213016,0.0939524
2.31885,0.215114,-0.122047
2.30586,0.205792,-0.0673737
2.20861,0.0887072,-0.206336
2.31507,0.206614,-0.189742
2.1985,0.0883011,-0.128138
2.28103,0.203577,0.0933011
2.30367,0.205597,-0.12121
2.29863,0.196658,-0.067141
2.19039,0.079936,-0.0255173
2.20096,0.0803217,-0.205592
2.29992,0.196769,-0.18844
2.18684,0.0798062,-0.127441
2.2738,0.194535,0.0929754
2.29645,0.196472,-0.120791
2.2913,0.188379,-0.0669082
2.18927,0.0726258,-0.204477
2.29659,0.188814,-0.188115
2.1831,0.072421,-0.127208
2.27045,0.186665,0.0928126
2.29311,0.188528,-0.120582
2.38675,0.314222,-0.0560176
2.18553,0.0648647,-0.204105
2.28928,0.18017,-0.187464
2.17535,0.0645626,-0.126743
2.26312,0.178111,0.0924869
2.37594,0.304364,-0.0557385
2.27661,0.171179,-0.0664428
2.36572,0.294666,0
2.26557,0.170349,-0.0132047
2.1738,0.056923,-0.20299
2.16758,0.0567602,-0.126278
2.25177,0.169312,0.0919985
2.36905,0.295081,-0.0555524
2.26523,0.162374,-0.0660937
2.36276,0.285926,0
2.16204,0.0490641,-0.201875
2.27458,0.163044,-0.186162
2.26185,0.162132,0.0395821
2.16378,0.0491035,-0.126045
2.2364,0.160308,0.0913472
2.26706,0.162506,-0.119117
2.23879,0.160479,0.183233
2.37006,0.28681,-0.0555524
2.2578,0.153922,-0.065861
2.35183,0.276277,0
2.15424,0.0413644,-0.201131
2.26718,0.154562,-0.185511
2.15994,0.041474,-0.125813
2.23695,0.152501,0.0913472
2.26363,0.15432,-0.118907
2.23536,0.152392,0.182907
2.36708,0.278069,-0.0554593
2.35278,0.268066,0
2.14759,0.0337374,-0.025005
2.261,0.146213,-0.288397
2.15437,0.0338439,-0.201131
2.14359,0.0336746,0.0249585
2.25577,0.145874,-0.184535
2.15209,0.0338081,-0.125348
2.23747,0.144691,0.0913472
2.36611,0.269585,-0.11093
2.24821,0.145386,-0.11807
2.22394,0.143816,0.181931
2.35612,0.268446,-0.0551802
2.33382,0.257656,0
2.25357,0.137834,-0.287386
2.14651,0.0262257,-0.200387
2.25229,0.137755,-0.184209
2.23548,0.136728,0.0390934
2.14021,0.0261488,-0.12465
2.222,0.135903,0.0906958
2.35909,0.260446,-0.110558
2.24472,0.137293,-0.117861
2.22045,0.135808,0.181606
2.34909,0.259342,-0.0549941
2.23534,0.128889,-0.0651628
2.33868,0.249933,0
2.24216,0.129282,-0.285871
2.13464,0.018629,-0.199272
2.34203,0.250291,0.054808
2.24081,0.129205,-0.183233
2.21847,0.127917,0.090533
2.33615,0.249663,-0.109441
2.23721,0.128997,-0.117442
2.20897,0.127369,0.180629
2.33805,0.249866,-0.0547149
2.3276,0.240534,0
2.23467,0.121025,-0.284861
2.2247,0.120485,-0.0129489
2.12672,0.0111353,-0.198529
2.33095,0.24088,0.0545288
2.21641,0.120036,0.0387443
2.12836,0.0111439,-0.123952
2.21092,0.119739,0.0902073
2.33701,0.241506,-0.109441
2.22568,0.120538,-0.116814
2.21338,0.119872,0.180955
2.33095,0.24088,-0.0545288
2.22021,0.112472,-0.0646974
2.31649,0.231218,0
2.22319,0.112623,-0.283346
2.21712,0.112316,-0.0129024
2.1148,0.00369218,-0.197413
2.11185,0.00368703,0.024586
2.32673,0.23224,-0.163509
2.22175,0.11255,-0.181606
2.1244,0.00370893,-0.12372
2.20334,0.111618,0.0898817
2.32591,0.232158,-0.108883
2.2221,0.112568,-0.116605
2.20184,0.111542,0.179978
2.3278,0.232347,-0.0544357
2.21257,0.105116,-0.0644646
2.31322,0.223553,0
2.11185,-0.00294918,-0.024586
2.2156,0.10526,-0.282336
2.20947,0.104968,-0.012856
2.11082,-0.00294773,-0.197041
2.10386,-0.002938,0.0244928
2.31553,0.223776,-0.162672
2.21015,0.105001,-0.180629
2.19969,0.104504,0.0897188
2.31072,0.22331,-0.108138
2.20648,0.104826,-0.115767
2.19024,0.104055,0.179002
2.32056,0.224261,-0.0542496
2.20094,0.0968658,-0.0641155
2.31001,0.215107,0
2.2001,0.096829,-0.280315
2.10682,-0.010295,-0.19667
2.09983,-0.0102608,0.0244463
2.31233,0.215323,-0.162393
2.2105,0.0972866,-0.180629
2.20153,0.096892,0.0384651
2.19206,0.096475,0.0893932
2.31148,0.215245,-0.108138
2.19486,0.0965983,-0.115139
2.1866,0.0962349,0.178676
2.31734,0.215791,-0.0541566
2.18929,0.0883143,-0.0637664
2.09578,-0.0179233,-0.0243997
2.20044,0.088764,-0.280315
2.19018,0.0883502,-0.0127397
2.0988,-0.0179491,-0.195926
2.09178,-0.0178891,0.0243531
2.30912,0.206491,-0.162114
2.19889,0.0887015,-0.179653
2.10436,-0.0179967,-0.122557
2.18441,0.0881173,0.0890675
2.30828,0.206415,-0.107952
2.1952,0.0885526,-0.115139
2.18296,0.0880587,0.178351
2.30219,0.20587,-0.0537844
2.40172,0.325152,-0.0423046
2.18959,0.0806711,-0.0637664
2.29555,0.197201,0
2.09171,-0.0251913,-0.0243531
2.19281,0.0807897,-0.279305
2.09474,-0.0252278,-0.195554
2.08371,-0.0250949,0.02426
2.29393,0.197062,-0.160998
2.19122,0.0807312,-0.179002
2.18618,0.0805457,0.0381859
2.2837,0.196184,0.133487
2.17672,0.0801969,0.0887419
2.28908,0.196646,-0.107022
2.18751,0.0805946,-0.11472
2.29492,0.197148,-0.0535983
2.39491,0.315722,-0.042165
2.17787,0.0726282,-0.0634174
2.28426,0.188202,0
2.08361,-0.0323678,-0.02426
2.18911,0.0730031,-0.2788
2.08269,-0.0323536,-0.194439
2.07561,-0.0322436,0.0241669
2.28665,0.188399,-0.16044
2.17953,0.0726838,-0.178025
2.17299,0.0724655,0.0885791
2.29373,0.188983,-0.107208
2.17181,0.0724262,-0.113883
2.15961,0.0720194,0.176398
2.28364,0.188151,-0.0533191
2.38806,0.306343,-0.0420254
2.16612,0.0646681,-0.0630683
2.07148,-0.0394121,-0.0241203
2.17349,0.0648881,-0.27678
2.38045,0.305366,0.0139486
2.07859,-0.0395472,-0.194067
2.06349,-0.0392599,0.0240272
2.28729,0.180416,-0.16044
2.1718,0.0648378,-0.177375
2.1707,0.0648049,0.0379066
2.2691,0.178981,0.132557
2.27845,0.179718,-0.106463
2.16806,0.064726,-0.113674
2.15586,0.064362,0.176073
2.27631,0.17955,-0.053133
2.37325,0.296024,-0.0417462
2.16633,0.0571059,-0.0630683
2.06734,-0.0465532,-0.0240738
2.1618,0.0569865,-0.275265
2.07445,-0.0467135,-0.193695
2.05534,-0.0462831,0.0239341
2.27597,0.171531,-0.159603
2.16405,0.0570457,-0.176724
2.07196,-0.0466574,-0.120697
2.26174,0.170458,0.132092
2.16146,0.0569774,0.0880906
2.27906,0.171764,-0.106463
2.16028,0.0569465,-0.113255
2.15608,0.0568356,0.176073
2.37164,0.295824,-0.0973718
2.1203,0.0558925,0.386719
2.26097,0.170401,-0.0527608
2.36632,0.286776,-0.0416065
2.15053,0.0491785,-0.0626028
2.05916,-0.0535608,-0.0239806
2.16199,0.0494405,-0.275265
2.36664,0.286815,0.0138556
2.26502,0.162757,-0.24461
2.06233,-0.0536433,-0.19258
2.06316,-0.0536648,0.0240272
2.2686,0.163014,-0.159045
2.16025,0.0494008,-0.176398
2.0638,-0.0536815,-0.120232
2.25038,0.161704,0.131394
2.15365,0.0492499,0.0877649
2.27167,0.163235,-0.106091
2.15648,0.0493145,-0.113046
2.14032,0.048945,0.174771
2.11655,0.0484014,0.386002
2.25358,0.161935,-0.0525747
2.3553,0.277934,-0.0413971
2.14667,0.0423427,-0.0624865
2.1542,0.0424911,-0.274255
2.36356,0.278909,0.0138324
2.26156,0.155367,-0.244181
2.05817,-0.0600065,-0.192208
2.05099,-0.0597971,0.0238875
2.26512,0.155612,-0.158766
2.15641,0.0425347,-0.176073
2.05564,-0.0599327,-0.119766
2.2429,0.154086,0.130929
2.1458,0.0423255,0.0874392
2.14065,0.0422238,-0.112208
2.35767,0.278214,-0.0967205
2.12062,0.0418288,0.386719
2.2461,0.154305,-0.0523886
2.35237,0.268434,-0.0413273
2.13483,0.0339088,-0.0621374
2.05074,-0.0676723,-0.0238875
2.15434,0.0342188,-0.274255
2.35269,0.268471,0.0137626
2.2542,0.146167,-0.243325
2.05793,-0.0679094,-0.192208
2.05074,-0.0676723,0.0238875
2.25375,0.146138,-0.157929
2.14061,0.0340006,-0.174771
2.33187,0.266095,0.0683046
2.05939,-0.0679576,-0.119999
2.23551,0.144955,0.130464
2.1368,0.0339401,-0.111999
2.12865,0.0338106,0.173795
2.11683,0.0336229,0.386002
2.24667,0.145679,-0.0523886
2.34137,0.258904,-0.0411179
2.13493,0.0264581,-0.0621374
2.14142,0.0265385,-0.42832
2.0465,-0.0746831,-0.0238409
2.14255,0.0265525,-0.272739
2.33771,0.2585,0.0136696
2.25073,0.138056,-0.242896
2.0537,-0.0749458,-0.191837
2.0385,-0.0743914,0.0237478
2.25027,0.138027,-0.15765
2.13274,0.0264309,-0.17412
2.05116,-0.0748531,-0.119534
2.23202,0.136908,0.130231
2.13007,0.0263978,0.0867879
2.13291,0.026433,-0.11179
2.1168,0.0262333,0.172818
2.113,0.0261863,0.385284
2.24318,0.137593,-0.0522955
2.33422,0.250693,-0.0409782
2.13101,0.0197133,-0.062021
2.03426,-0.0806373,-0.0237012
2.13072,0.0197106,-0.271224
2.33056,0.2503,0.0136231
2.23924,0.13029,-0.241611
2.04549,-0.0810824,-0.191093
2.03027,-0.0804789,0.0236547
2.12883,0.0196931,-0.173795
2.32564,0.249771,0.0680718
2.32979,0.250218,-0.150172
2.04692,-0.081139,-0.119301
2.22048,0.129199,0.129534
2.11815,0.0195944,0.0862994
2.24177,0.130438,-0.104602
2.12899,0.0196946,-0.11158
2.11288,0.0195456,0.172493
2.32469,0.249669,-0.095255
2.22763,0.129615,-0.0519233
2.32323,0.240493,-0.0407688
2.11907,0.0114663,-0.0616719
2.12979,0.0115243,-0.425967
2.02595,-0.0880997,-0.0236081
2.13078,0.0115296,-0.271224
2.32752,0.240938,0.0135999
2.22781,0.121045,-0.240326
2.03323,-0.0884164,-0.189978
2.02195,-0.0879259,0.0235616
2.23125,0.121232,-0.156255
2.11693,0.0114547,-0.172818
2.3226,0.240428,0.0679555
2.32677,0.240859,-0.149916
2.03064,-0.0883036,-0.118371
2.20899,0.120022,0.128836
2.11022,0.0114184,0.0859738
2.23029,0.121179,-0.104044
2.12505,0.0114986,-0.111371
2.10098,0.0113684,0.171516
2.21613,0.12041,-0.0516442
2.32406,0.232382,-0.0407688
2.1151,0.00406101,-0.0615556
2.02563,-0.0951716,-0.0236081
2.1308,0.00409116,-0.271224
2.31641,0.231617,0.0135301
2.22425,0.113065,-0.239897
2.02495,-0.0951399,-0.189234
2.01364,-0.0946084,0.0234684
2.22768,0.113239,-0.155975
2.12094,0.00407222,-0.173144
2.31149,0.231125,0.0676064
2.31965,0.231941,-0.149405
2.02234,-0.095017,-0.117906
2.19743,0.111702,0.128138
2.09826,0.00402867,0.0854853
2.11709,0.00406483,-0.110952
2.18872,0.111259,0.269088
2.10101,0.00403395,0.171516
2.31453,0.231429,-0.0947666
2.20855,0.112267,-0.0514581
2.31283,0.223923,-0.0405594
2.1111,-0.0025785,-0.0614392
2.20549,0.105167,0
2.02132,-0.101334,-0.0235616
2.20691,0.105234,-0.343735
2.12287,-0.00259287,-0.270214
2.31314,0.223954,0.0135069
2.21664,0.105698,-0.239041
2.02464,-0.101501,-0.189234
2.20889,0.105329,0.0514581
2.00934,-0.100733,0.0234219
2.10898,-0.00257591,-0.172167
2.30027,0.222707,0.0672573
2.31242,0.223884,-0.148893
2.01405,-0.10097,-0.117441
2.19379,0.104608,0.127906
2.09426,-0.00255793,0.0853225
2.21508,0.105624,-0.103299
2.10511,-0.00257118,-0.110324
2.19302,0.104572,0.269575
2.08506,-0.00254669,0.170214
2.31127,0.223772,-0.0946037
2.20889,0.105329,-0.0514581
2.31364,0.215444,-0.0405594
2.10308,-0.0102775,-0.0612065
2.00896,-0.108098,-0.0234219
2.20334,0.0969705,-0.34312
2.10301,-0.0102771,-0.267689
2.30598,0.214732,0.0134604
2.20907,0.0972229,-0.238184
2.0163,-0.108493,-0.188491
2.00896,-0.108098,0.0234219
2.20846,0.0971962,-0.15458
2.097,-0.0102478,-0.171191
2.28912,0.213162,0.0669082
2.3013,0.214296,-0.148126
2.01766,-0.108566,-0.117673
2.18618,0.0962153,0.127441
2.09424,-0.0102343,0.0853225
2.10509,-0.0102873,-0.110324
2.18546,0.0961836,0.2686
2.08105,-0.0101699,0.169889
2.29615,0.213816,-0.0939524
2.20127,0.0968797,-0.051272
2.30242,0.206297,-0.04035
2.00058,-0.114652,-0.0233287
2.19971,0.0891193,-0.342505
2.09502,-0.017551,-0.266678
2.2868,0.204897,0.0133442
2.19748,0.0890287,-0.236899
2.01194,-0.115302,-0.188119
2.00058,-0.114652,0.0233287
2.19683,0.0890025,-0.153743
2.09695,-0.0175672,-0.171191
2.28587,0.204814,0.0667919
2.29806,0.205906,-0.14787
2.00132,-0.114694,-0.116743
2.1865,0.088584,0.127441
2.0822,-0.0174436,0.084834
2.2038,0.0892849,-0.102741
2.09705,-0.017568,-0.109906
2.07303,-0.0173668,0.169238
2.28892,0.205087,-0.0936268
2.18562,0.0885482,-0.0508998
2.29114,0.197629,-0.0401405
2.09097,-0.0244523,-0.0608574
2.09438,-0.0244921,-0.418907
2.18249,0.0811726,0
1.99221,-0.120802,-0.0232356
2.18815,0.081383,-0.34066
2.09495,-0.0244989,-0.266678
2.28348,0.196968,0.0133209
2.09182,-0.0244622,-0.0121585
2.18981,0.0814448,-0.236042
1.99167,-0.120769,-0.18626
2.1819,0.0811507,0.0508067
2.19711,0.0817164,-0.153743
2.09289,-0.0244748,-0.170865
2.27459,0.196201,0.0664428
2.2868,0.197254,-0.147102
1.98498,-0.120364,-0.115813
2.17082,0.0807385,0.126511
2.07014,-0.0242087,0.0843455
2.18412,0.0812332,-0.10181
2.09298,-0.0244758,-0.109696
2.17019,0.0807152,0.26665
2.06499,-0.0241485,0.168587
2.29357,0.197838,-0.0937896
2.1819,0.0811507,-0.0508067
2.28783,0.189299,-0.0400707
2.08288,-0.0316301,-0.0606247
2.17477,0.0732838,0
1.99576,-0.128011,-0.0232822
2.18842,0.0737438,-0.34066
2.08692,-0.0316915,-0.265668
2.27618,0.188336,0.0132744
2.18611,0.073666,-0.235614
1.98328,-0.127211,-0.185516
2.17817,0.0733987,0.0507136
1.99177,-0.127755,0.0232356
2.18542,0.0736429,-0.152906
2.08482,-0.0316597,-0.170214
2.27526,0.188259,0.0664428
2.28747,0.18927,-0.147102
1.98057,-0.127037,-0.11558
2.1671,0.0730254,0.126278
2.05806,-0.0312532,0.083857
2.1804,0.0734736,-0.101624
2.0809,-0.0316002,-0.109068
2.16252,0.0728713,0.265675
2.06091,-0.0312965,0.168262
2.2823,0.188842,-0.0933011
2.18217,0.0735333,-0.0508067
2.28054,0.180283,-0.0399311
2.07475,-0.0391129,-0.060392
2.16702,0.0650728,0
1.98331,-0.134513,-0.0231425
2.09076,-0.0394146,-0.266173
2.27686,0.179992,0.0132744
2.17444,0.0652954,-0.234328
1.9828,-0.134479,-0.185516
1.97932,-0.134242,0.0230959
2.17371,0.0652736,-0.152069
2.07672,-0.03915,-0.169564
2.25999,0.178659,0.0659773
2.28019,0.180256,-0.146591
1.98009,-0.134295,-0.11558
2.15937,0.0648428,0.125813
2.05793,-0.0387957,0.083857
2.07678,-0.0391511,-0.108859
2.05281,-0.0386991,0.167611
2.26704,0.179216,-0.0926498
2.17443,0.0652952,-0.0506206
2.0746,-0.0463554,-0.060392
2.15924,0.0572953,0
1.98283,-0.141436,-0.0231425
2.16518,0.057453,-0.336971
2.07474,-0.0463584,-0.264153
2.25753,0.170536,0.0131582
2.1826,0.0579152,-0.235185
1.97835,-0.141116,-0.185145
2.16265,0.0573859,0.0503414
1.97884,-0.141151,0.0230959
2.16994,0.0575791,-0.15179
2.0686,-0.0462213,-0.168913
2.25263,0.170166,0.0657446
2.26887,0.171393,-0.145823
1.97961,-0.141206,-0.11558
2.15958,0.0573043,0.125813
2.05378,-0.0458902,0.0836942
2.17288,0.0576572,-0.101252
2.06864,-0.0462223,-0.10844
2.14711,0.0569735,0.263725
2.04469,-0.0456869,0.16696
2.26367,0.171,-0.0924869
2.17065,0.057598,-0.0505275
2.26578,0.163208,-0.0396519
2.15143,0.0495741,0
1.97036,-0.14746,-0.0230028
2.16537,0.0498954,-0.336971
2.06266,-0.0532923,-0.262638
2.24614,0.161794,0.0130884
2.15496,0.0496555,-0.232186
1.97387,-0.147723,-0.184773
1.97036,-0.14746,0.0230028
2.16215,0.0498211,-0.151232
2.06444,-0.0533382,-0.168587
2.25321,0.162302,0.0657446
2.059,-0.0531976,0.035952
2.26149,0.162899,-0.145312
1.96317,-0.146923,-0.11465
2.14779,0.0494903,0.125115
2.04162,-0.0527487,0.0832057
2.16108,0.0497966,-0.100693
2.06048,-0.0532359,-0.108021
2.14333,0.0493875,0.263238
2.04053,-0.0527204,0.166634
2.25628,0.162524,-0.0921613
2.16284,0.0498371,-0.0503414
2.25038,0.154205,-0.0393726
2.05025,-0.0601337,-0.0596938
2.13959,0.0418294,0
1.96185,-0.153712,-0.0229097
2.0585,-0.0603756,-0.262133
2.2427,0.153679,0.0130652
2.05908,-0.0603927,-0.0119725
2.15114,0.0420552,-0.231758
1.96144,-0.153679,-0.183657
1.96584,-0.154025,0.0229562
2.15433,0.0421175,-0.150674
2.06424,-0.0605441,-0.168587
2.22983,0.152796,0.0650464
2.24611,0.153912,-0.144288
1.95469,-0.153151,-0.114185
2.14396,0.0419147,0.124883
2.04143,-0.059875,0.0832057
2.15725,0.0421746,-0.100507
2.06029,-0.060428,-0.108021
2.03236,-0.0596091,0.165984
2.24886,0.1541,-0.0918356
2.15101,0.0420526,-0.0500623
2.24691,0.146089,-0.0393028
2.03804,-0.0668965,-0.0593447
2.13173,0.0342321,0
1.96529,-0.160886,-0.0229562
2.14986,0.0345233,-0.334511
2.05431,-0.0674306,-0.261628
2.23524,0.14533,0.0130187
2.04686,-0.0671862,-0.0119028
2.14332,0.0344184,-0.230901
1.96131,-0.160559,0.0229097
2.14648,0.0344691,-0.150116
2.05605,-0.0674877,-0.167936
2.22635,0.144752,0.0649301
2.04659,-0.0671771,0.0357425
2.23469,0.145294,-0.143521
1.95414,-0.159973,-0.114185
2.1361,0.0343024,0.124418
2.02523,-0.066476,0.0825544
2.1414,0.0343875,-0.0997627
2.04409,-0.0670952,-0.107184
2.12774,0.0341682,0.261288
2.02417,-0.0664414,0.165333
2.24539,0.14599,-0.0916728
2.23943,0.137754,-0.0391632
2.04179,-0.0741553,-0.0594611
2.13183,0.0267908,0
1.95675,-0.167064,-0.0228631
2.13416,0.02682,-0.332051
2.0501,-0.0744571,-0.261123
2.23174,0.137281,0.0129954
2.04662,-0.0743307,-0.0119028
2.13548,0.0268366,-0.230044
1.95276,-0.166724,0.0228165
2.13063,0.0267757,-0.149
2.03986,-0.0740855,-0.166634
2.22685,0.13698,0.0649301
2.04234,-0.0741754,0.0356727
2.23917,0.137738,-0.143777
1.94959,-0.166453,-0.113952
2.02498,-0.073545,0.0825544
2.13352,0.026812,-0.0993905
2.03586,-0.0739401,-0.106765
2.01994,-0.073362,0.165007
2.22993,0.13717,-0.0910215
2.2359,0.129704,-0.0390934
2.02953,-0.0808049,-0.059112
2.11591,0.0192039,0
1.95217,-0.17354,-0.0228165
2.03793,-0.0811392,-0.259607
2.22422,0.129027,0.0129489
2.03835,-0.081156,-0.0118563
2.1276,0.0193101,-0.229188
1.93988,-0.172447,-0.181799
1.94022,-0.172477,0.0226768
2.13071,0.0193382,-0.149
2.03163,-0.0808883,-0.165984
2.21534,0.128511,0.064581
2.03008,-0.0808268,0.0354633
2.22768,0.129227,-0.143009
1.94502,-0.172904,-0.11372
2.02072,-0.0804541,0.0823915
2.1296,0.0193282,-0.0992044
2.0316,-0.0808872,-0.106556
2.01171,-0.0800952,0.164356
2.22641,0.129154,-0.0908587
2.21633,0.121584,-0.0387443
2.02527,-0.0870088,-0.0589956
2.11196,0.0125328,0
2.02577,-0.0870302,-0.258092
2.21264,0.121381,0.0128792
2.03009,-0.0872158,-0.0118098
2.12368,0.0126023,-0.228759
1.93537,-0.178176,-0.181427
1.93568,-0.178205,0.0226303
2.12677,0.0126207,-0.148721
2.02738,-0.0870993,-0.165658
2.20774,0.121113,0.0643483
2.02183,-0.0868607,0.0353237
2.21611,0.121572,-0.142242
1.93652,-0.178282,-0.113255
2.11638,0.012559,0.123255
2.01247,-0.0864588,0.0820659
2.12166,0.0125904,-0.0988321
2.02735,-0.0870978,-0.106347
2.00348,-0.0860725,0.163705
2.20685,0.121064,-0.0900445
2.12739,0.0126243,-0.049504
2.20877,0.113051,-0.0386047
2.02494,-0.0944312,-0.0589956
2.10399,0.00477382,0
2.01751,-0.0940847,-0.257082
2.20508,0.112862,0.0128327
2.01777,-0.0940969,-0.0117401
2.11178,0.00479148,-0.227474
1.93074,-0.184888,-0.181055
1.939,-0.18568,0.0226768
2.12281,0.00481652,-0.148442
2.0151,-0.0939723,-0.164682
2.20019,0.112612,0.0641155
2.0215,-0.0942705,0.0353237
2.21256,0.113245,-0.141986
1.9279,-0.184617,-0.11279
2.10842,0.00478387,0.12279
2.00017,-0.0932758,0.0815774
2.1137,0.00479585,-0.0984599
2.01105,-0.0937835,-0.105509
2.00315,-0.0934151,0.163705
2.20329,0.11277,-0.0898817
2.11142,0.00479068,-0.0491318
2.20116,0.104959,-0.0384651
2.00863,-0.100698,-0.0585302
2.096,-0.00256074,0
1.93436,-0.192052,-0.0226303
2.01717,-0.101127,-0.257082
2.20146,0.104974,0.0128095
2.01743,-0.10114,-0.0117401
2.09985,-0.00256545,-0.226189
1.92242,-0.190866,0.0224906
2.10685,-0.002574,-0.147326
2.01476,-0.101006,-0.164682
2.19258,0.10455,0.0638828
2.01316,-0.100926,0.0351841
2.19699,0.10476,-0.140962
1.93122,-0.19174,-0.113022
1.99584,-0.100057,0.0814146
2.10172,-0.00256773,-0.0979015
2.00273,-0.100403,-0.105091
1.99883,-0.100207,0.16338
2.19967,0.104888,-0.0897188
2.11143,-0.00257959,-0.0491318
2.1975,0.0974822,-0.0383953
2.0003,-0.106932,-0.0582974
2.09198,-0.00949316,0
1.92575,-0.197648,-0.0225371
2.10268,-0.00954174,-0.327132
2.0089,-0.107392,-0.256072
2.1978,0.0974954,0.0127862
2.01309,-0.107616,-0.0117168
2.09585,-0.00951075,-0.225761
1.92177,-0.19724,0.0224906
2.09885,-0.00952436,-0.146768
2.00247,-0.107048,-0.163705
2.18892,0.0971014,0.0637664
2.00883,-0.107388,0.0351142
2.19733,0.0974744,-0.140962
1.91865,-0.19692,-0.112325
1.99549,-0.106675,0.0814146
2.1017,-0.00953728,-0.0979015
2.00638,-0.107257,-0.1053
1.99451,-0.106622,0.163054
2.18803,0.097062,-0.0892304
2.10341,-0.00954503,-0.0489456
2.19385,0.0892647,-0.0383255
1.9959,-0.114034,-0.0581811
2.09193,-0.0171606,0
1.91706,-0.20386,-0.022444
2.00453,-0.114528,-0.255567
2.19015,0.0891142,0.0127397
2.00869,-0.114765,-0.0116936
2.09978,-0.017225,-0.226189
1.90513,-0.202591,0.0223043
2.09481,-0.0171842,-0.146489
2.17728,0.0885903,0.0634174
2.00043,-0.114293,0.0349746
2.18172,0.0887709,-0.139939
1.91395,-0.203528,-0.112092
1.98711,-0.113532,0.0810889
2.09366,-0.0171748,-0.0975292
1.998,-0.114154,-0.104881
1.98216,-0.11325,0.162078
2.18039,0.0887168,-0.0889047
2.19015,0.0814576,-0.0382557
1.99549,-0.121001,-0.0581811
2.07986,-0.0243224,0
1.90441,-0.20924,-0.0223043
1.99224,-0.120803,-0.254052
2.17846,0.0810226,0.01267
2.00029,-0.121292,-0.0116471
2.0838,-0.0243685,-0.224475
1.90043,-0.208803,0.0222578
2.08676,-0.0244031,-0.145931
2.17757,0.0809897,0.0634174
1.98805,-0.120549,0.0347652
2.17802,0.0810064,-0.139683
2.08433,-0.0243746,0.121394
1.99069,-0.12071,0.0812517
2.0856,-0.0243895,-0.097157
1.98961,-0.120644,-0.104463
1.98176,-0.120168,0.162078
2.17269,0.0808083,-0.0885791
2.0793,-0.0243158,-0.0483873
2.17042,0.0735173,-0.0379066
1.98311,-0.126851,-0.057832
2.07977,-0.0312193,0
1.90768,-0.216004,-0.0223509
2.17072,0.0735273,0.0126235
1.98391,-0.126903,-0.0115541
2.07576,-0.0311591,-0.223619
1.89973,-0.215104,0.0222578
2.08268,-0.031263,-0.145652
1.98135,-0.126739,-0.162078
2.16984,0.0734974,0.0631846
1.98763,-0.127141,0.0347652
2.16631,0.073378,-0.138916
1.89665,-0.214754,-0.111162
2.07226,-0.0311065,0.120697
1.97432,-0.12629,0.0806004
2.07751,-0.0311855,-0.0967847
1.98123,-0.126731,-0.104044
2.06823,-0.0310462,0.253976
1.97737,-0.126484,0.161753
2.16496,0.0733323,-0.0882534
2.0752,-0.0311508,-0.0482943
2.16667,0.0658193,-0.0378368
2.06765,-0.0382568,0
1.90294,-0.222198,-0.0223043
2.17096,0.0659496,0.0126235
1.98745,-0.134097,-0.0115773
2.06768,-0.0382575,-0.222762
2.07108,-0.0383205,0.0482012
1.88705,-0.220342,0.0221181
2.07857,-0.0384589,-0.145372
2.17008,0.0659228,0.0631846
1.97521,-0.133271,0.0345558
2.16256,0.0656945,-0.13866
1.89589,-0.221374,-0.111162
2.06814,-0.038266,0.120464
1.96988,-0.132912,0.0804376
2.0734,-0.0383632,-0.0965986
1.97679,-0.133377,-0.103835
1.96896,-0.132849,0.161102
2.15721,0.065532,-0.0879277
2.06309,-0.0381725,-0.0480151
2.15889,0.0580408,-0.0376972
2.0555,-0.0452102,0
1.89024,-0.227405,-0.0221646
2.06663,-0.045455,-0.321598
2.16718,0.0582637,0.0126002
1.975,-0.140184,-0.0115076
2.06356,-0.0453874,-0.222334
1.8823,-0.22645,0.0220715
2.07443,-0.0456265,-0.145093
2.15431,0.0579176,0.0627192
1.97473,-0.140165,0.0345558
2.15081,0.0578235,-0.137892
1.89114,-0.227513,-0.110929
2.06001,-0.0453093,0.119999
1.96542,-0.139504,0.0802748
2.07325,-0.0456005,-0.0965986
1.96834,-0.139711,-0.103416
2.05606,-0.0452224,0.252513
1.96451,-0.139439,0.160776
2.14944,0.0577867,-0.0876021
2.05894,-0.0452859,-0.0479221
2.15509,0.0500349,-0.0376274
1.95772,-0.146171,-0.0571338
2.05932,-0.0528463,0
1.89336,-0.234824,-0.0222112
2.15538,0.0500416,0.0125305
1.97846,-0.147719,-0.0115308
2.05941,-0.0528484,-0.221905
2.06276,-0.0529345,0.0480151
1.87749,-0.232855,0.0220249
2.06228,-0.0529223,-0.144256
2.14651,0.0498357,0.0624865
1.96224,-0.146508,0.0343463
2.14702,0.0498474,-0.137637
1.88633,-0.233951,-0.110697
2.05185,-0.0526544,0.119534
1.9649,-0.146707,0.0802748
2.06109,-0.0528915,-0.0960402
1.96383,-0.146627,-0.103207
2.14165,0.0497227,-0.0872764
2.05477,-0.0527294,-0.047829
2.14325,0.0426493,-0.037418
1.95324,-0.152351,-0.0570174
1.8767,-0.23908,-0.0220249
2.14354,0.0426551,0.0124607
1.966,-0.153346,-0.0114611
2.05524,-0.0595621,-0.221477
1.86877,-0.238069,0.0219318
2.05811,-0.0596452,-0.143977
2.13867,0.0425582,0.0622537
1.96573,-0.153325,0.0344161
2.13919,0.0425685,-0.137125
1.87762,-0.239196,-0.110232
2.04368,-0.059227,0.119069
1.95643,-0.1526,0.0799491
1.95537,-0.152517,-0.102788
2.13381,0.0424615,-0.0869508
2.04659,-0.0593113,-0.0476429
2.13539,0.0350365,-0.0372783
1.94472,-0.158519,-0.0567847
2.05092,-0.0666026,0
1.86396,-0.244071,-0.0218852
2.13968,0.0351069,0.0124375
1.95349,-0.159233,-0.0113914
2.04707,-0.0664777,-0.22062
2.04237,-0.066325,0.0475499
1.86396,-0.244071,0.0218852
2.0539,-0.0666994,-0.143698
2.13081,0.0349614,0.062021
1.9612,-0.159861,0.0343463
2.13533,0.0350356,-0.136869
2.03149,-0.0659715,0.118371
1.94393,-0.158454,0.0794606
2.0487,-0.0665305,-0.0954819
2.12995,0.0349472,-0.0867879
2.03837,-0.0661952,-0.0474568
2.1315,0.0275307,-0.0372085
2.04268,-0.0734737,0
1.87499,-0.252176,-0.0220249
2.13179,0.0275345,0.012391
1.95292,-0.166051,-0.0113914
2.03888,-0.073337,-0.219763
2.04213,-0.0734538,0.0475499
1.8631,-0.250576,0.0218852
2.04568,-0.0735816,-0.14314
2.13092,0.0275233,0.062021
1.94867,-0.16569,0.0341369
2.12347,0.027427,-0.136102
2.02326,-0.0727753,0.117906
1.93939,-0.1649,0.0792978
2.04446,-0.0735378,-0.0952957
2.12206,0.0274089,-0.0864623
2.02614,-0.0728788,-0.0471777
2.12358,0.0200149,-0.0370689
1.9356,-0.171386,-0.056552
2.02642,-0.0799726,0
1.85825,-0.256531,-0.0218387
2.12387,0.0200176,0.0123445
1.94436,-0.172161,-0.0113449
2.03066,-0.0801399,-0.218906
2.02987,-0.0801086,0.0472707
2.03345,-0.0802498,-0.142303
2.11901,0.0199718,0.0616719
1.94808,-0.172491,0.0341369
2.11956,0.0199769,-0.135846
2.019,-0.0796798,0.117673
1.93084,-0.170964,0.0789721
2.03621,-0.0803587,-0.0949235
2.11415,0.019926,-0.0861366
2.02587,-0.0799509,-0.0471777
2.11964,0.0129483,-0.0369991
2.02215,-0.086521,0
2.11592,0.0129256,0.012298
1.94378,-0.178608,-0.0113449
2.03833,-0.0872135,-0.219763
2.0256,-0.0866686,0.0471777
2.02918,-0.086822,-0.142024
2.10307,0.0128471,0.0612065
1.93953,-0.178218,0.0339973
2.11163,0.0128993,-0.135334
2.01873,-0.0863747,0.117673
1.9223,-0.176635,0.0786465
2.02794,-0.0867689,-0.0945512
2.10621,0.0128663,-0.085811
2.01761,-0.0863267,-0.0469915
2.11567,0.00516958,-0.0369293
1.92242,-0.183754,-0.0562029
2.01782,-0.0937463,0
1.8485,-0.268349,-0.0217455
2.02148,-0.093916,-0.314834
2.10396,0.00514096,0.0122283
1.93117,-0.184589,-0.0112751
2.02211,-0.0939454,-0.21805
2.02487,-0.0940735,-0.141745
1.92876,-0.18436,-0.158173
2.1071,0.00514864,0.0613228
1.92294,-0.183803,0.033718
2.10368,0.00514027,-0.134823
2.00244,-0.0930318,0.116743
1.92562,-0.184059,0.0788093
2.02362,-0.0940157,-0.0943651
1.92855,-0.18434,-0.101532
2.09825,0.00512702,-0.0854853
2.00529,-0.0931642,-0.0467124
2.10368,-0.00183581,-0.0367199
2.00951,-0.100039,0
2.02115,-0.100619,-0.314834
2.10396,-0.00183605,0.0122283
1.93054,-0.190992,-0.0112751
2.01781,-0.100453,-0.217621
2.00497,-0.0998135,0.0467124
2.01657,-0.100391,-0.141187
2.09511,-0.00182833,0.0609738
1.92232,-0.190179,0.033718
2.09969,-0.00183233,-0.134567
1.99814,-0.0994731,0.116511
1.91307,-0.189263,0.0783208
2.01532,-0.100328,-0.0939929
1.91998,-0.189947,-0.101113
2.09426,-0.00182759,-0.0853225
2.00897,-0.100012,-0.0468054
2.09966,-0.00916155,-0.0366501
2.00116,-0.106628,0
2.08794,-0.00911043,0.0121353
1.91793,-0.196507,-0.0112054
2.00554,-0.106861,-0.216336
2.00461,-0.106812,0.0467124
2.00824,-0.107005,-0.140629
2.0871,-0.00910673,0.060741
1.91767,-0.19648,0.0336482
2.09568,-0.00914418,-0.134311
1.98581,-0.10581,0.115813
2.00697,-0.106937,-0.0936206
1.91533,-0.196241,-0.100904
2.08625,-0.00910303,-0.0849968
1.99663,-0.106386,-0.0465263
2.08762,-0.0163965,-0.0364406
1.9085,-0.202275,-0.0558538
1.9888,-0.112932,0
2.0839,-0.0163673,0.012112
1.90927,-0.202358,-0.0111589
1.99721,-0.11341,-0.215479
1.99624,-0.113355,0.0465263
1.99989,-0.113562,-0.140071
1.91091,-0.20253,-0.156871
2.07106,-0.0162664,0.0602756
1.91299,-0.202752,0.0335784
2.08366,-0.0163654,-0.133543
1.98145,-0.112515,0.11558
1.99861,-0.113489,-0.0932484
1.91066,-0.202505,-0.100694
2.08221,-0.016354,-0.084834
1.99624,-0.113355,-0.0465263
2.08355,-0.0236381,-0.0363708
1.90381,-0.208501,-0.0557375
1.98839,-0.119874,0
2.07583,-0.0235506,0.0120655
1.91253,-0.209456,-0.0111821
1.9968,-0.120381,-0.215479
1.98386,-0.1196,0.0462471
1.9955,-0.120302,-0.139792
2.06699,-0.0234503,0.0601592
1.89637,-0.207686,0.0332992
2.08359,-0.0236386,-0.133543
1.98104,-0.11943,0.11558
1.99421,-0.120225,-0.0930622
1.98785,-0.119841,-0.0463402
2.07546,-0.0307923,-0.0362312
1.90307,-0.215145,-0.0557375
1.97998,-0.126304,0
2.06774,-0.0306778,0.012019
1.89987,-0.214783,-0.0111124
1.98446,-0.126591,-0.214194
1.99141,-0.127034,0.0464332
1.9871,-0.126759,-0.139234
2.0629,-0.030606,0.0600429
1.97264,-0.125836,0.115115
1.98979,-0.126931,-0.0928761
1.90126,-0.214941,-0.100276
2.06606,-0.0306528,-0.0841827
1.98343,-0.126525,-0.0462471
2.06734,-0.0378902,-0.0360916
1.89833,-0.221324,-0.0556211
1.97154,-0.132678,0
2.05962,-0.0377487,0.0119725
1.89513,-0.22095,-0.0110891
1.98004,-0.13325,-0.213766
1.97899,-0.133179,0.0461541
1.97868,-0.133158,-0.138676
2.05079,-0.0375869,0.0596938
1.8909,-0.220457,0.0332294
1.96422,-0.132185,0.11465
1.98137,-0.133339,-0.0925039
1.89257,-0.220651,-0.099857
2.06194,-0.0377913,-0.0840198
1.975,-0.13291,-0.046061
2.0592,-0.0449318,-0.035952
1.88961,-0.226995,-0.0553884
1.96708,-0.139276,0
2.05548,-0.0448506,0.0119493
1.88243,-0.226133,-0.0110194
1.97452,-0.139804,0.046061
1.97422,-0.139783,-0.138397
2.05064,-0.0447452,0.0596938
1.88218,-0.226102,0.0330898
2.05928,-0.0449337,-0.132008
1.96375,-0.139041,0.11465
1.9769,-0.139972,-0.0923178
2.0578,-0.0449014,-0.083857
1.97053,-0.139521,-0.045968
2.05503,-0.0520183,-0.0358821
1.88087,-0.232608,-0.0551557
1.95461,-0.145253,0
2.04731,-0.0518229,0.0119028
1.96605,-0.146102,0.0458749
1.96179,-0.145786,-0.13756
2.04248,-0.0517007,0.0594611
1.87344,-0.231689,0.0329501
2.05512,-0.0520207,-0.131753
1.95927,-0.145599,0.114418
1.96445,-0.145984,-0.0917594
1.87909,-0.232388,-0.099229
2.04964,-0.0518819,-0.0835313
1.95807,-0.14551,-0.0456888
2.04284,-0.0588459,-0.0356727
1.87211,-0.238163,-0.0549229
2.03912,-0.0587387,0.0118563
1.87287,-0.23826,-0.0109729
1.96268,-0.152743,-0.212052
1.96951,-0.153275,0.045968
1.95729,-0.152323,-0.137281
2.03429,-0.0585997,0.0592283
1.86865,-0.237723,0.0328803
2.04296,-0.0588493,-0.130985
1.95875,-0.152437,0.114418
1.95994,-0.15253,-0.0915733
1.8743,-0.238441,-0.0990196
1.95755,-0.152344,-0.0456888
2.03863,-0.0658472,-0.0356029
1.87127,-0.244696,-0.0549229
1.94956,-0.15857,0
2.03091,-0.0655979,0.0118098
1.9542,-0.158948,-0.211195
1.95701,-0.159176,0.0456888
2.02609,-0.0654422,0.0589956
1.94626,-0.158302,0.11372
1.94745,-0.158399,-0.0910149
1.8695,-0.244464,-0.0988103
1.94903,-0.158528,-0.0455027
2.02641,-0.0721801,-0.0353935
1.94105,-0.16436,0
2.02668,-0.0721899,0.0117866
1.85932,-0.249407,-0.0109032
1.9485,-0.16499,0.0455027
1.94428,-0.164633,-0.136444
2.02586,-0.0721606,0.0589956
2.03054,-0.0723275,-0.130218
1.93777,-0.164082,0.113255
1.94293,-0.164519,-0.0908288
1.86472,-0.250131,-0.0986009
2.02903,-0.0722736,-0.0827172
1.94451,-0.164653,-0.0454097
2.02616,-0.0788995,-0.0353935
1.93651,-0.170445,0
2.01844,-0.0785989,0.0117401
1.93599,-0.170399,0.0452235
2.01762,-0.078567,0.0587629
1.93722,-0.170507,0.113255
1.9384,-0.17061,-0.0906426
2.01815,-0.0856441,0.0117401
1.93937,-0.17752,0.0453166
2.00934,-0.0852703,0.0585302
1.92468,-0.176176,0.112557
1.9314,-0.176791,-0.0451305
2.00957,-0.0923087,-0.0351142
1.92333,-0.182824,0
2.00985,-0.0923212,0.0116936
1.93475,-0.18391,0.0452235
2.00104,-0.0919167,0.0582974
1.92522,-0.183004,-0.0900843
2.00821,-0.0922462,-0.0819031
2.00125,-0.0989279,-0.0349746
1.91472,-0.188752,0
2.00552,-0.0991388,0.0116703
1.93012,-0.19027,0.0451305
1.92197,-0.189467,-0.135049
1.92216,-0.189486,-0.0449444
2.00116,-0.105927,0.0116471
1.91751,-0.195788,0.0448513
1.99237,-0.105462,0.0580647
1.99251,-0.112794,-0.034835
1.90536,-0.201607,0
1.98878,-0.112583,0.0115773
1.9128,-0.202394,0.0447583
1.98797,-0.112537,0.0579483
1.90485,-0.201552,-0.0445722
1.98012,-0.119028,-0.0346256
1.8967,-0.207387,0
1.98838,-0.119524,0.0115773
1.90811,-0.208635,0.0446652
1.98358,-0.119236,0.057832
1.90016,-0.207766,-0.0444791
1.97573,-0.125341,-0.0345558
1.89202,-0.213228,0
1.98398,-0.125864,0.0115541
1.91138,-0.215409,0.0447583
1.90327,-0.214496,-0.133932
1.97519,-0.125307,0.0575993
1.89548,-0.213618,-0.0443861
1.88726,-0.219698,0
1.97552,-0.132599,0.0115076
1.90661,-0.221951,0.0446652
1.96674,-0.13201,0.0573665
1.96281,-0.13863,-0.0343463
1.97106,-0.139213,0.0114843
1.88597,-0.226223,0.0442
1.96627,-0.138874,0.0573665
1.88443,-0.22604,-0.0884091
1.87782,-0.231232,0
1.95864,-0.144521,0.0114146
1.96582,-0.145051,0.0573665
1.95786,-0.151337,-0.0342765
1.87303,-0.237283,0
1.96211,-0.151665,0.0114378
1.95334,-0.150988,0.0570174
1.94929,-0.158206,-0.0341369
1.86417,-0.243437,0
1.95354,-0.158551,0.0113914
1.94478,-0.15784,0.0567847
1.9448,-0.163993,-0.0340671
1.85943,-0.248762,0
1.94506,-0.164015,0.0113449
1.94029,-0.163613,0.0566684
1.93625,-0.170081,-0.0339275
1.85855,-0.255251,0
1.93253,-0.169754,0.0112751
1.93174,-0.169685,0.0564356
1.92765,-0.176447,-0.0337879
1.93587,-0.1772,0.0112984
1.93111,-0.176764,0.0564356
1.931,-0.183553,-0.0338577
1.92728,-0.1832,0.0112519
1.91854,-0.182369,0.0560866
1.92242,-0.189172,-0.033718
1.9187,-0.188806,0.0112054
1.91394,-0.188338,0.0559702
1.90981,-0.194665,-0.0335086
1.90511,-0.201244,-0.0334388
1.90139,-0.200851,0.0111124
1.90045,-0.207127,-0.033369
1.89674,-0.206721,0.0110891
1.89972,-0.213759,-0.033369
1.896,-0.213341,0.0110891
1.89098,-0.219797,-0.0332294
1.87783,-0.230901,0.0109961
1.87304,-0.236952,0.0109729
