2.33531,0.311598,-0.137208
2.32847,0.302415,-0.136743
2.32703,0.302228,-0.081944
2.32555,0.293784,-0.13651
2.33622,0.286853,-0.21972
2.33052,0.286153,-0.136743
2.3293,0.277753,-0.218976
2.32357,0.27707,-0.136278
2.31659,0.26804,-0.135813
2.31922,0.260962,-0.217861
2.31346,0.260314,-0.13558
2.31616,0.252434,-0.217489
2.31435,0.252237,-0.13558
2.3091,0.243511,-0.216746
2.31125,0.243738,-0.135348
2.30597,0.235046,-0.216374
2.31208,0.235669,-0.135348
2.30498,0.226412,-0.134883
2.30151,0.218366,-0.0269142
2.30175,0.218389,-0.13465
2.29641,0.209799,-0.215258
2.27508,0.199845,-0.0265882
2.29713,0.201781,-0.215258
2.3461,0.32221,-0.193322
2.29128,0.201267,-0.133952
2.28773,0.192911,-0.0267279
2.29385,0.193427,-0.214887
2.33931,0.312962,-0.192671
2.28799,0.192933,-0.13372
2.32804,0.311454,-0.123094
2.28041,0.184279,-0.0266348
2.33248,0.303764,-0.19202
2.27705,0.176009,-0.0265882
2.26509,0.175084,0.0264485
2.33352,0.29562,-0.19202
2.28132,0.176339,-0.133255
2.32619,0.294691,-0.122885
2.26569,0.167177,0.0264485
2.33454,0.287473,-0.19202
2.27794,0.168081,-0.133022
2.3272,0.286569,-0.122885
2.26224,0.159382,-0.026402
2.25426,0.15882,0.0263088
2.32757,0.278782,-0.191369
2.32418,0.278376,-0.122675
2.25081,0.150682,-0.0262623
2.25879,0.151217,0.0263554
2.3206,0.269734,-0.190718
2.3172,0.269338,-0.122257
2.24733,0.142572,-0.0262157
2.25132,0.142825,0.0262623
2.31757,0.261186,-0.190393
2.31812,0.261249,-0.122257
2.23983,0.134247,-0.0261226
2.25181,0.134965,0.0262623
2.32243,0.253527,-0.190718
2.31505,0.252721,-0.122047
2.30221,0.24319,-0.0673737
2.24428,0.126653,-0.0261692
2.24028,0.126427,0.0261226
2.31537,0.24458,-0.190067
2.31592,0.244638,-0.122047
2.29509,0.234342,-0.067141
2.24071,0.118608,-0.0261226
2.23272,0.118185,0.0260295
2.30828,0.235688,-0.189416
2.30484,0.235337,-0.121419
2.28794,0.225544,-0.0669082
2.23712,0.110588,-0.026076
2.23312,0.11039,0.0260295
2.30512,0.227238,-0.189091
2.24944,0.111197,-0.131162
2.30167,0.226898,-0.12121
2.29269,0.217935,-0.0670246
2.23749,0.102778,-0.026076
2.23349,0.102595,0.0260295
2.34975,0.339861,-0.16602
2.3059,0.219191,-0.189091
2.24582,0.103161,-0.130929
2.29847,0.218484,-0.121001
2.28149,0.208837,-0.0666755
2.22585,0.0944581,-0.0259363
2.22585,0.0944581,0.0259363
2.34697,0.331099,-0.165741
2.27822,0.20052,-0.0665591
2.22217,0.0865316,-0.0258898
2.28712,0.201303,-0.0133442
2.22217,0.0865316,0.0258898
2.33626,0.321273,-0.164904
2.23851,0.087168,-0.130464
2.29198,0.201731,-0.120582
2.28688,0.193241,-0.0667919
2.22245,0.0787758,-0.0258898
2.27984,0.192646,-0.0132977
2.22245,0.0787758,0.0258898
2.32945,0.312058,-0.164346
2.23481,0.0792137,-0.130231
2.28471,0.193058,-0.120163
2.27957,0.184611,-0.0665591
2.21872,0.0708892,-0.0258432
2.27252,0.184041,-0.0132512
2.21872,0.0708892,0.0258432
2.32657,0.303408,-0.164067
2.27223,0.176036,-0.0663264
2.22295,0.0632583,-0.0258898
2.26517,0.17549,-0.0132047
2.21096,0.062917,0.0257501
2.32366,0.294783,-0.163788
2.28155,0.176758,-0.186813
2.22732,0.0633827,-0.129766
2.33077,0.295686,-0.109441
2.27804,0.176486,-0.119745
2.26884,0.167808,-0.0662101
2.21116,0.0551983,-0.0257501
2.26178,0.167286,-0.0131814
2.21116,0.0551983,0.0257501
2.32863,0.287158,-0.164067
2.21955,0.0554076,-0.129301
2.31593,0.285591,-0.108697
2.27864,0.168533,-0.119745
2.26141,0.159719,-0.0659773
2.21133,0.0478649,-0.0257501
2.26632,0.160066,-0.0132047
2.20733,0.0477783,0.0257035
2.32165,0.278483,-0.163509
2.26202,0.159762,0.0395821
2.21972,0.0480464,-0.129301
2.32083,0.278385,-0.108883
2.27122,0.160412,-0.119326
2.25796,0.151558,-0.065861
2.21149,0.0401472,-0.0257501
2.26686,0.152156,-0.0132047
2.19949,0.0399294,0.0256104
2.31468,0.269456,-0.162951
2.26256,0.151867,0.0395821
2.21588,0.0402269,-0.129069
2.31782,0.269822,-0.108697
2.27176,0.152485,-0.119326
2.2585,0.14328,-0.065861
2.20362,0.0319239,-0.0256569
2.25144,0.142831,-0.0131117
2.31981,0.261438,-0.251464
2.19962,0.0318659,0.0256104
2.31565,0.260969,-0.162951
2.26788,0.143875,-0.185511
2.25512,0.143065,0.0394424
2.21202,0.0320456,-0.128836
2.31085,0.260428,-0.108324
2.26433,0.14365,-0.118907
2.30876,0.260192,-0.0540635
2.25502,0.134763,-0.0657446
2.20372,0.0238475,-0.0256569
2.25594,0.134818,-0.0131349
2.32075,0.252934,-0.251464
2.19972,0.0238042,0.0256104
2.31262,0.252048,-0.162672
2.25164,0.134561,0.0393726
2.20014,0.0238087,-0.128138
2.30384,0.251091,-0.107952
2.24745,0.127226,-0.0655119
2.19579,0.0168632,-0.0255638
2.24437,0.127052,-0.0130652
2.30967,0.244387,-0.250179
2.19179,0.0168325,0.0255173
2.30547,0.243942,-0.162114
2.24806,0.127261,0.0393028
2.19621,0.0168665,-0.127906
2.30065,0.243432,-0.107766
2.30252,0.24363,-0.0538774
2.2359,0.118744,-0.0651628
2.19983,0.00921452,-0.0256104
2.23681,0.118792,-0.0130187
2.31051,0.236323,-0.250179
2.19583,0.00919777,0.0255638
2.30631,0.235893,-0.162114
2.24849,0.119412,0.0393028
2.30546,0.235806,-0.107952
2.25373,0.11969,-0.118279
2.30733,0.235998,-0.0539705
2.2363,0.110939,-0.0651628
2.19585,0.00153329,-0.0255638
2.24121,0.111182,-0.0130419
2.30736,0.227866,-0.24975
2.18785,0.00152771,0.0254707
2.29917,0.227057,-0.161556
2.2409,0.111167,0.0391632
2.3573,0.349778,-0.152731
2.19628,0.00153359,-0.127906
2.22741,0.110498,0.0908587
2.29832,0.226972,-0.10758
2.24615,0.111427,-0.117861
2.30019,0.227157,-0.0537844
2.23268,0.102948,-0.0650464
2.18784,-0.00610889,-0.0254707
2.23359,0.10299,-0.0129954
2.30023,0.219057,-0.248894
2.18384,-0.00609772,0.0254241
2.30393,0.219409,-0.161835
2.2253,0.102608,0.038884
2.19228,-0.00612127,-0.127673
2.29512,0.21857,-0.107394
2.24653,0.103587,-0.117861
2.29698,0.218748,-0.0536913
2.22504,0.094813,-0.0648137
2.17981,-0.0136961,-0.0253776
2.24781,0.0957833,-0.286376
2.22994,0.0950219,-0.0129722
2.29702,0.210662,-0.248465
2.18381,-0.0137213,0.0254241
2.29673,0.210636,-0.161277
2.22964,0.095009,0.0389538
2.18825,-0.0137492,-0.127441
2.22413,0.0947746,0.0906958
2.29189,0.210192,-0.107208
2.2349,0.0952334,-0.117233
2.29375,0.210363,-0.0535983
2.22136,0.0868898,-0.0646974
2.17975,-0.0213046,-0.0253776
2.23026,0.0872378,-0.0129722
2.28981,0.201944,-0.247608
2.17575,-0.0212655,0.025331
2.2895,0.201917,-0.160719
2.21397,0.0866007,0.0386745
2.1802,-0.021309,-0.126976
2.21247,0.0865421,0.0902073
2.28863,0.20184,-0.107022
2.23921,0.0875881,-0.117442
2.2865,0.201652,-0.0534122
2.22165,0.0791347,-0.0646974
2.27586,0.192709,0
2.17566,-0.0288607,-0.025331
2.21856,0.0790245,-0.0129024
2.29051,0.19395,-0.247608
2.17834,-0.0288962,-0.203362
2.17566,-0.0288607,0.025331
2.29019,0.193923,-0.160719
2.22225,0.0791561,0.0388142
2.3303,0.312585,-0.150684
2.18011,-0.0289198,-0.126976
2.20877,0.0786758,0.0900445
2.28135,0.193175,-0.106649
2.23152,0.0794863,-0.117023
2.28719,0.193669,-0.0534122
2.21792,0.0712513,-0.064581
2.27253,0.184441,0
2.22282,0.0714087,-0.0129257
2.28324,0.18531,-0.246752
2.17822,-0.0364994,-0.203362
2.16355,-0.0362535,0.0251913
2.2829,0.185283,-0.160161
2.21452,0.0711422,0.0386745
2.33138,0.304449,-0.150684
2.17201,-0.0363953,-0.126511
2.20503,0.0708374,0.0898817
2.27803,0.184887,-0.106463
2.2238,0.0714403,-0.116605
2.27988,0.185038,-0.0532261
2.21415,0.0633939,-0.0644646
2.26518,0.175887,0
2.16741,-0.043887,-0.0252379
2.21505,0.0634196,-0.0128792
2.17808,-0.0441032,-0.203362
2.16741,-0.043887,0.0252379
2.27956,0.177003,-0.159882
2.21476,0.0634111,0.0386745
2.32451,0.295303,-0.150172
2.16788,-0.0438966,-0.126278
2.20926,0.0632538,0.0900445
2.27866,0.176934,-0.106463
2.22004,0.0635624,-0.116395
2.27653,0.176768,-0.053133
2.22235,0.0562539,-0.0646974
2.26575,0.168375,0
2.22533,0.0563293,-0.283346
2.21525,0.0560743,-0.0128792
2.28048,0.16947,-0.246323
2.25716,0.167737,0.0526678
2.16725,-0.0510738,0.0252379
2.28013,0.169443,-0.159882
2.22389,0.0562929,-0.181606
2.20296,0.0557631,0.0384651
2.16373,-0.0509908,-0.126045
2.20147,0.0557254,0.0897188
2.27924,0.169377,-0.106463
2.21625,0.0560995,-0.116186
2.26514,0.168329,-0.0528539
2.20255,0.0476761,-0.0641155
2.25837,0.159506,0
2.21144,0.0478686,-0.012856
2.27712,0.16083,-0.245895
2.20715,0.0477756,0.0385349
2.31859,0.278118,-0.149661
2.15954,-0.0588118,-0.125813
2.19766,0.0475703,0.089556
2.26789,0.160178,-0.105905
2.21244,0.0478902,-0.115976
2.31745,0.277981,-0.0950922
2.25776,0.159463,-0.0526678
2.19871,0.0399143,-0.0639992
2.25493,0.151354,0
2.2076,0.0400757,-0.0128327
2.26973,0.152347,-0.245038
2.16556,-0.0665419,-0.202246
2.26629,0.152116,0.0528539
2.15883,-0.0663353,0.0251447
2.26934,0.152321,-0.159045
2.1993,0.0399251,0.0383953
2.31162,0.269099,-0.149149
2.16331,-0.0664728,-0.126045
2.19382,0.0398256,0.0893932
2.26444,0.151992,-0.105719
2.2126,0.0401665,-0.115976
2.18836,0.0397264,0.178676
2.31444,0.269427,-0.0949294
2.25432,0.151313,-0.0525747
2.19083,0.0325037,-0.0637664
2.25142,0.14362,0
2.1586,-0.0734944,-0.0251447
2.272,0.144932,-0.354188
2.20772,0.0327542,-0.0128327
2.26279,0.144345,0.0527608
2.15461,-0.0733583,0.0250982
2.20841,0.0327645,-0.180304
2.19942,0.0326311,0.0383953
2.31249,0.261431,-0.149149
2.26095,0.144227,-0.105533
2.20074,0.0326506,-0.115348
2.3034,0.260403,-0.0944409
2.25481,0.143836,-0.0525747
2.19093,0.0248576,-0.0637664
2.24792,0.135521,0
2.2646,0.136526,-0.352958
2.20382,0.0250038,-0.0128095
2.25529,0.135966,0.0525747
2.15034,-0.0807273,0.0250516
2.26236,0.136391,-0.158487
2.20054,0.0249665,-0.179653
2.19952,0.024955,0.0383953
2.30149,0.252055,-0.148382
2.15483,-0.0808959,-0.12558
2.18605,0.0248021,0.0890675
2.26144,0.136336,-0.105533
2.20483,0.0250153,-0.115558
2.2513,0.135725,-0.0524816
2.191,0.017209,-0.0637664
2.24039,0.127219,0
2.26506,0.12862,-0.352958
2.2101,0.017359,-0.281326
2.1999,0.0172789,-0.0127862
2.26324,0.128517,-0.244181
2.25176,0.127865,0.0524816
2.14605,-0.0880695,0.025005
2.25884,0.128267,-0.158208
2.2046,0.0173158,-0.179978
2.1876,0.0171823,0.0381859
2.30236,0.244019,-0.148382
2.15054,-0.088254,-0.125348
2.19012,0.0172021,0.0892304
2.25791,0.128214,-0.105346
2.20091,0.0172868,-0.115348
2.24378,0.127411,-0.0522955
2.18305,0.00952542,-0.0635337
2.24482,0.11961,0
2.2576,0.120291,-0.351728
2.18394,0.00952929,-0.0126932
2.25573,0.120192,-0.243325
2.1525,-0.0958622,-0.201131
2.20066,0.00960223,-0.179653
2.18765,0.00954546,0.0381859
2.29922,0.235574,-0.148126
2.15022,-0.0957608,-0.125348
2.17817,0.00950412,0.0887419
2.19696,0.00958611,-0.115139
2.29805,0.235454,-0.0941152
2.24421,0.119578,-0.0522955
2.29246,0.226798,-0.0402103
2.17908,0.00190205,-0.0634174
2.23323,0.111177,0
2.25801,0.112411,-0.351728
2.19196,0.0019133,-0.0127397
2.1442,-0.102993,-0.200387
2.24461,0.111744,0.0522955
2.1334,-0.102474,0.0248654
2.25171,0.112097,-0.15765
2.18367,0.00190606,0.0381161
2.30003,0.227547,-0.148126
2.1419,-0.102882,-0.124883
2.24678,0.111852,-0.104788
2.189,0.00191071,-0.11472
2.29488,0.227038,-0.0939524
2.23263,0.111147,-0.0520164
2.29324,0.218794,-0.0402103
2.17507,-0.00569447,-0.063301
2.23361,0.103381,0
2.25049,0.104162,-0.350499
2.19826,-0.00575516,-0.27981
2.18796,-0.0057282,-0.0127165
2.13985,-0.110272,-0.200016
2.233,0.103353,0.0520164
2.2481,0.104051,-0.157371
2.18871,-0.00573018,-0.178676
2.17966,-0.00570648,0.0380462
2.29684,0.219137,-0.14787
2.13754,-0.110153,-0.12465
2.17419,-0.00569216,0.0885791
2.18499,-0.00572044,-0.114511
2.2877,0.218266,-0.0936268
2.22901,0.103168,-0.0519233
2.28602,0.210056,-0.0400707
2.17504,-0.0132864,-0.063301
2.22197,0.0950709,0
2.24294,0.0959683,-0.349269
2.19425,-0.0134038,-0.279305
2.18792,-0.0133651,-0.0127165
2.13547,-0.117522,-0.199644
2.22936,0.095387,0.0519233
2.13662,-0.117585,0.0249119
2.24446,0.0960333,-0.157092
2.18868,-0.0133697,-0.178676
2.18363,-0.0133389,0.0381161
2.28964,0.210388,-0.147358
2.17016,-0.0132566,0.0884162
2.23952,0.0958219,-0.104416
2.18496,-0.013347,-0.114511
2.28447,0.209914,-0.0934639
2.23735,0.0957289,-0.0521094
2.28276,0.201722,-0.0400009
2.17098,-0.0208408,-0.0631846
2.22628,0.0874706,0
2.23931,0.0879826,-0.348654
2.19023,-0.0210256,-0.2788
2.17986,-0.0209261,-0.01267
2.13505,-0.124976,-0.199644
2.12821,-0.124576,0.0248188
2.18463,-0.0209719,-0.178351
2.17157,-0.0208465,0.0379066
2.28638,0.202043,-0.147102
2.21454,0.0870091,0.129069
2.1661,-0.020794,0.0882534
2.18091,-0.0209361,-0.114302
2.16071,-0.0207422,0.176398
2.28121,0.201586,-0.0933011
2.22568,0.087447,-0.0518303
2.27548,0.193077,-0.0398613
2.17489,-0.0284707,-0.063301
2.22258,0.0795563,0
2.23171,0.0798831,-0.347424
2.18617,-0.0286184,-0.278295
2.27578,0.193103,0.0132744
2.17978,-0.0285346,-0.01267
2.13062,-0.132181,-0.199272
2.22597,0.0796778,0.0518303
2.11579,-0.13126,0.0246791
2.2371,0.0800762,-0.156534
2.18056,-0.0285449,-0.178025
2.17148,-0.0284261,0.0379066
2.27912,0.193386,-0.146591
2.13228,-0.132283,-0.124418
2.15802,-0.0282499,0.0879277
2.17683,-0.028496,-0.114092
2.27792,0.193284,-0.0931383
2.21798,0.0793917,-0.0516442
2.27215,0.184809,-0.0397915
2.16279,-0.035863,-0.0629519
2.21884,0.0716689,0
2.23592,0.0722206,-0.348039
2.17566,-0.0360765,-0.0126467
2.12617,-0.139356,-0.1989
2.21824,0.0716495,0.0516442
2.23338,0.0721384,-0.156255
2.17646,-0.0360897,-0.1777
2.17137,-0.0360053,0.0379066
2.2758,0.185106,-0.146335
2.12782,-0.139464,-0.124185
2.15392,-0.0357159,0.0877649
2.22842,0.0719783,-0.103857
2.16473,-0.0358952,-0.113464
2.2746,0.185008,-0.0929754
2.21425,0.0715204,-0.0515511
2.26873,0.177359,-0.0397217
2.15867,-0.0425781,-0.0628356
2.21106,0.0644651,0
2.26505,0.177071,0.0132047
2.17154,-0.0428321,-0.0126235
2.11778,-0.145489,-0.198157
2.21046,0.0644477,0.0514581
2.1029,-0.144467,0.0245394
2.22562,0.0648896,-0.155696
2.16836,-0.0427694,-0.177049
2.17125,-0.0428263,0.0379066
2.27239,0.177645,-0.146079
2.20333,0.0642397,0.128371
2.15379,-0.0424821,0.0877649
2.22864,0.0649775,-0.103857
2.15662,-0.0425378,-0.113046
2.20649,0.0643317,0.271037
2.14843,-0.0423763,0.175422
2.2672,0.177239,-0.0926498
2.21446,0.0645642,-0.0515511
2.2694,0.168646,-0.0397217
2.15849,-0.050867,-0.0628356
2.21529,0.0560755,0
2.22452,0.0563091,-0.346194
2.26173,0.168076,0.0131814
2.12118,-0.153908,-0.198529
2.21869,0.0561615,0.0516442
2.10632,-0.15283,0.024586
2.22585,0.0563428,-0.155696
2.16818,-0.0510955,-0.177049
2.15907,-0.0508808,0.0376972
2.27306,0.168918,-0.146079
2.14962,-0.0506581,0.0876021
2.16443,-0.051007,-0.113464
2.14427,-0.050532,0.175096
2.26387,0.168235,-0.0924869
2.21069,0.0559591,-0.0514581
2.258,0.159875,-0.0395123
2.1583,-0.0584018,-0.0628356
2.20348,0.04808,0
2.2247,0.0485432,-0.346194
2.25033,0.159332,0.0131117
2.11269,-0.160708,-0.197785
2.21088,0.0482415,0.0514581
2.10976,-0.160485,0.0246325
2.22204,0.0484852,-0.155417
2.16401,-0.0585563,-0.176724
2.15488,-0.0583094,0.0376274
2.26169,0.160136,-0.145312
2.11828,-0.161133,-0.12372
2.14943,-0.0581619,0.0876021
2.15625,-0.0583464,-0.113046
2.14408,-0.0580171,0.175096
2.26046,0.160049,-0.0923241
2.20288,0.048067,-0.051272
2.25855,0.151992,-0.0395123
2.14609,-0.065569,-0.0624865
2.20363,0.0403882,0
2.11318,-0.168166,-0.0246791
2.25087,0.151476,0.0131117
2.10814,-0.167766,-0.197413
2.20303,0.0403772,0.051272
2.09723,-0.166897,0.0244928
2.1598,-0.065988,-0.176398
2.24597,0.151146,0.0655119
2.15467,-0.065831,0.0376274
2.25825,0.151972,-0.145056
2.14522,-0.0655423,0.0874392
2.20923,0.0404908,-0.102927
2.15204,-0.0657508,-0.112836
2.26101,0.152158,-0.0923241
2.19904,0.0403039,-0.0511789
2.16663,-0.0737675,-1.0109
2.25108,0.143598,-0.0393726
2.19576,0.0325771,0
2.21708,0.0328935,-0.344964
2.1613,-0.0735859,-0.275265
2.2434,0.143109,0.0130652
2.15871,-0.0734978,-0.0125537
2.21494,0.0328617,-0.238612
2.10754,-0.175123,-0.197413
2.19916,0.0326276,0.0511789
2.09265,-0.173885,0.0244463
2.21435,0.0328529,-0.154859
2.15956,-0.0735267,-0.176398
2.24648,0.143305,0.0655119
2.15043,-0.0732157,0.0375576
2.26275,0.144343,-0.145312
2.14098,-0.0728942,0.0872764
2.20936,0.0327789,-0.102927
2.15579,-0.0733984,-0.113046
2.13964,-0.0728484,0.174771
2.25753,0.14401,-0.0921613
2.19916,0.0326276,-0.0511789
2.16277,-0.0804391,-1.00921
2.25152,0.136526,-0.0393726
2.14161,-0.0796522,-0.0623701
2.19185,0.025632,0
2.21322,0.025882,-0.344349
2.16106,-0.0803754,-0.275265
2.24783,0.136302,0.0130884
2.15447,-0.0801306,-0.0125305
2.09905,-0.181059,-0.19667
2.19526,0.0256718,0.0510859
2.20646,0.0258029,-0.154301
2.14737,-0.0798663,-0.175422
2.15019,-0.0799711,0.0375576
2.25522,0.13675,-0.1448
2.10858,-0.181882,-0.123255
2.18415,0.025542,0.127208
2.13675,-0.0794713,0.0871136
2.20146,0.0257444,-0.102555
2.14757,-0.0798737,-0.112627
2.24202,0.135949,-0.09151
2.19925,0.0257186,-0.0511789
2.16608,-0.0885135,-1.0109
2.24801,0.128045,-0.0393028
2.13332,-0.0871746,-0.0621374
2.1594,-0.0882404,-0.432243
2.18793,0.0175662,0
2.09938,-0.188842,-0.0245394
2.20935,0.0177382,-0.343735
2.10234,-0.189108,-0.197041
2.19534,0.0176257,0.0510859
2.09141,-0.188126,0.0244463
2.20255,0.0176836,-0.154022
2.14308,-0.0875735,-0.175096
2.14988,-0.0878514,0.0375576
2.24774,0.128029,-0.144288
2.18024,0.0175044,0.126976
2.13245,-0.0871392,0.0869508
2.20554,0.0177076,-0.102741
2.14726,-0.0877444,-0.112627
2.23851,0.127504,-0.0913472
2.19534,0.0176257,-0.0510859
2.16214,-0.0959133,-1.00921
2.24046,0.11977,-0.0391632
2.129,-0.0944435,-0.062021
2.18798,0.0099288,0
2.20545,0.0100081,-0.34312
2.1525,-0.0954858,-0.274255
2.23277,0.119359,0.0129954
2.10166,-0.196445,-0.197041
2.19538,0.0099624,0.0510859
2.09074,-0.195425,0.0244463
2.2026,0.00999515,-0.154022
2.14276,-0.0950537,-0.175096
2.23187,0.119311,0.0650464
2.14556,-0.0951781,0.0374878
2.24817,0.120183,-0.144288
2.18028,0.00989388,0.126976
2.12814,-0.0944052,0.0867879
2.20159,0.00999057,-0.102555
2.14694,-0.0952392,-0.112627
2.23894,0.119689,-0.0913472
2.19138,0.00994426,-0.0509928
2.15819,-0.10291,-1.00752
2.23685,0.11214,-0.0390934
2.12868,-0.101503,-0.062021
2.188,0.00267315,0
2.20151,0.00268966,-0.342505
2.14821,-0.102434,-0.27375
2.23316,0.111955,0.0129954
2.19928,0.00268693,-0.236899
2.09307,-0.202646,-0.196298
2.17941,0.00266265,0.0507136
2.07814,-0.201201,0.0243066
2.19065,0.00267639,-0.153185
2.13845,-0.101969,-0.174771
2.14124,-0.102102,0.037418
2.23261,0.111927,-0.143265
2.09861,-0.203183,-0.12279
2.17631,0.00265887,0.126743
2.19362,0.00268002,-0.102182
2.13863,-0.101978,-0.112208
2.23933,0.112264,-0.0913472
2.18741,0.00267243,-0.0508998
2.16143,-0.110628,-1.00921
2.23323,0.104145,-0.0390236
2.17599,-0.00493718,0
2.08937,-0.209651,-0.0244463
2.14784,-0.109932,-0.27375
2.22954,0.103972,0.0129722
2.1953,-0.00498097,-0.23647
2.08839,-0.209553,-0.195926
2.1834,-0.00495399,0.0508067
2.07743,-0.208453,0.0243066
2.19065,-0.00497042,-0.153185
2.13808,-0.109433,-0.174771
2.22464,0.103744,0.0648137
2.13688,-0.109371,0.0373482
2.24096,0.104505,-0.143777
2.09392,-0.210108,-0.122557
2.17231,-0.00492883,0.126511
2.11947,-0.10848,0.0864623
2.13427,-0.109238,-0.111999
2.23571,0.10426,-0.0911843
2.1914,-0.00497213,-0.0509928
2.15739,-0.118351,-1.00752
2.22161,0.0954438,-0.0388142
2.11991,-0.116295,-0.0617883
2.14621,-0.117737,-0.429889
2.17196,-0.0128888,0
2.07665,-0.216066,-0.0243066
2.14346,-0.117586,-0.273244
2.22991,0.0958001,0.0129722
2.19129,-0.0130035,-0.236042
2.08761,-0.217206,-0.195926
2.17537,-0.0129091,0.0506206
2.07665,-0.216066,0.0243066
2.18662,-0.0129758,-0.152906
2.13368,-0.11705,-0.174445
2.13247,-0.116984,0.0372783
2.22937,0.0957769,-0.143009
2.16429,-0.0128433,0.126045
2.11506,-0.116029,0.0862994
2.18959,-0.0129934,-0.101996
2.13386,-0.11706,-0.111999
2.23209,0.0958938,-0.0910215
2.17537,-0.0129091,-0.0506206
2.22591,0.0882346,-0.038884
2.12351,-0.123556,-0.0619047
2.14189,-0.124626,-0.429105
2.16791,-0.0200542,0
2.0799,-0.223378,-0.0243531
2.18725,-0.0202332,-0.235614
2.08687,-0.224128,-0.195926
2.17932,-0.0201598,0.0507136
2.07194,-0.222524,0.02426
2.18657,-0.0202269,-0.152906
2.12532,-0.123662,-0.173795
2.12808,-0.123822,0.0372085
2.22967,0.0883835,-0.143009
2.16424,-0.0200203,0.126045
2.11068,-0.12281,0.0861366
2.18554,-0.0202173,-0.10181
2.12548,-0.123671,-0.11158
2.22041,0.0880165,-0.090533
2.17932,-0.0201598,-0.0507136
2.21821,0.0801752,-0.0387443
2.11508,-0.130476,-0.0616719
2.16782,-0.0276215,0
2.21851,0.0801861,0.0129024
2.08608,-0.231411,-0.195926
2.17923,-0.0277669,0.0507136
2.0632,-0.228873,0.0241669
2.17451,-0.0277068,-0.152069
2.12488,-0.13108,-0.173795
2.12364,-0.131003,0.0371387
2.22199,0.0803116,-0.142497
2.08367,-0.231143,-0.122092
2.16416,-0.0275748,0.126045
2.11422,-0.130423,0.0862994
2.18146,-0.0277952,-0.101624
2.12504,-0.13109,-0.11158
2.22071,0.0802653,-0.090533
2.17124,-0.027665,-0.0505275
2.21848,0.0724317,-0.0387443
2.11062,-0.137598,-0.0615556
2.13705,-0.139321,-0.42832
2.16771,-0.0351885,0
2.18147,-0.0354117,-0.33943
2.13025,-0.138877,-0.271729
2.21478,0.072311,0.0128792
2.17911,-0.0353734,-0.234757
2.07734,-0.237785,-0.195183
2.16713,-0.035179,0.0504345
2.07034,-0.236984,0.02426
2.17839,-0.0353618,-0.152348
2.12043,-0.138237,-0.173469
2.20989,0.0721511,0.0643483
2.12317,-0.138416,0.0371387
2.22225,0.0725549,-0.142497
2.15606,-0.0349993,0.12558
2.16936,-0.0352152,-0.101066
2.12457,-0.138507,-0.11158
2.22097,0.0725131,-0.090533
2.17113,-0.0352439,-0.0505275
2.21072,0.0644542,-0.0386047
2.11013,-0.144964,-0.0615556
2.15958,-0.0425972,0
2.17738,-0.0429483,-0.338815
2.21102,0.0644629,0.012856
2.07255,-0.244569,-0.194811
2.16699,-0.0427434,0.0504345
2.05758,-0.242803,0.0241203
2.16629,-0.0427295,-0.151511
2.12391,-0.145911,-0.173795
2.11868,-0.145552,0.0370689
2.21451,0.0645647,-0.141986
2.15193,-0.0424464,0.125348
2.16923,-0.0427875,-0.101066
2.12009,-0.145648,-0.111371
2.20923,0.0644106,-0.0900445
2.16699,-0.0427434,-0.0504345
2.21893,0.0569422,-0.0387443
2.10164,-0.151753,-0.0613228
2.12429,-0.153389,-0.425967
2.17722,-0.0505485,-0.338815
2.20724,0.056642,0.0128327
2.11446,-0.152679,-0.0123213
2.17085,-0.0504008,-0.2339
2.07168,-0.251802,-0.194811
2.16283,-0.0502146,0.0503414
2.16214,-0.0501984,-0.151232
2.11544,-0.15275,-0.173144
2.20234,0.0565164,0.0641155
2.21872,0.0569366,-0.142242
2.0732,-0.251987,-0.121627
2.14778,-0.0498651,0.125115
2.0968,-0.151404,0.0856481
2.16507,-0.0502665,-0.100879
2.11558,-0.15276,-0.111162
2.20544,0.056596,-0.0898817
2.16283,-0.0502146,-0.0503414
2.21113,0.0486331,-0.0386047
2.10107,-0.159455,-0.0613228
2.15122,-0.0578346,0
2.05976,-0.258017,-0.0241669
2.16911,-0.0583156,-0.337585
2.20343,0.0484638,0.0128095
2.17065,-0.058357,-0.2339
2.07074,-0.259393,-0.194811
2.16263,-0.0581414,0.0503414
2.16593,-0.0582299,-0.151511
2.11089,-0.160201,-0.172818
2.21093,0.0486287,-0.14173
2.14758,-0.0577368,0.125115
2.16088,-0.0580941,-0.100693
2.11102,-0.160211,-0.110952
2.15864,-0.0580339,-0.0502484
2.20329,0.0407665,-0.0384651
2.10448,-0.167105,-0.0614392
2.12314,-0.168586,-0.425967
2.14701,-0.065222,0
2.05885,-0.265206,-0.0241669
2.1689,-0.0658869,-0.337585
2.20359,0.0407721,0.0128095
2.10933,-0.167489,-0.012298
2.15851,-0.0655714,-0.232615
2.06588,-0.266111,-0.194439
2.15842,-0.0655686,0.0502484
2.16172,-0.0656689,-0.151232
2.10634,-0.167252,-0.172493
2.10505,-0.16715,0.0368595
2.14338,-0.0651117,0.124883
2.09168,-0.166088,0.0854853
2.16066,-0.0656367,-0.100693
2.11443,-0.167895,-0.111162
2.2018,0.040739,-0.0897188
2.15842,-0.0655686,-0.0502484
2.19541,0.0337217,-0.0383255
2.09598,-0.173057,-0.0612065
2.11869,-0.174933,-0.425182
2.1428,-0.0718327,0
2.06197,-0.272196,-0.0242135
2.11567,-0.174683,-0.270214
2.1957,0.0337262,0.012763
2.1048,-0.173786,-0.0122748
2.1583,-0.0723523,-0.232615
2.06108,-0.272078,-0.194067
2.15021,-0.0720812,0.0500623
2.15752,-0.0723262,-0.150953
2.10978,-0.174197,-0.172818
2.10053,-0.173433,0.0367897
2.19923,0.0337804,-0.140962
2.06258,-0.272276,-0.121162
2.14316,-0.071845,0.124883
2.08716,-0.172329,0.0853225
2.15246,-0.0721565,-0.100321
2.10593,-0.173879,-0.110743
2.19392,0.0336989,-0.0893932
2.15021,-0.0720812,-0.0500623
2.19551,0.0260581,-0.0383255
2.09536,-0.180373,-0.0612065
2.14253,-0.079312,0
2.19181,0.0260141,0.0127397
2.15803,-0.0798857,-0.232615
2.05617,-0.278736,-0.193695
2.14995,-0.0795864,0.0500623
2.15326,-0.0797092,-0.150674
2.10916,-0.18156,-0.172818
2.18692,0.0259561,0.0636501
2.1039,-0.181107,0.0368595
2.20332,0.0261508,-0.141218
2.0537,-0.278402,-0.120697
2.13891,-0.0791778,0.12465
2.15219,-0.0796695,-0.100321
2.10531,-0.181229,-0.110743
2.19403,0.0260405,-0.0893932
2.14995,-0.0795864,-0.0500623
2.18359,0.0182936,-0.0381161
2.09074,-0.187329,-0.0610901
2.1096,-0.189019,-0.423613
2.18789,0.0183296,0.0127165
2.15376,-0.0872572,-0.232186
2.05124,-0.285363,-0.193324
2.14965,-0.0870906,0.0500623
2.145,-0.086902,-0.150116
2.10454,-0.188566,-0.172493
2.183,0.0182887,0.0635337
2.19941,0.0184262,-0.140962
2.05668,-0.286119,-0.120929
2.13463,-0.0864819,0.124418
2.08591,-0.186896,0.0853225
2.13992,-0.0866964,-0.0997627
2.10467,-0.188577,-0.110743
2.19011,0.0183482,-0.0892304
2.14965,-0.0870906,-0.0500623
2.19564,0.00996359,-0.0383255
2.09,-0.195355,-0.0610901
2.1339,-0.0946608,0
2.03515,-0.291094,-0.0239341
2.18394,0.00991048,0.0126932
2.09882,-0.196179,-0.0122515
2.14547,-0.0951738,-0.23133
2.05013,-0.293237,-0.193324
2.14465,-0.0951375,-0.150116
2.09586,-0.195903,-0.171842
2.18749,0.00992659,-0.140195
2.13827,-0.0948546,0.12465
2.14357,-0.0950895,-0.0999489
2.092,-0.195542,-0.110115
2.18217,0.00990243,-0.0889047
2.14131,-0.0949896,-0.0498762
2.17967,0.00304339,-0.0380462
2.0854,-0.201536,-0.0609738
2.10433,-0.203365,-0.422829
2.1296,-0.101174,0
2.09723,-0.202679,-0.268194
2.18396,0.00304938,0.0126932
2.09023,-0.202002,-0.012205
2.14516,-0.101914,-0.23133
2.0492,-0.299677,-0.193324
2.14035,-0.101685,-0.149837
2.09127,-0.202103,-0.171516
2.17508,0.00303698,0.063301
2.08994,-0.201975,0.0366501
2.18751,0.00305434,-0.140195
2.04673,-0.299315,-0.120464
2.13397,-0.101382,0.124418
2.13527,-0.101444,-0.0995766
2.09535,-0.202497,-0.110324
2.18219,0.00304691,-0.0889047
2.13701,-0.101527,-0.0497831
2.17566,-0.00493645,-0.0379764
2.08464,-0.209178,-0.0609738
2.12921,-0.108979,0
2.17996,-0.00494619,0.01267
2.08549,-0.209263,-0.0121818
2.13285,-0.109165,-0.230044
2.04021,-0.306004,-0.19258
2.14395,-0.109733,-0.150116
2.09448,-0.210165,-0.171842
2.17507,-0.00493511,0.063301
2.08919,-0.209634,0.0366501
2.18351,-0.00495426,-0.139939
2.04167,-0.306222,-0.120232
2.12561,-0.108795,0.123952
2.13489,-0.109269,-0.0995766
2.09459,-0.210176,-0.110324
2.18218,-0.00495124,-0.0889047
2.13263,-0.109154,-0.0496901
2.17563,-0.0121512,-0.0379764
2.07201,-0.214852,-0.0606247
2.12485,-0.115821,0
2.18393,-0.0121975,0.0126932
2.08081,-0.215765,-0.0121585
2.13645,-0.116454,-0.230473
2.03918,-0.312768,-0.19258
2.13625,-0.116443,0.0497831
2.13561,-0.116408,-0.149558
2.08981,-0.216698,-0.171516
2.17505,-0.0121479,0.063301
2.08053,-0.215736,0.0365104
2.17949,-0.0121727,-0.139683
2.04459,-0.313596,-0.120464
2.12524,-0.115843,0.123952
2.12653,-0.115913,-0.0992044
2.08594,-0.216297,-0.109906
2.17816,-0.0121653,-0.0887419
2.13625,-0.116443,-0.0497831
2.17158,-0.0197092,-0.0379066
2.07522,-0.22251,-0.060741
2.12044,-0.123006,0
2.13863,-0.124062,-0.333281
2.17987,-0.0197844,0.01267
2.08402,-0.223453,-0.0121818
2.13206,-0.123681,-0.230044
2.03808,-0.319884,-0.19258
2.12722,-0.1234,-0.149
2.08507,-0.223566,-0.171191
2.163,-0.0196312,0.0629519
2.08374,-0.223423,0.0365802
2.17944,-0.0197805,-0.139683
2.03559,-0.319493,-0.119999
2.11685,-0.122798,0.123487
2.12612,-0.123336,-0.0992044
2.07723,-0.222725,-0.109487
2.16611,-0.0196596,-0.0882534
2.13184,-0.123668,-0.0496901
2.17549,-0.0277192,-0.0379764
2.07439,-0.230114,-0.060741
2.11598,-0.130531,0
2.13422,-0.131656,-0.332666
2.17179,-0.027672,0.0126235
2.07921,-0.230649,-0.0121585
2.13159,-0.131494,-0.230044
2.03296,-0.32672,-0.192208
2.12675,-0.131196,-0.149
2.07631,-0.230328,-0.17054
2.15891,-0.027508,0.0628356
2.07495,-0.230177,0.0364406
2.17137,-0.0276667,-0.139172
2.12037,-0.130802,0.12372
2.12166,-0.130881,-0.0990182
2.0764,-0.230337,-0.109487
2.16203,-0.0275477,-0.0880906
2.12339,-0.130988,-0.049504
2.16738,-0.0351831,-0.0378368
2.07358,-0.237354,-0.060741
2.11152,-0.137656,0
2.13375,-0.139105,-0.332666
2.0815,-0.238261,-0.266678
2.16368,-0.035123,0.012577
2.07442,-0.237451,-0.0121353
2.12715,-0.138675,-0.229616
2.03181,-0.333814,-0.192208
2.12628,-0.138619,-0.149
2.07946,-0.238027,-0.170865
2.1628,-0.0351087,0.0629519
2.06619,-0.236509,0.036301
2.16727,-0.0351812,-0.138916
2.02931,-0.333403,-0.119766
2.11193,-0.137683,0.123255
2.12518,-0.138547,-0.0992044
2.07558,-0.237583,-0.109487
2.16192,-0.0350945,-0.0880906
2.11893,-0.138139,-0.0494109
2.15526,-0.0421357,-0.0376274
2.06484,-0.243293,-0.0605083
2.11105,-0.144657,0
2.16355,-0.0422978,0.012577
2.06568,-0.243392,-0.0120888
2.12271,-0.145457,-0.229188
2.02284,-0.339232,-0.191465
2.12183,-0.145396,-0.148721
2.07074,-0.243989,-0.170214
2.15468,-0.0421243,0.0627192
2.16315,-0.0422899,-0.13866
2.02032,-0.33881,-0.119301
2.10349,-0.14414,0.12279
2.11275,-0.144774,-0.098646
2.07081,-0.243998,-0.109277
2.16179,-0.0422634,-0.0880906
2.11447,-0.144892,-0.0493179
2.1631,-0.049843,-0.037767
2.06001,-0.250018,-0.060392
2.10255,-0.151451,0
2.15939,-0.0497576,0.0125537
2.06481,-0.250601,-0.0120888
2.11426,-0.152294,-0.228331
2.02164,-0.346291,-0.191465
2.11733,-0.152515,-0.148442
2.07383,-0.251696,-0.17054
2.15851,-0.0497374,0.0628356
2.159,-0.0497485,-0.138404
2.02699,-0.347209,-0.119766
2.10298,-0.151481,0.12279
2.11223,-0.152148,-0.098646
2.06598,-0.250743,-0.109068
2.16163,-0.0498093,-0.0880906
2.11395,-0.152271,-0.0493179
2.15091,-0.0574505,-0.0375576
2.05511,-0.25707,-0.0602756
2.09799,-0.158854,0
2.12429,-0.160845,-0.331436
2.16319,-0.0577786,0.012577
2.05991,-0.257671,-0.0120655
2.11369,-0.160042,-0.228331
2.01643,-0.353012,-0.191093
2.11676,-0.160274,-0.148442
2.06894,-0.2588,-0.170214
2.15032,-0.0574349,0.0626028
2.1588,-0.0576613,-0.138404
2.01784,-0.353258,-0.119301
2.10369,-0.159285,-0.0982737
2.06505,-0.258314,-0.109068
2.15345,-0.0575183,-0.0877649
2.10939,-0.159717,-0.0492248
2.14672,-0.0640881,-0.0374878
2.05032,-0.263016,-0.0601592
2.09749,-0.165444,0
2.11984,-0.167207,-0.330821
2.155,-0.0643355,0.0125305
2.10921,-0.166369,-0.227903
2.01531,-0.359345,-0.191093
2.11227,-0.16661,-0.148163
2.06021,-0.264284,-0.169564
2.14214,-0.0639514,0.0623701
2.15462,-0.064324,-0.138148
2.01672,-0.359596,-0.119301
2.0992,-0.165579,-0.0980876
2.05631,-0.263784,-0.108649
2.14526,-0.0640447,-0.0874392
2.11286,-0.166657,-0.0493179
2.14647,-0.0719557,-0.0374878
2.05727,-0.271576,-0.060392
2.09686,-0.173131,0
2.06527,-0.272632,-0.265163
2.14676,-0.0719655,0.012484
2.05414,-0.271163,-0.0120423
2.10462,-0.173771,-0.227474
2.01398,-0.366729,-0.191093
2.10766,-0.174022,-0.147884
2.06318,-0.272355,-0.169889
2.14189,-0.0718023,0.0623701
2.15038,-0.0720868,-0.137892
2.01146,-0.36627,-0.119069
2.10654,-0.173929,-0.0984599
2.05532,-0.271319,-0.108649
2.14102,-0.0717731,-0.0872764
2.10825,-0.174071,-0.0492248
2.14221,-0.0792999,-0.037418
2.04443,-0.277144,-0.0600429
2.09625,-0.180449,0
2.11071,-0.181694,-0.329592
2.14649,-0.0794586,0.012484
2.04129,-0.276719,-0.0119725
2.09608,-0.180434,-0.226617
2.00486,-0.372303,-0.190349
2.10365,-0.181086,0.0491318
2.10307,-0.181036,-0.147605
2.05826,-0.27902,-0.169564
2.13763,-0.0791305,0.0622537
2.14214,-0.0792973,-0.137381
2.00232,-0.371831,-0.118604
2.09796,-0.180596,-0.0980876
2.05832,-0.279028,-0.108859
2.14076,-0.0792462,-0.0872764
2.09568,-0.1804,-0.0489456
2.13794,-0.0862421,-0.0373482
2.03954,-0.283372,-0.0599265
2.08767,-0.186687,0
2.1101,-0.188692,-0.329592
2.05944,-0.286137,-0.264658
2.14222,-0.086415,0.0124607
2.09547,-0.187384,-0.226617
2.00753,-0.379689,-0.190721
2.09905,-0.187705,0.0490387
2.09848,-0.187654,-0.147326
2.05338,-0.285295,-0.169238
2.13736,-0.0862187,0.0622537
2.14585,-0.0865613,-0.137637
1.99323,-0.376984,-0.118138
2.09337,-0.187196,-0.0979015
2.05343,-0.285302,-0.108649
2.14847,-0.086667,-0.0876021
2.09109,-0.186992,-0.0488526
2.1416,-0.0942533,-0.037418
2.03848,-0.290845,-0.0599265
2.08697,-0.194337,0
2.10545,-0.196058,-0.328977
2.13789,-0.0940902,0.0124375
2.09477,-0.195063,-0.226617
1.9983,-0.385536,-0.189978
2.09381,-0.194974,-0.147047
2.05232,-0.292819,-0.169238
2.13303,-0.0938762,0.0621374
2.14552,-0.0944257,-0.137637
2.00751,-0.387313,-0.119069
2.08869,-0.194497,-0.0977154
2.04051,-0.291134,-0.108021
2.14015,-0.0941895,-0.0872764
2.09437,-0.195026,-0.0489456
2.14126,-0.101728,-0.037418
2.03746,-0.297959,-0.0599265
2.08628,-0.201621,0
2.10082,-0.203026,-0.328362
2.13755,-0.101552,0.0124375
2.09012,-0.201992,-0.226189
2.00085,-0.393277,-0.190349
2.09311,-0.202281,-0.147047
2.03945,-0.298251,-0.168262
2.1247,-0.100942,0.0619047
2.1372,-0.101535,-0.137125
2.08402,-0.201403,-0.0975292
2.03948,-0.298255,-0.108021
2.13183,-0.10128,-0.0869508
2.0897,-0.201951,-0.0488526
2.12893,-0.108219,-0.0372085
2.02855,-0.303531,-0.0596938
2.07764,-0.207742,0
2.0962,-0.209599,-0.327747
2.04848,-0.306513,-0.263648
2.13321,-0.108437,0.0124142
2.09339,-0.209317,-0.226617
1.99173,-0.398347,-0.189606
2.08846,-0.208824,-0.146768
2.03845,-0.305012,-0.168262
2.12436,-0.107987,0.0619047
2.13286,-0.108419,-0.136869
2.08334,-0.208312,-0.0975292
2.03848,-0.305016,-0.108021
2.13148,-0.108349,-0.0869508
2.07708,-0.207686,-0.0485734
2.12454,-0.115433,-0.0371387
2.02748,-0.31061,-0.0596938
2.08088,-0.215405,0
2.09153,-0.216507,-0.327132
2.04348,-0.313061,-0.263143
2.12483,-0.115449,0.0123678
2.08078,-0.215395,-0.225332
2.08827,-0.21617,0.0488526
2.08772,-0.216113,-0.146768
2.03737,-0.312126,-0.168262
2.11598,-0.114968,0.0616719
2.12849,-0.115647,-0.136613
2.07863,-0.215172,-0.0973431
2.04135,-0.312735,-0.108231
2.1271,-0.115572,-0.0867879
2.07236,-0.214523,-0.0484804
2.1281,-0.123451,-0.0372085
2.02238,-0.317419,-0.0595774
2.07212,-0.222178,0
2.08286,-0.223329,-0.325902
2.04232,-0.320549,-0.263143
2.12839,-0.123467,0.012391
2.08393,-0.223444,-0.225761
2.07951,-0.22297,0.0486665
2.07898,-0.222913,-0.14621
2.03622,-0.319591,-0.168262
2.11954,-0.122954,0.0617883
2.12406,-0.123217,-0.136357
2.06988,-0.221937,-0.0969709
2.02835,-0.318357,-0.107603
2.12666,-0.123367,-0.0867879
2.07156,-0.222118,-0.0484804
2.12368,-0.130262,-0.0371387
2.01736,-0.32349,-0.0594611
2.0674,-0.228608,0
2.08997,-0.231104,-0.327132
2.03733,-0.326691,-0.262638
2.11599,-0.12979,0.0123213
2.07527,-0.229479,-0.224904
2.08219,-0.230244,-0.146489
2.03514,-0.326342,-0.168262
2.11513,-0.129737,0.0616719
2.12763,-0.130504,-0.136613
2.07707,-0.229678,-0.0973431
2.02728,-0.325081,-0.107603
2.12225,-0.130174,-0.0866251
2.06684,-0.228546,-0.0483873
2.12721,-0.137933,-0.0372085
2.06659,-0.235823,0
2.07344,-0.236605,-0.324672
2.03617,-0.333801,-0.262638
2.11153,-0.136917,0.012298
2.07446,-0.236722,-0.224904
2.07345,-0.236606,-0.145931
2.02219,-0.331509,-0.167285
2.10668,-0.136602,0.0614392
2.12318,-0.137672,-0.136357
2.07229,-0.236474,-0.097157
2.01825,-0.330863,-0.107184
2.1138,-0.137064,-0.0862994
2.07,-0.236213,-0.0484804
2.11474,-0.14454,-0.0369991
2.06575,-0.243036,0
2.08045,-0.244765,-0.325902
2.02325,-0.33894,-0.261123
2.11104,-0.144286,0.012298
2.06572,-0.243032,-0.224047
2.07261,-0.243842,-0.145931
2.02495,-0.339224,-0.167611
2.11472,-0.144538,-0.135846
2.07145,-0.243706,-0.097157
2.01709,-0.337906,-0.107184
2.11331,-0.144442,-0.0862994
2.05725,-0.242035,-0.0482012
2.11425,-0.151551,-0.0369991
2.06494,-0.249885,0
2.07963,-0.251663,-0.325902
2.11055,-0.151286,0.012298
2.0649,-0.249881,-0.224047
2.07179,-0.250714,-0.145931
2.01203,-0.343922,-0.166634
2.11423,-0.15155,-0.135846
2.0627,-0.249614,-0.0967847
2.01595,-0.344593,-0.107184
2.11681,-0.151735,-0.0864623
2.10972,-0.158631,-0.0369293
2.06008,-0.256597,0
2.07482,-0.258432,-0.325287
2.09804,-0.157753,0.0122283
2.06007,-0.256596,-0.223619
2.06298,-0.256958,-0.145372
2.01867,-0.352314,-0.167285
2.10118,-0.157988,0.0613228
2.1097,-0.158629,-0.13559
2.05388,-0.255825,-0.0964125
2.10829,-0.158523,-0.0861366
2.10913,-0.166362,-0.0369293
2.04722,-0.262619,0
2.06601,-0.265029,-0.324057
2.10144,-0.165756,0.0122515
2.06701,-0.265156,-0.224475
2.06598,-0.265025,-0.145652
2.00559,-0.357611,-0.166309
2.09261,-0.16506,0.0610901
2.10911,-0.166361,-0.13559
2.0569,-0.263859,-0.0965986
2.00557,-0.357608,-0.106765
2.10372,-0.165935,-0.0859738
2.04667,-0.262548,-0.0480151
2.10059,-0.1727,-0.0367897
2.05427,-0.27045,0
2.0612,-0.271363,-0.323443
2.0929,-0.172068,0.012205
2.06217,-0.27149,-0.224047
2.06114,-0.271354,-0.145372
2.00832,-0.364973,-0.166634
2.08807,-0.17167,0.0609738
2.10855,-0.173354,-0.13559
2.05601,-0.270679,-0.0965986
2.09917,-0.172583,-0.085811
2.04975,-0.269855,-0.0481082
2.09201,-0.179348,-0.0366501
2.06416,-0.279086,-0.324057
2.0883,-0.179031,0.0121818
2.04939,-0.277088,-0.222762
2.05227,-0.277478,-0.144814
2.00311,-0.371254,-0.166309
2.08746,-0.178958,0.0609738
2.096,-0.17969,-0.134823
2.05505,-0.277854,-0.0965986
2.09457,-0.179568,-0.0856481
2.09535,-0.187005,-0.0367199
2.05143,-0.284659,-0.322213
2.08767,-0.186319,0.0121818
2.04841,-0.28424,-0.222762
2.05524,-0.285188,-0.145093
1.99397,-0.376764,-0.165658
2.08682,-0.186244,0.0609738
2.0874,-0.186296,-0.134311
2.04615,-0.283927,-0.0962264
2.09393,-0.186879,-0.0856481
2.0399,-0.283059,-0.0479221
2.0907,-0.193949,-0.0366501
2.08302,-0.193236,0.0121585
2.04741,-0.291389,-0.222762
2.04633,-0.291236,-0.144535
1.99264,-0.383722,-0.165658
2.08616,-0.193527,0.0609738
2.09469,-0.194319,-0.134823
2.04515,-0.291068,-0.0962264
2.08929,-0.193817,-0.0854853
2.0389,-0.290178,-0.0479221
2.09001,-0.201245,-0.0366501
2.08233,-0.200506,0.0121585
2.04244,-0.29796,-0.222334
2.04135,-0.297801,-0.144256
1.98738,-0.389908,-0.165333
2.07751,-0.200041,0.060741
2.09003,-0.201247,-0.134567
2.04017,-0.297628,-0.0960402
2.08462,-0.200726,-0.0853225
2.03391,-0.296716,-0.047829
2.08532,-0.208142,-0.0365802
2.04532,-0.305675,-0.222762
2.0403,-0.304925,-0.144256
1.986,-0.396842,-0.165333
2.0768,-0.207292,0.060741
2.08137,-0.207748,-0.134055
2.03912,-0.304748,-0.0960402
2.07595,-0.207208,-0.0849968
2.03287,-0.303814,-0.047829
2.08458,-0.21542,-0.0365802
2.07293,-0.214216,0.012112
2.04031,-0.312211,-0.222334
2.03923,-0.312045,-0.144256
1.98461,-0.403772,-0.165333
2.0846,-0.215422,-0.134311
2.03409,-0.31126,-0.0958541
2.07919,-0.214864,-0.0851596
2.07188,-0.221421,-0.0363708
2.06819,-0.221026,0.0120888
2.03921,-0.319332,-0.222334
2.03812,-0.319162,-0.144256
1.97928,-0.409889,-0.165007
2.0759,-0.221849,-0.133799
2.02905,-0.31774,-0.095668
2.07843,-0.22212,-0.0851596
2.07507,-0.22909,-0.0364406
2.0674,-0.228244,0.0120888
2.03415,-0.325819,-0.221905
2.03306,-0.325643,-0.143977
2.07511,-0.229094,-0.133799
2.02003,-0.323557,-0.0952957
2.07764,-0.229374,-0.0851596
2.07426,-0.236332,-0.0364406
2.06262,-0.235006,0.0120655
2.02908,-0.332275,-0.221477
2.02797,-0.332093,-0.143698
2.07033,-0.235884,-0.133543
2.03072,-0.332543,-0.0958541
2.06492,-0.235268,-0.0846712
2.06151,-0.242172,-0.0362312
2.05781,-0.241738,0.0120423
2.02791,-0.339355,-0.221477
2.01893,-0.337853,-0.14314
2.06553,-0.242644,-0.133288
2.02167,-0.338311,-0.0954819
2.06408,-0.242474,-0.0846712
2.06462,-0.249847,-0.036301
2.02279,-0.345762,-0.221048
2.0138,-0.344226,-0.142861
2.05674,-0.248893,-0.132776
2.02047,-0.345366,-0.0954819
2.06322,-0.249677,-0.0846712
2.05584,-0.255704,-0.0361614
2.01772,-0.351785,-0.22062
2.02051,-0.352273,-0.143419
2.05591,-0.255713,-0.132776
2.01538,-0.351378,-0.0952957
2.05445,-0.255531,-0.0843455
2.05891,-0.263387,-0.0362312
2.01647,-0.358826,-0.22062
2.01141,-0.357925,-0.142861
2.05896,-0.263394,-0.133032
2.00627,-0.35701,-0.0949235
2.05751,-0.263208,-0.0845083
2.05406,-0.269692,-0.0361614
2.01136,-0.364801,-0.220192
2.00629,-0.363881,-0.142582
2.05016,-0.269181,-0.13252
2.05267,-0.26951,-0.0843455
2.04517,-0.275792,-0.0360218
2.00616,-0.371096,-0.219763
2.00108,-0.370156,-0.142303
2.04019,-0.282737,-0.035952
2.00756,-0.378969,-0.142861
2.04028,-0.282749,-0.132008
2.03881,-0.282545,-0.083857
2.03523,-0.289294,-0.0358821
1.99838,-0.384466,-0.142303
2.04323,-0.290431,-0.132264
2.03385,-0.289098,-0.0836942
1.99318,-0.390324,-0.142024
2.0383,-0.29663,-0.132008
2.04079,-0.296992,-0.0840198
1.98391,-0.396065,-0.141466
2.03325,-0.303509,-0.131753
2.03178,-0.30329,-0.0836942
2.02325,-0.31611,-0.131241
2.02178,-0.315879,-0.0833685
2.02208,-0.323523,-0.131241
2.02455,-0.323918,-0.0835313
2.01563,-0.328989,-0.0832057
2.01584,-0.336974,-0.130985
2.01071,-0.343336,-0.130729
