2.02656,0.695821,-0.200016
2.02059,0.693774,-0.124418
2.02143,0.686183,-0.199272
2.01922,0.685433,-0.124185
2.01626,0.676589,-0.198529
2.02539,0.679651,-0.124418
2.01861,0.669547,-0.198529
2.02396,0.671321,-0.124185
2.02094,0.662496,-0.198529
2.02629,0.664251,-0.124185
2.01945,0.65421,-0.198157
2.0172,0.653482,-0.123487
2.01034,0.643515,-0.197041
2.01566,0.645219,-0.123255
2.01246,0.636845,-0.197041
2.0216,0.639737,-0.123487
2.01076,0.628979,-0.19667
2.01295,0.621955,-0.19667
2.00378,0.611088,-0.195554
2.02982,0.729181,-0.176073
2.01673,0.615037,-0.12279
2.00209,0.602942,-0.195183
2.01122,0.605691,-0.122325
2.008,0.597085,-0.195554
2.02358,0.711029,-0.175096
2.01332,0.598667,-0.122325
2.05452,0.714255,-1.01428
1.99555,0.586186,-0.0242135
2.00615,0.5893,-0.195183
2.02216,0.703005,-0.174771
2.04672,0.703543,-1.00921
2.00142,0.58033,-0.02426
2.00437,0.581184,-0.194811
2.00968,0.582724,-0.121859
2.03233,0.698598,-0.112627
2.04585,0.694872,-1.00752
2.00353,0.572991,-0.02426
2.00648,0.573835,-0.194811
2.05514,0.690034,-1.0109
2.00552,0.565994,-0.02426
2.00848,0.566828,-0.194811
2.01819,0.67763,-0.173795
2.00611,0.56616,-0.121394
2.01456,0.67641,-0.111371
2.05742,0.683216,-1.0109
1.99883,0.556957,-0.193695
2.01286,0.668421,-0.173144
2.01679,0.669726,-0.111371
2.05979,0.676029,-1.0109
2.00162,0.55021,-0.0241669
1.99693,0.548921,-0.193324
1.99004,0.547029,0.0240272
2.0114,0.660147,-0.172818
2.01532,0.661436,-0.111162
1.99976,0.541824,-0.0241203
1.98818,0.538686,0.0239806
2.01001,0.651542,-0.172493
2.01773,0.654045,-0.111162
1.99759,0.534504,-0.0240738
2.00062,0.535314,-0.193324
2.01205,0.645222,-0.172493
2.00206,0.5357,-0.120697
2.01597,0.646482,-0.110952
1.99862,0.527313,-0.192952
1.9917,0.525488,0.0239806
2.00669,0.635788,-0.171842
2.01441,0.638235,-0.110743
1.99371,0.517836,-0.0239806
1.99678,0.518633,-0.19258
1.98597,0.515825,0.0238875
2.00911,0.628078,-0.171842
1.99434,0.517999,-0.119999
2.00922,0.628112,-0.110324
2.00927,0.621206,-0.0612065
1.99145,0.510577,-0.0239341
1.99454,0.511369,-0.192208
1.97983,0.507597,0.0237944
2.00727,0.620586,-0.171516
1.99595,0.511732,-0.119999
2.01118,0.621797,-0.110324
2.01143,0.614188,-0.0612065
2.02274,0.617642,-0.269204
1.99631,0.504403,-0.192208
1.98546,0.501663,0.0238409
2.00561,0.612411,-0.171191
2.01334,0.614772,-0.110324
2.00973,0.606008,-0.0610901
1.9872,0.494728,-0.0238409
2.01349,0.60714,-0.267689
1.9942,0.496469,-0.191837
1.98332,0.493762,0.0237944
2.00773,0.605405,-0.171191
1.98785,0.49489,-0.119301
2.00783,0.605434,-0.109906
2.01194,0.598638,-0.0610901
2.00809,0.597493,-0.266678
1.98123,0.485538,0.0237478
2.00612,0.596906,-0.170865
1.98577,0.486651,-0.119069
2.01386,0.59921,-0.110115
2.01008,0.590836,-0.0609738
2.01006,0.590831,-0.266678
1.99554,0.586564,-0.0120888
1.98987,0.480665,-0.191093
1.98283,0.478966,0.0237478
2.02006,0.702668,-0.149558
2.00809,0.590251,-0.170865
1.98738,0.480063,-0.119069
2.01201,0.591403,-0.109906
2.00455,0.581237,-0.060741
2.01221,0.583459,-0.266678
2.00536,0.581474,-0.0121353
1.97999,0.470606,-0.189978
1.98068,0.47077,0.0237012
2.00258,0.580666,-0.170214
1.98524,0.471852,-0.118836
1.99881,0.579574,-0.109068
2.00272,0.573137,-0.0606247
2.00661,0.574249,-0.265668
2.00354,0.57337,-0.012112
1.9855,0.464599,-0.190349
1.97453,0.462031,0.0236081
2.01748,0.685627,-0.149
2.00076,0.572575,-0.169889
2.00466,0.573693,-0.109277
1.98002,0.456034,-0.0236547
2.0086,0.567241,-0.265668
2.00168,0.565286,-0.0120888
1.98002,0.456034,0.0236547
2.01986,0.678581,-0.149
2.00275,0.565588,-0.169889
2.00665,0.566692,-0.109277
2.00273,0.558418,-0.0605083
2.00283,0.558446,-0.264658
2.00354,0.558645,-0.0120888
1.97763,0.44858,0.0236081
2.01452,0.669362,-0.148442
2.00461,0.558943,-0.169889
1.97441,0.447851,-0.117906
2.01346,0.66901,-0.0988321
2.00468,0.558961,-0.109068
2.00081,0.550362,-0.060392
2.00094,0.550398,-0.264153
2.00162,0.550586,-0.0120655
2.02148,0.663846,-0.229188
1.97463,0.440659,-0.188862
1.97528,0.440802,0.0235616
2.01306,0.66108,-0.148163
2.00271,0.550885,-0.169564
1.97597,0.440956,-0.117906
2.01199,0.66073,-0.098646
1.99891,0.549841,-0.108649
1.99895,0.54198,-0.0602756
2.00677,0.5441,-0.264658
1.99976,0.5422,-0.0120423
1.98012,0.434272,-0.189234
2.00086,0.542498,-0.169238
1.97757,0.433711,-0.117906
1.99706,0.541466,-0.10844
1.99292,0.533629,-0.0600429
2.0008,0.53574,-0.263648
2.0108,0.645212,-0.227474
2.00991,0.644925,-0.147605
1.99486,0.534147,-0.168587
1.97502,0.426654,-0.117673
2.00883,0.644579,-0.0982737
1.99489,0.534157,-0.108231
2.00666,0.643882,-0.0490387
1.99091,0.525648,-0.0599265
1.99499,0.526726,-0.262638
2.01215,0.637905,-0.147605
1.99671,0.52718,-0.168587
2.00726,0.636355,-0.0980876
1.99288,0.52617,-0.108021
1.9966,0.519703,-0.0600429
2.00066,0.520759,-0.263143
1.98967,0.517899,-0.0119493
1.97272,0.411764,-0.188119
2.01436,0.630878,-0.147605
1.99854,0.520208,-0.168587
1.97013,0.411223,-0.117208
2.00184,0.626956,-0.0977154
1.99471,0.51921,-0.108021
1.983,0.508409,-0.0595774
1.99486,0.511451,-0.262133
1.97032,0.403731,-0.187747
1.96699,0.40305,0.0233753
2.01285,0.622311,-0.147326
1.97162,0.403999,-0.117208
2.00795,0.620795,-0.0979015
2.00576,0.620119,-0.0488526
1.9808,0.500851,-0.0594611
1.99655,0.504834,-0.262133
2.00821,0.613587,-0.226189
1.97165,0.397196,-0.187747
1.9644,0.395736,0.0233287
2.01109,0.614468,-0.147047
1.99439,0.504288,-0.167936
1.96512,0.395882,-0.116743
1.97612,0.499668,0.0830429
2.00617,0.612966,-0.0977154
1.99054,0.503314,-0.107603
2.0078,0.613464,-0.0488526
1.9865,0.494553,-0.0595774
1.98681,0.49463,-0.409493
1.95799,0.386982,-0.0232356
1.99068,0.495595,-0.261123
1.98342,0.493787,-0.0118796
1.96527,0.388422,-0.187003
1.96191,0.387757,0.0232822
2.00951,0.60594,-0.146768
1.98075,0.493122,-0.166634
1.98704,0.494687,0.0357425
1.96656,0.388676,-0.116743
1.97793,0.492421,0.0830429
2.00458,0.604455,-0.0975292
1.98462,0.494084,-0.107184
2.00621,0.604946,-0.0487595
1.98045,0.485711,-0.0593447
1.96325,0.380907,-0.0232822
1.98855,0.487698,-0.260618
1.96662,0.38156,-0.187003
2.00778,0.597783,-0.146489
1.98246,0.486205,-0.166634
1.96791,0.38181,-0.116743
1.97576,0.484562,0.08288
2.01051,0.598594,-0.0977154
1.99021,0.488105,-0.107393
2.00064,0.595658,-0.0485734
1.98205,0.479142,-0.0593447
1.96058,0.373646,-0.0232356
1.9863,0.48017,-0.260113
1.98285,0.479336,-0.0118563
1.96787,0.375036,-0.187003
1.96058,0.373646,0.0232356
2.00976,0.591123,-0.146489
1.98794,0.480565,-0.16696
1.95739,0.373039,-0.116045
1.97347,0.477069,0.0827172
2.00865,0.590797,-0.0975292
1.98793,0.480565,-0.107184
1.99877,0.587892,-0.0484804
1.97593,0.470368,-0.059112
1.99179,0.474145,-0.409493
1.98024,0.471395,-0.259102
1.98062,0.471485,-0.0118331
1.95742,0.365968,-0.185888
1.95794,0.366065,0.023189
2.00797,0.582991,-0.14621
1.9896,0.473623,-0.16696
1.95868,0.366204,-0.116045
1.96735,0.468326,0.0823915
2.00302,0.581553,-0.097157
1.98183,0.471772,-0.106765
2.00081,0.580911,-0.0484804
1.97764,0.463123,-0.059112
1.98588,0.465053,-0.407924
2.00347,0.573729,0
1.98582,0.465039,-0.259607
1.99577,0.571525,-0.223619
1.95484,0.358075,-0.185516
1.99859,0.572332,-0.145372
1.97968,0.463601,-0.165984
2.02192,0.687531,-0.136869
1.96516,0.460201,0.0822287
2.0013,0.573108,-0.0969709
1.97576,0.462684,-0.106347
2.03196,0.690944,-0.0874392
2.00293,0.573574,-0.0484804
1.97916,0.456563,-0.059112
1.98741,0.458466,-0.407924
1.99766,0.564906,0
1.95651,0.35168,-0.0231425
1.98735,0.458452,-0.259607
1.99383,0.563821,-0.22319
2.00432,0.566787,-0.145652
1.96955,0.454345,-0.165007
1.96119,0.352522,-0.116045
1.96278,0.452784,0.0820659
1.99934,0.565381,-0.0967847
1.97729,0.45613,-0.106347
2.00097,0.565841,-0.0483873
1.98074,0.449651,-0.059112
1.989,0.451525,-0.407924
1.99962,0.557929,0
1.9987,0.55767,-0.322828
1.97346,0.447997,-0.257587
1.97375,0.448062,-0.0117633
1.99578,0.556858,-0.22319
1.96115,0.345451,-0.185888
2.00244,0.558715,-0.145372
1.9789,0.449232,-0.165658
1.97738,0.448887,0.0353935
2.0114,0.668715,-0.135846
1.95848,0.344981,-0.115813
1.96825,0.446814,0.0822287
2.00515,0.559472,-0.0969709
1.97887,0.449225,-0.106347
2.01765,0.670793,-0.0866251
1.99138,0.555628,-0.0481082
1.9745,0.440991,-0.0588792
1.98674,0.443725,-0.40714
2.00156,0.550946,0
1.99301,0.548593,-0.321598
1.98276,0.442836,-0.258597
1.99388,0.548833,-0.222762
1.95449,0.337249,-0.185145
1.99331,0.548674,0.0481082
1.99668,0.549604,-0.144814
1.97267,0.440584,-0.165007
2.00993,0.660444,-0.13559
1.95574,0.337463,-0.11558
1.96589,0.43907,0.0820659
1.99939,0.550349,-0.0965986
1.98042,0.442315,-0.106347
1.961,0.437977,0.164031
2.00859,0.660003,-0.0861366
1.98559,0.546552,-0.0479221
1.97204,0.433582,-0.0587629
1.9882,0.437134,-0.40714
1.99565,0.542207,0
1.991,0.540944,-0.320983
1.97646,0.434554,-0.257587
1.99185,0.541174,-0.222334
1.95168,0.330101,-0.184773
1.95214,0.33018,0.0230493
1.99079,0.540887,-0.144256
1.97802,0.434896,-0.165333
2.00832,0.652541,-0.135334
1.95291,0.33031,-0.115348
1.96344,0.43169,0.0819031
1.99735,0.542668,-0.0964125
1.97017,0.433171,-0.105719
2.01077,0.653338,-0.0861366
1.98354,0.538915,-0.047829
1.97354,0.426696,-0.0587629
1.98204,0.428534,-0.405571
1.98981,0.533168,0
1.97409,0.426814,-0.257082
1.98989,0.533189,-0.221905
1.94889,0.322637,-0.184401
1.98927,0.533024,0.0479221
1.99652,0.534967,-0.144535
1.97173,0.426304,-0.164682
2.01058,0.645527,-0.135334
1.95405,0.323491,-0.115348
1.96102,0.423989,0.0817402
1.99537,0.534659,-0.0962264
1.97558,0.427136,-0.105928
1.96004,0.423776,0.163705
2.00923,0.645094,-0.0859738
1.98541,0.531989,-0.047829
1.96336,0.416967,-0.0584138
1.97593,0.419636,-0.404002
1.99175,0.525871,0
1.97176,0.418751,-0.256577
1.98798,0.524877,-0.221477
1.95006,0.315491,-0.184401
1.96938,0.418245,-0.164356
2.00532,0.635741,-0.134823
1.96257,0.416798,0.0817402
1.99732,0.527341,-0.0962264
1.96932,0.418232,-0.105509
1.96158,0.416589,0.163705
1.99121,0.525728,-0.0479221
1.96481,0.410112,-0.0584138
1.97738,0.412737,-0.404002
1.98583,0.5169,0
1.98517,0.51673,-0.319138
1.96544,0.410245,-0.255567
1.9898,0.517935,-0.221477
1.99258,0.518657,-0.143977
1.97083,0.411369,-0.164356
2.00753,0.628738,-0.134823
1.94054,0.307004,-0.114418
1.96401,0.409945,0.0817402
1.99528,0.51936,-0.0960402
1.96294,0.409723,-0.105091
1.95522,0.408111,0.163054
2.00235,0.627116,-0.0854853
1.98142,0.515753,-0.0476429
1.96615,0.403594,-0.0584138
1.9749,0.405388,-0.403217
1.99141,0.511306,0
1.98305,0.50916,-0.318523
1.9629,0.402926,-0.255062
1.96695,0.403758,-0.0116703
1.98381,0.509355,-0.22062
1.94429,0.300991,-0.183657
1.99429,0.512046,-0.143977
1.96047,0.402426,-0.16338
2.00579,0.620896,-0.134567
1.94549,0.301178,-0.11465
1.96144,0.402626,0.0815774
1.99312,0.511746,-0.0958541
1.9682,0.404014,-0.1053
1.95656,0.401624,0.163054
2.00442,0.620472,-0.0854853
1.98312,0.509179,-0.0476429
2.00411,0.612718,-0.0365802
1.95579,0.394357,-0.0580647
1.9763,0.398492,-0.403217
1.9893,0.503371,0
1.98481,0.502236,-0.318523
1.96819,0.396857,-0.255567
1.96443,0.396099,-0.0116471
1.98557,0.502427,-0.22062
1.94533,0.294203,-0.183657
2.00413,0.612724,-0.134311
1.94258,0.293788,-0.114418
1.955,0.394197,0.0812517
1.99102,0.503806,-0.095668
1.95786,0.394773,-0.104672
1.96186,0.39558,0.16338
2.0104,0.614641,-0.0856481
1.97713,0.500292,-0.0474568
2.01007,0.606874,-0.0366501
1.95716,0.387528,-0.0580647
1.96614,0.389305,-0.400864
1.9794,0.493521,0
1.98272,0.494347,-0.317908
1.96567,0.389213,-0.255062
1.9658,0.389239,-0.0116471
1.98731,0.495493,-0.22062
1.99007,0.49618,-0.143419
1.96714,0.389504,-0.163705
2.00626,0.605724,-0.134311
1.96028,0.388147,0.0814146
1.95922,0.387936,-0.104672
1.95541,0.387181,0.162729
2.00105,0.604153,-0.0851596
1.97499,0.49242,-0.0473638
2.01217,0.599855,-0.0366501
1.95457,0.379931,-0.0579483
1.97133,0.383188,-0.401648
1.98111,0.486609,0
1.97676,0.485538,-0.316679
1.96702,0.382349,-0.255062
1.99289,0.489502,-0.221048
1.93945,0.279479,-0.182914
1.99179,0.48923,-0.143419
1.96457,0.381874,-0.16338
1.96296,0.38156,0.0349048
2.00071,0.596437,-0.133799
1.94063,0.27965,-0.114185
1.97388,0.484833,0.118371
1.95378,0.379777,0.0810889
1.98673,0.487988,-0.0952957
1.96056,0.381095,-0.104672
1.94109,0.37731,0.161427
1.99932,0.596023,-0.0849968
1.98446,0.487431,-0.0475499
1.99891,0.588311,-0.0363708
1.95982,0.373856,-0.0580647
1.9688,0.37557,-0.400864
1.97891,0.47875,0
1.95665,0.373251,-0.253547
1.96061,0.374007,-0.0116006
1.98299,0.479737,-0.219763
1.94436,0.273262,-0.183286
1.98573,0.480399,-0.142861
1.95806,0.373521,-0.162729
1.96035,0.373957,0.034835
1.99895,0.588323,-0.133543
1.93764,0.272319,-0.113952
1.95902,0.373704,0.0812517
1.98842,0.48105,-0.0952957
1.95796,0.373501,-0.104463
1.94631,0.37128,0.161753
1.99755,0.587913,-0.084834
1.97449,0.47768,-0.0472707
2.00479,0.582445,-0.0364406
1.94932,0.364805,-0.0577156
1.9701,0.368695,-0.400864
1.98057,0.471839,0
1.97625,0.47081,-0.316064
1.95794,0.366418,-0.253547
1.97692,0.470968,-0.218906
1.92951,0.264311,-0.181799
1.98739,0.473464,-0.142861
1.95935,0.366683,-0.162729
1.99332,0.579114,-0.133032
1.93858,0.265553,-0.113952
1.97722,0.471041,0.118371
1.95246,0.365392,0.0809261
1.95925,0.366664,-0.104463
1.95152,0.365216,0.162078
1.99959,0.580936,-0.084834
1.97226,0.469858,-0.0471777
2.00681,0.575444,-0.0364406
1.94271,0.356555,-0.0574829
1.95595,0.358984,-0.397726
1.97052,0.462183,0
1.97788,0.463909,-0.316064
1.9592,0.359582,-0.253547
1.9917,0.571112,0.0120423
1.97855,0.464065,-0.218906
1.93043,0.257574,-0.181799
1.98126,0.464702,-0.142303
1.96454,0.360562,-0.163054
1.99917,0.573253,-0.133288
1.93158,0.257728,-0.113487
1.97497,0.463225,0.118138
1.95372,0.358575,0.0809261
1.98006,0.464419,-0.0947374
1.95266,0.358381,-0.104044
1.94886,0.357683,0.161753
1.99777,0.572851,-0.0846712
1.99726,0.565168,-0.0362312
1.95182,0.351187,-0.0577156
1.95719,0.352154,-0.397726
1.97602,0.456201,0
1.97564,0.456113,-0.315449
1.96435,0.353443,-0.254052
2.00138,0.566333,0.0120888
1.98016,0.457156,-0.218906
1.93131,0.250834,-0.181799
1.97938,0.456977,0.0472707
1.97898,0.456885,-0.142024
1.95402,0.351583,-0.162078
1.99348,0.564097,-0.132776
1.93643,0.251498,-0.11372
1.97657,0.456327,0.118138
1.95496,0.351753,0.0809261
1.94604,0.350147,-0.103625
1.95009,0.350877,0.161753
1.99591,0.564785,-0.0845083
1.96769,0.454278,-0.0469915
1.99922,0.558192,-0.0362312
1.94909,0.343677,-0.0575993
1.95841,0.345319,-0.397726
1.9776,0.4493,0
1.97722,0.449213,-0.315449
1.95776,0.345205,-0.253042
1.99179,0.556116,0.012019
1.97786,0.449359,-0.218478
1.93613,0.244589,-0.18217
1.93251,0.244132,0.0226768
1.98057,0.449973,-0.142024
1.95131,0.344068,-0.161753
1.99159,0.556061,-0.13252
1.93729,0.244737,-0.11372
1.95224,0.344232,0.0807633
1.95118,0.344045,-0.103835
1.94345,0.342683,0.161102
1.99017,0.555665,-0.0841827
1.96927,0.447406,-0.0469915
1.99711,0.550846,-0.0361614
1.95016,0.337553,-0.0575993
1.95562,0.338496,-0.396941
1.9751,0.442211,0
1.97477,0.442136,-0.314834
1.95492,0.338377,-0.252536
1.98196,0.546666,0.0119493
1.9715,0.441406,-0.217621
1.93293,0.238019,-0.181799
1.97029,0.441134,-0.141187
1.94845,0.337256,-0.161427
1.98563,0.547679,-0.132008
1.93013,0.237674,-0.113255
1.96397,0.439718,0.117208
1.94832,0.337233,-0.103625
1.93666,0.335216,0.160451
1.99191,0.54941,-0.0841827
1.96676,0.440344,-0.0468985
1.99516,0.542821,-0.0360916
1.94739,0.330076,-0.0574829
1.96065,0.332324,-0.397726
1.97273,0.434454,0
1.96858,0.433541,-0.313604
1.95218,0.330888,-0.252031
1.98771,0.540795,0.0119725
1.97303,0.434522,-0.217621
1.92584,0.230325,-0.181055
1.97961,0.435971,-0.141745
1.95355,0.331119,-0.161753
1.98368,0.539697,-0.131753
1.92698,0.230461,-0.113022
1.96159,0.432002,0.116976
1.95054,0.33061,0.0806004
1.97449,0.434843,-0.094179
1.94948,0.33043,-0.103625
1.93782,0.328454,0.160451
1.9861,0.540356,-0.083857
1.96829,0.433477,-0.0468985
1.98546,0.532745,-0.0358821
1.94064,0.321968,-0.0572502
1.94632,0.32291,-0.394588
1.9625,0.425026,0
1.97008,0.426667,-0.313604
1.94941,0.323422,-0.251526
1.98572,0.532817,0.0119493
1.96676,0.425949,-0.216764
1.92268,0.223142,-0.180683
1.92693,0.223636,0.0225837
1.96942,0.426524,-0.140908
1.95076,0.323646,-0.161427
1.98878,0.533637,0.0599265
1.98169,0.531735,-0.131497
1.92777,0.223734,-0.113022
1.96699,0.425997,0.117208
1.94774,0.323145,0.0804376
1.976,0.427949,-0.094179
1.94274,0.322316,-0.103207
1.94289,0.322341,0.160776
1.99183,0.534456,-0.0840198
1.96197,0.424911,-0.0467124
1.99504,0.527856,-0.0360218
1.94175,0.315191,-0.0572502
1.94744,0.316114,-0.394588
1.96789,0.419005,0
1.96769,0.418964,-0.312989
1.95444,0.317251,-0.252031
1.98757,0.525882,0.0119493
1.96435,0.418252,-0.216336
1.92345,0.216429,-0.180683
1.92373,0.216461,0.0225371
1.9748,0.420478,-0.141187
1.944,0.315557,-0.160776
1.9829,0.524645,0.0596938
1.98354,0.524814,-0.131497
1.92457,0.216556,-0.11279
1.96456,0.418297,0.116976
1.94491,0.315703,0.0802748
1.93991,0.314892,-0.102997
1.94007,0.314918,0.160451
1.98596,0.525455,-0.0836942
1.95953,0.417226,-0.0466193
1.993,0.51988,-0.035952
1.94284,0.308412,-0.0572502
1.94466,0.3087,-0.393804
1.96542,0.411315,0
1.97688,0.413712,-0.314219
1.94378,0.308561,-0.250516
1.98165,0.516922,0.0119028
1.96969,0.412208,-0.216764
1.92023,0.209283,-0.180312
1.96845,0.411948,-0.140629
1.94509,0.308769,-0.160776
1.97698,0.515702,0.0594611
1.97763,0.515872,-0.130985
1.92929,0.21027,-0.113022
1.95428,0.408983,0.116278
1.941,0.308119,-0.102997
1.93328,0.306894,0.1598
1.98005,0.516502,-0.0833685
1.96489,0.411204,-0.0467124
1.98318,0.509932,-0.0357425
1.93205,0.299788,-0.0569011
1.94185,0.301308,-0.393019
1.96293,0.403645,0
1.9667,0.40442,-0.312374
1.94485,0.301774,-0.250516
1.97957,0.509005,0.0118796
1.9447,0.30175,-0.0114378
1.95943,0.402926,-0.215479
1.92095,0.202578,-0.180312
1.92122,0.202606,0.0224906
1.96596,0.40427,-0.14035
1.93828,0.300755,-0.160125
1.98264,0.509794,0.0595774
1.98329,0.509959,-0.131241
1.92604,0.203115,-0.11279
1.95961,0.402963,0.116511
1.94312,0.301505,0.0801119
1.94206,0.301342,-0.102997
1.93434,0.300143,0.1598
1.98184,0.509587,-0.0833685
1.9624,0.403536,-0.0466193
1.98107,0.502024,-0.0356727
1.93309,0.293043,-0.0569011
1.94676,0.295116,-0.393804
1.96433,0.396792,0
1.9681,0.397553,-0.312374
1.94197,0.294389,-0.250011
1.98134,0.502092,0.0118796
1.96082,0.396084,-0.215479
1.91372,0.195064,-0.179568
1.96736,0.397405,-0.14035
1.93538,0.29339,-0.1598
1.97666,0.500906,0.0593447
1.97731,0.501073,-0.130729
1.92276,0.195986,-0.112557
1.95709,0.39533,0.116278
1.94021,0.294122,0.0799491
1.96611,0.397153,-0.0934345
1.93915,0.293962,-0.102788
1.93538,0.29339,0.1598
1.97973,0.501684,-0.0832057
1.95595,0.395101,-0.0464332
1.97902,0.493791,-0.0356029
1.9381,0.28654,-0.0570174
1.94007,0.286831,-0.392235
1.96184,0.388811,0
1.96566,0.389568,-0.311759
1.94303,0.287268,-0.250011
1.97928,0.493858,0.0118563
1.95836,0.388121,-0.215051
1.91442,0.188048,-0.179568
1.95739,0.387928,0.0464332
1.91864,0.188462,0.022444
1.96098,0.38864,-0.139792
1.94038,0.286877,-0.160125
1.97848,0.493657,0.0593447
1.97527,0.492855,-0.130473
1.92347,0.188937,-0.112557
1.95461,0.387377,0.116045
1.96364,0.389167,-0.0932484
1.93232,0.285684,-0.102369
1.9325,0.285711,0.159474
1.97768,0.493457,-0.0830429
1.95347,0.387151,-0.0463402
1.98453,0.48818,-0.0356727
1.93904,0.280111,-0.0570174
1.93325,0.279274,-0.390666
1.95527,0.380774,0
1.96694,0.383047,-0.311759
1.94005,0.280256,-0.249506
1.97703,0.486335,0.0118331
1.95964,0.381624,-0.215051
1.91504,0.181698,-0.179568
1.96259,0.382199,0.0465263
1.91527,0.18172,0.0223974
1.95442,0.380609,-0.139234
1.94132,0.28044,-0.160125
1.97622,0.486138,0.0592283
1.98076,0.487255,-0.130729
1.95196,0.380129,0.115813
1.93826,0.279997,0.0797863
1.9293,0.278703,-0.10216
1.92554,0.27816,0.158823
1.97154,0.484986,-0.0827172
1.95474,0.38067,-0.0463402
1.98233,0.48031,-0.0356029
1.94001,0.273342,-0.0570174
1.9381,0.273072,-0.39145
1.96051,0.374698,0
1.9605,0.374696,-0.310529
1.94101,0.273483,-0.249506
1.97094,0.477549,0.0117866
1.96096,0.374783,-0.215051
1.91169,0.174651,-0.179196
1.95998,0.374597,0.0464332
1.91589,0.175035,0.0223974
1.95574,0.373786,-0.139234
1.9265,0.271438,-0.158823
1.97014,0.477355,0.0589956
1.97469,0.478459,-0.130218
1.95328,0.373315,0.115813
1.96232,0.375043,-0.0930622
1.93817,0.273083,-0.102578
1.9265,0.271438,0.158823
1.97322,0.478102,-0.0827172
1.95606,0.373846,-0.0463402
1.97613,0.471875,-0.0354633
1.93694,0.266362,-0.0569011
1.9351,0.266109,-0.390666
1.95782,0.367457,0
1.95785,0.367463,-0.309915
1.94191,0.267045,-0.249506
1.97251,0.47101,0.0117866
1.95828,0.367544,-0.214623
1.91226,0.16831,-0.179196
1.91248,0.168329,0.0223509
1.96089,0.368034,-0.139513
1.93134,0.265591,-0.159149
1.96782,0.46989,0.0588792
1.97239,0.470981,-0.129962
1.9545,0.366835,0.115813
1.96355,0.368533,-0.0930622
1.93511,0.266109,-0.102369
1.92739,0.265048,0.158823
1.96702,0.469699,-0.0823915
1.95729,0.367357,-0.0463402
1.97387,0.464058,-0.0353935
1.92994,0.258537,-0.0566684
1.93213,0.258831,-0.389881
1.94728,0.358447,0
1.95912,0.360626,-0.309915
1.9389,0.259737,-0.249001
1.97025,0.463206,0.0117633
1.95173,0.359266,-0.213766
1.90887,0.161299,-0.178824
1.96556,0.462103,0.0587629
1.97013,0.463179,-0.129706
1.9179,0.162062,-0.112092
1.94399,0.357841,0.115115
1.93311,0.258962,0.0794606
1.96089,0.360952,-0.0928761
1.93207,0.258822,-0.10216
1.94448,0.357932,0.242764
1.92435,0.257789,0.158498
1.96476,0.461915,-0.0822287
1.94676,0.35835,-0.046061
1.96769,0.455362,-0.0352539
1.92686,0.251282,-0.056552
1.95246,0.352359,0
1.95648,0.353084,-0.3093
1.93979,0.252968,-0.249001
1.96796,0.455424,0.0117401
1.90148,0.153992,-0.178081
1.95193,0.352263,0.0461541
1.90962,0.154651,0.0223043
1.95948,0.353626,-0.139234
1.93315,0.252101,-0.159149
1.97105,0.45614,0.0588792
1.96785,0.455399,-0.12945
1.9105,0.154722,-0.111627
1.94523,0.351053,0.115115
1.95428,0.352687,-0.0925039
1.93296,0.252077,-0.10216
1.94572,0.351142,0.242764
1.92129,0.250555,0.158173
1.97025,0.455955,-0.0823915
1.94406,0.350843,-0.045968
1.96927,0.448492,-0.0352539
1.92773,0.244555,-0.056552
1.93,0.244843,-0.389097
1.9458,0.344148,0
1.94992,0.344876,-0.30807
1.93673,0.245696,-0.248496
1.97343,0.449441,0.0117633
1.95027,0.344939,-0.213337
1.90598,0.147661,-0.178453
1.91015,0.147984,0.0223043
1.95285,0.345395,-0.138676
1.9261,0.244349,-0.158498
1.96484,0.447482,0.0586465
1.96943,0.448528,-0.12945
1.91501,0.148361,-0.111859
1.94644,0.344262,0.115115
1.93091,0.244958,0.0792978
1.95156,0.345167,-0.0923178
1.92986,0.244826,-0.10195
1.94302,0.343657,0.242276
1.92215,0.243847,0.158173
1.96793,0.448188,-0.0822287
1.94921,0.344752,-0.046061
1.97472,0.442489,-0.0353237
1.92857,0.237824,-0.056552
1.92695,0.237624,-0.388312
1.94305,0.336671,0
1.95111,0.338067,-0.30807
1.93363,0.238448,-0.247991
1.96718,0.440799,0.0117168
1.95147,0.338129,-0.213337
1.90648,0.141007,-0.178453
1.91065,0.141315,0.0223043
1.94618,0.337213,-0.138118
1.92695,0.237623,-0.158498
1.96248,0.439746,0.0585302
1.96709,0.440777,-0.129194
1.9437,0.336783,0.114883
1.92674,0.237598,-0.101741
1.9403,0.336195,0.241789
1.91507,0.23616,0.157522
1.96559,0.440442,-0.0820659
1.9504,0.337945,-0.046061
1.96844,0.433872,-0.0351841
1.92388,0.230431,-0.387528
1.94027,0.329217,0
1.95228,0.331255,-0.30807
1.92657,0.230754,-0.246981
1.96481,0.433069,0.0116936
1.94871,0.33065,-0.212909
1.90696,0.134352,-0.178453
1.95128,0.331085,-0.138397
1.92776,0.230896,-0.158498
1.96401,0.432893,0.0585302
1.91201,0.134707,-0.111627
1.94092,0.329328,0.11465
1.95392,0.331534,-0.0923178
1.92359,0.230397,-0.101532
1.94146,0.32942,0.241789
1.91985,0.229948,0.157847
1.97102,0.434438,-0.0822287
1.94763,0.330466,-0.045968
1.95822,0.424456,-0.0349746
1.93018,0.224354,-0.056552
1.92467,0.223713,-0.387528
1.9493,0.323753,0
1.94562,0.323142,-0.30684
1.92737,0.224027,-0.246981
1.9663,0.426208,0.0116936
1.94201,0.322542,-0.212052
1.89947,0.127162,-0.177709
1.94877,0.323665,0.045968
1.90361,0.127439,0.0222112
1.95242,0.324272,-0.138397
1.9246,0.223705,-0.158173
1.96551,0.426035,0.0585302
1.95841,0.424497,-0.128427
1.94206,0.322551,0.11465
1.92543,0.223801,0.0789721
1.94719,0.323402,-0.0919455
1.92835,0.224141,-0.101741
1.91272,0.222324,0.157196
1.96861,0.426708,-0.0820659
1.94877,0.323665,-0.045968
1.9636,0.418452,-0.0350444
1.91903,0.216272,-0.0562029
1.93857,0.315022,0
1.95064,0.316983,-0.307455
1.9242,0.216854,-0.246476
1.96387,0.418508,0.0116703
1.9392,0.315124,-0.211624
1.90388,0.120783,-0.178081
1.94594,0.31622,0.0458749
1.94173,0.315535,-0.13756
1.92537,0.216986,-0.158173
1.95916,0.417505,0.0582974
1.95598,0.416827,-0.128171
1.90892,0.121103,-0.111394
1.93923,0.31513,0.114418
1.92223,0.216632,0.0788093
1.9483,0.316604,-0.0919455
1.92119,0.216514,-0.101322
1.9398,0.315221,0.241301
1.91744,0.216093,0.157522
1.96618,0.419001,-0.0819031
1.94989,0.316861,-0.045968
1.95722,0.409954,-0.0349048
1.92773,0.210439,-0.0564356
1.91839,0.20942,-0.385959
1.93571,0.307625,0
1.94002,0.308311,-0.30561
1.92494,0.210135,-0.246476
1.96532,0.41165,0.0116703
1.94029,0.308352,-0.211624
1.89634,0.11366,-0.177337
1.94703,0.309425,0.0458749
1.90445,0.114146,0.0222112
1.94282,0.308754,-0.13756
1.91819,0.209398,-0.157522
1.95669,0.409843,0.0581811
1.96133,0.410814,-0.128427
1.90535,0.114199,-0.111162
1.94032,0.308358,0.114418
1.91503,0.209053,0.0784836
1.94545,0.309173,-0.0917594
1.92193,0.209806,-0.101322
1.93304,0.307201,0.240326
1.91422,0.208965,0.157196
1.96372,0.411316,-0.0817402
1.94703,0.309425,-0.0458749
1.96648,0.404732,-0.0350444
1.92447,0.203288,-0.0563193
1.91911,0.202721,-0.385959
1.94072,0.30148,0
1.94499,0.302143,-0.306225
1.92961,0.203831,-0.246981
1.96282,0.40398,0.0116471
1.94135,0.301577,-0.211624
1.89672,0.107039,-0.177337
1.94415,0.302012,0.0457819
1.89685,0.107046,0.0221181
1.93994,0.301358,-0.137281
1.91494,0.202281,-0.157196
1.95028,0.401398,0.0579483
1.95493,0.402355,-0.127915
1.90573,0.107547,-0.111162
1.93744,0.30097,0.114185
1.91972,0.202786,0.0786465
1.94257,0.301767,-0.0915733
1.92265,0.203096,-0.101322
1.93803,0.301061,0.240814
1.91098,0.201863,0.156871
1.9534,0.402041,-0.0812517
1.95612,0.395489,-0.034835
1.92119,0.196165,-0.0562029
1.9159,0.195624,-0.385174
1.9299,0.292904,0
1.94604,0.295353,-0.306225
1.91847,0.195886,-0.245465
1.95638,0.395542,0.0116006
1.93453,0.293607,-0.210767
1.89311,0.100208,-0.176966
1.89722,0.100426,0.0221181
1.93309,0.293388,-0.136723
1.91167,0.195192,-0.156871
1.95559,0.395382,0.0580647
1.93848,0.294206,0.114185
1.92041,0.196085,0.0786465
1.93966,0.294386,-0.0913871
1.91937,0.195979,-0.101113
1.93122,0.293104,0.239839
1.95479,0.395221,-0.0812517
1.94124,0.294625,-0.0456888
1.95755,0.388317,-0.034835
1.9219,0.189122,-0.0562029
1.92441,0.189369,-0.386743
1.93887,0.287001,0
1.93929,0.287062,-0.304995
1.92312,0.189242,-0.245971
1.95782,0.38837,0.0116006
1.93166,0.285932,-0.210339
1.89346,0.0932693,-0.176966
1.94205,0.28747,-0.137281
1.92031,0.188965,-0.157522
1.9531,0.387434,0.0579483
1.95384,0.387581,-0.127659
1.90247,0.0937128,-0.110929
1.93559,0.286515,0.113952
1.94073,0.287275,-0.0913871
1.92405,0.189334,-0.101322
1.95623,0.388054,-0.0812517
1.93835,0.286923,-0.0455958
1.9549,0.381058,-0.0347652
1.91456,0.181991,-0.0559702
1.91331,0.181873,-0.38439
1.92794,0.278851,0
1.94023,0.280629,-0.304995
1.91584,0.182113,-0.24496
1.9591,0.381875,0.0116006
1.93653,0.280094,-0.210767
1.89376,0.0869894,-0.176966
1.93533,0.279921,0.0455027
1.89787,0.0871781,0.0221181
1.93509,0.279886,-0.136723
1.91695,0.182219,-0.157196
1.95437,0.380955,0.0579483
1.93258,0.279523,0.11372
1.91378,0.181917,0.0783208
1.93376,0.279693,-0.0910149
1.91672,0.182196,-0.100904
1.95358,0.3808,-0.0810889
1.93929,0.280493,-0.0455958
1.94837,0.372728,-0.0346256
1.91518,0.175306,-0.0559702
1.91003,0.174835,-0.383605
1.9289,0.272119,0
1.89417,0.0803827,-0.0220715
1.93728,0.273302,-0.30438
1.91646,0.175423,-0.24496
1.95649,0.374282,0.0115773
1.92962,0.272221,-0.20991
1.89007,0.080209,-0.176594
1.89017,0.0802131,0.0220249
1.9321,0.272571,-0.136444
1.90964,0.174799,-0.156545
1.95177,0.373378,0.057832
1.93355,0.272775,0.11372
1.91042,0.174871,0.078158
1.93472,0.272941,-0.0910149
1.91336,0.17514,-0.100694
1.94705,0.372476,-0.0807633
1.9363,0.273163,-0.0455027
1.94966,0.365924,-0.0346256
1.91578,0.168619,-0.0559702
1.91063,0.168166,-0.383605
1.92984,0.265384,0
1.89044,0.0736141,-0.0220249
1.93039,0.26546,-0.303151
1.91706,0.168732,-0.24496
1.95778,0.36745,0.0115773
1.9345,0.266025,-0.210339
1.89034,0.0736104,-0.176594
1.89444,0.0737698,0.0220715
1.937,0.266368,-0.136723
1.90626,0.167782,-0.15622
1.95306,0.366563,0.057832
1.91102,0.1682,0.078158
1.93566,0.266185,-0.0910149
1.91396,0.16846,-0.100694
1.94834,0.365677,-0.0807633
1.94699,0.358394,-0.0345558
1.91237,0.161596,-0.0558538
1.9112,0.161497,-0.383605
1.93075,0.258647,0
1.89068,0.0670161,-0.0220249
1.92739,0.258197,-0.302536
1.90973,0.161372,-0.24395
1.95512,0.359891,0.0115541
1.92359,0.257688,-0.209053
1.89059,0.0670127,-0.176594
1.88669,0.0668745,0.0219784
1.93,0.258547,-0.136165
1.91081,0.161464,-0.156545
1.95039,0.359021,0.0577156
1.93144,0.25874,0.113487
1.9116,0.16153,0.078158
1.93658,0.259428,-0.0910149
1.91454,0.161779,-0.100694
1.94567,0.358151,-0.0806004
1.93023,0.258577,-0.0453166
1.94423,0.351224,-0.034486
1.90493,0.154606,-0.0556211
1.90782,0.15484,-0.382821
1.92763,0.251725,0
1.93215,0.252315,-0.303151
1.91421,0.155359,-0.244455
1.95237,0.352694,0.0115308
1.88682,0.0606146,-0.176222
1.8869,0.0606171,0.0219784
1.93085,0.252145,-0.136165
1.90736,0.154803,-0.15622
1.94764,0.351839,0.0575993
1.93347,0.252487,-0.0908288
1.91507,0.155429,-0.100694
1.94685,0.351697,-0.0806004
1.93108,0.252174,-0.0453166
1.94544,0.344435,-0.034486
1.90546,0.147955,-0.0556211
1.91226,0.148483,-0.383605
1.92453,0.24449,0
1.8911,0.0541442,-0.0220249
1.9291,0.24507,-0.302536
1.9187,0.148983,-0.24496
1.92135,0.244086,-0.208625
1.88304,0.0539135,-0.17585
1.8751,0.0536863,0.0218387
1.92776,0.2449,-0.135886
1.90789,0.148144,-0.15622
1.94885,0.345038,0.0575993
1.94176,0.343782,-0.12638
1.88803,0.0540563,-0.109999
1.90468,0.147895,0.0778323
1.92245,0.244225,-0.0902704
1.90763,0.148124,-0.100276
1.94806,0.344898,-0.0806004
1.92798,0.244928,-0.0452235
1.94663,0.337642,-0.034486
1.90995,0.141599,-0.0557375
1.90494,0.141228,-0.382037
1.91743,0.23679,0
1.88728,0.0474426,-0.0219784
1.92995,0.238336,-0.302536
1.91525,0.141992,-0.244455
1.88322,0.0473405,-0.17585
1.87928,0.0472415,0.0218852
1.92068,0.237192,-0.135328
1.90045,0.140894,-0.155569
1.94611,0.337551,0.0574829
1.94294,0.337002,-0.12638
1.90519,0.141246,0.0778323
1.92329,0.237513,-0.0902704
1.91212,0.14176,-0.100485
1.93744,0.336047,-0.0801119
1.93279,0.238687,-0.0453166
1.93992,0.329505,-0.0343463
1.90644,0.134649,-0.0556211
1.90934,0.134853,-0.382821
1.91825,0.230095,0
1.88743,0.040854,-0.0219784
1.92684,0.231126,-0.301921
1.91177,0.135025,-0.24395
1.91906,0.230193,-0.208197
1.88337,0.0407661,-0.17585
1.9215,0.230485,-0.135328
1.90093,0.134259,-0.155569
1.93939,0.329416,0.0572502
1.93624,0.32888,-0.125868
1.89235,0.0409604,-0.110232
1.90567,0.134594,0.0778323
1.92014,0.230322,-0.0900843
1.90862,0.134802,-0.100276
1.93466,0.328613,-0.0799491
1.92964,0.231462,-0.0452235
1.93711,0.322077,-0.0342765
1.90588,0.127926,-0.382037
1.91507,0.222937,0
1.92764,0.2244,-0.301921
1.91223,0.128352,-0.24395
1.9159,0.223034,-0.207768
1.8835,0.0341929,-0.17585
1.92229,0.223778,-0.135328
1.90138,0.127624,-0.155569
1.94053,0.322645,0.0572502
1.88849,0.0342835,-0.109999
1.92373,0.223945,0.11279
1.89018,0.126872,0.077181
1.92093,0.223619,-0.0900843
1.90111,0.127606,-0.099857
1.9358,0.321859,-0.0799491
1.92647,0.224264,-0.0451305
1.93822,0.315313,-0.0342765
1.90632,0.121272,-0.382037
1.91981,0.216699,0
1.92448,0.217226,-0.301306
1.90871,0.121424,-0.243445
1.87564,0.0275008,-0.175107
1.9191,0.216618,-0.135049
1.90579,0.121239,-0.155894
1.9377,0.315227,0.0571338
1.93455,0.314715,-0.125613
1.8886,0.0276907,-0.109999
1.9245,0.217228,0.11279
1.89061,0.120273,0.077181
1.9217,0.216912,-0.0900843
1.90553,0.121222,-0.100066
1.93691,0.315099,-0.0799491
1.92724,0.217537,-0.0451305
1.93541,0.307579,-0.0342067
1.89979,0.113867,-0.0553884
1.90283,0.11405,-0.381252
1.91661,0.209227,0
1.92134,0.209743,-0.300691
1.90518,0.114191,-0.24294
1.90455,0.114153,-0.0110891
1.87175,0.0205826,-0.174735
1.91591,0.209151,-0.134769
1.89827,0.113776,-0.155243
1.94279,0.308751,0.0572502
1.88469,0.020725,-0.109766
1.91851,0.209434,-0.0898981
1.89798,0.113759,-0.0996477
1.93805,0.307998,-0.0799491
1.92405,0.210039,-0.0450374
1.94037,0.301774,-0.0342765
1.89929,0.107517,-0.380468
1.9173,0.20287,0
1.91416,0.202538,-0.299461
1.90555,0.107872,-0.24294
1.87181,0.0143751,-0.174735
1.90866,0.201956,-0.134211
1.89863,0.10748,-0.155243
1.9359,0.301077,0.0570174
1.93275,0.300588,-0.125357
1.88475,0.0144745,-0.109766
1.91803,0.202947,0.112325
1.91522,0.20265,-0.089712
1.89835,0.107464,-0.0996477
1.93116,0.300341,-0.0796234
1.91678,0.202815,-0.0448513
1.93746,0.294397,-0.0342067
1.91401,0.195768,0
1.90195,0.101008,-0.242435
1.94168,0.295038,0.0114146
1.87583,0.00785735,-0.175107
1.90935,0.195292,-0.134211
1.899,0.100852,-0.155243
1.93298,0.293717,0.0569011
1.89704,0.100747,0.0331596
1.8808,0.00787817,-0.109534
1.91194,0.195556,-0.0895259
1.89872,0.100837,-0.0996477
1.92825,0.292997,-0.0794606
1.93057,0.286459,-0.0340671
1.91469,0.189087,0
1.91553,0.18917,-0.299461
1.89833,0.0941726,-0.24193
1.9427,0.288259,0.0114146
1.87584,0.00130984,-0.175107
1.91796,0.18941,-0.134769
1.89137,0.0938275,-0.154593
1.934,0.286968,0.0569011
1.89738,0.0941253,0.0331596
1.87682,0.00131052,-0.109301
1.91261,0.188882,-0.0895259
1.89507,0.0940107,-0.0994383
1.92531,0.285678,-0.0792978
1.91815,0.189428,-0.0448513
1.93155,0.279719,-0.0340671
1.90117,0.0876625,-0.0553884
1.91135,0.182023,0
1.91224,0.182108,-0.298846
1.89865,0.087546,-0.24193
1.93973,0.280903,0.0113914
1.87185,-0.00522659,-0.174735
1.91464,0.182336,-0.13449
1.89567,0.0874088,-0.154918
1.93499,0.280216,0.0569011
1.8937,0.0873178,0.0330898
1.91607,0.182472,0.112092
1.91326,0.182205,-0.0895259
1.89538,0.0873954,-0.0994383
1.92629,0.278956,-0.0792978
1.91482,0.182353,-0.0447583
1.93252,0.272974,-0.0340671
1.89348,0.0806847,-0.0551557
1.90401,0.174619,0
1.9168,0.175792,-0.299461
1.89498,0.0807485,-0.241425
1.93674,0.27357,0.0113681
1.89825,0.0808878,-0.0110426
1.86386,-0.011711,-0.173991
1.90732,0.174922,-0.133932
1.89198,0.080621,-0.154593
1.93595,0.273459,0.0569011
1.88078,-0.0118173,-0.109534
1.90593,0.174795,-0.0891536
1.89568,0.0807783,-0.0994383
1.92725,0.27223,-0.0792978
1.91146,0.175302,-0.0446652
1.9295,0.265681,-0.0339973
1.88975,0.0739188,-0.0550393
1.90461,0.167972,0
1.90318,0.0744439,-0.242435
1.93768,0.266809,0.0113681
1.86779,-0.0182555,-0.174363
1.90792,0.168264,-0.133932
1.89225,0.0740166,-0.154593
1.92898,0.265609,0.0566684
1.89426,0.0740952,0.0330898
1.92584,0.265178,-0.124589
1.87673,-0.0183429,-0.109301
1.91332,0.16874,0.111859
1.90652,0.168141,-0.0891536
1.88796,0.0738488,-0.0990196
1.91604,0.168981,-0.0447583
1.93037,0.259281,-0.0339973
1.89398,0.0677943,-0.0551557
1.89718,0.160978,0
1.90614,0.161738,-0.297616
1.89152,0.067706,-0.24092
1.93063,0.259316,0.0113216
1.89475,0.0678219,-0.0110194
1.86374,-0.0243977,-0.173991
1.90847,0.161936,-0.133932
1.89249,0.0677407,-0.154593
1.92588,0.258678,0.056552
1.8865,0.0675265,0.0329501
1.87666,-0.0245668,-0.109301
1.89911,0.161142,-0.0887814
1.88421,0.0674443,-0.0988103
1.91261,0.162287,-0.0446652
1.92333,0.251504,-0.0338577
1.89421,0.061183,-0.0551557
1.90172,0.15468,0
1.89571,0.0612314,-0.241425
1.93152,0.252576,0.0113216
1.86762,-0.0309688,-0.174363
1.90902,0.155273,-0.133932
1.88474,0.0608773,-0.153942
1.92677,0.251955,0.056552
1.87257,-0.0310508,-0.109069
1.91044,0.155389,0.111627
1.90763,0.15516,-0.0891536
1.88443,0.0608672,-0.0988103
1.90918,0.155286,-0.0445722
1.92027,0.243949,-0.0337879
1.88243,0.0538962,-0.0548066
1.90626,0.148018,0
1.89195,0.0541689,-0.24092
1.93244,0.245494,0.0113216
1.88719,0.0540326,-0.0109729
1.86351,-0.0377336,-0.173991
1.90958,0.148275,-0.133932
1.88894,0.0540826,-0.154267
1.93165,0.245394,0.0566684
1.86446,-0.0377527,-0.108604
1.90021,0.147548,-0.0887814
1.89263,0.0541881,-0.099229
1.91897,0.243784,-0.0788093
1.90575,0.147978,-0.0444791
1.92107,0.23758,-0.0337879
1.89059,0.0478563,-0.0550393
1.89876,0.141103,0
1.90379,0.141476,-0.297001
1.89212,0.047895,-0.24092
1.8594,-0.0438188,-0.17362
1.9021,0.141351,-0.133374
1.88911,0.0478187,-0.154267
1.92849,0.238497,0.056552
1.91743,0.23713,-0.123822
1.86831,-0.044029,-0.108836
1.89671,0.14095,-0.0885953
1.88481,0.0477099,-0.0988103
1.91977,0.237419,-0.0788093
1.90623,0.141657,-0.0444791
1.92189,0.230872,-0.0337879
1.88275,0.0410817,-0.0548066
1.89925,0.134474,0
1.89228,0.0412895,-0.24092
1.93009,0.231858,0.0112984
1.87952,0.0410111,-0.0109264
1.89626,0.134262,-0.20477
1.85525,-0.0502018,-0.173248
1.8986,0.134428,-0.133095
1.88129,0.0410498,-0.153616
1.92534,0.231287,0.0564356
1.91428,0.229959,-0.123566
1.86416,-0.0504428,-0.108604
1.90117,0.13461,-0.0887814
1.88097,0.0410427,-0.0986009
1.91662,0.230239,-0.0786465
1.90671,0.135002,-0.0444791
1.92665,0.224626,-0.0338577
1.88289,0.0345098,-0.0548066
1.88773,0.127038,0
1.88051,0.0344662,-0.239405
1.92294,0.224193,0.0112519
1.88365,0.0345238,-0.0109496
1.90304,0.128068,-0.133374
1.88142,0.034483,-0.153616
1.91819,0.223639,0.0562029
1.90163,0.127973,-0.0887814
1.8851,0.0345503,-0.0988103
1.91344,0.223085,-0.0784836
1.90717,0.128346,-0.0444791
1.9155,0.216551,-0.0336482
1.883,0.0279366,-0.0548066
1.90014,0.121211,0
1.87665,0.0278424,-0.238899
1.91974,0.217029,0.0112286
1.87976,0.0278886,-0.0109264
1.89318,0.120767,-0.204341
1.85884,-0.0632882,-0.17362
1.89949,0.12117,-0.133095
1.88153,0.0279149,-0.153616
1.91187,0.21614,-0.12331
1.86775,-0.0635917,-0.108836
1.90207,0.121334,-0.0887814
1.87722,0.0278508,-0.0983916
1.91421,0.216404,-0.0784836
1.90361,0.121433,-0.0443861
1.91625,0.209864,-0.0336482
1.87908,0.0213194,-0.0546902
1.90055,0.114579,0
1.89768,0.114406,-0.295772
1.87674,0.0212928,-0.238899
1.92048,0.210328,0.0112286
1.87985,0.0213281,-0.0109264
1.85462,-0.0696257,-0.173248
1.8999,0.11454,-0.133095
1.88162,0.0213482,-0.153616
1.9197,0.210243,0.0562029
1.91262,0.209467,-0.12331
1.85555,-0.0696603,-0.108139
1.8945,0.114214,-0.0884091
1.88529,0.0213899,-0.0988103
1.91495,0.209722,-0.0784836
1.90004,0.114548,-0.044293
1.91299,0.202752,-0.0335784
1.87915,0.0147596,-0.0546902
1.89295,0.10749,0
1.89807,0.107781,-0.295772
1.8768,0.0147411,-0.238899
1.91723,0.203201,0.0112054
1.85835,-0.0762629,-0.17362
1.89232,0.107454,-0.132537
1.88168,0.0147795,-0.153616
1.92043,0.20354,0.0562029
1.90937,0.202368,-0.123054
1.8909,0.107374,-0.088223
1.88136,0.014777,-0.0986009
1.9117,0.202615,-0.0783208
1.90042,0.107914,-0.044293
1.90971,0.195665,-0.0335086
1.87519,0.00818209,-0.0545738
1.88932,0.100668,0
1.88477,0.00822392,-0.23991
1.89269,0.100848,-0.132537
1.87774,0.00819321,-0.153291
1.91715,0.196427,0.0560866
1.91006,0.195701,-0.123054
1.89126,0.100772,-0.088223
1.87341,0.00817434,-0.0981823
1.90842,0.195533,-0.078158
1.91436,0.189392,-0.0335784
1.87521,0.00163681,-0.0545738
1.88566,0.0938744,0
1.87686,0.00163825,-0.238899
1.91462,0.189418,0.0111821
1.89303,0.0942409,-0.132537
1.87775,0.00163904,-0.153291
1.91384,0.189341,0.0559702
1.90676,0.18864,-0.122798
1.88761,0.0939713,-0.0880369
1.87343,0.00163526,-0.0981823
1.90909,0.18887,-0.078158
1.89314,0.0942466,-0.0441069
1.91501,0.182708,-0.0335784
1.8792,-0.00491985,-0.0546902
1.89397,0.087661,0
1.87288,-0.00490332,-0.238394
1.91527,0.182733,0.0111821
1.88936,0.0874474,-0.132258
1.88173,-0.00492649,-0.153616
1.91449,0.182658,0.0559702
1.90741,0.181983,-0.122798
1.88793,0.0873813,-0.0880369
1.87342,-0.00490473,-0.0981823
1.90576,0.181825,-0.0779952
1.88947,0.0874523,-0.0440139
1.91159,0.176324,-0.0335086
1.86318,-0.010731,-0.0542248
1.89024,0.0815384,0
1.87286,-0.0107868,-0.238394
1.91583,0.176715,0.0111821
1.89361,0.0816837,-0.132537
1.87374,-0.0107918,-0.152965
1.90709,0.175909,0.0557375
1.90797,0.17599,-0.122798
1.8842,0.0812779,-0.0878508
1.8734,-0.0107899,-0.0981823
1.90632,0.175837,-0.0779952
1.88973,0.0815163,-0.0440139
1.9122,0.16965,-0.0335086
1.87113,-0.0173091,-0.0544575
1.88252,0.0746224,0
1.88779,0.0748312,-0.293927
1.86487,-0.0172513,-0.237384
1.90449,0.168966,0.0111124
1.88591,0.0747567,-0.131979
1.87369,-0.0173328,-0.152965
1.91566,0.169957,0.0559702
1.9046,0.168975,-0.122543
1.88448,0.0746998,-0.0878508
1.86137,-0.0172188,-0.0975542
1.9109,0.169535,-0.078158
1.88601,0.0747606,-0.0439208
1.90484,0.161963,-0.033369
1.88278,0.0677225,0
1.88218,0.067701,-0.1317
1.86564,-0.0240967,-0.152314
1.9083,0.162258,0.0557375
1.9052,0.161994,-0.122543
1.88474,0.0677928,-0.0878508
1.86928,-0.0241437,-0.0979729
1.90355,0.161853,-0.0778323
1.88627,0.0678479,-0.0439208
1.90938,0.155638,-0.0334388
1.87901,0.0610205,0
1.91362,0.155984,0.0111589
1.8864,0.0612604,-0.131979
1.86156,-0.0305431,-0.151989
1.90487,0.155271,0.0556211
1.90974,0.155667,-0.122798
1.88496,0.0612138,-0.0878508
1.86119,-0.0305371,-0.0975542
1.90012,0.154883,-0.0776695
1.89049,0.0613934,-0.0440139
1.90589,0.148994,-0.033369
1.8832,0.0549061,0
1.90615,0.149014,0.0111124
1.89058,0.0551212,-0.132258
1.86942,-0.0368729,-0.15264
1.90538,0.148954,0.0556211
1.8983,0.1484,-0.122031
1.88116,0.0548466,-0.0876646
1.86508,-0.0367873,-0.0977636
1.90062,0.148582,-0.0776695
1.88269,0.0548912,-0.0438278
1.89843,0.141744,-0.0332294
1.87938,0.0482291,0
1.90267,0.142061,0.0110891
1.88677,0.0484187,-0.131979
1.8613,-0.0432136,-0.151989
1.90987,0.142599,0.0557375
1.89881,0.141773,-0.122031
1.88134,0.0482793,-0.0876646
1.86094,-0.0432052,-0.0975542
1.90113,0.141946,-0.0776695
1.88287,0.0483186,-0.0438278
1.89891,0.135116,-0.0332294
1.87154,0.0414908,0
1.90316,0.135418,0.0110891
1.87895,0.041655,-0.131421
1.86513,-0.0498174,-0.152314
1.90238,0.135363,0.0555047
1.89531,0.13486,-0.121775
1.8775,0.0416229,-0.0874785
1.85679,-0.0495946,-0.0973449
1.89364,0.134741,-0.0773438
1.88703,0.0418341,-0.0439208
1.89939,0.128155,-0.0332294
1.87568,0.0347049,0
1.90763,0.128711,0.0111124
1.87909,0.034768,-0.131421
1.85298,-0.0562899,-0.151338
1.89489,0.127852,0.055272
1.89977,0.128181,-0.122031
1.88164,0.0348152,-0.0876646
1.89811,0.128069,-0.0775067
1.87117,0.0346216,-0.0435486
1.89981,0.121856,-0.0332294
1.90406,0.122129,0.0110891
1.87919,0.0285366,-0.131421
1.8953,0.121567,0.055272
1.89621,0.121625,-0.121775
1.87775,0.0285146,-0.0874785
1.89852,0.121774,-0.0775067
1.87528,0.0284771,-0.0436417
1.89623,0.114982,-0.0331596
1.89249,0.114755,0.0110194
1.87928,0.0219768,-0.131421
1.85255,-0.0689013,-0.151338
1.89571,0.114951,0.055272
1.89263,0.114764,-0.121519
1.87784,0.0219599,-0.0874785
1.89494,0.114904,-0.0773438
1.87137,0.0218842,-0.0435486
1.88865,0.107576,-0.03302
1.8929,0.107818,0.0110194
1.87137,0.0150246,-0.130863
1.85229,-0.0756908,-0.151338
1.89213,0.107774,0.0551557
1.88906,0.107599,-0.121264
1.86991,0.0150129,-0.0871063
1.89535,0.107958,-0.0773438
1.86743,0.014993,-0.0434555
1.88901,0.100983,-0.03302
1.89726,0.101423,0.0110426
1.86917,0.00848208,-0.201342
1.87141,0.00849225,-0.130863
1.85201,-0.082156,-0.151338
1.88451,0.100742,0.0549229
1.88942,0.101004,-0.121264
1.86995,0.00848564,-0.0871063
1.89173,0.101128,-0.077181
1.86348,0.00845625,-0.0433625
1.89733,0.0951185,-0.0331596
1.89359,0.0949311,0.0110194
1.87143,0.00228639,-0.130863
1.84775,-0.0881072,-0.151012
1.88974,0.0947384,-0.121264
1.86997,0.0022846,-0.0871063
1.88806,0.0946539,-0.0770182
1.87149,0.00228646,-0.0435486
1.89365,0.0883087,-0.0330898
1.89391,0.0883207,0.0110194
1.86521,-0.00423202,-0.200914
1.86345,-0.00422802,-0.130305
1.84743,-0.0945565,-0.151012
1.89006,0.0881414,-0.121264
1.87396,-0.00425189,-0.0872924
1.88439,0.0878766,-0.0768554
1.86749,-0.0042372,-0.0434555
1.89796,0.0815392,-0.0331596
1.89022,0.0812069,0.0109961
1.86741,-0.0110815,-0.130584
1.88639,0.081042,-0.121008
1.87793,-0.011144,-0.0874785
1.88869,0.0811409,-0.0770182
1.89021,0.075258,-0.03302
1.88647,0.075109,0.0109729
1.86736,-0.0169481,-0.130584
1.88663,0.0751153,-0.121008
1.8699,-0.0169711,-0.0871063
1.88494,0.0750481,-0.0768554
1.88647,0.0685143,-0.0329501
1.88273,0.0683784,0.0109496
1.86729,-0.0234663,-0.130584
1.8789,0.0682396,-0.120496
1.86183,-0.0233977,-0.086734
1.88519,0.0684679,-0.0768554
1.89069,0.0620601,-0.03302
1.88695,0.0619373,0.0109729
1.86099,-0.0298846,-0.200486
1.8672,-0.0299842,-0.130584
1.88312,0.0618115,-0.120752
1.86174,-0.0298966,-0.086734
1.88143,0.0617559,-0.0766925
1.8869,0.0553427,-0.0329501
1.87516,0.0549984,0.0109032
1.86309,-0.0364238,-0.130305
1.86163,-0.0363951,-0.086734
1.88163,0.0551881,-0.0766925
1.88308,0.0486525,-0.0328803
1.87534,0.0484525,0.0109032
1.85897,-0.0428351,-0.130026
1.87952,0.0485603,-0.120496
1.86548,-0.0429852,-0.0869201
1.88181,0.0486196,-0.0766925
1.87926,0.0413337,-0.0328105
1.85659,-0.0499134,-0.200057
1.85879,-0.0499727,-0.130026
1.8757,0.0412554,-0.12024
1.8653,-0.0501478,-0.0869201
1.87399,0.0412179,-0.0763669
1.87939,0.0347736,-0.0328105
1.85461,-0.0563396,-0.129747
1.88611,0.034898,-0.0768554
1.87949,0.0288692,-0.0328105
1.85443,-0.0621657,-0.129747
1.87194,0.0287532,-0.119984
1.87422,0.0287883,-0.0763669
1.87958,0.0223084,-0.0328105
1.8542,-0.0686385,-0.129747
1.87032,0.0221984,-0.076204
1.87565,0.0157138,-0.0327407
1.85794,-0.075272,-0.130026
1.87209,0.015684,-0.119984
1.87438,0.0157031,-0.0763669
1.84967,-0.0817289,-0.129468
1.87043,0.00881424,-0.076204
1.86817,0.00260845,-0.119729
1.87045,0.00261163,-0.076204
1.86417,-0.00422969,-0.119473
1.86645,-0.00423485,-0.0760412
1.86814,-0.0101077,-0.119729
1.86243,-0.0100768,-0.0758784
1.85838,-0.0168666,-0.0757155
1.8623,-0.0237287,-0.0758784
1.85983,-0.0360354,-0.119217
1.85571,-0.0424359,-0.118961
