2.19639,0.373069,-0.0259363
2.19245,0.372399,0.0258898
2.20952,0.367369,-0.026076
2.19768,0.365401,0.0259363
2.20289,0.358369,-0.0259829
2.20413,0.350677,-0.0259829
2.18833,0.348164,0.0257966
2.20145,0.341982,-0.0259363
2.18959,0.34014,0.0257966
2.20971,0.343266,-0.130231
2.19466,0.333479,-0.0258432
2.19466,0.333479,0.0258432
2.20689,0.335337,-0.129999
2.20372,0.32699,-0.0259363
2.20804,0.327632,-0.129999
2.20084,0.319106,-0.0258898
2.20629,0.430857,-0.0130652
2.18896,0.317384,0.0257501
2.20121,0.319161,-0.129534
2.2059,0.311981,-0.0259363
2.18609,0.309181,0.0257035
2.21022,0.312593,-0.129999
2.1991,0.302804,-0.0258432
2.19359,0.412104,-0.0129722
2.19118,0.301712,0.0257501
2.19949,0.302857,-0.129301
2.19613,0.294977,-0.0257966
2.19888,0.405554,-0.0129954
2.1882,0.293912,0.0257035
2.20839,0.296625,-0.129766
2.20332,0.398425,-0.0651628
2.19714,0.287309,-0.0257966
2.19634,0.397163,-0.0129722
2.19318,0.28679,0.0257501
2.2015,0.287878,-0.129301
2.19682,0.389336,-0.0649301
2.19813,0.279638,-0.0257966
2.19378,0.388797,-0.0129489
2.19417,0.279134,0.0257501
2.19348,0.388744,0.038884
2.19853,0.279688,-0.129069
2.19512,0.381136,-0.0129489
2.18719,0.27049,0.0256569
2.19949,0.272012,-0.129069
2.20396,0.38267,-0.117233
2.20003,0.264286,-0.0257966
2.19249,0.372801,-0.0129257
2.20647,0.26506,-0.207451
2.18812,0.262855,0.0256569
2.20042,0.264333,-0.129069
2.20094,0.256605,-0.0257966
2.20167,0.36646,-0.0129722
2.20739,0.257356,-0.207451
2.193,0.255679,0.0257035
2.2053,0.257113,-0.129301
2.20204,0.358626,-0.0649301
2.19785,0.248471,-0.0257501
2.19504,0.357486,-0.0129257
2.1899,0.247572,0.0256569
2.19869,0.35808,0.038884
2.19428,0.248067,-0.128604
2.2039,0.358928,-0.117023
2.19473,0.240362,-0.0257035
2.19233,0.349193,-0.0129024
2.20913,0.24194,-0.207451
2.19075,0.239927,0.0256569
2.19598,0.349774,0.0388142
2.19513,0.240407,-0.128604
2.20119,0.350605,-0.116814
2.19264,0.341398,-0.064581
2.20351,0.233542,-0.0257966
2.19749,0.342153,-0.0129257
2.1876,0.231856,0.0256104
2.20114,0.342722,0.038884
2.19596,0.232742,-0.128604
2.2024,0.342918,-0.116814
2.19229,0.225392,-0.0256569
2.19855,0.335248,-0.0129257
2.20672,0.226875,-0.207079
2.19229,0.225392,0.0256569
2.19825,0.335202,0.0388142
2.19668,0.225843,-0.128604
2.20742,0.3366,-0.117023
2.19486,0.326849,-0.064581
2.19705,0.218133,-0.0257035
2.19971,0.327571,-0.0129257
2.2075,0.219171,-0.207079
2.19307,0.217737,0.0256569
2.19545,0.326937,0.0387443
2.2054,0.218962,-0.129069
2.18606,0.325539,0.0900445
2.20068,0.327716,-0.116605
2.19621,0.437651,-0.0521094
2.18987,0.209318,-0.0256104
2.19297,0.318357,-0.0128792
2.21226,0.211458,-0.207451
2.18589,0.208937,0.0255638
2.19268,0.318314,0.0386745
2.19426,0.209738,-0.128371
2.19791,0.319074,-0.116395
2.19603,0.420902,0
2.19461,0.201657,-0.0256569
2.19413,0.310318,-0.0128792
2.20905,0.202984,-0.207079
2.19062,0.201291,0.0256104
2.18987,0.309716,0.0386047
2.19502,0.201695,-0.128371
2.18443,0.308947,0.0898817
2.19907,0.311017,-0.116395
2.19024,0.302753,-0.0643483
2.20913,0.416223,0
2.19523,0.194762,-0.0256569
2.19509,0.303424,-0.0128792
2.20968,0.196043,-0.207079
2.19523,0.194762,0.0256569
2.19479,0.303383,0.0386745
2.19962,0.195151,-0.128604
2.20067,0.41463,-0.0521094
2.1953,0.295255,-0.0644646
2.20278,0.406669,0
2.18796,0.186035,-0.0255638
2.19619,0.295375,-0.0128792
2.21038,0.187942,-0.207079
2.19194,0.186374,0.0256104
2.21265,0.297589,-0.182256
2.19589,0.295335,0.0386745
2.19236,0.18641,-0.128138
2.18252,0.293537,0.0897188
2.19322,0.294975,-0.115976
2.19825,0.405833,-0.0520164
2.20023,0.288494,-0.064581
2.19624,0.397937,0
2.18856,0.178779,-0.0255638
2.20112,0.288611,-0.0129024
2.20702,0.180287,-0.206708
2.18458,0.178453,0.0255173
2.20572,0.289214,-0.181606
2.19686,0.288052,0.0386745
2.20093,0.179789,-0.128604
2.18745,0.286818,0.0898817
2.19814,0.28822,-0.116186
2.20352,0.399255,-0.0521094
2.18937,0.278912,-0.0642319
2.19319,0.171068,-0.0256104
2.1982,0.280036,-0.0128792
2.20767,0.172197,-0.206708
2.1892,0.170757,0.0255638
2.21072,0.281632,-0.181931
2.19393,0.279493,0.0386047
2.19361,0.171101,-0.128138
2.18848,0.278799,0.0898817
2.19108,0.381223,0
2.19374,0.163793,-0.0256104
2.19514,0.272252,-0.012856
2.20823,0.164875,-0.206708
2.18976,0.163496,0.0255638
2.21164,0.274299,-0.181931
2.19088,0.271723,0.0385349
2.19416,0.163825,-0.128138
2.18543,0.271048,0.0897188
2.20803,0.273851,-0.116605
2.19443,0.381805,-0.0518303
2.1924,0.373573,0
2.19829,0.156419,-0.0256569
2.20005,0.265067,-0.0128792
2.19687,0.156318,-0.205592
2.18632,0.155567,0.0255173
2.21259,0.266577,-0.181931
2.19181,0.264075,0.0385349
2.19871,0.156449,-0.128371
2.18239,0.26294,0.089556
2.21366,0.377195,-0.104602
2.19707,0.264708,-0.115976
2.18981,0.364877,0
2.19486,0.148091,-0.0256104
2.19306,0.256074,-0.0128327
2.20538,0.148801,-0.206336
2.18688,0.147553,0.0255173
2.20563,0.257541,-0.18128
2.19277,0.256039,0.0385349
2.19528,0.148119,-0.128138
2.18334,0.254939,0.089556
2.20714,0.367765,-0.10423
2.19803,0.256653,-0.115976
2.19711,0.366093,-0.0518303
2.18904,0.248248,-0.0641155
2.19101,0.357614,0
2.18736,0.1403,-0.0255173
2.20185,0.249702,-0.0128792
2.20188,0.141232,-0.205964
2.18337,0.140044,0.0254707
2.20251,0.249776,-0.180955
2.1936,0.248766,0.0385349
2.19974,0.141095,-0.128371
2.18418,0.247697,0.089556
2.2123,0.361088,-0.104416
2.19887,0.249364,-0.115976
2.2062,0.360094,-0.0520164
2.18989,0.240606,-0.0641155
2.19224,0.349964,0
2.18384,0.132422,-0.0254707
2.19476,0.241141,-0.0128327
2.2035,0.35176,0.0519233
2.18384,0.132422,0.0254707
2.1994,0.241652,-0.180629
2.19446,0.241108,0.0385349
2.19624,0.133174,-0.128138
2.18503,0.240072,0.089556
2.2096,0.352734,-0.10423
2.19973,0.241687,-0.115976
2.19165,0.349869,-0.0516442
2.20141,0.343159,0
2.1923,0.124873,-0.0255638
2.1996,0.233518,-0.012856
2.20681,0.1257,-0.206336
2.19687,0.34245,0.0517372
2.1923,0.124873,0.0255638
2.20027,0.233589,-0.180629
2.19533,0.233064,0.0385349
2.18874,0.12467,-0.127673
2.18192,0.23164,0.0893932
2.20298,0.343403,-0.103857
2.20457,0.234045,-0.116186
2.19292,0.341834,-0.0516442
2.1875,0.225284,-0.0639992
2.19853,0.335636,0
2.18869,0.117768,-0.0255173
2.19635,0.226195,-0.0128327
2.19924,0.118336,-0.205592
2.19793,0.335545,0.0517372
2.18469,0.117553,0.0254707
2.19605,0.226164,0.0385349
2.19709,0.118221,-0.128138
2.18264,0.224783,0.0893932
2.2001,0.335876,-0.103671
2.19735,0.226298,-0.115767
2.18513,0.22504,0.179327
2.19398,0.334942,-0.0516442
2.19229,0.21766,-0.0641155
2.19183,0.326398,0
2.1891,0.109746,-0.0255173
2.19318,0.217749,-0.0128095
2.19569,0.110076,-0.205221
2.2031,0.328077,0.0518303
2.18511,0.109546,0.0254707
2.20578,0.219,-0.180955
2.19686,0.218114,0.0385349
2.19751,0.110168,-0.128138
2.18344,0.216782,0.0893932
2.20922,0.328987,-0.104044
2.20214,0.218638,-0.115976
2.17801,0.216243,0.178676
2.19915,0.327488,-0.0517372
2.20591,0.431184,-0.039233
2.19307,0.209624,-0.0641155
2.19301,0.318363,0
2.18549,0.101537,-0.0254707
2.19396,0.209709,-0.0128095
2.19607,0.102028,-0.205221
2.19638,0.318851,0.0516442
2.18549,0.101537,0.0254707
2.20347,0.31988,-0.155696
2.20657,0.210914,-0.180955
2.19367,0.209681,0.0384651
2.1979,0.102113,-0.128138
2.18025,0.208398,0.0892304
2.20645,0.320314,-0.103857
2.20292,0.210566,-0.115976
2.17879,0.208259,0.178676
2.20033,0.319426,-0.0517372
2.19955,0.421974,-0.0390934
2.19777,0.202334,-0.0642319
2.19807,0.311266,0
2.18584,0.0939067,-0.0254707
2.19867,0.202416,-0.0128327
2.19748,0.311182,0.0516442
2.18983,0.0940784,0.0255173
2.20457,0.312186,-0.155696
2.20332,0.202845,-0.180629
2.1904,0.201655,0.0383953
2.19425,0.0942684,-0.127906
2.18494,0.201152,0.0893932
2.20756,0.31261,-0.103857
2.19569,0.202142,-0.115558
2.18347,0.201017,0.179002
2.19748,0.311182,-0.0516442
2.19708,0.413554,-0.0390236
2.18652,0.193603,-0.0638828
2.19518,0.303045,0
2.19015,0.0864343,-0.0255173
2.21341,0.195985,-0.282841
2.19737,0.41361,0.0129954
2.19537,0.194387,-0.0128095
2.19673,0.0866942,-0.205221
2.19855,0.30351,0.0516442
2.19414,0.0865921,0.0255638
2.20565,0.30449,-0.155696
2.20402,0.195153,-0.180629
2.19508,0.194361,0.0384651
2.19058,0.0864515,-0.127673
2.18563,0.193525,0.0893932
2.20864,0.304903,-0.103857
2.20036,0.194829,-0.115767
2.18416,0.193395,0.179002
2.19459,0.302963,-0.0515511
2.2023,0.407376,-0.0390934
2.18711,0.186733,-0.0638828
2.19216,0.295612,0
2.19041,0.0795528,-0.0255173
2.21006,0.188692,-0.282336
2.19597,0.187489,-0.0128095
2.19699,0.079792,-0.205221
2.19157,0.295532,0.0514581
2.19041,0.0795528,0.0255173
2.21055,0.298092,-0.155975
2.20859,0.188566,-0.180955
2.19568,0.187464,0.0384651
2.19483,0.0797134,-0.127906
2.18845,0.295112,0.128604
2.17826,0.185977,0.0890675
2.20166,0.296894,-0.103485
2.19698,0.187575,-0.115558
2.18078,0.186192,0.178676
2.20345,0.297135,-0.0517372
2.19584,0.39826,-0.0389538
2.19714,0.288479,0
2.18667,0.0717755,-0.0254707
2.1922,0.3976,0.0129489
2.2006,0.180149,-0.0128327
2.19726,0.072123,-0.205221
2.19655,0.288401,0.0515511
2.18268,0.0716443,0.0254241
2.20366,0.289335,-0.155417
2.20526,0.180531,-0.180629
2.1951,0.072052,-0.127906
2.18288,0.178699,0.0892304
2.21061,0.290248,-0.103857
2.19364,0.179579,-0.115348
2.17745,0.178254,0.178351
2.19828,0.398703,-0.0910215
2.20051,0.288922,-0.0516442
2.20522,0.391223,-0.0390934
2.18842,0.170696,-0.0638828
2.19427,0.279536,0
2.19093,0.0634952,-0.0255173
2.21139,0.172487,-0.282336
2.19729,0.171388,-0.0128095
2.20548,0.0639169,-0.205964
2.20161,0.280471,0.0516442
2.18693,0.0633793,0.0254707
2.20475,0.280872,-0.155417
2.20196,0.171752,-0.180304
2.193,0.171054,0.0383953
2.19935,0.0637391,-0.128138
2.19452,0.279568,0.128836
2.18754,0.170627,0.0893932
2.20378,0.280748,-0.103485
2.1983,0.171466,-0.115558
2.18209,0.170202,0.178676
2.1998,0.39026,-0.0910215
2.20161,0.280471,-0.0516442
2.19856,0.38292,-0.0389538
2.18895,0.16382,-0.0638828
2.1991,0.273133,0
2.18712,0.0565079,-0.0254707
2.20796,0.165242,-0.281831
2.19782,0.164483,-0.0128095
2.19851,0.273059,0.0515511
2.18712,0.0565079,0.0254707
2.20563,0.273944,-0.155417
2.19353,0.164163,0.0383953
2.19155,0.0566225,-0.127673
2.19142,0.272179,0.128604
2.18806,0.163753,0.0893932
2.20862,0.274315,-0.103671
2.19484,0.164261,-0.115348
2.17466,0.162751,0.178025
2.19708,0.382661,-0.0908587
2.19057,0.272074,-0.051365
2.19594,0.374571,-0.038884
2.18552,0.155894,-0.0637664
2.20004,0.265456,0
2.18731,0.0488736,-0.0254707
2.21248,0.157817,-0.282336
2.1923,0.373949,0.0129257
2.19439,0.156526,-0.0127862
2.19789,0.0491102,-0.205221
2.19151,0.264426,0.051365
2.18731,0.0488736,0.0254707
2.21053,0.266721,-0.155696
2.20306,0.157145,-0.180304
2.19409,0.156505,0.0383953
2.19174,0.0489726,-0.127673
2.18839,0.26405,0.128371
2.18463,0.155831,0.0892304
2.20559,0.266126,-0.103485
2.19939,0.156883,-0.115558
2.1792,0.155443,0.178351
2.1984,0.37499,-0.0908587
2.19548,0.264905,-0.0514581
2.20125,0.367179,-0.0389538
2.19007,0.148153,-0.0638828
2.19306,0.256462,0
2.19547,0.0410062,-0.0255638
2.21305,0.149707,-0.282336
2.19365,0.365912,0.0129257
2.19894,0.148753,-0.0128095
2.19408,0.0409803,-0.204849
2.19246,0.256392,0.051365
2.18747,0.0408569,0.0254707
2.20357,0.257691,-0.155138
2.20362,0.149069,-0.180304
2.18667,0.147923,0.0382557
2.1919,0.0409397,-0.127673
2.18141,0.2551,0.127906
2.1812,0.147553,0.0890675
2.20259,0.257576,-0.103299
2.19995,0.148821,-0.115558
2.17975,0.147455,0.178351
2.2037,0.367588,-0.0910215
2.18849,0.255928,-0.051272
2.2064,0.360521,-0.0390236
2.19054,0.140889,-0.0638828
2.19787,0.249639,0
2.18759,0.0336021,-0.0254707
2.20275,0.359925,0.0129722
2.19942,0.141459,-0.0128095
2.1942,0.0337036,-0.204849
2.19727,0.249571,0.0514581
2.18759,0.0336021,0.0254707
2.20808,0.142016,-0.180629
2.19114,0.140927,0.0383255
2.19203,0.0336702,-0.127673
2.18225,0.247865,0.127906
2.18168,0.140319,0.0890675
2.2074,0.250721,-0.103485
2.19246,0.141012,-0.115139
2.17625,0.139969,0.178025
2.19702,0.358988,-0.0906958
2.19727,0.249571,-0.0514581
2.20764,0.352817,-0.0390236
2.18304,0.132756,-0.0636501
2.19475,0.241527,0
2.1837,0.0259177,-0.0254241
2.21005,0.134398,-0.281831
2.19214,0.35034,0.0129024
2.19829,0.0260909,-0.205221
2.1837,0.0259177,0.0254241
2.2013,0.242248,-0.154859
2.19264,0.133339,-0.179327
2.19162,0.133277,0.0383255
2.19612,0.0260652,-0.127906
2.18707,0.240682,0.128138
2.18216,0.132702,0.0890675
2.19692,0.1336,-0.115348
2.17274,0.132129,0.1777
2.19826,0.351317,-0.0906958
2.19813,0.241899,-0.0514581
2.20102,0.34349,-0.038884
2.19549,0.125438,-0.0639992
2.19164,0.233059,0
2.18778,0.0179472,-0.0254707
2.20657,0.126071,-0.281326
2.19341,0.342303,0.0129024
2.19638,0.125489,-0.0127862
2.21463,0.235503,-0.239897
2.19837,0.0180341,-0.205221
2.199,0.233842,0.0514581
2.19178,0.01798,0.0255173
2.20614,0.234601,-0.155138
2.20108,0.125757,-0.179978
2.18857,0.341548,0.0644646
2.1881,0.125016,0.0382557
2.20868,0.344686,-0.143265
2.19221,0.0179836,-0.127673
2.17999,0.23182,0.127673
2.18662,0.124931,0.0892304
2.20138,0.125775,-0.115558
2.17321,0.124165,0.1777
2.19953,0.343258,-0.0906958
2.19503,0.233419,-0.051365
2.19819,0.335586,-0.0388142
2.19638,0.2262,0
2.18383,0.0106731,-0.0254241
2.20301,0.11854,-0.280821
2.19058,0.334424,0.0128792
2.19678,0.118205,-0.0127862
2.20749,0.227344,-0.239041
2.19443,0.0107249,-0.204849
2.18783,0.225319,0.0511789
2.18783,0.0106926,0.0254707
2.21088,0.227693,-0.155417
2.20546,0.118672,-0.180304
2.19364,0.334892,0.064581
2.1885,0.11776,0.0382557
2.19797,0.335553,-0.142497
2.19226,0.0107143,-0.127673
2.1887,0.225408,0.128138
2.18303,0.117465,0.0890675
2.20179,0.118475,-0.115558
2.1776,0.117173,0.178025
2.20066,0.335962,-0.0906958
2.19181,0.225729,-0.051272
2.20331,0.3285,-0.038884
2.18431,0.109888,-0.0636501
2.1892,0.21774,0
2.19185,0.00306061,-0.0255173
2.20341,0.110849,-0.280821
2.19569,0.327365,0.0129024
2.19319,0.110335,-0.012763
2.20431,0.219242,-0.238612
2.19446,0.00306425,-0.204849
2.19259,0.218076,0.051272
2.18385,0.00304944,0.0254241
2.20586,0.110972,-0.180304
2.1948,0.327232,0.064581
2.19289,0.11032,0.0383255
2.20703,0.329055,-0.143009
2.18829,0.00305564,-0.127441
2.1855,0.217371,0.127906
2.18343,0.109844,0.0890675
2.20671,0.219481,-0.103299
2.1982,0.110587,-0.115348
2.17799,0.10957,0.178025
2.20182,0.328278,-0.0906958
2.19656,0.218472,-0.051365
2.19647,0.320038,-0.0387443
2.18067,0.102456,-0.0635337
2.18991,0.210478,0
2.19185,-0.00420845,-0.0255173
2.19677,0.320082,0.0129024
2.19754,0.103248,-0.0127862
2.21294,0.212692,-0.239469
2.19844,-0.00422111,-0.205221
2.1933,0.210804,0.051272
2.17985,-0.00418541,0.0253776
2.20443,0.211874,-0.154859
2.20224,0.103469,-0.179978
2.19192,0.319375,0.0644646
2.18925,0.102859,0.0382557
2.20811,0.321734,-0.143009
2.19228,-0.00420929,-0.127673
2.1862,0.210122,0.127906
2.18777,0.10279,0.0892304
2.20345,0.211779,-0.103113
2.19456,0.103109,-0.115139
2.17834,0.102347,0.178025
2.19498,0.319822,-0.0903702
2.1933,0.210804,-0.051272
2.18501,0.0950175,-0.0636501
2.19063,0.202833,0
2.20412,0.0958484,-0.280821
2.19391,0.311849,0.0128792
2.20971,0.2046,-0.239041
2.19443,-0.0118731,-0.204849
2.19402,0.203147,0.051272
2.18382,-0.0118157,0.0254241
2.20913,0.204546,-0.155138
2.1986,0.0956086,-0.179653
2.18906,0.31116,0.0643483
2.18161,0.0948695,0.0381161
2.20131,0.312901,-0.142497
2.19225,-0.0118613,-0.127673
2.18692,0.20249,0.127906
2.18812,0.0951526,0.0892304
2.19092,0.0952746,-0.11493
2.17869,0.0947426,0.178025
2.19609,0.312158,-0.0903702
2.20198,0.203884,-0.0514581
2.20261,0.305246,-0.0388142
2.18533,0.0873903,-0.0636501
2.19531,0.19554,0
2.18777,-0.0194737,-0.0254707
2.20047,0.087996,-0.280315
2.19498,0.304189,0.0128792
2.21041,0.196886,-0.239041
2.19437,-0.0195325,-0.204849
2.1987,0.195842,0.051365
2.18377,-0.0194381,0.0254241
2.20586,0.19648,-0.154859
2.19494,0.0877746,-0.179327
2.18617,0.302968,0.0642319
2.18592,0.087414,0.0381859
2.19844,0.304668,-0.142242
2.18421,-0.0194421,-0.127208
2.18364,0.194501,0.127673
2.18843,0.0875145,0.0892304
2.19124,0.0876267,-0.11493
2.17502,0.0869781,0.1777
2.19716,0.304491,-0.0903702
2.1987,0.195842,-0.051365
2.19579,0.296102,-0.0386745
2.18563,0.0793795,-0.0636501
2.19601,0.187492,0
2.19168,-0.0275429,-0.0255173
2.19682,0.0797857,-0.27981
2.18816,0.295073,0.0128327
2.19052,0.079557,-0.0127397
2.20319,0.188106,-0.238184
2.19429,-0.0275757,-0.204849
2.18745,0.186761,0.0510859
2.18368,-0.0274424,0.0254241
2.19861,0.187715,-0.154301
2.19923,0.0798733,-0.179653
2.18727,0.294953,0.0642319
2.18623,0.0794011,0.0381859
2.20349,0.297141,-0.142497
2.18413,-0.027448,-0.127208
2.18434,0.186496,0.127673
2.18874,0.0794924,0.0892304
2.20159,0.187969,-0.102927
2.19554,0.0797393,-0.115139
2.17532,0.0790051,0.1777
2.1943,0.295901,-0.0902073
2.16289,0.0785537,0.394611
2.19542,0.187442,-0.051272
2.19284,0.287915,-0.0386047
2.18469,0.178847,0
2.19157,-0.0351927,-0.0255173
2.19708,0.0721173,-0.27981
2.18917,0.287433,0.0128327
2.18679,0.0717794,-0.0127165
2.19987,0.18009,-0.237755
2.19019,-0.0351706,-0.204477
2.18809,0.179125,0.0510859
2.17957,-0.035,0.0253776
2.19528,0.179714,-0.154022
2.19949,0.0721966,-0.179653
2.18828,0.287316,0.0642319
2.18649,0.0717697,0.0381859
2.20452,0.289448,-0.142497
2.18402,-0.0350714,-0.127208
2.17702,0.178219,0.127208
2.18102,0.07159,0.0889047
2.20224,0.180283,-0.102927
2.18383,0.0716822,-0.114511
2.17559,0.0714118,0.1777
2.19532,0.28824,-0.0902073
2.16709,0.0711328,0.395329
2.19606,0.179777,-0.051272
2.19775,0.281149,-0.0386745
2.18213,0.0643826,-0.0635337
2.18926,0.171914,0
2.18344,-0.0423057,-0.0254241
2.20921,0.0651816,-0.281326
2.19408,0.280679,0.012856
2.19501,0.0647627,-0.012763
2.20442,0.173105,-0.238184
2.19007,-0.042434,-0.204477
2.19265,0.17218,0.0511789
2.17944,-0.0422282,0.0253776
2.19984,0.172745,-0.154301
2.19972,0.0649018,-0.179653
2.18923,0.280058,0.0642319
2.18672,0.064518,0.0381859
2.20547,0.282135,-0.142497
2.19187,-0.042469,-0.127673
2.18158,0.17131,0.127441
2.18524,0.0644744,0.0890675
2.19884,0.172666,-0.102741
2.19204,0.064675,-0.11493
2.17183,0.0640787,0.177375
2.19627,0.280958,-0.0902073
2.19664,0.172493,-0.051272
2.19877,0.273092,-0.0386745
2.1819,0.163292,0
2.17927,-0.0502155,-0.0253776
2.20546,0.056982,-0.280821
2.19113,0.272143,0.0128327
2.19523,0.0567176,-0.012763
2.20504,0.165024,-0.238184
2.1899,-0.0504602,-0.204477
2.19327,0.164143,0.0511789
2.17528,-0.0501233,0.025331
2.20046,0.164681,-0.154301
2.19197,0.0566335,-0.179002
2.18627,0.27154,0.0641155
2.17894,0.0562968,0.0380462
2.20252,0.273558,-0.142242
2.1917,-0.0505019,-0.127673
2.18617,0.163612,0.127673
2.18146,0.0563619,0.0889047
2.19946,0.164606,-0.102741
2.18427,0.0564345,-0.114511
2.17603,0.0562216,0.1777
2.19331,0.272415,-0.0900445
2.15966,0.0557987,0.393894
2.20125,0.16474,-0.051365
2.19574,0.264937,-0.0386047
2.18653,0.0488564,-0.0636501
2.18644,0.15596,0
2.19108,-0.0581401,-0.0255173
2.19771,0.0491063,-0.27981
2.19206,0.264493,0.0128327
2.19142,0.0489656,-0.0127397
2.20561,0.157327,-0.238184
2.18971,-0.0581036,-0.204477
2.18984,0.156202,0.0510859
2.17509,-0.0577157,0.025331
2.205,0.157283,-0.15458
2.19614,0.0490712,-0.179327
2.1872,0.263907,0.0641155
2.18312,0.0487803,0.0381161
2.19554,0.264913,-0.14173
2.19151,-0.0581516,-0.127673
2.18673,0.15598,0.127673
2.18564,0.0488366,0.0890675
2.19244,0.0489886,-0.11493
2.17411,0.15508,0.267625
2.17622,0.048626,0.1777
2.19425,0.264757,-0.0900445
2.19383,0.156487,-0.0511789
2.19263,0.257188,-0.0385349
2.20787,0.0420089,-0.441656
2.19094,0.14898,0
2.18288,-0.0651665,-0.0254241
2.20183,0.0418941,-0.280315
2.19293,0.257223,0.0128327
2.18757,0.0416227,-0.0127165
2.19818,0.149473,-0.237327
2.1895,-0.0653642,-0.204477
2.19035,0.14894,0.0510859
2.18288,-0.0651665,0.0254241
2.20153,0.1497,-0.154301
2.1963,0.0417887,-0.179327
2.18807,0.256653,0.0641155
2.17927,0.0414649,0.0380462
2.20037,0.258096,-0.141986
2.18333,-0.0651798,-0.127208
2.17927,0.148187,0.127208
2.1778,0.0414368,0.0887419
2.20053,0.149632,-0.102741
2.19259,0.0417183,-0.11493
2.17238,0.0413337,0.177375
2.19512,0.25748,-0.0900445
2.19434,0.149211,-0.0511789
2.20146,0.250437,-0.0386745
2.20016,0.0341793,-0.440087
2.18346,0.140816,0
2.20197,0.0342074,-0.280315
2.19381,0.249566,0.0128327
2.20662,0.14231,-0.238184
2.18926,-0.0730071,-0.204477
2.19085,0.141293,0.0510859
2.18264,-0.0727863,0.0254241
2.20204,0.142014,-0.154301
2.19643,0.0341214,-0.179327
2.19292,0.249465,0.0642319
2.1874,0.0339812,0.0381859
2.20126,0.250413,-0.141986
2.17909,-0.0726681,-0.126976
2.17977,0.140578,0.127208
2.18592,0.0339582,0.0890675
2.19705,0.141692,-0.102555
2.18474,0.0339398,-0.114511
2.17251,0.0337498,0.177375
2.196,0.249815,-0.0900445
2.19484,0.14155,-0.0511789
2.19442,0.241492,-0.0385349
2.17892,0.0258623,-0.0634174
2.20027,0.0261156,-0.440087
2.18397,0.132813,0
2.18635,-0.0809331,-0.0254707
2.19746,0.133633,-0.342505
2.20208,0.0261371,-0.280315
2.19074,0.241087,0.0128095
2.18781,0.0259678,-0.0127165
2.19919,0.133739,-0.237327
2.185,-0.0808829,-0.204105
2.18737,0.13302,0.0509928
2.17836,-0.0806372,0.0253776
2.19458,0.133458,-0.153743
2.19255,0.026024,-0.179002
2.18587,0.240551,0.0639992
2.18751,0.0259642,0.0381859
2.20613,0.24278,-0.142242
2.1828,-0.0808017,-0.127208
2.17629,0.132346,0.126976
2.18603,0.0259467,0.0890675
2.19755,0.133639,-0.102555
2.18485,0.0259326,-0.114511
2.16769,0.131823,0.26665
2.16863,0.0257401,0.177049
2.19293,0.241328,-0.0898817
2.19136,0.133263,-0.0510859
2.19918,0.234637,-0.0386047
2.20819,0.0188856,-0.441656
2.18439,0.125569,0
2.17808,-0.087861,-0.0253776
2.19789,0.126345,-0.342505
2.19422,0.0187661,-0.279305
2.18357,0.232971,0.012763
2.19268,-0.0884498,-0.204849
2.19578,0.126224,0.0511789
2.17808,-0.087861,0.0253776
2.20298,0.126637,-0.154301
2.19263,0.0187525,-0.179002
2.18666,0.233301,0.0639992
2.18759,0.0187094,0.0381859
2.20295,0.235039,-0.141986
2.18252,-0.0880403,-0.127208
2.18469,0.125586,0.127441
2.17811,0.0186284,0.0887419
2.19798,0.126351,-0.102555
2.18492,0.0186866,-0.114511
2.17208,0.124861,0.267138
2.17269,0.018582,0.177375
2.18975,0.23363,-0.0897188
2.15637,0.0184425,0.393177
2.19578,0.126224,-0.0511789
2.19999,0.226958,-0.0386047
2.17905,0.0110292,-0.0634174
2.20432,0.011157,-0.440872
2.18482,0.117943,0
2.18176,-0.0956392,-0.0254241
2.20226,0.118885,-0.34312
2.19824,0.0111263,-0.27981
2.18835,0.225758,0.0127862
2.18794,0.0110741,-0.0127165
2.20005,0.118765,-0.237327
2.1844,-0.0957549,-0.204105
2.18575,-0.0958143,0.0254707
2.2034,0.118946,-0.154301
2.19268,0.0110981,-0.179002
2.18746,0.225666,0.0639992
2.18364,0.0110524,0.0381161
2.19582,0.226528,-0.141474
2.1822,-0.0956588,-0.127208
2.18112,0.117744,0.127208
2.18616,0.0110651,0.0890675
2.2024,0.118892,-0.102741
2.18497,0.0110591,-0.114511
2.16853,0.117064,0.26665
2.16477,0.0109569,0.176724
2.19221,0.118342,-0.0510859
2.19675,0.219265,-0.0385349
2.20042,0.0038408,-0.440087
2.1852,0.110698,0
2.17344,-0.102496,-0.025331
2.19475,0.111182,-0.34189
2.19429,0.00383011,-0.279305
2.18909,0.2185,0.0127862
2.19196,0.00382603,-0.0127397
2.20441,0.111671,-0.237755
2.18805,-0.103185,-0.204477
2.19259,0.111072,0.0510859
2.18143,-0.102873,0.0254241
2.20379,0.111639,-0.154301
2.18872,0.00382037,-0.178676
2.1882,0.218411,0.0639992
2.18366,0.00381155,0.0381161
2.19656,0.219246,-0.141474
2.18187,-0.102894,-0.127208
2.1815,0.11051,0.127208
2.18618,0.00381595,0.0890675
2.19879,0.111386,-0.102555
2.19299,0.00382783,-0.11493
2.17288,0.110073,0.267138
2.16878,0.00378558,0.177049
2.19128,0.21872,-0.0897188
2.1886,0.11087,-0.0509928
2.1975,0.211596,-0.0385349
2.20042,-0.00383966,-0.440087
2.18158,0.102881,0
2.18106,-0.110487,-0.0254241
2.20302,0.103893,-0.34312
2.19032,-0.00382205,-0.2788
2.1978,0.211625,0.0128327
2.19196,-0.0038249,-0.0127397
2.19684,0.103601,-0.236899
2.17972,-0.110419,-0.203733
2.18498,0.103042,0.0508998
2.17706,-0.110284,0.0253776
2.1922,0.103383,-0.153464
2.1927,-0.0038262,-0.179002
2.19292,0.211155,0.0641155
2.17966,-0.00380344,0.0380462
2.19334,0.211195,-0.141218
2.17789,0.102707,0.126976
2.17819,-0.00380087,0.0887419
2.19119,0.103335,-0.102182
2.17325,0.102488,0.267138
2.17676,-0.00379837,0.1777
2.19999,0.211836,-0.0900445
2.19297,0.103419,-0.0510859
2.19428,0.203171,-0.0384651
2.20039,-0.0119051,-0.440087
2.17794,0.0947104,0
2.17664,-0.118263,-0.0253776
2.19944,0.0956452,-0.342505
2.2022,-0.0119149,-0.280315
2.19458,0.203199,0.0128095
2.19193,-0.0118594,-0.0127397
2.1972,0.0955479,-0.236899
2.18327,-0.118624,-0.204105
2.18934,0.0952059,0.0509928
2.18064,-0.11848,0.0254241
2.19257,0.0953465,-0.153464
2.19267,-0.0118634,-0.179002
2.18572,0.202379,0.0638828
2.18364,-0.0118145,0.0381161
2.20204,0.20389,-0.14173
2.18108,-0.118505,-0.127208
2.18224,0.0948972,0.127208
2.18216,-0.0118065,0.0889047
2.19554,0.0954757,-0.102368
2.18097,-0.0118001,-0.114302
2.16567,0.0941769,0.266163
2.16875,-0.011734,0.177049
2.19279,0.203034,-0.0897188
2.18934,0.0952059,-0.0509928
2.19896,0.195866,-0.0385349
2.19641,-0.0195505,-0.439303
2.18625,0.0874275,0
2.17222,-0.125629,-0.025331
2.19024,-0.0194955,-0.2788
2.19129,0.195182,0.0127862
2.18788,-0.0194745,-0.0127165
2.19752,0.0878781,-0.236899
2.17887,-0.126014,-0.203733
2.19365,0.0877234,0.0510859
2.17622,-0.12586,0.0253776
2.19289,0.0876928,-0.153464
2.18863,-0.0194812,-0.178676
2.18243,0.194394,0.0637664
2.18358,-0.0194363,0.0381161
2.19877,0.195849,-0.141474
2.18464,-0.126347,-0.127441
2.17856,0.08712,0.126976
2.17811,-0.0193875,0.0887419
2.19187,0.0876521,-0.102182
2.18492,-0.0194481,-0.114511
2.16996,0.0867758,0.26665
2.1687,-0.0193038,0.177049
2.19765,0.0878832,-0.0511789
2.19163,0.187889,-0.0383953
2.17492,-0.0265729,-0.063301
2.18253,0.0800299,0
2.17978,-0.133321,-0.0254241
2.19016,-0.0267591,-0.2788
2.18794,0.187572,0.012763
2.1878,-0.0267303,-0.0127165
2.19383,0.0804441,-0.23647
2.18639,-0.133725,-0.204477
2.17978,-0.133321,0.0254241
2.19715,0.0805661,-0.153743
2.18856,-0.0267395,-0.178676
2.18306,0.187155,0.0637664
2.17951,-0.0266289,0.0380462
2.1994,0.188555,-0.141474
2.17624,-0.133104,-0.126976
2.17884,0.0798946,0.126976
2.18203,-0.0266597,0.0889047
2.19614,0.0805289,-0.102368
2.18484,-0.0266941,-0.114511
2.17023,0.0795789,0.26665
2.16862,-0.026496,0.177049
2.19412,0.188103,-0.0897188
2.18994,0.0803014,-0.0509928
2.19227,0.180237,-0.0383953
2.17481,-0.0341651,-0.063301
2.1788,0.0722778,0
2.1793,-0.14093,-0.0254241
2.20031,0.0729912,-0.342505
2.18609,-0.0343423,-0.278295
2.19257,0.180261,0.0127862
2.18769,-0.0343675,-0.0127165
2.19409,0.0727851,-0.23647
2.18194,-0.1411,-0.204105
2.18621,0.0725234,0.0508998
2.1793,-0.14093,0.0254241
2.20141,0.0730278,-0.154022
2.19244,-0.034442,-0.179002
2.18769,0.17986,0.0638828
2.1834,-0.0343,0.0381161
2.20801,0.181531,-0.141986
2.17576,-0.140701,-0.126976
2.17512,0.0721555,0.126743
2.18192,-0.0342768,0.0889047
2.19242,0.0727294,-0.102182
2.18473,-0.034321,-0.114511
2.17447,0.072134,0.267138
2.1725,-0.0341289,0.177375
2.19477,0.180442,-0.0897188
2.1902,0.072656,-0.0509928
2.19288,0.172585,-0.0383953
2.17904,0.0646734,0
2.17879,-0.148534,-0.0254241
2.1966,0.0651945,-0.34189
2.19389,-0.0421238,-0.279305
2.18521,0.17198,0.0127397
2.20229,0.0653633,-0.237327
2.18143,-0.148714,-0.204105
2.18645,0.0648932,0.0508998
2.1748,-0.148262,0.0253776
2.19368,0.0651078,-0.153464
2.1923,-0.0420933,-0.179002
2.19229,0.172538,0.0639992
2.17927,-0.041843,0.0380462
2.19669,0.172884,-0.141218
2.17526,-0.148293,-0.126976
2.17935,0.0646825,0.126976
2.17779,-0.0418147,0.0887419
2.19665,0.0651961,-0.102368
2.1846,-0.0419454,-0.114511
2.17074,0.0644269,0.26665
2.16839,-0.0416341,0.177049
2.1914,0.172468,-0.089556
2.19444,0.0651305,-0.0510859
2.18948,0.164629,-0.0383255
2.17427,-0.155853,-0.0253776
2.19286,0.0574225,-0.341275
2.18976,-0.0496923,-0.2788
2.19776,0.165251,0.0128095
2.19057,0.0573626,-0.236042
2.1809,-0.156328,-0.204105
2.19066,0.0573648,0.0509928
2.17028,-0.155567,0.025331
2.1899,0.057345,-0.153185
2.18816,-0.0496558,-0.178676
2.18092,0.163984,0.0636501
2.17911,-0.0494504,0.0380462
2.19728,0.165215,-0.141218
2.17871,-0.156171,-0.127208
2.17557,0.0569696,0.126743
2.17763,-0.049417,0.0887419
2.19686,0.0575273,-0.102368
2.17645,-0.0493902,-0.114092
2.16698,0.0567447,0.266163
2.16823,-0.0492035,0.177049
2.188,0.164517,-0.0893932
2.19066,0.0573648,-0.0509928
2.19802,0.157556,-0.0384651
2.17944,0.0494584,0
2.17372,-0.163443,-0.0253776
2.19305,0.0497672,-0.341275
2.18958,-0.0573361,-0.2788
2.19433,0.157292,0.0127862
2.19871,0.0498958,-0.236899
2.18034,-0.163941,-0.204105
2.18685,0.0496265,0.0508998
2.17372,-0.163443,0.0253776
2.19408,0.0497906,-0.153464
2.18797,-0.057294,-0.178676
2.18546,0.156656,0.0637664
2.17892,-0.0570571,0.0380462
2.19386,0.157258,-0.140962
2.17417,-0.163477,-0.126976
2.17974,0.0494653,0.126976
2.17345,-0.0569138,0.0885791
2.19705,0.0498581,-0.102368
2.18026,-0.0570921,-0.114302
2.16319,0.0490897,0.265675
2.16804,-0.0567722,0.177049
2.18458,0.156593,-0.0892304
2.19084,0.0497172,-0.0509928
2.19058,0.149339,-0.0383255
2.1756,0.0417736,0
2.17712,-0.171343,-0.0254241
2.19716,0.0421876,-0.34189
2.18936,-0.0649788,-0.2788
2.19088,0.149359,0.012763
2.187,-0.0649087,-0.0127165
2.19092,0.0420678,-0.236042
2.17975,-0.17155,-0.204105
2.18701,0.0419926,0.0508998
2.17313,-0.171029,0.0253776
2.19424,0.0421315,-0.153464
2.18377,-0.0648128,-0.178351
2.18201,0.148754,0.0636501
2.17471,-0.0645439,0.0379764
2.19439,0.149599,-0.140962
2.17757,-0.171378,-0.127208
2.17591,0.0417796,0.126743
2.17723,-0.0646188,0.0887419
2.19721,0.0421886,-0.102368
2.18005,-0.0647023,-0.114302
2.16732,0.0416147,0.266163
2.16783,-0.0643397,0.177049
2.18511,0.148966,-0.0892304
2.18701,0.0419926,-0.0508998
2.19109,0.141691,-0.0383255
2.17973,0.034242,0
2.17252,-0.178614,-0.0253776
2.19334,0.0344558,-0.341275
2.18516,-0.0724891,-0.278295
2.18739,0.141452,0.0127397
2.18676,-0.0725423,-0.0127165
2.19105,0.0344198,-0.236042
2.17517,-0.178832,-0.203733
2.19114,0.0344211,0.0509928
2.17651,-0.178942,0.0254241
2.19437,0.0344719,-0.153464
2.18752,-0.0725674,-0.178676
2.18252,0.141137,0.0636501
2.17447,-0.0721347,0.0379764
2.17205,0.0341213,0.126511
2.177,-0.0722184,0.0887419
2.19735,0.0345187,-0.102368
2.1838,-0.0724441,-0.114511
2.17142,0.0341114,0.26665
2.16759,-0.0719065,0.177049
2.18961,0.141595,-0.0893932
2.18314,0.0342955,-0.0508067
2.19157,0.134042,-0.0383255
2.17362,-0.079703,-0.063301
2.17984,0.0266331,0
2.17587,-0.186538,-0.0254241
2.1974,0.0268476,-0.34189
2.18886,-0.0802617,-0.2788
2.18787,0.133816,0.0127397
2.1825,-0.0800285,-0.0126932
2.19116,0.0267714,-0.236042
2.1785,-0.186764,-0.204105
2.18724,0.0267236,0.0508998
2.17587,-0.186538,0.0254241
2.19049,0.0267632,-0.153185
2.18725,-0.0802028,-0.178676
2.18299,0.133518,0.0636501
2.17421,-0.0797246,0.0379764
2.1914,0.134032,-0.140707
2.17216,0.0265392,0.126511
2.17673,-0.0798171,0.0887419
2.19346,0.0267995,-0.102182
2.18353,-0.0800666,-0.114511
2.17153,0.0265316,0.26665
2.16733,-0.0794723,0.177049
2.19009,0.133951,-0.0893932
2.18724,0.0267236,-0.0508998
2.19202,0.126391,-0.0383255
2.17122,-0.193776,-0.0253776
2.19649,-0.0882203,-0.27981
2.19631,0.126639,0.0127862
2.1862,-0.0878069,-0.0127165
2.19124,0.0191227,-0.236042
2.1818,-0.194721,-0.204477
2.17521,-0.194132,0.0254241
2.18658,0.019082,-0.152906
2.18696,-0.0878372,-0.178676
2.17946,0.125667,0.0635337
2.17791,-0.087474,0.0380462
2.19186,0.126382,-0.140707
2.17565,-0.194172,-0.127208
2.16824,0.018922,0.126278
2.17644,-0.0874148,0.0887419
2.18954,0.0191079,-0.101996
2.17925,-0.0875277,-0.114302
2.16367,0.0188821,0.265675
2.16704,-0.0870372,0.177049
2.19054,0.126306,-0.0893932
2.18733,0.0190885,-0.0508998
2.19245,0.118739,-0.0383255
2.17301,-0.0948756,-0.063301
2.17597,0.0113935,0
2.16655,-0.200985,-0.025331
2.18428,-0.0953677,-0.278295
2.19275,0.118755,0.012763
2.18188,-0.0952631,-0.0126932
2.18732,0.0114529,-0.235614
2.18338,0.0114323,0.0508067
2.16655,-0.200985,0.025331
2.18663,0.0114493,-0.152906
2.17867,-0.0951228,-0.178025
2.17988,0.118058,0.0635337
2.17759,-0.0950758,0.0380462
2.17496,-0.201765,-0.127208
2.18028,0.011416,0.126976
2.17612,-0.0950115,0.0887419
2.1896,0.0114648,-0.101996
2.18292,-0.0953084,-0.114511
2.16769,0.0113501,0.266163
2.18299,0.118226,-0.0890675
2.19138,0.0114741,-0.0509928
2.18886,0.110883,-0.0382557
2.176,0.00379784,0
2.16584,-0.208546,-0.025331
2.19361,0.00382858,-0.341275
2.18393,-0.102992,-0.278295
2.18516,0.110695,0.0127165
2.18154,-0.102879,-0.0126932
2.17643,-0.209566,-0.204105
2.1874,0.00381775,0.0508998
2.16982,-0.20893,0.0253776
2.18666,0.00381644,-0.152906
2.17832,-0.102727,-0.178025
2.18028,0.110448,0.0635337
2.17325,-0.102488,0.0379764
2.17027,-0.208973,-0.126976
2.16832,0.00378445,0.126278
2.17977,-0.102795,0.0889047
2.19362,0.00382859,-0.102182
2.1746,-0.102551,-0.114092
2.16772,0.00378339,0.266163
2.16638,-0.102164,0.177049
2.18339,0.110606,-0.0890675
2.18341,0.00381077,-0.0508067
2.18524,0.103053,-0.0381859
2.17305,-0.2169,-0.0254241
2.19361,-0.00382858,-0.341275
2.18356,-0.110614,-0.278295
2.18553,0.103067,0.0127165
2.18117,-0.110493,-0.0126932
2.19132,-0.00382458,-0.236042
2.17568,-0.217162,-0.204105
2.18341,-0.00381077,0.0508067
2.16907,-0.216502,0.0253776
2.19065,-0.00382341,-0.153185
2.18592,-0.110734,-0.178676
2.18465,0.103025,0.0636501
2.16889,-0.109871,0.0379066
2.18907,0.103234,-0.140451
2.16953,-0.216547,-0.126976
2.17232,-0.00379141,0.126511
2.1754,-0.110201,0.0887419
2.19362,-0.00382859,-0.102182
2.17821,-0.110344,-0.114302
2.16375,-0.00377646,0.265675
2.16203,-0.109524,0.176724
2.18775,0.103172,-0.0892304
2.18341,-0.00381077,-0.0508067
2.18157,0.095631,-0.0381161
2.17597,-0.0110137,0
2.1763,-0.224515,-0.0254707
2.19358,-0.0111028,-0.341275
2.18586,0.0958191,0.0127165
2.18478,-0.117941,-0.0127165
2.1913,-0.0110912,-0.236042
2.17538,-0.0110107,0.0506206
2.16834,-0.223694,0.0253776
2.18663,-0.0110676,-0.152906
2.18554,-0.117982,-0.178676
2.18098,0.0956051,0.0635337
2.17251,-0.117278,0.0379764
2.1894,0.0959742,-0.140451
2.1688,-0.223741,-0.126976
2.17104,-0.117199,0.0885791
2.1896,-0.0110826,-0.101996
2.17385,-0.117351,-0.114092
2.16372,-0.0109517,0.265675
2.16961,-0.117122,0.177375
2.19208,0.0960914,-0.0893932
2.18738,-0.0110714,-0.0508998
2.18589,0.0881765,-0.0381859
2.17592,-0.0186092,0
2.1755,-0.23211,-0.0254707
2.18958,-0.018726,-0.34066
2.1986,-0.126386,-0.280315
2.19418,0.0885109,0.012763
2.18436,-0.125567,-0.0127165
2.18727,-0.0187062,-0.235614
2.17811,-0.232389,-0.204477
2.18333,-0.0186725,0.0508067
2.16755,-0.231262,0.0253776
2.19057,-0.0187345,-0.153185
2.17715,-0.125153,-0.178025
2.1813,0.0879914,0.0635337
2.16809,-0.124632,0.0379066
2.18972,0.0883312,-0.140451
2.16825,-0.0185435,0.126278
2.17061,-0.124777,0.0885791
2.19354,-0.0187599,-0.102182
2.17741,-0.125168,-0.114302
2.16367,-0.0185044,0.265675
2.16521,-0.124466,0.177049
2.1884,0.0882779,-0.0892304
2.17933,-0.0186383,-0.0507136
2.19418,0.0808403,-0.0383255
2.16673,-0.238826,-0.0253776
2.1823,-0.133093,-0.278295
2.19048,0.080704,0.0127397
2.18391,-0.133191,-0.0127165
2.18719,-0.0263411,-0.235614
2.17333,-0.239554,-0.204105
2.18325,-0.0262937,0.0508067
2.16275,-0.238388,0.025331
2.1865,-0.0263328,-0.152906
2.18068,-0.132994,-0.178351
2.1776,0.0802295,0.0634174
2.16764,-0.132199,0.0379066
2.19002,0.0806871,-0.140451
2.17512,-0.239751,-0.127441
2.16817,-0.026112,0.126278
2.17415,-0.132596,0.0887419
2.18947,-0.0263685,-0.101996
2.17298,-0.132524,-0.114092
2.16359,-0.0260569,0.265675
2.16476,-0.132023,0.177049
2.18325,-0.0262937,-0.0508067
2.18644,0.0732957,-0.0381859
2.16593,-0.24601,-0.0253776
2.18274,0.0731716,0.0126932
2.17547,-0.139919,-0.01267
2.18311,-0.0335328,-0.235185
2.18044,-0.247659,-0.204849
2.18715,-0.0335949,0.0508998
2.16195,-0.245559,0.025331
2.1864,-0.0335834,-0.152906
2.17625,-0.139969,-0.178025
2.17785,0.0730079,0.0634174
2.16719,-0.139386,0.0379066
2.18628,0.0732905,-0.140195
2.1737,-0.139805,0.0887419
2.19336,-0.0336903,-0.102182
2.17252,-0.139729,-0.114092
2.15953,-0.0331705,0.265188
2.16034,-0.138945,0.176724
2.18496,0.0732461,-0.0890675
2.18715,-0.0335949,-0.0508998
2.18268,0.0655431,-0.0381161
2.17561,-0.0410142,0
2.16903,-0.254034,-0.0254241
2.18298,0.065552,0.0126932
2.17497,-0.147512,-0.01267
2.18298,-0.0411531,-0.235185
2.17165,-0.254342,-0.204105
2.17502,-0.0410031,0.0506206
2.16108,-0.253104,0.025331
2.18627,-0.0412151,-0.152906
2.17575,-0.147565,-0.178025
2.1741,0.0652853,0.063301
2.17068,-0.147221,0.0379764
2.16921,-0.147121,0.0885791
2.18524,-0.0411957,-0.10181
2.17999,-0.147853,-0.114511
2.16337,-0.0407833,0.265675
2.16779,-0.147025,0.177375
2.1852,0.0656187,-0.0890675
2.18302,-0.0411539,-0.0508067
2.18291,0.0575427,-0.0381161
2.17145,-0.0488979,0
2.16411,-0.261503,-0.0253776
2.1891,-0.0492955,-0.34066
2.18079,-0.155938,-0.278295
2.1912,0.0577613,0.0127397
2.17441,-0.155482,-0.01267
2.18286,-0.0491548,0.0508067
2.16411,-0.261503,0.0253776
2.18611,-0.0492279,-0.152906
2.17519,-0.155538,-0.178025
2.17832,0.0574218,0.0634174
2.17013,-0.155176,0.0379764
2.19074,0.0577492,-0.140451
2.16852,-0.262036,-0.127208
2.16778,-0.0488152,0.126278
2.16866,-0.155071,0.0885791
2.18907,-0.0492947,-0.101996
2.15923,-0.0486228,0.265188
2.16724,-0.154969,0.177375
2.18543,0.0576091,-0.0890675
2.18286,-0.0491548,-0.0508067
2.18709,0.0500141,-0.0381859
2.17127,-0.0564774,0
2.16715,-0.269549,-0.0254241
2.18419,-0.163847,-0.2788
2.19139,0.0501123,0.0127397
2.17386,-0.163071,-0.01267
2.18267,-0.056774,0.0508067
2.18193,-0.0567548,-0.152627
2.17861,-0.163428,-0.178351
2.17851,0.0498177,0.0634174
2.16957,-0.16275,0.0379764
2.19492,0.050193,-0.140707
2.1676,-0.269604,-0.127208
2.16759,-0.0563818,0.126278
2.1681,-0.16264,0.0885791
2.18489,-0.0568318,-0.10181
2.15905,-0.0561596,0.265188
2.18267,-0.056774,-0.0508067
2.18726,0.0423794,-0.0381859
2.17505,-0.0641741,0
2.16223,-0.276605,-0.0253776
2.19155,0.0424626,0.0127397
2.17726,-0.170972,-0.0126932
2.18242,-0.0643915,-0.235185
2.17846,-0.0642747,0.0507136
2.16223,-0.276605,0.0253776
2.18571,-0.0644885,-0.152906
2.17405,-0.17072,-0.178025
2.17467,0.0421355,0.063301
2.16899,-0.170322,0.0379764
2.1871,0.0423764,-0.140195
2.16664,-0.277169,-0.127208
2.17137,-0.0640656,0.126511
2.16752,-0.170207,0.0885791
2.18069,-0.0643403,-0.101624
2.17033,-0.170428,-0.114092
2.16678,-0.06393,0.266163
2.15815,-0.169471,0.176724
2.18178,0.0422733,-0.0889047
2.18646,-0.0645106,-0.0508998
2.17939,0.0349975,-0.0380462
2.17083,-0.0712553,0
2.16527,-0.284294,-0.0254241
2.17907,-0.178386,-0.278295
2.18368,0.0350664,0.0126932
2.17668,-0.178191,-0.0126932
2.18219,-0.0716283,-0.235185
2.17424,-0.0713672,0.0506206
2.1815,-0.0716053,-0.152627
2.1788,0.034988,0.0634174
2.16443,-0.177188,0.0379066
2.18324,0.0350593,-0.139939
2.16716,-0.0711348,0.126278
2.17093,-0.17772,0.0887419
2.19244,-0.0719646,-0.102182
2.17374,-0.17795,-0.114302
2.16655,-0.0711149,0.266163
2.15758,-0.176627,0.176724
2.17824,-0.0714984,-0.0507136
2.1875,0.0271085,-0.0381859
2.17056,-0.0792113,0
2.1838,0.0270626,0.0126932
2.17203,-0.185827,-0.01267
2.17796,-0.0794815,0.0507136
2.16025,-0.291693,0.0253776
2.18122,-0.0796004,-0.152627
2.17678,-0.186233,-0.178351
2.17891,0.0270021,0.0634174
2.18734,0.0271066,-0.140195
2.16688,-0.0790773,0.126278
2.16628,-0.185335,0.0885791
2.18018,-0.0795627,-0.101624
2.17307,-0.185916,-0.114302
2.16628,-0.0790552,0.266163
2.16089,-0.184874,0.177049
2.17396,-0.0793357,-0.0506206
2.18358,0.019437,-0.0381161
2.17027,-0.0867875,0
2.16318,-0.299781,-0.0254241
2.18791,-0.0874931,-0.34066
2.18788,0.0194752,0.0127165
2.17137,-0.193407,-0.01267
2.16968,-0.086764,0.0505275
2.17694,-0.0870544,-0.152348
2.17612,-0.19383,-0.178351
2.17499,0.0193605,0.063301
2.16709,-0.193026,0.0379764
2.18743,0.0194712,-0.140195
2.1626,-0.0864811,0.126045
2.16562,-0.192896,0.0885791
2.18788,-0.0874918,-0.101996
2.16202,-0.0864579,0.265675
2.1821,0.0194238,-0.0889047
2.18167,-0.0872434,-0.0508067
2.18763,0.0118364,-0.0381859
2.16212,-0.30733,-0.0254241
2.19193,0.0118596,0.0127397
2.17068,-0.200986,-0.01267
2.18528,-0.0950293,-0.235614
2.18135,-0.0948582,0.0508067
2.18061,-0.0948261,-0.152627
2.17505,0.0117683,0.063301
2.1664,-0.20059,0.0379764
2.19147,0.0118571,-0.140451
2.16628,-0.094203,0.126278
2.16494,-0.200454,0.0885791
2.18357,-0.0949547,-0.10181
2.18216,0.0118067,-0.0889047
2.18534,-0.095032,-0.0508998
2.19166,0.0042077,-0.0382557
2.16499,-0.315452,-0.0254707
2.18796,0.0042006,0.0127165
2.16598,-0.208179,-0.0126467
2.18096,-0.10247,-0.235185
2.181,-0.102472,0.0508067
2.15707,-0.314299,0.0253776
2.18027,-0.102437,-0.152627
2.17471,-0.209018,-0.178351
2.17508,0.00417586,0.063301
2.16171,-0.207768,0.0379066
2.18352,0.00419207,-0.139939
2.16594,-0.101764,0.126278
2.1682,-0.208392,0.0887419
2.17923,-0.102389,-0.101624
2.16533,-0.101736,0.266163
2.17701,-0.102284,-0.0507136
2.18366,-0.0034301,-0.0381161
2.18396,-0.00343057,0.0126932
2.17718,-0.216928,-0.0127165
2.18854,-0.110484,-0.236042
2.17664,-0.109883,0.0507136
2.17989,-0.110047,-0.152627
2.17108,-0.00341033,0.0631846
2.16097,-0.215313,0.0379066
2.18751,-0.00343614,-0.140195
2.16431,-0.323072,-0.127441
2.16158,-0.109123,0.126045
2.16348,-0.215563,0.0885791
2.17886,-0.109995,-0.101624
2.17664,-0.109883,-0.0507136
2.17964,-0.0102714,-0.0380462
2.16888,-0.116324,0
2.1589,-0.329201,-0.0254241
2.18394,-0.0102916,0.0126932
2.16455,-0.222539,-0.0126467
2.18024,-0.116932,-0.235185
2.17628,-0.11672,0.0507136
2.1589,-0.329201,0.0254241
2.17954,-0.116895,-0.152627
2.17328,-0.223436,-0.178351
2.17506,-0.0102498,0.063301
2.16426,-0.222509,0.0379764
2.1835,-0.0102896,-0.139939
2.1628,-0.222359,0.0885791
2.1785,-0.11684,-0.101624
2.17817,-0.0102645,-0.0887419
2.17628,-0.11672,-0.0507136
2.18359,-0.0182936,-0.0381161
2.18389,-0.0182961,0.0126932
2.16372,-0.230471,-0.0126467
2.17979,-0.124923,-0.235185
2.17584,-0.124696,0.0507136
2.15768,-0.337111,0.0254241
2.17909,-0.124883,-0.152627
2.183,-0.0182887,0.0635337
2.17945,-0.018259,-0.139683
2.16477,-0.124062,0.126278
2.15799,-0.229861,0.0884162
2.18205,-0.125052,-0.10181
2.17983,-0.124925,-0.0508067
2.18351,-0.0259157,-0.0381161
2.18781,-0.0259667,0.0127165
2.16688,-0.23846,-0.01267
2.17539,-0.13229,0.0507136
2.17865,-0.132488,-0.152627
2.17493,-0.0258138,0.063301
2.16261,-0.237991,0.0379764
2.18337,-0.025914,-0.139939
2.16831,-0.13186,0.126511
2.1816,-0.132668,-0.10181
2.18204,-0.0258982,-0.0889047
2.17539,-0.13229,-0.0507136
2.17941,-0.033476,-0.0380462
2.16752,-0.139408,0
2.18371,-0.0335419,0.0126932
2.17001,-0.246474,-0.0126932
2.18681,-0.140648,-0.236042
2.17093,-0.139627,0.0506206
2.17817,-0.140092,-0.152627
2.17077,-0.246561,-0.178351
2.17083,-0.0333441,0.0631846
2.16177,-0.245538,0.0379764
2.18725,-0.0335965,-0.140195
2.16386,-0.139172,0.126278
2.17714,-0.140026,-0.101624
2.17794,-0.0334533,-0.0887419
2.17891,-0.14014,-0.0508067
2.17929,-0.040703,-0.0380462
2.16705,-0.146595,0
2.17958,-0.0407085,0.01267
2.16918,-0.253669,-0.0126932
2.17839,-0.147362,-0.235185
2.17843,-0.147365,0.0508067
2.17769,-0.147315,-0.152627
2.1707,-0.0405426,0.0631846
2.15948,-0.252534,0.0885791
2.17666,-0.147245,-0.101624
2.17444,-0.147095,-0.0507136
2.17912,-0.0486902,-0.0380462
2.17942,-0.0486968,0.01267
2.16427,-0.261138,-0.01267
2.17784,-0.155345,-0.235185
2.16591,-0.154494,0.0505275
2.1851,-0.155863,-0.153185
2.17454,-0.0485877,0.063301
2.17898,-0.0486871,-0.139683
2.15854,-0.260448,0.0885791
2.17611,-0.155222,-0.101624
2.16927,-0.261742,-0.114511
2.17389,-0.155063,-0.0507136
2.17894,-0.0562965,-0.0380462
2.17924,-0.0563041,0.01267
2.16731,-0.269185,-0.0126932
2.17728,-0.162946,-0.235185
2.16536,-0.162054,0.0505275
2.1726,-0.162596,-0.152348
2.17203,-0.269771,-0.178676
2.17036,-0.0560747,0.0631846
2.15908,-0.268162,0.0379764
2.18279,-0.056396,-0.139939
2.16228,-0.161824,0.126278
2.17732,-0.162949,-0.0508067
2.17873,-0.063902,-0.0380462
2.18302,-0.064028,0.0126932
2.16239,-0.276241,-0.01267
2.18066,-0.170856,-0.235614
2.17275,-0.170236,0.0507136
2.176,-0.170491,-0.152627
2.17015,-0.0636503,0.0631846
2.17497,-0.17041,-0.101624
2.17726,-0.0638588,-0.0887419
2.17275,-0.170236,-0.0507136
2.18249,-0.071638,-0.0381161
2.16476,-0.177215,0
2.18279,-0.0716477,0.0126932
2.16934,-0.284829,-0.0127165
2.18402,-0.178791,-0.236042
2.17214,-0.177819,0.0507136
2.17539,-0.178085,-0.152627
2.16991,-0.0712251,0.0631846
2.17836,-0.0715023,-0.139683
2.1611,-0.176915,0.126278
2.17038,-0.177675,-0.101438
2.17613,-0.178146,-0.0508067
2.17426,-0.0782067,-0.0379764
2.16419,-0.184015,0
2.17855,-0.078361,0.01267
2.16447,-0.29111,-0.0126932
2.17552,-0.184978,-0.235185
2.17157,-0.184642,0.0507136
2.17482,-0.184919,-0.152627
2.17812,-0.0783454,-0.139683
2.17379,-0.184831,-0.101624
2.16759,-0.184304,-0.0506206
2.17396,-0.0861752,-0.0379764
2.16749,-0.192299,0
2.17426,-0.0861869,0.0126467
2.15943,-0.298493,-0.01267
2.17088,-0.1926,0.0507136
2.17811,-0.193241,-0.152906
2.16938,-0.0859935,0.0631846
2.1731,-0.192797,-0.101624
2.16442,-0.299183,-0.114511
2.1669,-0.192247,-0.0506206
2.17365,-0.0937632,-0.0379764
2.18193,-0.0941207,0.0126932
2.1663,-0.307153,-0.0127165
2.1781,-0.200906,-0.235614
2.16622,-0.19981,0.0506206
2.17344,-0.200477,-0.152627
2.16906,-0.0935655,0.0631846
2.17617,-0.093872,-0.0887419
2.1702,-0.200177,-0.0507136
2.17732,-0.101156,-0.0380462
2.17761,-0.10117,0.01267
2.16554,-0.206992,0.0506206
2.16874,-0.100758,0.0631846
2.17718,-0.10115,-0.139683
2.17174,-0.207584,-0.101624
2.16554,-0.206992,-0.0506206
2.18095,-0.108956,-0.0381161
2.18124,-0.10897,0.0126932
2.1602,-0.321302,-0.0126932
2.16878,-0.214944,0.0507136
2.17203,-0.215266,-0.152627
2.16838,-0.108328,0.0631846
2.15775,-0.213851,0.126278
2.17654,-0.116734,-0.0380462
2.17683,-0.11675,0.01267
2.16296,-0.329821,-0.0127165
2.17196,-0.223301,0.0508067
2.17123,-0.223225,-0.152627
2.15696,-0.221758,0.126278
2.17417,-0.223528,-0.10181
2.16798,-0.222892,-0.0507136
2.17213,-0.124103,-0.0379764
2.17242,-0.12412,0.0126467
2.1618,-0.337369,-0.0127165
2.16321,-0.230035,0.0506206
2.1744,-0.231225,-0.152906
2.16755,-0.123841,0.0631846
2.17598,-0.124323,-0.139683
2.17465,-0.124247,-0.0887419
2.16719,-0.230458,-0.0507136
2.17569,-0.131547,-0.0380462
2.17599,-0.131564,0.01267
2.16642,-0.237644,0.0507136
2.16966,-0.237999,-0.152627
2.16712,-0.131028,0.0631846
2.17556,-0.131538,-0.139683
2.17422,-0.131458,-0.0887419
2.16642,-0.237644,-0.0507136
2.1752,-0.13952,-0.0380462
2.17948,-0.139795,0.0126932
2.1695,-0.246033,0.0508067
2.17273,-0.246399,-0.152906
2.16663,-0.13897,0.0631846
2.17904,-0.139767,-0.139939
2.17171,-0.246283,-0.10181
2.1695,-0.246033,-0.0508067
2.17869,-0.147382,-0.0381161
2.17499,-0.147132,0.01267
2.16863,-0.253605,0.0508067
2.17456,-0.147103,-0.139683
2.17084,-0.253863,-0.10181
2.17657,-0.254533,-0.0509928
2.1705,-0.154061,0.0126467
2.15694,-0.367143,-0.0127165
2.16381,-0.260317,0.0507136
2.17101,-0.261183,-0.152906
2.17395,-0.261537,-0.101996
2.16778,-0.260795,-0.0508067
2.16966,-0.161614,-0.0379764
2.16995,-0.161636,0.0126467
2.16289,-0.267868,0.0507136
2.16508,-0.161273,0.0631846
2.17351,-0.161901,-0.139683
2.16908,-0.169187,-0.0379764
2.17735,-0.169832,0.0126932
2.16451,-0.16883,0.0631846
2.1659,-0.275922,-0.0508067
2.17249,-0.176703,-0.0380462
2.17677,-0.177051,0.0126932
2.16393,-0.176007,0.0631846
2.16498,-0.283103,-0.0508067
2.17183,-0.184664,-0.0380462
2.17213,-0.184689,0.01267
2.16393,-0.291036,0.0508067
2.16715,-0.291469,-0.152906
2.17567,-0.184991,-0.139939
2.16393,-0.291036,-0.0508067
2.16719,-0.191892,-0.0379764
2.15952,-0.298122,0
2.17147,-0.19227,0.01267
2.15894,-0.298041,0.0507136
2.18193,-0.301215,-0.154022
2.1666,-0.19184,0.063301
2.17103,-0.192232,-0.139683
2.1651,-0.298892,-0.10181
2.17078,-0.199849,0.01267
2.15788,-0.305575,0.0507136
2.16592,-0.199401,0.063301
2.17035,-0.199809,-0.139683
2.16981,-0.207018,-0.0380462
2.17011,-0.207047,0.01267
2.15686,-0.312729,0.0507136
2.16127,-0.206203,0.0631846
2.16835,-0.206878,-0.0887419
2.16081,-0.313303,-0.0508067
2.1651,-0.214198,-0.0379764
2.16937,-0.21462,0.01267
2.15575,-0.320256,0.0507136
2.1723,-0.222569,-0.0381161
2.16861,-0.222192,0.01267
2.16384,-0.229338,0.0126467
2.16296,-0.229245,0.063301
2.16671,-0.237294,-0.0380462
2.16701,-0.237326,0.01267
2.16215,-0.236794,0.063301
2.16587,-0.244855,-0.0380462
2.17014,-0.245338,0.0126932
2.16131,-0.24434,0.063301
2.1697,-0.245288,-0.139939
2.165,-0.252414,-0.0380462
2.16927,-0.252912,0.0126932
2.16883,-0.25286,-0.139939
2.17205,-0.260924,-0.0381859
2.16043,-0.259528,0.0126467
2.15955,-0.259423,0.063301
2.17113,-0.268504,-0.0381859
2.16348,-0.267559,0.01267
2.16621,-0.275577,-0.0381161
2.16253,-0.275109,0.01267
2.15672,-0.282023,0.063301
2.16849,-0.291265,0.0127165
2.1635,-0.298286,0.0126932
2.16037,-0.320171,0.0126932
2.16319,-0.328311,0.0127165
2.15808,-0.335245,0.0126932
