2.52367,0.20305,-0.0294752
2.52483,0.203143,-0.23645
2.51957,0.20272,-0.147208
2.52038,0.193933,-0.0294287
2.52949,0.194635,-0.236822
2.52823,0.194538,-0.147673
2.52102,0.309543,-0.0147623
2.53016,0.185803,-0.236822
2.52491,0.185418,-0.147441
2.51812,0.300268,-0.014739
2.53079,0.176971,-0.236822
2.5296,0.301638,-0.207968
2.52175,0.300701,0.0443291
2.52156,0.176325,-0.147208
2.51868,0.300335,-0.132933
2.52221,0.168411,-0.0294287
2.52736,0.168754,-0.23645
2.52221,0.168411,0.0294287
2.52268,0.292778,0.0443291
2.52609,0.168669,-0.147441
2.52357,0.292881,-0.133143
2.52281,0.159165,-0.0294287
2.5201,0.283121,-0.014739
2.53194,0.15974,-0.236822
2.53169,0.284422,0.0444687
2.5227,0.159157,-0.147208
2.52333,0.150797,-0.0294287
2.52501,0.275195,-0.0147623
2.53245,0.151342,-0.236822
2.52064,0.274719,-0.206991
2.52466,0.275158,0.0443291
2.53119,0.151267,-0.147673
2.52295,0.274971,0.103397
2.51762,0.27439,-0.132724
2.51984,0.141764,-0.0293821
2.52197,0.26596,-0.014739
2.53297,0.142502,-0.236822
2.52384,0.141989,0.0294287
2.52158,0.265919,-0.206991
2.51765,0.265505,0.0441895
2.52771,0.142207,-0.147441
2.52253,0.266019,-0.132933
2.52432,0.133177,-0.0294287
2.52947,0.133449,-0.23645
2.53231,0.133599,0.0295218
2.51853,0.256711,-0.206666
2.51856,0.256714,0.0441895
2.52344,0.257212,-0.132933
2.52477,0.124367,-0.0294287
2.52992,0.12462,-0.23645
2.52077,0.12417,0.0293821
2.52343,0.248315,0.0442593
2.53228,0.249186,-0.133352
2.52918,0.115735,-0.0294752
2.53034,0.115788,-0.23645
2.52026,0.239123,-0.206666
2.5203,0.239126,0.0441895
2.52507,0.115547,-0.147208
2.5212,0.239212,-0.132724
2.52158,0.106567,-0.0293821
2.52544,0.230722,-0.014739
2.53073,0.106954,-0.23645
2.52112,0.230327,0.0441895
2.52945,0.1069,-0.147441
2.526,0.230773,-0.132933
2.52993,0.098075,-0.0294752
2.51826,0.221206,-0.0146925
2.53507,0.0982742,-0.236822
2.52193,0.0977652,0.0293821
2.52584,0.221871,-0.206991
2.51792,0.221176,0.0441197
2.52981,0.0980705,-0.147441
2.53077,0.222304,-0.133143
2.53425,0.0893836,-0.0295218
2.523,0.212749,-0.0147158
2.53937,0.0895643,-0.237193
2.52626,0.0891017,0.0294287
2.5266,0.213052,-0.206991
2.52266,0.212721,0.0441895
2.52615,0.0890977,-0.147208
2.53153,0.213468,-0.133143
2.51689,0.336719,-0.0590884
2.53055,0.0804104,-0.0294752
2.5317,0.204586,-0.0147623
2.53569,0.0805737,-0.236822
2.52256,0.0801564,0.0293821
2.52733,0.204232,-0.206991
2.53136,0.204558,0.0443291
2.52644,0.0802798,-0.147208
2.53226,0.204631,-0.133143
2.51942,0.194743,-0.0735409
2.52682,0.0714629,-0.0294287
2.52842,0.195439,-0.014739
2.53198,0.0716087,-0.23645
2.52282,0.0713498,0.0293821
2.53597,0.196023,-0.207642
2.52807,0.195412,0.0442593
2.52671,0.0714597,-0.147208
2.52101,0.194866,-0.132515
2.52513,0.185877,-0.0147158
2.5362,0.0624267,-0.236822
2.52706,0.0622017,0.0294287
2.52475,0.185849,-0.206666
2.52877,0.186145,0.0442593
2.52695,0.062199,-0.147208
2.51909,0.185433,0.102908
2.52569,0.185919,-0.132724
2.53368,0.178505,-0.0147623
2.53639,0.0544579,-0.236822
2.52725,0.0542617,0.0294287
2.52532,0.177916,-0.206666
2.52137,0.177637,0.0441197
2.53113,0.054345,-0.147441
2.51966,0.177517,0.102908
2.53025,0.178263,-0.132933
2.52129,0.301984,-0.0590884
2.52742,0.0454402,-0.0294287
2.53029,0.169393,-0.014739
2.54054,0.0456761,-0.237193
2.51836,0.292721,0.0589953
2.53142,0.0455121,0.0294752
2.5299,0.169367,-0.206991
2.52596,0.169103,0.0441895
2.53529,0.0455817,-0.147673
2.52026,0.168721,0.102908
2.52425,0.293405,-0.118375
2.53484,0.169697,-0.133143
2.51836,0.292721,-0.0589953
2.53156,0.0366748,-0.0294752
2.53838,0.161035,-0.323752
2.53087,0.160559,-0.014739
2.5367,0.0367493,-0.236822
2.52356,0.0365589,0.0293821
2.53446,0.160786,-0.207317
2.52654,0.160284,0.0441895
2.52745,0.0366152,-0.147208
2.52768,0.0277955,-0.0294287
2.531,0.1517,-0.322742
2.52343,0.151246,-0.0146925
2.53283,0.0278523,-0.23645
2.52368,0.0277516,0.0293821
2.535,0.15194,-0.207317
2.52708,0.151465,0.0441895
2.53156,0.0278382,-0.147441
2.52799,0.15152,-0.132724
2.52034,0.275133,-0.0589953
2.52376,0.0189415,-0.0293821
2.53151,0.142864,-0.322742
2.52794,0.142662,-0.0147158
2.53292,0.0190102,-0.23645
2.51731,0.265913,0.0589023
2.53154,0.142865,-0.206991
2.53558,0.143093,0.0443291
2.53563,0.0190306,-0.147673
2.53249,0.142919,-0.132933
2.52129,0.266333,-0.0589953
2.53181,0.0101644,-0.0294752
2.52407,0.133607,-0.321731
2.53641,0.13426,-0.0147623
2.51822,0.257125,0.0589023
2.52381,0.0101323,0.0293821
2.53202,0.134028,-0.206991
2.52808,0.133819,0.0441895
2.53169,0.0101639,-0.147441
2.53297,0.134078,-0.132933
2.52783,0.0013239,-0.0294287
2.52849,0.124991,-0.322237
2.52487,0.124813,-0.0146925
2.52308,0.248725,0.0589953
2.52383,0.00132181,0.0293821
2.53247,0.125188,-0.206991
2.52853,0.124993,0.0441895
2.52772,0.00132384,-0.147208
2.53742,0.125432,-0.133143
2.5191,0.248332,-0.0589023
2.53182,-0.00751241,-0.0294752
2.52891,0.116164,-0.322237
2.53728,0.116548,-0.0147623
2.54094,-0.00753948,-0.237193
2.53182,-0.00751241,0.0294752
2.53289,0.116347,-0.206991
2.52895,0.116165,0.0441895
2.5317,-0.00751206,-0.147441
2.52778,-0.0163237,-0.0294287
2.5293,0.107336,-0.322237
2.52568,0.107183,-0.0146925
2.5409,-0.0164084,-0.237193
2.53727,0.107674,-0.207317
2.53733,0.107677,0.0443291
2.53964,-0.0164003,-0.147906
2.51964,0.106926,0.102745
2.51873,0.230552,-0.117817
2.53424,0.107546,-0.132933
2.5237,-0.0251068,-0.0293821
2.52966,0.0985069,-0.322237
2.53404,0.0986774,-0.014739
2.51963,0.221769,-0.272455
2.54083,-0.0252772,-0.237193
2.52157,0.22194,0.0589023
2.5237,-0.0251068,0.0293821
2.52966,0.098507,-0.206666
2.53769,0.0988197,0.0443291
2.53957,-0.0252647,-0.147906
2.52,0.0981307,0.102745
2.5346,0.0986993,-0.132933
2.52555,0.22229,-0.0589953
2.52135,0.0893705,-0.0734245
2.52301,0.213195,0
2.5276,-0.0339693,-0.0294287
2.53037,0.0896902,-0.0147158
2.54072,-0.0341456,-0.237193
2.52631,0.213474,0.0589953
2.5276,-0.0339693,0.0294287
2.53397,0.089818,-0.206991
2.52603,0.0895364,0.0441197
2.53947,-0.0341288,-0.147906
2.5267,0.213507,0.147673
2.52033,0.0893342,0.102745
2.52028,0.212964,-0.117817
2.53493,0.0898518,-0.132933
2.5303,0.21381,-0.0590884
2.52165,0.0805682,-0.0734245
2.52374,0.204386,0
2.52747,-0.0427927,-0.0294287
2.52632,0.0807174,-0.321731
2.53067,0.0808564,-0.0147158
2.54059,-0.0430149,-0.237193
2.53103,0.204976,0.0590884
2.52747,-0.0427927,0.0294287
2.53826,0.0810989,-0.207317
2.53032,0.0808454,0.0441895
2.53135,-0.0428584,-0.147441
2.52062,0.0805355,0.102745
2.521,0.204164,-0.117817
2.51907,0.204008,-0.0588092
2.5259,0.0723194,-0.0735409
2.53931,-0.0514175,-0.0295684
2.53054,0.0724523,-0.322237
2.52692,0.0723488,-0.0146925
2.52971,0.196427,-0.273312
2.53247,-0.051279,-0.23645
2.51973,0.195652,0.0588092
2.52731,-0.0511746,0.0294287
2.53851,0.0726806,-0.207317
2.53457,0.0725679,0.0442593
2.53119,-0.0512531,-0.147441
2.52214,0.063402,-0.0734245
2.52108,0.186907,0
2.53112,-0.0600906,-0.0294752
2.53474,0.0637189,-0.322742
2.52316,0.0634277,-0.0146693
2.53038,0.187596,-0.273312
2.54024,-0.0603072,-0.237193
2.52439,0.187152,0.0589023
2.52312,-0.0599007,0.0293821
2.53476,0.0637194,-0.206991
2.53481,0.0637207,0.0442593
2.53898,-0.0602774,-0.147906
2.52111,0.0633762,0.102745
2.53172,0.063643,-0.132724
2.52837,0.187447,-0.0589953
2.52234,0.0545982,-0.0734245
2.53089,-0.0689249,-0.0294752
2.53892,0.054957,-0.323247
2.53136,0.0547935,-0.0147158
2.52308,0.178202,-0.272455
2.54001,-0.0691734,-0.237193
2.52502,0.178339,0.0589023
2.52689,-0.0688161,0.0294287
2.53497,0.0548716,-0.206991
2.53502,0.0548727,0.0442593
2.53876,-0.0691392,-0.147906
2.52297,0.178194,-0.117817
2.53992,0.0549787,-0.133143
2.52901,0.178621,-0.0589953
2.52651,0.0458652,-0.0735409
2.53863,-0.0780054,-0.0295684
2.52719,0.0458774,-0.321731
2.53154,0.0459564,-0.0147158
2.52369,0.169393,-0.272455
2.53975,-0.0780399,-0.237193
2.52164,0.169256,0.0588092
2.52664,-0.0776368,0.0294287
2.52016,0.169157,-0.176623
2.53116,0.0459495,-0.206666
2.5312,0.0459502,0.0441895
2.53451,-0.0778787,-0.147673
2.52204,0.169283,0.147208
2.52549,0.0458465,0.102908
2.52358,0.169386,-0.117817
2.5401,0.0461117,-0.133143
2.53361,0.170059,-0.0590884
2.52666,0.0370462,-0.0735409
2.52689,0.160751,0
2.53434,-0.086729,-0.0295218
2.52733,0.0370561,-0.321731
2.53169,0.0371199,-0.0147158
2.52823,0.160836,-0.272883
2.53947,-0.0869043,-0.237193
2.53419,0.161215,0.0590884
2.52635,-0.0864554,0.0294287
2.53529,0.0371728,-0.206991
2.52734,0.0370563,0.0441197
2.53023,-0.0865882,-0.147441
2.52164,0.0369726,0.102745
2.52814,0.16083,-0.118003
2.52222,0.160453,-0.0588092
2.52277,0.028181,-0.0734245
2.52744,0.151928,0
2.53935,0.0283662,-0.323247
2.5278,0.0282371,-0.0146925
2.52481,0.151771,-0.272455
2.53517,-0.0956187,-0.236822
2.52675,0.151887,0.0589023
2.53403,-0.0955757,0.0295218
2.52128,0.151558,-0.176623
2.53945,0.0283673,0.0443291
2.54188,-0.095872,-0.148138
2.52715,0.151911,0.147441
2.52175,0.0281696,0.102745
2.5247,0.151764,-0.117817
2.52286,0.019374,-0.0734245
2.53767,-0.104586,-0.0295684
2.5315,0.0194404,-0.322237
2.52788,0.0194126,-0.0146925
2.52136,0.142731,-0.272027
2.53482,-0.104468,-0.236822
2.51928,0.142614,0.0587162
2.53948,0.0195016,-0.207317
2.53554,0.0194714,0.0442593
2.53754,-0.10458,-0.147906
2.51969,0.142637,0.146975
2.52123,0.142724,-0.117631
2.53644,0.0194784,-0.132933
2.52727,0.143066,-0.0589023
2.52691,0.010586,-0.0735409
2.52045,0.133857,0
2.5293,-0.113084,-0.0294752
2.53155,0.0106054,-0.322237
2.52794,0.0105903,-0.0146925
2.52581,0.134142,-0.272455
2.5424,-0.11367,-0.237565
2.52775,0.134245,0.0589023
2.52531,-0.112906,0.0294287
2.52228,0.133954,-0.176623
2.53156,0.0106054,-0.206666
2.53559,0.0106224,0.0442593
2.52416,0.134054,0.147208
2.52189,0.0105649,0.102745
2.5257,0.134136,-0.117817
2.53574,0.134669,-0.0590884
2.52293,0.00176189,-0.0734245
2.5249,0.125256,0
2.53688,-0.122298,-0.0295684
2.53157,0.00176793,-0.322237
2.53596,0.00177099,-0.014739
2.53023,0.12552,-0.272883
2.53801,-0.122353,-0.237193
2.52821,0.12542,0.0589023
2.52889,-0.121913,0.0294752
2.52273,0.125148,-0.176623
2.53556,0.00177071,-0.206991
2.53161,0.00176795,0.0441895
2.54074,-0.122484,-0.148138
2.52461,0.125241,0.147208
2.5259,0.00176397,0.102908
2.53413,0.125714,-0.118189
2.5322,0.125618,-0.0589953
2.53092,-0.00706659,-0.0736572
2.52931,0.116626,0
2.53644,-0.131153,-0.0295684
2.53156,-0.0070684,-0.322237
2.52395,-0.00704713,-0.0146693
2.52668,0.116505,-0.272455
2.54154,-0.131416,-0.237565
2.52863,0.116594,0.0589023
2.52845,-0.130739,0.0294752
2.53556,-0.00707954,-0.206991
2.5356,-0.00707968,0.0442593
2.53631,-0.131146,-0.147906
2.52989,-0.00706373,0.103071
2.53456,0.116868,-0.118189
2.52064,0.116226,-0.0587162
2.5297,0.107796,0
2.53996,-0.140227,-0.0296149
2.53152,-0.0159058,-0.322237
2.53191,-0.0159082,-0.0147158
2.5231,0.107514,-0.272027
2.54107,-0.140288,-0.237565
2.52902,0.107766,0.0589023
2.53597,-0.140006,0.0295684
2.53156,-0.0159061,0.0441895
2.53584,-0.139999,-0.147906
2.52144,0.107443,0.146975
2.53495,0.108019,-0.118189
2.52902,0.107766,-0.0589023
2.52607,0.0988077,0
2.54345,-0.149327,-0.0296615
2.53542,-0.0247819,-0.322742
2.53184,-0.0247468,-0.0147158
2.53141,0.0990166,-0.272883
2.54056,-0.149158,-0.237565
2.52938,0.0989372,0.0589023
2.53949,-0.0248217,0.0443291
2.5433,-0.149319,-0.148371
2.5218,0.0986405,0.146975
2.52578,-0.0246877,0.102908
2.52732,0.0988568,-0.117817
2.52539,0.0987809,-0.0588092
2.5186,0.213264,-0.0441197
2.52671,-0.0335172,-0.0735409
2.5304,0.0901324,0
2.53093,-0.157459,-0.0295218
2.54325,-0.0337367,-0.323752
2.52773,-0.0335308,-0.0146925
2.52777,0.0900387,-0.272455
2.544,-0.158272,-0.237937
2.53371,0.0902503,0.0589953
2.52694,-0.15721,0.0294752
2.52423,0.0899128,-0.176623
2.53933,-0.0336846,-0.207317
2.53939,-0.0336854,0.0443291
2.54277,-0.158195,-0.148371
2.52611,0.0899799,0.147208
2.52568,-0.0335036,0.102908
2.53165,0.090177,-0.118003
2.5363,-0.0336444,-0.132933
2.52172,0.0898233,-0.0587162
2.52328,0.205236,-0.0441895
2.53058,-0.0419617,-0.0736572
2.52268,0.081483,0
2.5304,-0.16585,-0.0295218
2.53519,-0.0420382,-0.322742
2.53561,-0.0420451,-0.014739
2.536,0.0819131,-0.273312
2.54346,-0.166706,-0.237937
2.53,0.0817192,0.0589023
2.53439,-0.166112,0.0295684
2.5392,-0.0421047,-0.207317
2.53127,-0.0419731,0.0441895
2.5264,0.081603,0.147208
2.53193,0.0817817,-0.118003
2.526,0.0815901,-0.0588092
2.54177,-0.175509,-0.0296615
2.53503,-0.0508881,-0.322742
2.52345,-0.0506556,-0.0146693
2.52832,0.0728306,-0.272455
2.53426,0.0730018,0.0589953
2.5298,-0.174683,0.0295218
2.53904,-0.0509686,-0.207317
2.5351,-0.0508895,0.0442593
2.53366,-0.174949,-0.147906
2.52268,0.0726681,0.146975
2.5254,-0.0506947,0.102908
2.5322,0.0729425,-0.118003
2.52227,0.0726564,-0.0587162
2.52719,0.0639706,0
2.53716,-0.184091,-0.0296149
2.54277,-0.0599231,-0.323752
2.52326,-0.0594632,-0.0146693
2.52458,0.0639046,-0.272027
2.54224,-0.184459,-0.237937
2.52251,0.0638521,0.0587162
2.53716,-0.184091,0.0296149
2.54283,-0.0599245,-0.207642
2.53891,-0.0598321,0.0443291
2.541,-0.18437,-0.148371
2.52292,0.0638624,0.146975
2.5252,-0.0595091,0.102908
2.52845,0.0640024,-0.117817
2.52133,0.178078,-0.0441197
2.52341,0.0546204,0
2.54444,-0.193997,-0.029708
2.53857,-0.0691351,-0.323247
2.53102,-0.0689294,-0.0147158
2.52878,0.0547365,-0.272455
2.53472,0.0548652,0.0589953
2.52849,-0.192781,0.0295218
2.52524,0.05466,-0.176623
2.53867,-0.0691379,0.0443291
2.52054,0.178021,-0.161941
2.52713,0.0547008,0.147208
2.52497,-0.0687647,0.102908
2.53665,0.0549071,-0.118189
2.54357,-0.0692711,-0.133352
2.51963,0.177957,-0.102908
2.52273,0.0546056,-0.0587162
2.52574,-0.0776095,-0.0735409
2.53158,0.0459569,0
2.53578,-0.202242,-0.0296149
2.54228,-0.0781178,-0.323752
2.53076,-0.0777639,-0.0147158
2.53293,0.0459813,-0.272883
2.53889,0.0460896,0.0590884
2.53578,-0.202242,0.0296149
2.52542,0.0458449,-0.176623
2.53835,-0.0779972,-0.207317
2.54241,-0.0781219,0.0443989
2.52114,0.169222,-0.161941
2.5436,-0.202866,-0.148603
2.53129,0.0459516,0.147441
2.53683,0.0460522,-0.118189
2.54331,-0.0781494,-0.133352
2.5269,0.0458719,-0.0588092
2.52946,-0.0861208,-0.0736572
2.52772,0.0375023,0
2.53908,-0.210981,-0.0296615
2.53407,-0.0862778,-0.322742
2.54248,-0.0865641,-0.0147855
2.53307,0.0375816,-0.272883
2.53503,0.0376108,0.0589953
2.53908,-0.210981,0.0296615
2.52555,0.0374701,-0.176623
2.54207,-0.0865499,-0.207642
2.53415,-0.0862802,0.0442593
2.52169,0.160861,-0.161941
2.54291,-0.2113,-0.148603
2.52744,0.0374981,0.147208
2.52844,-0.0860858,0.103071
2.53697,0.0376395,-0.118189
2.52079,0.0373994,0.309548
2.52304,0.0374328,-0.0587162
2.53314,-0.0950997,-0.0737736
2.52784,0.0286786,0
2.53434,-0.219498,-0.0296149
2.52979,-0.094974,-0.322237
2.53017,-0.0949883,-0.0147158
2.52523,0.028649,-0.272027
2.53115,0.0287162,0.0589023
2.53434,-0.219498,0.0296149
2.52567,0.028654,-0.176623
2.53783,-0.0952756,0.0443291
2.52224,0.152057,-0.161941
2.54216,-0.220175,-0.148603
2.52356,0.0286301,0.146975
2.52812,-0.0949112,0.103071
2.53309,0.0287382,-0.118003
2.52133,0.152003,-0.102908
2.53192,0.0198861,0
2.54153,-0.229061,-0.029708
2.53341,-0.103967,-0.322742
2.52983,-0.10382,-0.0147158
2.52531,0.0198342,-0.272027
2.53863,-0.2288,-0.237937
2.52724,0.0198493,0.0588092
2.53754,-0.228702,0.0296615
2.52575,0.0198376,-0.176623
2.5414,-0.104295,-0.207642
2.53748,-0.104134,0.0443291
2.54138,-0.229047,-0.148603
2.52365,0.0198211,0.146975
2.52378,-0.103572,0.102908
2.52918,0.0198645,-0.117817
2.52496,0.0198314,0.310036
2.52184,0.143201,-0.102908
2.52724,0.0198493,-0.0588092
2.52006,0.133835,-0.0440499
2.5284,-0.113045,-0.0736572
2.52798,0.0105892,0
2.54465,-0.238748,-0.0297546
2.54094,-0.113606,-0.323752
2.53742,-0.113449,-0.0147623
2.52537,0.0105783,-0.272027
2.54174,-0.238475,-0.238309
2.53529,0.0106199,0.0589953
2.5327,-0.237627,0.0296149
2.541,-0.113609,-0.207642
2.54107,-0.113612,0.0443989
2.53169,0.0106048,0.147441
2.52338,-0.112821,0.102908
2.52924,0.0105945,-0.117817
2.53033,0.134381,-0.103234
2.52329,0.0105696,-0.0587162
2.52848,0.125875,-0.0441895
2.536,-0.121813,-0.07389
2.524,0.0022026,0
2.53588,-0.246411,-0.0296615
2.53659,-0.121841,-0.323247
2.53304,-0.12167,-0.014739
2.53732,0.00221423,-0.273312
2.5449,-0.247287,-0.23868
2.53531,0.00221248,0.0589953
2.53588,-0.246411,0.0296615
2.52583,0.0022042,-0.176623
2.54061,-0.122034,-0.207642
2.54068,-0.122038,0.0443989
2.52369,0.125637,-0.161941
2.53171,0.00220933,0.147441
2.53098,-0.121572,0.103234
2.53325,0.00221068,-0.118003
2.52107,0.00220005,0.309548
2.53131,0.00220899,-0.0589023
2.52891,0.117049,-0.0441895
2.53157,-0.130459,-0.0737736
2.53599,-0.00663922,0
2.53501,-0.255262,-0.0296615
2.53218,-0.13049,-0.322742
2.54059,-0.130923,-0.0147855
2.53731,-0.00664269,-0.273312
2.53531,-0.00663743,0.0589953
2.53899,-0.255663,0.029708
2.54017,-0.130902,-0.207642
2.54024,-0.130906,0.0443989
2.52372,-0.00660709,0.146975
2.52655,-0.1302,0.103071
2.53324,-0.00663203,-0.118003
2.5232,0.116785,-0.102908
2.52131,0.107878,-0.0440499
2.5311,-0.139295,-0.0737736
2.53595,-0.0154914,0
2.53808,-0.264524,-0.029708
2.53171,-0.139329,-0.322742
2.53213,-0.139351,-0.014739
2.52534,-0.0154266,-0.272027
2.53527,-0.0154873,0.0589953
2.53808,-0.264524,0.029708
2.52579,-0.0154293,-0.176623
2.53178,-0.139332,0.0442593
2.53793,-0.264508,-0.148603
2.52368,-0.0154165,0.146975
2.53007,-0.139238,0.103234
2.52521,-0.0154259,-0.117631
2.52102,-0.0154002,0.309548
2.5236,0.107976,-0.102908
2.52327,-0.015414,-0.0587162
2.5306,-0.148129,-0.0737736
2.52788,-0.0242667,0
2.54112,-0.27381,-0.0297546
2.53913,-0.148629,-0.323752
2.53961,-0.148657,-0.0147855
2.52925,-0.0242798,-0.272455
2.5312,-0.0242985,0.0589023
2.53714,-0.273382,0.029708
2.52572,-0.0242459,-0.176623
2.54317,-0.148865,-0.207968
2.54326,-0.14887,0.0444687
2.54096,-0.273793,-0.148836
2.5276,-0.024264,0.147208
2.52515,-0.0242404,-0.117631
2.52095,-0.0242001,0.309548
2.52795,0.0993235,-0.103071
2.5272,-0.0242601,-0.0588092
2.522,0.0902738,-0.0440499
2.53405,-0.157209,-0.07389
2.54015,-0.282679,-0.0297546
2.54256,-0.157737,-0.324257
2.53508,-0.157273,-0.0147623
2.53313,-0.0331605,-0.272883
2.5311,-0.0331339,0.0589023
2.53617,-0.282236,0.029708
2.52562,-0.0330621,-0.176623
2.53075,-0.157004,0.0442593
2.52121,0.0902455,-0.161685
2.53149,-0.0331391,0.147441
2.53303,-0.157145,0.103397
2.53304,-0.0331593,-0.118003
2.53228,0.0906416,-0.103234
2.5231,-0.0330292,-0.0587162
2.52227,0.0823503,-0.0440499
2.52557,-0.164649,-0.0736572
2.5313,-0.289748,-0.0296615
2.54601,-0.165982,-0.324762
2.53857,-0.165497,-0.0147855
2.53301,-0.0411183,-0.272883
2.53898,-0.0412152,0.0590884
2.53925,-0.290657,0.0297546
2.5255,-0.0409964,-0.176623
2.54222,-0.165734,0.0444687
2.52946,0.082585,-0.162196
2.52738,-0.041027,0.147208
2.53252,-0.165102,0.103397
2.52892,-0.041052,-0.117817
2.52855,0.0825554,-0.103071
2.53498,-0.0411503,-0.0589953
2.52254,0.0735454,-0.0440499
2.52897,-0.173738,-0.0737736
2.52751,-0.0498545,0
2.54616,-0.300457,-0.0298477
2.54146,-0.174596,-0.324257
2.54197,-0.174631,-0.0148088
2.53683,-0.0500384,-0.273312
2.53882,-0.0500776,0.0590884
2.53822,-0.299519,0.0297546
2.54551,-0.174875,-0.208293
2.53364,-0.174059,0.0443291
2.52175,0.0735223,-0.161685
2.54599,-0.300437,-0.149301
2.52723,-0.049849,0.147208
2.53193,-0.173941,0.103397
2.53276,-0.0499581,-0.118003
2.52483,0.0736121,-0.102908
2.54282,-0.0501565,-0.0591814
2.52281,0.063859,-0.0440499
2.53626,-0.184026,-0.0740063
2.5273,-0.0595591,0
2.54499,-0.310231,-0.0298477
2.5333,-0.183811,-0.0147623
2.52469,-0.0594976,-0.272027
2.53861,-0.0598256,0.0590884
2.53308,-0.308779,0.029708
2.52513,-0.059508,-0.176623
2.54482,-0.184647,-0.208293
2.52897,-0.183497,0.0442593
2.52702,-0.0595524,0.147208
2.53523,-0.183951,0.103559
2.54054,-0.0598711,-0.118375
2.52909,0.0640181,-0.103071
2.52661,-0.059543,-0.0588092
2.52762,-0.192271,-0.0737736
2.52708,-0.0683806,0
2.54389,-0.319113,-0.0298477
2.53663,-0.192956,-0.0147855
2.53242,-0.0685252,-0.272883
2.53838,-0.0686866,0.0590884
2.53992,-0.318615,0.0298012
2.5289,-0.0684299,-0.176902
2.53629,-0.19293,0.0443989
2.52621,0.0551222,-0.161941
2.54372,-0.319092,-0.149301
2.52679,-0.068373,0.147208
2.5266,-0.192193,0.103234
2.52833,-0.0684147,-0.117817
2.5333,0.0552767,-0.103234
2.53439,-0.0685785,-0.0589953
2.52719,0.0463184,-0.0441197
2.53092,-0.20141,-0.07389
2.52682,-0.0772014,0
2.54673,-0.328502,-0.0298943
2.52353,0.0462513,0.0146693
2.53993,-0.202127,-0.0148088
2.52819,-0.0772431,-0.272455
2.53813,-0.0775468,0.0590884
2.53879,-0.327479,0.0298012
2.52465,-0.0771352,-0.176623
2.54357,-0.202417,0.0445385
2.5224,0.0462306,-0.161685
2.54655,-0.32848,-0.149534
2.53053,-0.0773147,0.147441
2.5299,-0.201329,0.103397
2.53207,-0.0773618,-0.118003
2.52948,0.0463603,-0.103071
2.53413,-0.0774247,-0.0589953
2.52732,0.0383788,-0.0441197
2.53028,-0.209361,-0.07389
2.54172,-0.335977,-0.0298477
2.53928,-0.210105,-0.0148088
2.53588,-0.0854532,-0.273312
2.54187,-0.0856549,0.0591814
2.53775,-0.335453,0.0298012
2.52839,-0.0852006,-0.176902
2.5468,-0.210727,-0.208619
2.53495,-0.209747,0.0443989
2.52652,0.0383666,-0.161941
2.54155,-0.335955,-0.149301
2.53427,-0.0853987,0.147673
2.53323,-0.209605,0.103559
2.53182,-0.0853161,-0.118003
2.53787,-0.0855202,-0.0590884
2.52745,0.0291154,-0.0441197
2.54144,-0.219666,-0.074239
2.52624,-0.094399,0
2.5365,-0.344752,-0.0298012
2.53953,-0.0948956,-0.27374
2.54047,-0.345291,0.0298477
2.54601,-0.22006,-0.208619
2.53416,-0.219037,0.0443989
2.52266,0.0290602,-0.161685
2.53394,-0.0946866,0.147673
2.53643,-0.219233,0.103722
2.53149,-0.0945951,-0.118003
2.52973,0.0291417,-0.103071
2.53355,-0.0946721,-0.0589953
2.53153,0.0203249,-0.0441895
2.54066,-0.228536,-0.074239
2.52989,-0.10338,0
2.53925,-0.354157,-0.0298477
2.53373,-0.227912,-0.0147855
2.52726,-0.103272,-0.272455
2.54321,-0.354709,0.0298943
2.5317,-0.103454,-0.177181
2.54135,-0.228598,0.0445385
2.52673,0.0202864,-0.161941
2.5296,-0.103368,0.147441
2.53565,-0.228085,0.103722
2.53513,-0.103594,-0.118189
2.52982,0.0203111,-0.103071
2.5332,-0.103515,-0.0589953
2.52359,0.0118922,-0.0440499
2.52795,-0.235846,-0.07389
2.52953,-0.111769,0
2.54598,-0.363707,-0.0299409
2.53895,-0.112185,-0.395387
2.52393,0.0118938,0.0146693
2.53296,-0.236313,-0.0147855
2.53485,-0.112004,-0.273312
2.54083,-0.112268,0.0591814
2.52736,-0.111673,-0.176902
2.5366,-0.236653,0.0444687
2.5228,0.0118885,-0.161685
2.53722,-0.112109,0.147906
2.5309,-0.236121,0.103559
2.52679,-0.111648,-0.117817
2.53387,0.0119407,-0.103234
2.53684,-0.112092,-0.0590884
2.53161,0.00265109,-0.0441895
2.52707,-0.245109,-0.07389
2.52511,-0.120848,0
2.54463,-0.373036,-0.0299409
2.52396,0.00264307,0.0146693
2.53606,-0.245981,-0.0148088
2.53839,-0.121484,-0.27374
2.53242,-0.121198,0.0589953
2.52693,-0.120935,-0.176902
2.54753,-0.247094,-0.208944
2.53571,-0.245948,0.0444687
2.52681,0.00264607,-0.161941
2.52882,-0.121025,0.147441
2.534,-0.245782,0.103722
2.53036,-0.121099,-0.118003
2.5299,0.0026493,-0.103071
2.5404,-0.12158,-0.0591814
2.53961,-0.00576221,-0.0443291
2.5342,-0.254287,-0.0741227
2.52869,-0.129425,0
2.54338,-0.381472,-0.0299409
2.52795,-0.00573577,0.0146925
2.53921,-0.254789,-0.014832
2.53798,-0.129901,-0.27374
2.53599,-0.129799,0.0590884
2.5305,-0.129518,-0.177181
2.5467,-0.255541,-0.208944
2.5308,-0.00574223,-0.162196
2.53239,-0.129615,0.147673
2.53714,-0.254582,0.103885
2.53393,-0.129694,-0.118189
2.52989,-0.00574018,-0.103071
2.53999,-0.130004,-0.0591814
2.52757,-0.0145579,-0.0441197
2.53329,-0.263131,-0.0741227
2.53222,-0.13847,0
2.54203,-0.390348,-0.0299409
2.54228,-0.264064,-0.0148553
2.54148,-0.138976,-0.274168
2.53003,-0.13835,-0.177181
2.53398,-0.263202,0.0444687
2.52677,-0.0145533,-0.161941
2.53591,-0.138672,0.147906
2.53624,-0.263437,0.103885
2.53745,-0.138756,-0.118375
2.53386,-0.0145941,-0.103234
2.53952,-0.138869,-0.0591814
2.5275,-0.0238219,-0.0441197
2.53629,-0.272842,-0.074239
2.53169,-0.14775,0
2.54453,-0.400283,-0.0299874
2.53732,-0.272953,-0.014832
2.53301,-0.147827,-0.273312
2.53349,-0.147855,-0.17746
2.533,-0.272488,0.0444687
2.5267,-0.0238143,-0.161941
2.5314,-0.147733,0.147673
2.53526,-0.272731,0.103885
2.53693,-0.148055,-0.118375
2.53379,-0.0238811,-0.103234
2.53899,-0.148176,-0.0591814
2.5274,-0.0326444,-0.0441197
2.53135,-0.281252,-0.0741227
2.53116,-0.156586,0
2.54707,-0.409798,-0.030034
2.52375,-0.0325971,0.0146693
2.54033,-0.28225,-0.0148553
2.53645,-0.156913,-0.27374
2.53846,-0.157038,0.0591814
2.53296,-0.156698,-0.17746
2.53998,-0.282212,0.0446084
2.5306,-0.0326856,-0.162196
2.53884,-0.157061,0.148138
2.53241,-0.156663,-0.118189
2.53768,-0.0327771,-0.103397
2.54245,-0.157285,-0.0592745
2.53528,-0.0411552,-0.0442593
2.53437,-0.290099,-0.074239
2.53063,-0.164979,0
2.54175,-0.417594,-0.0299874
2.5354,-0.290217,-0.014832
2.53592,-0.165324,-0.27374
2.53792,-0.165455,0.0591814
2.53243,-0.165096,-0.17746
2.5226,-0.0409493,0.0734245
2.53903,-0.290633,0.0446084
2.52648,-0.0410124,-0.161941
2.53432,-0.16522,0.147906
2.53985,-0.16558,-0.118561
2.53356,-0.0411273,-0.103234
2.52712,-0.049847,-0.0441197
2.53731,-0.299413,-0.0743554
2.53802,-0.17436,0
2.52747,-0.0498537,0.0146925
2.53835,-0.299535,-0.0148553
2.53929,-0.174447,-0.274168
2.54132,-0.174587,0.0592745
2.52785,-0.173662,-0.177181
2.54197,-0.299963,0.0446782
2.52632,-0.0498312,-0.161941
2.53771,-0.174339,0.148138
2.53128,-0.173897,-0.118189
2.52941,-0.049892,-0.103071
2.53733,-0.174313,-0.0591814
2.53092,-0.0592025,-0.0441895
2.53223,-0.308227,-0.074239
2.53736,-0.183661,0
2.5412,-0.309319,-0.0148785
2.53863,-0.183753,-0.274168
2.54066,-0.1839,0.0592745
2.53516,-0.183502,-0.17774
2.54086,-0.309277,0.0446782
2.52612,-0.0590903,-0.161941
2.52909,-0.183062,0.147673
2.54258,-0.184039,-0.118747
2.53321,-0.0592559,-0.103234
2.52673,-0.0670472,-0.0441197
2.53522,-0.316677,-0.0743554
2.53677,-0.191631,0
2.52707,-0.0670563,0.0146925
2.54022,-0.317301,-0.0148785
2.54598,-0.192327,-0.275025
2.54406,-0.192182,0.0593675
2.53855,-0.191766,-0.178019
2.54384,-0.317754,0.044748
2.52593,-0.067026,-0.161941
2.5285,-0.191006,0.147673
2.53801,-0.191725,-0.118561
2.53301,-0.0672139,-0.103234
2.53609,-0.19158,-0.0591814
2.53002,-0.325898,-0.074239
2.54001,-0.201687,0
2.54691,-0.328075,-0.014925
2.53729,-0.201472,-0.274168
2.53382,-0.201196,-0.17774
2.54657,-0.32803,0.0448178
2.52964,-0.0768456,-0.162196
2.53571,-0.201346,0.148138
2.54124,-0.201785,-0.118747
2.53273,-0.0769394,-0.103234
2.53533,-0.201316,-0.0591814
2.52617,-0.0855671,-0.0441197
2.53679,-0.335777,-0.0744718
2.53131,-0.209891,0
2.52651,-0.0855787,0.0146925
2.54053,-0.210656,-0.274597
2.54258,-0.210826,0.0593675
2.52912,-0.20971,-0.17746
2.52548,-0.085544,0.0735409
2.53748,-0.335868,0.0446782
2.52936,-0.0856752,-0.162196
2.53499,-0.210196,0.148138
2.53255,-0.209994,-0.118375
2.52845,-0.0856445,-0.103071
2.54258,-0.210826,-0.0593675
2.52988,-0.0936508,-0.0441895
2.53572,-0.343745,-0.0744718
2.53861,-0.218528,0
2.53022,-0.0936635,0.0147158
2.54468,-0.344959,-0.014925
2.53986,-0.218636,-0.274597
2.54191,-0.218812,0.0593675
2.52845,-0.217654,-0.17746
2.53306,-0.0937686,-0.162452
2.53432,-0.218159,0.148138
2.53188,-0.217949,-0.118375
2.52817,-0.0935875,-0.103071
2.54589,-0.219155,-0.0594606
2.52954,-0.102481,-0.0441895
2.53847,-0.353145,-0.0745881
2.53783,-0.227389,0
2.52589,-0.102333,0.0146925
2.54511,-0.228041,0.0594606
2.53165,-0.226835,-0.17774
2.52474,-0.102287,-0.161941
2.5415,-0.227717,0.148603
2.53508,-0.227142,-0.118561
2.53581,-0.102735,-0.103397
2.54113,-0.227684,-0.0593675
2.52917,-0.11131,-0.0441895
2.54118,-0.362568,-0.0747045
2.54101,-0.236617,0
2.52551,-0.11115,0.0146925
2.54221,-0.362716,-0.014925
2.53482,-0.23604,-0.178019
2.52449,-0.111104,0.0735409
2.53235,-0.11145,-0.162452
2.53428,-0.23599,-0.118561
2.53544,-0.111586,-0.103397
2.5443,-0.236924,-0.0594606
2.53276,-0.120328,-0.0442593
2.53594,-0.370858,-0.0745881
2.54415,-0.24587,0
2.52511,-0.119965,0.0146925
2.54489,-0.372166,-0.0149482
2.54346,-0.245803,0.0594606
2.53001,-0.244503,-0.17774
2.52808,-0.120106,0.0736572
2.53194,-0.120289,-0.162452
2.53344,-0.244835,-0.118561
2.53903,-0.120626,-0.103559
2.54346,-0.245803,-0.0594606
2.54031,-0.129576,-0.0443989
2.53068,-0.379115,-0.0744718
2.53133,-0.253553,0
2.52468,-0.128778,0.0146925
2.54357,-0.381047,-0.0149482
2.54259,-0.25468,0.0594606
2.53708,-0.254129,-0.178298
2.53164,-0.129133,0.0737736
2.53151,-0.129127,-0.162452
2.53654,-0.254075,-0.118747
2.54258,-0.129692,-0.103722
2.53861,-0.254282,-0.0593675
2.53717,-0.389602,-0.0747045
2.53437,-0.263242,0
2.53821,-0.38976,-0.014925
2.53766,-0.263584,0.0593675
2.53613,-0.263426,-0.178298
2.535,-0.138622,-0.162708
2.53957,-0.263783,-0.118934
2.5381,-0.138791,-0.103559
2.54561,-0.264411,-0.0595536
2.53937,-0.146864,-0.0443989
2.53989,-0.39819,-0.0748209
2.5375,-0.271629,0
2.54092,-0.398352,-0.0149482
2.54079,-0.271981,0.0594606
2.53926,-0.271817,-0.178577
2.53854,-0.146816,-0.162964
2.5427,-0.272185,-0.11912
2.52967,-0.146303,-0.103234
2.54477,-0.272407,-0.0595536
2.53881,-0.15617,-0.0443989
2.53446,-0.406863,-0.0747045
2.53649,-0.280927,0
2.54375,-0.281732,0.0595536
2.53824,-0.281122,-0.178577
2.534,-0.155874,-0.162708
2.54566,-0.281943,-0.119306
2.54109,-0.15631,-0.103722
2.54375,-0.281732,-0.0595536
2.53426,-0.164772,-0.0443291
2.53061,-0.164535,0.014739
2.53481,-0.289701,0.0593675
2.53725,-0.28998,-0.178577
2.53358,-0.164727,0.07389
2.53743,-0.164977,-0.162964
2.53672,-0.28992,-0.118934
2.53654,-0.16492,-0.103559
2.54162,-0.174607,-0.0444687
2.54633,-0.300477,0
2.53398,-0.174083,0.0147623
2.54564,-0.300396,0.0596467
2.53617,-0.299278,-0.178577
2.52897,-0.173738,0.0737736
2.5368,-0.174276,-0.162964
2.53961,-0.299683,-0.11912
2.5399,-0.174489,-0.103722
2.54564,-0.300396,-0.0596467
2.54106,-0.182591,-0.0444687
2.53346,-0.307031,0
2.52944,-0.181756,0.014739
2.54469,-0.308392,0.0596467
2.54314,-0.308204,-0.179135
2.52841,-0.181682,0.0737736
2.53624,-0.182245,-0.162964
2.53865,-0.30766,-0.11912
2.53535,-0.182181,-0.103559
2.54037,-0.191903,-0.0444687
2.54026,-0.317306,0
2.52875,-0.191026,0.014739
2.53751,-0.316963,-0.11912
2.53865,-0.191774,-0.103722
2.54354,-0.317716,-0.0596467
2.5357,-0.200455,-0.0443989
2.53517,-0.325662,0
2.52807,-0.199851,0.014739
2.53488,-0.200389,-0.162964
2.53639,-0.325818,-0.11912
2.54195,-0.200949,-0.103885
2.53502,-0.208862,-0.0443989
2.54201,-0.335113,0
2.53537,-0.208891,0.0147855
2.53035,-0.208477,0.07389
2.53817,-0.209122,-0.16322
2.53529,-0.334228,-0.11912
2.54526,-0.209705,-0.104048
2.53826,-0.218052,-0.0444687
2.52893,-0.342374,0
2.53462,-0.217739,0.0147855
2.53359,-0.217651,0.0740063
2.54141,-0.218322,-0.163475
2.53807,-0.343611,-0.119306
2.54451,-0.218589,-0.104048
2.5441,-0.344427,-0.0597397
2.54541,-0.228068,-0.0446084
2.52982,-0.226671,0.0147623
2.52879,-0.226579,0.07389
2.54059,-0.227635,-0.163475
2.53284,-0.352361,-0.11912
2.53971,-0.227557,-0.103885
2.54678,-0.354301,-0.0598328
2.53829,-0.362157,0
2.52902,-0.2355,0.0147623
2.54375,-0.236873,-0.163731
2.54346,-0.362893,-0.119678
2.5389,-0.236421,-0.103885
2.54553,-0.363188,-0.0598328
2.53982,-0.245004,-0.0445385
2.52916,-0.369416,0
2.52822,-0.243885,0.0147623
2.53117,-0.24417,0.0740063
2.54295,-0.245307,-0.163731
2.54606,-0.245606,-0.104211
2.54035,-0.37105,-0.0597397
2.54293,-0.254266,-0.0446084
2.53577,-0.379426,0
2.52735,-0.252709,0.0147623
2.53031,-0.253004,0.0740063
2.54605,-0.254579,-0.163987
2.54519,-0.254492,-0.104211
2.54299,-0.380507,-0.0598328
2.54596,-0.263998,-0.0446782
2.54233,-0.263621,0.0148553
2.53334,-0.262689,0.0741227
2.54424,-0.263819,-0.104211
2.54554,-0.390431,-0.0599259
2.54507,-0.272439,-0.0446782
2.53348,-0.271198,0.0148088
2.52848,-0.270663,0.0740063
2.54422,-0.272347,-0.163987
2.54335,-0.272254,-0.104211
2.54423,-0.39887,-0.0599259
2.54013,-0.280882,-0.0446084
2.53252,-0.28004,0.0148088
2.52752,-0.279487,0.0740063
2.54325,-0.281227,-0.163987
2.54635,-0.28157,-0.104373
2.53913,-0.289747,-0.0446084
2.53948,-0.289786,0.0148553
2.5305,-0.288761,0.0741227
2.53829,-0.28965,-0.163731
2.54139,-0.290004,-0.104211
2.5461,-0.299098,-0.044748
2.54247,-0.298672,0.0148785
2.5335,-0.297618,0.074239
2.54438,-0.298896,-0.104373
2.54504,-0.307984,-0.044748
2.53745,-0.307065,0.0148553
2.54418,-0.30788,-0.164243
2.54792,-0.31736,-0.0448178
2.53636,-0.31592,0.0148553
2.54705,-0.317252,-0.164499
2.54277,-0.326188,-0.044748
2.53915,-0.325723,0.0148785
2.54502,-0.326476,-0.104536
2.54162,-0.335062,-0.044748
2.53403,-0.334062,0.0148553
2.54386,-0.335357,-0.104536
2.5444,-0.344468,-0.0448178
2.54078,-0.343978,0.0149017
2.54664,-0.344771,-0.104699
2.53532,-0.351804,-0.0446782
2.54755,-0.353501,0.0149482
2.54595,-0.362343,-0.0448876
2.53442,-0.360701,0.0148785
2.54423,-0.362098,-0.104699
2.54863,-0.371805,-0.0449574
2.54295,-0.370976,-0.104699
2.54732,-0.380699,-0.0449574
2.54597,-0.389589,-0.0449574
2.5446,-0.398473,-0.0449574
2.54577,-0.41643,-0.0450272
2.54825,-0.425973,-0.045097
2.52873,0.341449,-0.148603
2.53507,0.323851,-0.148836
2.5242,0.368241,-0.074239
2.52949,0.359551,-0.0743554
2.52671,0.350611,-0.074239
2.53188,0.342324,-0.0743554
2.53312,0.333043,-0.0743554
2.52745,0.314363,-0.0741227
2.53244,0.30646,-0.074239
