2.43963,0.0315103,-0.0284042
2.43573,0.0229582,-0.0283577
2.43573,0.0229582,0.0283577
2.43979,0.0144789,-0.0284042
2.43183,0.00636656,-0.0283111
2.43583,-0.00212628,-0.0283577
2.43181,-0.0106098,-0.0283111
2.43576,-0.0191304,-0.0283577
2.44376,-0.0191932,0.0284508
2.43568,-0.0276322,-0.0283577
2.44368,-0.0277229,0.0284508
2.43157,-0.0360754,-0.0283111
2.43143,-0.0445636,-0.0283111
2.44342,-0.0447835,0.0284508
2.43526,-0.0531373,-0.0283577
2.43905,-0.0617395,-0.0284042
2.44282,-0.0703665,-0.0284508
2.44282,-0.0703665,0.0284508
2.43486,-0.0701372,-0.141859
2.43459,-0.0777869,-0.0283577
2.43961,0.0413051,-0.0141811
2.44659,-0.0781701,0.0284974
2.43463,-0.0777881,-0.141859
2.4383,-0.0864247,-0.0284042
2.44374,0.0328444,-0.0142043
2.4383,-0.0864247,0.0284042
2.43833,-0.0864258,-0.142092
2.43797,-0.0953616,-0.0284042
2.43984,0.0238477,-0.0141811
2.44197,-0.0955179,0.0284508
2.44164,-0.103615,-0.0284508
2.43991,0.0157573,-0.0141811
2.43368,-0.103277,-0.141859
2.44526,-0.112321,-0.0284974
2.44795,0.00726342,-0.0142276
2.44526,-0.112321,0.0284974
2.43331,-0.111772,-0.141859
2.43684,-0.120886,-0.0284042
2.44396,-0.00170547,-0.0142043
2.44483,-0.121282,0.0284974
2.43288,-0.12069,-0.141859
2.4364,-0.129392,-0.0284042
2.44394,-0.0102371,-0.0142043
2.44439,-0.129816,0.0284974
2.43961,-0.010219,0.0425839
2.43643,-0.129394,-0.142092
2.43995,-0.137695,-0.0284508
2.43989,-0.0183109,-0.0141811
2.44944,-0.138231,-0.229014
2.44356,-0.0183385,0.0426537
2.43946,-0.146211,-0.0284508
2.44381,-0.0268711,-0.0142043
2.44348,-0.0268675,0.0426537
2.4355,-0.145974,-0.142092
2.44849,-0.0269226,-0.128328
2.43491,-0.154898,-0.0284042
2.4477,-0.0358872,-0.0142276
2.4429,-0.155406,0.0284974
2.44337,-0.0358237,0.0426537
2.43096,-0.154646,-0.141859
2.43441,-0.162547,-0.0284042
2.44357,-0.0435062,-0.0142043
2.44788,-0.163447,-0.229014
2.44324,-0.0435003,0.0426537
2.43046,-0.162283,-0.141859
2.43782,-0.171323,-0.0284508
2.4434,-0.0520339,-0.0142043
2.44333,-0.17171,-0.228642
2.43908,-0.0519417,0.0425839
2.43386,-0.171045,-0.142092
2.43211,-0.0517934,-0.12749
2.4412,-0.180127,-0.0284974
2.43921,-0.060465,-0.0141811
2.45065,-0.180825,-0.229386
2.43888,-0.0604568,0.0425839
2.4399,-0.0604821,-0.127909
2.43548,0.0501656,0
2.43657,-0.188339,-0.0284508
2.44698,-0.0692052,-0.0142276
2.44604,-0.189071,-0.229014
2.44265,-0.0690827,0.0426537
2.441,-0.069036,0.0994886
2.43967,-0.0689986,-0.127909
2.4438,-0.198341,-0.0285439
2.4467,-0.0786004,-0.0142276
2.44529,-0.198462,-0.229014
2.44237,-0.0784613,0.0426537
2.43187,-0.197372,-0.142092
2.44471,-0.0785366,0.0996514
2.43939,-0.0783657,-0.127909
2.43121,-0.205009,-0.0284042
2.44863,-0.206478,-0.229386
2.44316,-0.206017,0.0285439
2.44611,-0.0862748,0.0427235
2.43522,-0.205347,-0.142324
2.44445,-0.0862164,0.0996514
2.43913,-0.0860289,-0.127909
2.42915,-0.0941676,-0.0707482
2.43048,-0.213494,-0.0284042
2.44392,-0.214675,-0.229014
2.44243,-0.214544,0.0285439
2.44179,-0.0946579,0.0426537
2.43449,-0.213846,-0.142324
2.43483,-0.0943878,-0.1277
2.43366,-0.222765,-0.0284508
2.44576,-0.10379,-0.0142276
2.44709,-0.223994,-0.229386
2.44163,-0.223494,0.0285439
2.44964,-0.103955,-0.200157
2.44143,-0.103607,0.0426537
2.43368,-0.222768,-0.142324
2.44377,-0.103706,0.0996514
2.43446,-0.103311,-0.1277
2.43129,0.0157008,-0.056576
2.43283,-0.231684,-0.0284508
2.44137,-0.11257,-0.0142043
2.43832,-0.232207,-0.228642
2.44477,-0.232821,0.0285905
2.44103,-0.112554,0.0426537
2.42888,-0.231307,-0.142092
2.43539,-0.112294,0.0993258
2.43806,-0.112417,-0.127909
2.43533,0.00680074,-0.056669
2.44005,-0.240109,-0.0285439
2.44499,-0.120436,-0.0142276
2.44551,-0.240646,-0.229386
2.43211,-0.239328,-0.142324
2.4377,-0.120076,-0.127909
2.43934,-0.000851489,-0.0567621
2.43517,-0.248644,-0.0284974
2.44461,-0.249607,-0.229386
2.44313,-0.249457,0.0285905
2.44045,-0.12918,-0.199506
2.44421,-0.129379,0.0427235
2.43519,-0.248646,-0.142557
2.43856,-0.12908,0.0994886
2.44522,-0.129432,-0.128328
2.43932,-0.00979212,-0.0567621
2.43031,-0.256723,-0.0284508
2.44225,-0.257983,0.0285905
2.43999,-0.137698,-0.199506
2.44374,-0.13791,0.0427235
2.43431,-0.257145,-0.142557
2.44475,-0.137967,-0.128328
2.44327,-0.0183369,-0.0568551
2.4374,-0.265647,-0.0285439
2.43961,-0.145794,-0.0142043
2.4352,-0.0263524,0.056669
2.44138,-0.266081,0.0285905
2.43952,-0.145789,-0.199506
2.42947,-0.264783,-0.142324
2.44827,-0.146311,-0.128537
2.4312,-0.0263091,-0.056576
2.43244,-0.274131,-0.0284974
2.44704,-0.155241,-0.0142508
2.44186,-0.275193,-0.229386
2.43109,-0.0352198,0.056576
2.44436,-0.275475,0.0286371
2.44692,-0.155234,-0.200157
2.44272,-0.154967,0.0427235
2.42849,-0.273686,-0.142324
2.44106,-0.154862,0.0996514
2.44771,-0.155284,-0.128537
2.43908,-0.0353356,-0.0567621
2.43554,-0.282232,-0.0285439
2.44255,-0.162662,-0.0142276
2.44494,-0.283321,-0.229758
2.43096,-0.0428571,0.056576
2.44348,-0.283153,0.0286371
2.44245,-0.162655,-0.199831
2.43158,-0.281774,-0.142557
2.44455,-0.162796,0.0998143
2.43924,-0.162442,-0.128118
2.43896,-0.042998,-0.0567621
2.43056,-0.290257,-0.0284974
2.44596,-0.171467,-0.0142508
2.44393,-0.291854,-0.229758
2.4348,-0.0514269,0.056669
2.44248,-0.29168,0.0286371
2.44186,-0.17118,-0.199831
2.44164,-0.171164,0.0427235
2.43455,-0.290733,-0.142789
2.44265,-0.171235,-0.128328
2.42993,-0.170344,0.198855
2.4388,-0.0515113,-0.0567621
2.43351,-0.299228,-0.0285439
2.4346,-0.0599256,0.056669
2.44125,-0.179703,-0.199831
2.44501,-0.179979,0.0427933
2.43748,-0.299717,-0.143022
2.43262,-0.0598769,-0.11335
2.44602,-0.180053,-0.128537
2.42932,-0.178825,0.198855
2.4426,-0.0601224,-0.0568551
2.43103,-0.068754,0
2.42843,-0.307643,-0.0284974
2.44467,-0.188965,-0.0142508
2.44969,-0.310336,-0.230501
2.43836,-0.0689615,0.0567621
2.4443,-0.309653,0.0286836
2.44058,-0.188649,-0.199831
2.44035,-0.188631,0.0427235
2.43638,-0.0689055,-0.113536
2.44534,-0.189017,-0.128537
2.42865,-0.187727,0.198855
2.43437,-0.0688485,-0.056669
2.43923,-0.317667,-0.0286371
2.44399,-0.197498,-0.0142508
2.44069,-0.317857,-0.229758
2.43411,-0.0773456,0.056669
2.4432,-0.318184,0.0286836
2.43283,-0.0773048,-0.170206
2.44388,-0.197488,-0.200157
2.44366,-0.197471,0.0427933
2.43802,-0.197015,0.0996514
2.44865,-0.197874,-0.128746
2.43196,-0.196525,0.19918
2.43411,-0.0773456,-0.056669
2.4354,0.0335816,-0.0425141
2.43024,-0.324695,-0.0285439
2.44357,-0.326476,-0.23013
2.43784,-0.0855572,0.0567621
2.4342,-0.325225,0.0285905
2.43924,-0.205257,-0.199831
2.43901,-0.205238,0.0427235
2.43025,-0.324696,-0.142789
2.43736,-0.205099,0.0996514
2.43586,-0.0854877,-0.113536
2.43604,-0.204988,-0.128118
2.43129,-0.204589,0.19918
2.43784,-0.0855572,-0.0567621
2.43019,-0.0937833,0
2.44636,-0.335545,-0.230501
2.43753,-0.0940663,0.0567621
2.43702,-0.334263,0.0286371
2.43851,-0.21377,-0.199831
2.44226,-0.2141,0.0427933
2.43702,-0.334263,-0.143255
2.44061,-0.213955,0.0998143
2.43954,-0.094144,-0.113722
2.44326,-0.214188,-0.128537
2.42659,-0.212726,0.198855
2.43753,-0.0940663,-0.0567621
2.42985,-0.102266,0
2.43187,-0.34221,-0.0285905
2.44581,-0.223017,-0.0142741
2.44517,-0.344082,-0.230501
2.44118,-0.102742,0.0568551
2.4398,-0.343325,0.0286836
2.43589,-0.10252,-0.170485
2.44171,-0.222643,-0.200157
2.4415,-0.222623,0.0427933
2.43583,-0.342768,-0.143255
2.43919,-0.102659,-0.113722
2.4425,-0.222715,-0.128537
2.4298,-0.221557,0.19918
2.44118,-0.102742,-0.0568551
2.43347,-0.110929,0
2.43066,-0.350697,-0.0285905
2.43195,0.00806467,0.0141346
2.44502,-0.231553,-0.0142741
2.4479,-0.353184,-0.230873
2.4408,-0.111263,0.0568551
2.43858,-0.35184,0.0286836
2.4395,-0.111204,-0.170764
2.43695,-0.230789,-0.199831
2.44071,-0.231144,0.0427933
2.42537,-0.110559,0.141394
2.43483,-0.110991,-0.113536
2.44569,-0.231616,-0.128746
2.42902,-0.230037,0.19918
2.43681,-0.111081,-0.0567621
2.43305,-0.119847,0
2.42936,-0.359604,-0.0285905
2.43253,-0.239369,-0.311125
2.44265,-0.36157,-0.230501
2.43639,-0.120012,0.0567621
2.43728,-0.360775,0.0286836
2.43908,-0.120144,-0.170764
2.44403,-0.2405,-0.200482
2.44382,-0.24048,0.0428631
2.42937,-0.359604,-0.143022
2.42893,-0.119645,0.141627
2.4384,-0.120111,-0.113722
2.44482,-0.240578,-0.128746
2.43239,-0.119815,-0.056669
2.42862,-0.128129,0
2.43205,-0.368681,-0.0286371
2.43194,-0.00933803,0.0141346
2.43932,-0.248637,-0.0142508
2.44531,-0.370692,-0.230873
2.44394,-0.128937,0.0569482
2.43996,-0.36988,0.0287302
2.43068,-0.128237,-0.170206
2.43921,-0.248626,-0.200157
2.44295,-0.0093803,0.0710973
2.43501,-0.248198,0.0427235
2.4281,-0.368082,-0.143022
2.43249,-0.128333,0.141859
2.43734,-0.248435,0.0998143
2.42998,-0.128201,-0.11335
2.43602,-0.248301,-0.128328
2.43524,-0.248221,0.199831
2.43995,-0.128726,-0.0568551
2.42818,-0.136182,0
2.43081,-0.376744,-0.0286371
2.43874,-0.256752,-0.312135
2.4359,-0.0174312,0.0141578
2.44246,-0.257144,-0.0142741
2.44013,-0.378188,-0.230501
2.4395,-0.136817,0.0568551
2.43476,-0.377357,0.0286836
2.43837,-0.256713,-0.200157
2.43604,-0.136622,0.142092
2.44048,-0.256935,0.0999771
2.44151,-0.136929,-0.113908
2.44313,-0.257214,-0.128746
2.42647,-0.255461,0.19918
2.4395,-0.136817,-0.0568551
2.43149,-0.0258879,-0.0424443
2.42863,-0.264263,-0.0710973
2.43169,-0.144895,0
2.44552,-0.266101,-0.0142973
2.43738,-0.38648,0.0287302
2.43746,-0.265223,-0.200157
2.44122,-0.265632,0.0428631
2.43342,-0.385852,-0.143487
2.43555,-0.145125,0.142092
2.43956,-0.265452,0.0999771
2.43703,-0.145213,-0.113722
2.44221,-0.265741,-0.128746
2.42953,-0.26436,0.199506
2.43901,-0.145331,-0.0568551
2.42769,-0.272738,-0.0710973
2.43117,-0.153382,0
2.43207,-0.394345,-0.0286836
2.43172,-0.0343798,0.0141346
2.4406,-0.274189,-0.0142741
2.44248,-0.154096,0.0569482
2.43997,-0.395625,0.0287768
2.43719,-0.153762,-0.170764
2.43652,-0.27373,-0.200157
2.43073,-0.0343659,0.0707482
2.44027,-0.274152,0.0428631
2.42812,-0.393705,-0.143255
2.43104,-0.153374,0.141859
2.43651,-0.153719,-0.113722
2.44524,-0.27471,-0.128956
2.42463,-0.272394,0.19918
2.43849,-0.153844,-0.0568551
2.43461,-0.162133,0
2.43158,-0.0428679,0.0141346
2.44361,-0.283167,-0.0142973
2.43997,-0.404371,-0.230873
2.43395,-0.162089,0.0567621
2.43857,-0.40414,0.0287768
2.43266,-0.162003,-0.170485
2.43951,-0.282692,-0.200482
2.4266,-0.04278,0.0706318
2.44328,-0.283129,0.0429329
2.43067,-0.402831,-0.143487
2.44244,-0.162655,0.142557
2.43765,-0.282477,0.0999771
2.44427,-0.283244,-0.128956
2.42763,-0.281315,0.199506
2.44193,-0.162621,-0.0569482
2.43327,-0.411557,-0.0287302
2.44265,-0.291269,-0.0142973
2.44254,-0.413125,-0.231245
2.43739,-0.170439,0.0568551
2.42933,-0.41089,0.0286836
2.44647,-0.291724,-0.201133
2.42644,-0.0508267,0.0706318
2.44232,-0.291229,0.0429329
2.42932,-0.410889,-0.143487
2.43791,-0.170475,0.142324
2.44067,-0.291032,0.10014
2.43541,-0.1703,-0.113722
2.43935,-0.290875,-0.128746
2.42668,-0.289364,0.199506
2.43739,-0.170439,-0.0568551
2.42781,-0.419792,-0.0286836
2.43522,-0.0599408,0.0141578
2.44157,-0.30022,-0.0142973
2.44101,-0.422074,-0.231245
2.44073,-0.179665,0.0569482
2.43175,-0.420473,0.0287302
2.43747,-0.299716,-0.200482
2.44124,-0.300179,0.0429329
2.43173,-0.420471,-0.14372
2.43328,-0.179116,0.142092
2.43477,-0.179225,-0.113722
2.44223,-0.300301,-0.128956
2.4256,-0.298256,0.199506
2.44073,-0.179665,-0.0569482
2.42767,-0.306686,-0.0712136
2.42882,-0.186888,0
2.43034,-0.428535,-0.0287302
2.43501,-0.068016,0.0141578
2.44744,-0.43155,-0.231988
2.44012,-0.187757,0.0569482
2.43428,-0.429229,0.0287768
2.44438,-0.308797,-0.201133
2.43002,-0.0678767,0.0707482
2.4323,-0.30727,0.0427933
2.43033,-0.428532,-0.14372
2.43268,-0.187184,0.142092
2.44254,-0.308565,0.100303
2.43814,-0.187605,-0.113908
2.44518,-0.308899,-0.129165
2.42856,-0.306798,0.199831
2.44012,-0.187757,-0.0569482
2.43214,-0.195685,0
2.43277,-0.437724,-0.0287768
2.43476,-0.0765153,0.0141578
2.43947,-0.316832,-0.0142973
2.44592,-0.44009,-0.231988
2.43945,-0.196274,0.0569482
2.4367,-0.438432,0.0288233
2.43019,-0.195529,-0.170485
2.43933,-0.316814,-0.200808
2.42977,-0.0763586,0.0707482
2.44311,-0.317304,0.0430027
2.42882,-0.437013,-0.14372
2.43599,-0.195995,0.142324
2.44145,-0.317089,0.100303
2.43747,-0.196114,-0.113908
2.44013,-0.316917,-0.128956
2.42747,-0.315273,0.199831
2.43945,-0.196274,-0.0569482
2.42742,-0.204263,0
2.43115,-0.446637,-0.0287768
2.43446,-0.0854386,0.0141578
2.43829,-0.325771,-0.0142973
2.43327,-0.204755,-0.26303
2.43254,-0.446893,-0.230873
2.43075,-0.204543,0.0567621
2.43508,-0.44736,0.0288233
2.44606,-0.326808,-0.201458
2.43347,-0.0854039,0.0708645
2.434,-0.325197,0.0428631
2.43113,-0.446634,-0.143952
2.43127,-0.204587,0.142092
2.44027,-0.326036,0.100303
2.43674,-0.205047,-0.113908
2.4342,-0.325224,0.200482
2.43248,-0.0853693,-0.0991629
2.43872,-0.205214,-0.0569482
2.42673,-0.212311,0
2.43358,-0.455433,-0.0288233
2.43816,-0.0936647,0.0141811
2.44116,-0.334398,-0.0143206
2.44051,-0.213517,-0.263887
2.4467,-0.457888,-0.23236
2.43802,-0.2133,0.0569482
2.42965,-0.454697,0.0287768
2.44496,-0.334918,-0.201458
2.43317,-0.0934731,0.0708645
2.44083,-0.334352,0.0430027
2.42963,-0.454693,-0.143952
2.43456,-0.212996,0.142324
2.43604,-0.213126,-0.113908
2.44181,-0.334487,-0.129165
2.42916,-0.332753,0.200157
2.44201,-0.213648,-0.0570412
2.42711,-0.341108,-0.07133
2.43782,-0.102175,0.0141811
2.43998,-0.342917,-0.0143206
2.44371,-0.222395,-0.264316
2.43727,-0.221809,0.0569482
2.43591,-0.464674,0.0288699
2.43199,-0.221328,-0.170764
2.44377,-0.34345,-0.201458
2.43965,-0.34287,0.0430027
2.43587,-0.464668,-0.144417
2.43778,-0.221855,0.142557
2.438,-0.342638,0.100303
2.43528,-0.221628,-0.113908
2.44063,-0.343008,-0.129165
2.42798,-0.341231,0.200157
2.44125,-0.222171,-0.0570412
2.42642,-0.471648,-0.0287768
2.43745,-0.110684,0.0141811
2.43877,-0.351432,-0.0143206
2.43896,-0.230549,-0.263887
2.43954,-0.474198,-0.231988
2.43648,-0.230315,0.0569482
2.43034,-0.472411,0.0288233
2.43467,-0.350841,-0.200808
2.42847,-0.110276,0.0707482
2.43448,-0.350814,0.0429329
2.43424,-0.473168,-0.144417
2.43699,-0.230363,0.142557
2.4345,-0.230128,-0.113908
2.44337,-0.352095,-0.129375
2.44046,-0.230691,-0.0570412
2.42862,-0.358628,-0.0714464
2.43632,-0.238883,0
2.42868,-0.480892,-0.0288233
2.43305,-0.118996,0.0141578
2.43753,-0.359943,-0.0143206
2.43418,-0.238673,-0.263459
2.44568,-0.484258,-0.232732
2.43566,-0.238818,0.0569482
2.4326,-0.481669,0.0288699
2.43832,-0.23908,-0.171322
2.44526,-0.361085,-0.201784
2.42807,-0.118752,0.0707482
2.44115,-0.360478,0.0430725
2.42822,-0.238089,0.142092
2.43555,-0.35965,0.100303
2.43765,-0.239014,-0.114094
2.44608,-0.361206,-0.129584
2.4216,-0.35759,0.199831
2.43964,-0.239209,-0.0570412
2.42751,-0.246577,0
2.42699,-0.489366,-0.0288233
2.43262,-0.127488,0.0141578
2.4323,-0.367851,-0.0142973
2.43333,-0.247169,-0.263459
2.44397,-0.492792,-0.232732
2.43481,-0.247319,0.0569482
2.43483,-0.490948,0.0289165
2.43351,-0.247186,-0.171043
2.44399,-0.369618,-0.201784
2.43163,-0.127436,0.0708645
2.43988,-0.368997,0.0430725
2.42696,-0.489361,-0.144185
2.43532,-0.247371,0.142557
2.43428,-0.36815,0.100303
2.42885,-0.246714,-0.113722
2.44481,-0.369742,-0.129584
2.42428,-0.366637,0.200157
2.43065,-0.127385,-0.0991629
2.43879,-0.247723,-0.0570412
2.42918,-0.498639,-0.0288699
2.43615,-0.136202,0.0141811
2.43891,-0.377563,-0.0143438
2.44036,-0.256492,-0.264316
2.43834,-0.500519,-0.23236
2.43791,-0.256234,0.0570412
2.42918,-0.498639,0.0288699
2.43874,-0.377537,-0.201458
2.43117,-0.135924,0.0708645
2.43858,-0.377512,0.0430725
2.43306,-0.499436,-0.14465
2.43444,-0.25587,0.142557
2.43298,-0.376645,0.100303
2.43955,-0.377663,-0.129375
2.42298,-0.375097,0.200157
2.43393,-0.255816,-0.0569482
2.42868,-0.384666,-0.0715627
2.43167,-0.144468,0.0141578
2.44152,-0.3867,-0.0143671
2.44736,-0.265868,-0.265172
2.44437,-0.510656,-0.233104
2.44097,-0.265175,0.0571343
2.42351,-0.506298,0.0288233
2.43347,-0.385424,-0.201133
2.42669,-0.144172,0.0707482
2.43724,-0.386022,0.0430725
2.4313,-0.507926,-0.14465
2.43353,-0.264367,0.142557
2.43559,-0.38576,0.100466
2.43899,-0.264959,-0.11428
2.44216,-0.386801,-0.129584
2.42738,-0.263698,0.299799
2.42166,-0.383553,0.200157
2.437,-0.264743,-0.0570412
2.42886,-0.271582,0
2.4352,-0.152356,0.0141811
2.4403,-0.394368,-0.0143671
2.44256,-0.273114,-0.264744
2.44665,-0.519159,-0.233476
2.44013,-0.272842,0.0571343
2.42973,-0.51557,0.0289165
2.43484,-0.272251,-0.171322
2.44012,-0.394339,-0.201784
2.42623,-0.151795,0.0707482
2.43207,-0.393038,0.0430027
2.4336,-0.51639,-0.144882
2.43269,-0.27201,0.142557
2.43832,-0.394048,0.100628
2.43815,-0.27262,-0.11428
2.44488,-0.395108,-0.129793
2.43049,-0.271764,0.300286
2.43218,-0.271953,-0.0569482
2.42608,-0.400765,-0.0715627
2.43585,-0.280976,0
2.42792,-0.524048,-0.0289165
2.43465,-0.160856,0.0141811
2.43496,-0.402232,-0.0143438
2.43369,-0.280727,-0.263887
2.43916,-0.281358,0.0571343
2.43183,-0.524892,0.028963
2.43784,-0.281206,-0.171601
2.43873,-0.402854,-0.201784
2.42967,-0.160527,0.0708645
2.43463,-0.402177,0.0430725
2.43178,-0.524882,-0.144882
2.43173,-0.2805,0.142557
2.43693,-0.402557,0.100628
2.43718,-0.281129,-0.11428
2.43347,-0.280701,0.300774
2.42693,-0.400905,0.200808
2.43519,-0.2809,-0.0570412
2.42975,-0.169053,-0.0425141
2.43485,-0.289477,0
2.42998,-0.533377,-0.028963
2.44123,-0.290235,-0.382474
2.43407,-0.169353,0.0141811
2.43354,-0.410729,-0.0143438
2.4327,-0.28922,-0.263887
2.44297,-0.536227,-0.233476
2.43816,-0.28987,0.0571343
2.42998,-0.533377,0.028963
2.44081,-0.290185,-0.17188
2.44124,-0.412028,-0.202109
2.4291,-0.169007,0.0708645
2.43715,-0.411339,0.0431423
2.42604,-0.532511,-0.14465
2.43073,-0.288987,0.142557
2.43551,-0.41106,0.100628
2.43618,-0.289635,-0.11428
2.42551,-0.409374,0.200808
2.43608,-0.169493,-0.0994886
2.43419,-0.289398,-0.0570412
2.42589,-0.297002,0
2.4242,-0.540985,-0.0289165
2.44145,-0.178432,0.0142276
2.43998,-0.42058,-0.0143903
2.43957,-0.298677,-0.264744
2.44497,-0.545619,-0.233847
2.43714,-0.298379,0.0571343
2.42811,-0.541856,0.028963
2.43978,-0.420547,-0.202109
2.43248,-0.177777,0.0709809
2.43965,-0.420523,0.0432122
2.43585,-0.543585,-0.145348
2.42971,-0.29747,0.142557
2.43799,-0.420238,0.100791
2.43912,-0.298622,-0.114467
2.44455,-0.421368,-0.130003
2.42751,-0.2972,0.300286
2.42407,-0.417838,0.200808
2.43149,-0.177704,-0.0993258
2.43317,-0.297893,-0.0570412
2.43277,-0.306468,0
2.43283,-0.186342,0.0141811
2.43849,-0.429094,-0.0143903
2.43851,-0.307191,-0.264744
2.44693,-0.555031,-0.234219
2.43608,-0.306885,0.0571343
2.4262,-0.550328,0.028963
2.43438,-0.42837,-0.201784
2.42786,-0.185961,0.0708645
2.43816,-0.429036,0.0432122
2.43005,-0.551201,-0.145115
2.43262,-0.306449,0.142789
2.43258,-0.428053,0.100628
2.43014,-0.306136,-0.114094
2.43519,-0.428514,-0.129584
2.42646,-0.305672,0.300286
2.42652,-0.426988,0.201133
2.43086,-0.186191,-0.0993258
2.43608,-0.306885,-0.0571343
2.43184,-0.194807,-0.0425839
2.42772,-0.314444,0
2.43217,-0.194833,0.0141811
2.43304,-0.436897,-0.0143671
2.43742,-0.315701,-0.264744
2.44498,-0.563569,-0.234219
2.435,-0.315386,0.0571343
2.42426,-0.558794,0.028963
2.43368,-0.315216,-0.171601
2.43287,-0.436865,-0.201784
2.42719,-0.194435,0.0708645
2.43271,-0.436838,0.0431423
2.43589,-0.561474,-0.14558
2.43153,-0.314938,0.142789
2.43894,-0.437955,0.100954
2.4449,-0.31667,-0.114839
2.44154,-0.438423,-0.130003
2.42144,-0.31363,0.299799
2.42109,-0.434751,0.200808
2.43019,-0.194675,-0.0993258
2.43896,-0.3159,-0.0572273
2.43546,-0.203655,0.0142043
2.43544,-0.446108,-0.0143903
2.43236,-0.323682,-0.264316
2.443,-0.572101,-0.234219
2.44181,-0.324939,0.0573204
2.42619,-0.568165,0.0290096
2.43256,-0.323709,-0.171601
2.43917,-0.446791,-0.202435
2.43511,-0.446047,0.0432122
2.43003,-0.569063,-0.145348
2.42646,-0.322897,0.142557
2.43739,-0.446466,0.100954
2.43982,-0.324675,-0.114653
2.44393,-0.447663,-0.130212
2.4282,-0.323128,0.300774
2.4274,-0.444636,0.201458
2.4295,-0.203157,-0.0993258
2.43388,-0.323884,-0.0571343
2.4344,-0.212126,-0.0426537
2.43339,-0.332468,0
2.42419,-0.576631,-0.0290096
2.43075,-0.211808,0.0141811
2.43387,-0.454606,-0.0143903
2.43516,-0.332709,-0.264744
2.44099,-0.580625,-0.234219
2.4367,-0.332919,0.0572273
2.43198,-0.578482,0.0291027
2.43537,-0.332738,-0.17188
2.44151,-0.456035,-0.20276
2.42976,-0.211722,0.0709809
2.43747,-0.455279,0.043282
2.4358,-0.57939,-0.145813
2.43719,-0.332987,0.143255
2.43582,-0.454971,0.100954
2.43472,-0.332649,-0.114467
2.44235,-0.456191,-0.130212
2.43099,-0.33214,0.301261
2.42584,-0.453107,0.201458
2.43276,-0.211983,-0.0994886
2.44066,-0.333461,-0.0573204
2.42966,-0.220262,-0.0425839
2.42735,-0.462163,-0.0719118
2.42826,-0.340405,0
2.42605,-0.586028,-0.0290561
2.43398,-0.220653,0.0142043
2.43619,-0.463848,-0.0144135
2.43792,-0.34176,-0.265172
2.4312,-0.587272,-0.233476
2.4276,-0.340313,0.0570412
2.42994,-0.586967,0.0291027
2.43024,-0.340684,-0.171601
2.43991,-0.464554,-0.20276
2.42901,-0.220202,0.0709809
2.43979,-0.464533,0.0433518
2.43376,-0.587889,-0.145813
2.43206,-0.340938,0.143022
2.43029,-0.462723,0.100791
2.4375,-0.3417,-0.114653
2.44074,-0.464714,-0.130212
2.42982,-0.340623,0.301261
2.42032,-0.460826,0.201133
2.4276,-0.340313,-0.0570412
2.43684,-0.229491,-0.0427235
2.42705,-0.348879,0
2.43319,-0.229147,0.0142043
2.43849,-0.47311,-0.0144368
2.43278,-0.349702,-0.264744
2.44074,-0.5986,-0.234591
2.43035,-0.349354,0.0571343
2.42788,-0.595446,0.0291027
2.43299,-0.349732,-0.17188
2.43827,-0.473068,-0.20276
2.43816,-0.473046,0.0433518
2.43945,-0.598284,-0.146278
2.43481,-0.349993,0.143255
2.43258,-0.471965,0.100954
2.43233,-0.349638,-0.114467
2.43519,-0.47247,-0.130003
2.42468,-0.348538,0.300774
2.43431,-0.349923,-0.0572273
2.42807,-0.237218,-0.0425839
2.43374,-0.358515,0
2.4284,-0.237251,0.0141811
2.42897,-0.480068,-0.0143903
2.43154,-0.358192,-0.264744
2.43308,-0.358418,0.0572273
2.42967,-0.604883,0.0291493
2.4357,-0.358804,-0.172159
2.44051,-0.48235,-0.203086
2.43139,-0.237543,0.0710973
2.43257,-0.480779,0.043282
2.43347,-0.60583,-0.146045
2.42962,-0.357908,0.143022
2.43092,-0.480453,0.100954
2.43901,-0.359291,-0.114839
2.44528,-0.483291,-0.130631
2.42738,-0.357578,0.301261
2.43703,-0.359,-0.0573204
2.43247,-0.367008,0
2.42366,-0.612381,-0.0291027
2.43153,-0.246129,0.0142043
2.4312,-0.489333,-0.0144135
2.43421,-0.36727,-0.265172
2.43577,-0.367505,0.0573204
2.42366,-0.612381,0.0291027
2.43838,-0.3679,-0.172438
2.43491,-0.490079,-0.20276
2.42657,-0.245626,0.0709809
2.43871,-0.490845,0.0434216
2.42441,-0.365791,0.142789
2.43315,-0.489725,0.101117
2.43774,-0.367803,-0.114839
2.43966,-0.491035,-0.130421
2.42612,-0.366049,0.301261
2.42956,-0.245929,-0.0994886
2.43577,-0.367505,-0.0573204
2.43124,-0.375072,0
2.43468,-0.254607,0.0142276
2.43349,-0.498195,-0.0144368
2.42663,-0.374361,0.0571343
2.42937,-0.6224,0.0291958
2.4332,-0.375375,-0.172159
2.43718,-0.49895,-0.203086
2.42574,-0.253671,0.0709809
2.43707,-0.49893,0.0434216
2.42542,-0.621389,-0.145813
2.43502,-0.375655,0.143487
2.42759,-0.496989,0.100954
2.42861,-0.374666,-0.114467
2.44193,-0.499924,-0.130631
2.42881,-0.374698,0.301749
2.42155,-0.495752,0.201784
2.43271,-0.2544,-0.0996514
2.43453,-0.37558,-0.0573204
2.42991,-0.383557,0
2.42331,-0.62987,-0.0291493
2.43776,-0.263534,0.0142508
2.43173,-0.506686,-0.0144368
2.43165,-0.383831,-0.265172
2.43321,-0.384076,0.0573204
2.42331,-0.62987,0.0291493
2.43582,-0.384489,-0.172438
2.44322,-0.509081,-0.203737
2.43279,-0.262997,0.0712136
2.43923,-0.508249,0.0434914
2.4387,-0.63387,-0.146743
2.42975,-0.38353,0.143255
2.43367,-0.50709,0.10128
2.43518,-0.384387,-0.114839
2.43235,-0.506815,-0.130212
2.42357,-0.382555,0.301261
2.42371,-0.505015,0.202109
2.43975,-0.263749,-0.0999771
2.43321,-0.384076,-0.0573204
2.43649,-0.272004,-0.0427933
2.43251,-0.392674,0
2.42995,-0.515172,-0.316176
2.43682,-0.272041,0.0142508
2.43386,-0.516001,-0.01446
2.43815,-0.393584,-0.266029
2.43975,-0.393842,0.0575065
2.43446,-0.392989,-0.172438
2.42973,-0.515126,-0.20276
2.44136,-0.51759,0.0435612
2.43261,-0.641361,-0.14651
2.43234,-0.392646,0.143487
2.43188,-0.515582,0.10128
2.43776,-0.393522,-0.115025
2.42666,-0.514474,-0.130003
2.42222,-0.391012,0.301261
2.43484,-0.27182,-0.0998143
2.43185,-0.392567,-0.0573204
2.43155,-0.28005,-0.0427235
2.42718,-0.400511,0
2.42272,-0.647806,-0.0291958
2.43586,-0.280546,0.0142508
2.42813,-0.523651,-0.0144368
2.43284,-0.401445,-0.265601
2.4423,-0.403007,0.0575995
2.42272,-0.647806,0.0291958
2.42914,-0.400835,-0.172159
2.43182,-0.524445,-0.203086
2.43421,-0.65088,-0.146743
2.42701,-0.400484,0.143255
2.43007,-0.524068,0.10128
2.44032,-0.402679,-0.115211
2.44047,-0.52631,-0.13084
2.42867,-0.400758,0.302236
2.42991,-0.279861,-0.0996514
2.43836,-0.402356,-0.0575065
2.42659,-0.288065,-0.0426537
2.42531,-0.531907,-0.0722609
2.42971,-0.409646,0
2.43089,-0.288575,0.0142276
2.42629,-0.532123,-0.0144368
2.43142,-0.409935,-0.265601
2.433,-0.4102,0.0574134
2.4243,-0.657305,0.0292424
2.44346,-0.411965,-0.173275
2.43776,-0.534638,-0.203737
2.4299,-0.288458,0.0712136
2.43378,-0.533765,0.0434914
2.42807,-0.658328,-0.14651
2.42954,-0.409617,0.143487
2.42823,-0.532547,0.10128
2.4389,-0.411195,-0.115211
2.43861,-0.534826,-0.13084
2.43117,-0.409893,0.302723
2.42218,-0.531222,0.202435
2.42892,-0.288341,-0.0996514
2.42905,-0.409535,-0.0573204
2.42954,-0.297019,-0.0427235
2.43221,-0.418804,0
2.43384,-0.297544,0.0142508
2.43223,-0.54233,-0.0144833
2.4339,-0.419094,-0.266029
2.43155,-0.41869,0.0574134
2.42585,-0.666824,0.029289
2.44201,-0.420492,-0.173275
2.43588,-0.543144,-0.203737
2.42888,-0.296938,0.0712136
2.43971,-0.543998,0.043631
2.4289,-0.29694,-0.156824
2.43346,-0.668916,-0.146975
2.43203,-0.418773,0.14372
2.42245,-0.54015,0.101117
2.43351,-0.419028,-0.115025
2.44453,-0.545074,-0.131259
2.42973,-0.418377,0.302723
2.4242,-0.540541,0.20276
2.43186,-0.297303,-0.0998143
2.43549,-0.419369,-0.0575065
2.42849,-0.305498,-0.0427235
2.42679,-0.426599,0
2.42351,-0.675288,-0.029289
2.43278,-0.306038,0.0142508
2.43422,-0.551701,-0.0145065
2.43633,-0.428276,-0.266457
2.43401,-0.427868,0.0575065
2.42351,-0.675288,0.029289
2.4366,-0.428323,-0.172996
2.43397,-0.551644,-0.203737
2.44169,-0.553395,0.0437008
2.4388,-0.67955,-0.147441
2.43842,-0.428642,0.144185
2.42835,-0.55037,0.101443
2.43597,-0.428212,-0.115211
2.43482,-0.551837,-0.13084
2.42825,-0.426856,0.302723
2.4223,-0.549,0.20276
2.43874,-0.306787,-0.10014
2.43401,-0.427868,-0.0575065
2.4273,-0.31482,-0.0427235
2.42907,-0.436621,0
2.43556,-0.315892,0.0142741
2.42819,-0.560145,-0.0144833
2.43467,-0.437628,-0.266457
2.43235,-0.437211,0.0575065
2.43101,-0.436969,-0.172717
2.43183,-0.560986,-0.203737
2.42664,-0.314735,0.0712136
2.43955,-0.562766,0.0437008
2.43061,-0.31525,-0.15708
2.43675,-0.438002,0.144185
2.43011,-0.560588,0.101605
2.44217,-0.438976,-0.115583
2.43268,-0.561182,-0.13084
2.4305,-0.436879,0.303211
2.43629,-0.437918,-0.0575995
2.43026,-0.322971,-0.0427933
2.43949,-0.44641,0
2.43059,-0.323015,0.0142508
2.4381,-0.570504,-0.014553
2.44111,-0.446706,-0.267314
2.4349,-0.44557,0.0575995
2.43747,-0.446041,-0.173275
2.43782,-0.570439,-0.204388
2.42564,-0.322357,0.0712136
2.43388,-0.569516,0.043631
2.43144,-0.444936,0.143952
2.42834,-0.56822,0.101605
2.44078,-0.446646,-0.115583
2.4348,-0.569732,-0.131049
2.42131,-0.443083,0.302236
2.4349,-0.44557,-0.0575995
2.43399,-0.454189,0
2.42945,-0.331497,0.0142508
2.42442,-0.576237,-0.0144833
2.43172,-0.453766,-0.266457
2.43726,-0.4548,0.0576926
2.4359,-0.454547,-0.173275
2.43581,-0.578945,-0.204388
2.43187,-0.578008,0.043631
2.42202,-0.451956,0.143487
2.43023,-0.577617,0.101768
2.44313,-0.455896,-0.115769
2.43536,-0.454445,0.304186
2.42747,-0.331228,-0.0998143
2.42547,-0.452599,-0.0574134
2.43239,-0.462683,0
2.42828,-0.339975,0.0142508
2.43793,-0.463737,-0.267314
2.43173,-0.462557,0.0575995
2.42919,-0.713568,0.0294752
2.4343,-0.463047,-0.173275
2.44541,-0.590251,-0.205364
2.43373,-0.587432,0.0437008
2.42827,-0.4619,0.143952
2.43368,-0.462928,-0.115397
2.44241,-0.589528,-0.131677
2.42986,-0.462201,0.303698
2.43026,-0.340253,-0.0999771
2.43173,-0.462557,-0.0575995
2.42683,-0.470409,0
2.42285,-0.720903,-0.0294287
2.43499,-0.349586,0.0142973
2.43588,-0.596957,-0.0145763
2.43402,-0.471804,0.0576926
2.43659,-0.472301,-0.173554
2.43946,-0.597834,-0.205038
2.42609,-0.348308,0.07133
2.43166,-0.595924,0.0437008
2.43005,-0.348877,-0.157336
2.43056,-0.471133,0.144185
2.42614,-0.594569,0.101768
2.44381,-0.473702,-0.115956
2.43258,-0.596148,-0.131259
2.42823,-0.47068,0.303698
2.43697,-0.349871,-0.100303
2.4301,-0.471043,-0.0575995
2.42503,-0.603279,-0.0727263
2.4291,-0.479652,0
2.43376,-0.358084,0.0142973
2.43378,-0.605456,-0.0145763
2.43073,-0.479975,-0.266886
2.43629,-0.481072,0.0577856
2.43884,-0.481576,-0.173833
2.43736,-0.606346,-0.205038
2.43733,-0.606339,0.0438404
2.42881,-0.357357,-0.157336
2.43282,-0.480388,0.144417
2.42792,-0.603999,0.101931
2.44215,-0.482229,-0.115956
2.43048,-0.604636,-0.131259
2.43047,-0.479923,0.304186
2.42783,-0.357211,-0.0999771
2.43236,-0.480297,-0.0576926
2.42821,-0.365932,-0.0428631
2.42679,-0.612719,-0.0728427
2.43133,-0.488917,0
2.42458,-0.365385,0.0142508
2.43165,-0.613947,-0.0145763
2.43684,-0.490025,-0.267743
2.43459,-0.489573,0.0577856
2.42541,-0.740134,0.0295218
2.44105,-0.490873,-0.174112
2.42749,-0.612898,-0.204388
2.4352,-0.614843,0.0438404
2.43505,-0.489665,0.14465
2.4258,-0.612471,0.101931
2.44436,-0.491539,-0.116142
2.43998,-0.61605,-0.131887
2.43052,-0.366279,-0.10014
2.43459,-0.489573,-0.0577856
2.43227,-0.623596,-0.0730754
2.42952,-0.497825,0
2.42718,-0.37488,0.0142741
2.42551,-0.621862,-0.014553
2.4367,-0.499296,0.0578787
2.4265,-0.750201,0.0295684
2.43924,-0.499816,-0.174112
2.43296,-0.623771,-0.205038
2.42619,-0.374727,0.0714464
2.43293,-0.623765,0.0438404
2.43014,-0.375337,-0.157591
2.42932,-0.497785,0.144417
2.43128,-0.623343,0.102257
2.44255,-0.500494,-0.116142
2.4377,-0.624989,-0.131887
2.43311,-0.375795,-0.100303
2.43278,-0.498493,-0.0577856
2.43578,-0.507086,0
2.42994,-0.383126,0.0142973
2.42741,-0.630485,-0.0145763
2.43345,-0.506601,-0.267743
2.43903,-0.507764,0.0579717
2.43766,-0.507477,-0.174112
2.425,-0.382348,0.0714464
2.43096,-0.631405,0.0438404
2.43166,-0.506228,0.14465
2.42931,-0.630978,0.102257
2.44096,-0.508165,-0.116142
2.43959,-0.633648,-0.132096
2.42797,-0.382815,-0.10014
2.42729,-0.505319,-0.0576926
2.42826,-0.391553,-0.0429329
2.42529,-0.767484,-0.0296149
2.42859,-0.391606,0.0142973
2.43293,-0.640992,-0.0146228
2.43166,-0.515092,-0.267743
2.42942,-0.514617,0.0577856
2.43197,-0.515156,-0.173833
2.42365,-0.39081,0.0714464
2.43647,-0.641925,0.0439801
2.42597,-0.513886,0.144417
2.43917,-0.516683,-0.116142
2.4335,-0.641142,-0.131887
2.43451,-0.39256,-0.100466
2.42942,-0.514617,-0.0577856
2.42827,-0.523236,0
2.4351,-0.401382,0.0143438
2.43068,-0.649481,-0.0146228
2.43374,-0.524415,-0.268171
2.43543,-0.524779,0.0579717
2.43405,-0.524483,-0.174112
2.43808,-0.651458,0.0440499
2.43409,-0.401216,-0.158103
2.43197,-0.524033,0.144882
2.42871,-0.648953,0.10242
2.43511,-0.650664,-0.132096
2.43312,-0.401056,-0.100466
2.43543,-0.524779,-0.0579717
2.42941,-0.40916,-0.0430027
2.43033,-0.532565,0
2.42974,-0.409215,0.0143206
2.43226,-0.659008,-0.014646
2.43966,-0.53461,-0.269028
2.43749,-0.534133,0.0580648
2.43221,-0.532976,-0.174112
2.43193,-0.658918,0.0439801
2.42874,-0.409047,-0.157847
2.43792,-0.534228,0.145348
2.43551,-0.533699,-0.116142
2.43282,-0.65916,-0.132096
2.43171,-0.409547,-0.100466
2.42968,-0.532421,-0.0578787
2.42797,-0.417637,-0.0430027
2.43236,-0.541915,0
2.4283,-0.417694,0.0143206
2.42223,-0.665375,-0.0145995
2.44591,-0.544934,-0.175228
2.42337,-0.416846,0.0715627
2.43733,-0.669522,0.0441197
2.43604,-0.542735,0.145348
2.42412,-0.665893,0.10242
2.44533,-0.544804,-0.1167
2.43821,-0.669765,-0.132515
2.4342,-0.41871,-0.100628
2.4278,-0.540899,-0.0578787
2.4265,-0.42611,-0.0430027
2.43046,-0.550402,0
2.43076,-0.42686,0.0143438
2.43587,-0.551629,-0.269028
2.4298,-0.550253,0.0579717
2.4401,-0.552587,-0.174949
2.42584,-0.425995,0.0716791
2.43883,-0.679099,0.0441895
2.42976,-0.426683,-0.158103
2.42635,-0.549471,0.144882
2.43562,-0.551571,-0.116328
2.43586,-0.678271,-0.132515
2.43273,-0.427204,-0.100628
2.4337,-0.551137,-0.0580648
2.43287,-0.435988,-0.0431423
2.43242,-0.55978,0
2.4332,-0.436047,0.0143671
2.42908,-0.685528,-0.0146693
2.43006,-0.559236,-0.268599
2.43176,-0.559628,0.0580648
2.43038,-0.559311,-0.174391
2.42827,-0.435165,0.0717954
2.4326,-0.686522,0.0441197
2.43218,-0.435866,-0.158359
2.4322,-0.559729,0.145348
2.43732,-0.687855,-0.132724
2.42729,-0.434988,-0.100466
2.43176,-0.559628,-0.0580648
2.4274,-0.443759,-0.0430725
2.43045,-0.568267,0
2.43559,-0.445258,0.0143903
2.43436,-0.696203,-0.0147158
2.43758,-0.569934,0.0582509
2.43619,-0.569608,-0.174949
2.4228,-0.44292,0.0716791
2.43403,-0.696108,0.0441895
2.43457,-0.445071,-0.158615
2.43412,-0.569124,0.14558
2.43949,-0.570381,-0.1167
2.43106,-0.69526,-0.132515
2.43362,-0.444896,-0.100791
2.43758,-0.569934,-0.0582509
2.43234,-0.577672,0
2.43192,-0.704696,-0.0147158
2.43807,-0.579031,-0.175228
2.43159,-0.704601,0.0441895
2.43301,-0.453567,-0.158615
2.436,-0.57854,0.145813
2.4336,-0.577969,-0.116514
2.43205,-0.453388,-0.100791
2.43169,-0.577515,-0.0581579
2.42817,-0.461441,-0.0431423
2.4342,-0.587097,0
2.42457,-0.460757,0.0143438
2.4256,-0.712054,-0.0146925
2.44132,-0.588813,0.058437
2.43215,-0.586602,-0.174949
2.42358,-0.46057,0.0717954
2.43295,-0.714211,0.0442593
2.43141,-0.462057,-0.158615
2.43397,-0.58704,0.145813
2.43933,-0.588334,-0.116886
2.43438,-0.462621,-0.100954
2.42965,-0.586,-0.0581579
2.42654,-0.469914,-0.0431423
2.43214,-0.59559,0
2.4231,-0.720517,-0.0146925
2.43536,-0.59638,0.058344
2.43396,-0.596037,-0.175228
2.43044,-0.722699,0.0442593
2.42978,-0.470541,-0.158615
2.4319,-0.595532,0.145813
2.43726,-0.596846,-0.116886
2.44059,-0.472636,-0.10128
2.42759,-0.594478,-0.0581579
2.42497,-0.477958,-0.0431423
2.42627,-0.602688,0
2.42922,-0.478796,0.0143903
2.42836,-0.730853,-0.014739
2.43337,-0.604453,0.058344
2.4281,-0.603144,-0.174949
2.42431,-0.477829,0.0719118
2.43186,-0.731907,0.0443291
2.43212,-0.479368,-0.158871
2.43379,-0.604556,0.146045
2.43527,-0.604925,-0.116886
2.43901,-0.480726,-0.10128
2.42949,-0.603489,-0.0582509
2.42721,-0.487207,-0.0432122
2.42415,-0.611153,0
2.42361,-0.486486,0.0143671
2.42579,-0.739326,-0.014739
2.42598,-0.611615,-0.174949
2.42263,-0.486288,0.0719118
2.42929,-0.740391,0.0443291
2.43044,-0.487855,-0.158871
2.43166,-0.613048,0.146045
2.43315,-0.613422,-0.116886
2.42948,-0.487664,-0.100954
2.42737,-0.611965,-0.0582509
2.43333,-0.497278,-0.0433518
2.42975,-0.621594,0
2.4232,-0.747789,-0.014739
2.43684,-0.623408,0.0585301
2.43543,-0.623047,-0.175786
2.43338,-0.622522,0.146278
2.43486,-0.622901,-0.117072
2.43684,-0.623408,-0.0585301
2.42766,-0.504955,-0.043282
2.43531,-0.632082,0
2.43324,-0.631544,-0.175786
2.42701,-0.504818,0.0721445
2.43869,-0.507249,-0.159638
2.42346,-0.629006,0.145813
2.43267,-0.631397,-0.117072
2.43385,-0.506241,-0.10128
2.42691,-0.629901,-0.058344
2.42589,-0.513426,-0.043282
2.43309,-0.640578,0
2.42621,-0.513495,0.0144135
2.42555,-0.7671,-0.0147855
2.43243,-0.640405,0.0585301
2.43102,-0.640034,-0.175786
2.42523,-0.513287,0.0721445
2.43691,-0.515759,-0.159638
2.42125,-0.637462,0.145813
2.43045,-0.639885,-0.117072
2.43206,-0.514733,-0.10128
2.43243,-0.640405,-0.0585301
2.43181,-0.523998,-0.0434216
2.43072,-0.649492,0
2.42823,-0.523227,0.0144368
2.42653,-0.777205,-0.0148088
2.43393,-0.650348,0.0586231
2.42724,-0.523014,0.0722609
2.4311,-0.523846,-0.159382
2.43195,-0.64982,-0.117258
2.43407,-0.524486,-0.101443
2.4247,-0.656503,0
2.43039,-0.532132,0.01446
2.43176,-0.658416,0.0586231
2.42549,-0.53106,0.0722609
2.43715,-0.533612,-0.159894
2.43364,-0.658925,-0.117445
2.42841,-0.5317,-0.10128
2.43176,-0.658416,-0.0586231
2.42428,-0.53967,-0.0433518
2.42625,-0.666022,0
2.42461,-0.539743,0.0144368
2.42945,-0.666901,0.0586231
2.43137,-0.541249,-0.159638
2.43518,-0.668474,-0.117631
2.42654,-0.540173,-0.10128
2.4333,-0.667959,-0.0587162
2.43018,-0.549894,-0.0434914
2.42776,-0.67556,0
2.42661,-0.549086,0.01446
2.42599,-0.804669,-0.0148553
2.43481,-0.677521,0.0588092
2.42952,-0.549745,0.0724936
2.42947,-0.549733,-0.159638
2.43283,-0.67697,-0.117631
2.43244,-0.550404,-0.101605
2.4271,-0.675377,-0.0586231
2.42825,-0.558374,-0.0434914
2.44013,-0.688187,0.0589953
2.43149,-0.559119,0.07261
2.43532,-0.559999,-0.16015
2.43045,-0.685458,-0.117631
2.4344,-0.559787,-0.101768
2.42473,-0.683845,-0.0586231
2.42628,-0.566847,-0.0434914
2.42661,-0.566923,0.0144833
2.42617,-0.693404,0.0587162
2.42563,-0.566693,0.0724936
2.42946,-0.567589,-0.159894
2.42804,-0.693938,-0.117631
2.43632,-0.569191,-0.101931
2.43002,-0.694502,-0.0588092
2.43597,-0.578083,-0.0437008
2.4363,-0.578161,0.014553
2.43142,-0.704093,0.0589023
2.42752,-0.57608,0.07261
2.43912,-0.578831,-0.160661
2.42945,-0.70352,-0.117817
2.43432,-0.577692,-0.101931
2.42758,-0.70298,-0.0588092
2.42616,-0.584708,-0.0435612
2.42577,-0.711643,0
2.4226,-0.58385,0.0144833
2.42895,-0.712576,0.0589023
2.4255,-0.58455,0.07261
2.42932,-0.585471,-0.16015
2.43229,-0.586186,-0.101931
2.43662,-0.714827,-0.0590884
2.42819,-0.593277,-0.043631
2.42352,-0.71926,0
2.43053,-0.721341,0.0589953
2.43522,-0.594995,-0.160661
2.43043,-0.593824,-0.101931
2.4267,-0.720203,-0.0589023
2.42988,-0.603136,-0.0437008
2.42853,-0.730442,0
2.42245,-0.60129,0.0145065
2.42787,-0.730244,0.0589953
2.42923,-0.602973,0.0728427
2.4369,-0.604878,-0.160917
2.43212,-0.603691,-0.102094
2.4317,-0.731396,-0.0590884
2.43164,-0.612591,-0.0437706
2.43197,-0.612674,0.0145763
2.43098,-0.612425,0.0729591
2.43865,-0.614356,-0.161173
2.43387,-0.613153,-0.102257
2.43296,-0.741045,-0.0591814
2.4296,-0.620651,-0.0437706
2.4235,-0.746955,0
2.42605,-0.619745,0.014553
2.42119,-0.618504,0.0727263
2.43659,-0.622439,-0.161173
2.43049,-0.749109,-0.0591814
2.42343,-0.628548,-0.0437008
2.42763,-0.629637,0.0145763
2.42278,-0.628378,0.0728427
2.4343,-0.631365,-0.161173
2.42566,-0.629126,-0.102094
2.42391,-0.75682,-0.0590884
2.4252,-0.637598,-0.0437706
2.42204,-0.765061,0
2.42833,-0.63842,-0.160917
2.43129,-0.639199,-0.10242
2.43456,-0.649151,-0.0439801
2.42716,-0.647178,0.0145995
2.42617,-0.646915,0.0730754
2.4338,-0.648949,-0.161429
2.42905,-0.647682,-0.10242
2.43988,-0.660159,-0.0441197
2.4315,-0.657891,0.0733081
2.43911,-0.65995,-0.161941
2.43052,-0.657624,-0.102582
2.43371,-0.667613,-0.0440499
2.42246,-0.664529,0.0145995
2.42821,-0.666104,-0.102582
2.43148,-0.67568,-0.0440499
2.42312,-0.673356,0.0731918
2.42983,-0.675223,-0.102745
2.42911,-0.684164,-0.0440499
2.42075,-0.68181,0.0731918
2.43131,-0.684784,-0.102908
2.43439,-0.694834,-0.0441895
2.4222,-0.691353,0.0733081
2.42506,-0.69217,-0.102745
2.43195,-0.703327,-0.0441895
2.43031,-0.702851,-0.103071
2.42936,-0.712236,-0.0441895
2.42201,-0.710082,0.0146693
2.42388,-0.71063,-0.102908
2.43453,-0.722989,-0.0443291
2.42458,-0.728332,-0.0441895
2.42955,-0.739543,-0.0443291
2.42682,-0.748443,-0.0443291
2.43565,-0.760486,-0.0445385
2.43325,-0.768134,-0.0445385
2.43028,-0.777471,-0.0445385
