2.35133,0.393057,-0.138836
2.33431,0.373478,-0.137673
2.34123,0.366208,-0.221207
2.3356,0.365327,-0.137673
2.34243,0.358443,-0.221207
2.33285,0.356976,-0.137441
2.35118,0.359782,-0.0830608
2.34373,0.349854,-0.221207
2.33809,0.349012,-0.137673
2.34488,0.342081,-0.221207
2.33133,0.340104,-0.137208
2.33423,0.33221,-0.220092
2.33543,0.323652,-0.220092
2.32579,0.322317,-0.136743
2.33254,0.315372,-0.21972
2.33081,0.315137,-0.136976
2.33363,0.307229,-0.21972
2.32793,0.306479,-0.136743
2.33469,0.299081,-0.21972
2.32899,0.298351,-0.136743
2.32781,0.289945,-0.218976
2.34857,0.409892,-0.194624
2.32209,0.289233,-0.136278
2.32486,0.281339,-0.218604
2.34606,0.401019,-0.194298
2.32309,0.281125,-0.136278
2.32386,0.272991,-0.0272401
2.32583,0.273221,-0.218604
2.34351,0.392168,-0.193973
2.32405,0.273013,-0.136278
2.3248,0.264878,-0.0272401
2.31885,0.2642,-0.217861
2.33699,0.382698,-0.193322
2.32499,0.264899,-0.136278
2.32969,0.2572,-0.0272867
2.32768,0.256978,-0.218604
2.33832,0.374538,-0.193322
2.32193,0.256344,-0.136045
2.32257,0.248621,-0.0271936
2.3206,0.24841,-0.217861
2.34348,0.367399,-0.193647
2.3188,0.248218,-0.135813
2.31749,0.239898,-0.217489
2.34475,0.359217,-0.193647
2.31568,0.239711,-0.13558
2.32027,0.232003,-0.027147
2.31831,0.231807,-0.217489
2.33416,0.349259,-0.192671
2.3165,0.231626,-0.13558
2.3131,0.223135,-0.0270539
2.3131,0.223135,0.0270539
2.32748,0.339959,-0.19202
2.3173,0.22354,-0.13558
2.32807,0.340045,-0.123304
2.31587,0.215653,-0.217117
2.30587,0.214721,0.0269608
2.32859,0.332238,-0.19202
2.31803,0.215854,-0.13558
2.32523,0.331758,-0.123094
2.31859,0.207337,-0.0271004
2.30871,0.206453,-0.216374
2.31062,0.206624,0.0270073
2.3298,0.3237,-0.19202
2.31085,0.206644,-0.135115
2.32643,0.323233,-0.123094
2.31531,0.1989,-0.0270539
2.31339,0.198734,-0.216746
2.31133,0.198558,0.0270073
2.33091,0.315566,-0.19202
2.31156,0.198577,-0.135115
2.32358,0.314575,-0.122885
2.33877,0.30832,-0.0686537
2.31201,0.190488,-0.0270073
2.3101,0.19033,-0.216374
2.30005,0.189503,0.0268676
2.32805,0.306906,-0.191695
2.30825,0.190179,-0.134883
2.32071,0.305939,-0.122675
2.32,0.297611,-0.0680718
2.31266,0.182417,-0.0270073
2.31075,0.182266,-0.216374
2.29671,0.181159,0.0268211
2.32515,0.298271,-0.191369
2.31289,0.182435,-0.135115
2.32176,0.297837,-0.122675
2.32102,0.289511,-0.0680718
2.30929,0.174043,-0.0269608
2.30132,0.173442,0.0268676
2.32618,0.290154,-0.191369
2.30953,0.17406,-0.134883
2.33072,0.29072,-0.123094
2.3059,0.165694,-0.0269142
2.30799,0.165844,-0.216002
2.30191,0.165407,0.0268676
2.34412,0.40111,-0.166299
2.32717,0.282032,-0.191369
2.29817,0.165138,-0.134185
2.32379,0.281621,-0.122675
2.31505,0.272366,-0.0678391
2.30646,0.157644,-0.0269142
2.30458,0.157516,-0.21563
2.2905,0.156553,0.0267279
2.34157,0.392266,-0.16602
2.32814,0.273907,-0.191369
2.3067,0.15766,-0.13465
2.32079,0.273041,-0.122466
2.31589,0.265091,-0.0678391
2.30695,0.150397,-0.0269142
2.30109,0.150015,-0.215258
2.29497,0.149616,0.0267745
2.32899,0.266591,-0.191369
2.3032,0.150152,-0.134417
2.31766,0.265294,-0.122257
2.31689,0.256197,-0.0678391
2.29154,0.140559,-0.0267279
2.32181,0.256741,-0.0135766
2.30562,0.141423,-0.21563
2.29154,0.140559,0.0267279
2.33637,0.374646,-0.165462
2.31811,0.256332,-0.190393
2.30376,0.141308,-0.134417
2.3147,0.255954,-0.122047
2.31777,0.248108,-0.0678391
2.3,0.13302,-0.0268211
2.31474,0.247783,-0.0135301
2.29201,0.132558,0.0267279
2.33373,0.365869,-0.165183
2.31899,0.248238,-0.190393
2.30025,0.133035,-0.134185
2.3116,0.247447,-0.121838
2.31059,0.239999,-0.0676064
2.30041,0.125794,-0.0268211
2.30755,0.239683,-0.0134836
2.29856,0.125693,-0.214887
2.30041,0.125794,0.0268211
2.33881,0.359142,-0.165462
2.31519,0.240477,0.0406292
2.30066,0.125808,-0.134185
2.31634,0.240597,-0.122047
2.31149,0.231126,-0.0676064
2.29688,0.116758,-0.0267745
2.30845,0.230822,-0.0134836
2.29505,0.116665,-0.214515
2.28889,0.116352,0.0266814
2.34017,0.350159,-0.165462
2.32067,0.232044,-0.190393
2.29315,0.116568,-0.13372
2.33149,0.34886,-0.109813
2.3093,0.230907,-0.121629
2.31228,0.223055,-0.0676064
2.29328,0.10855,-0.0267279
2.3172,0.22353,-0.0135301
2.29544,0.108652,-0.214515
2.28129,0.107982,0.0265882
2.32953,0.340258,-0.164625
2.3175,0.223558,-0.190067
2.32087,0.223884,0.040699
2.29753,0.108751,-0.133952
2.33269,0.340719,-0.109813
2.31804,0.223611,-0.122047
2.31305,0.214983,-0.0676064
2.29764,0.10072,-0.0267745
2.31,0.2147,-0.0134836
2.2958,0.100639,-0.214515
2.28965,0.100369,0.0266814
2.32676,0.331562,-0.164346
2.30969,0.214671,0.0404896
2.33387,0.332575,-0.109813
2.30688,0.21441,-0.121419
2.30973,0.207357,-0.06749
2.28595,0.0930125,-0.0266348
2.3027,0.206726,-0.0134371
2.33187,0.324818,-0.253606
2.28815,0.0931019,-0.213771
2.28995,0.0931751,0.0266814
2.33174,0.3248,-0.164625
2.31496,0.207827,-0.189742
2.31434,0.207771,0.0405594
2.29421,0.0933485,-0.13372
2.30754,0.207161,-0.121419
2.30646,0.19895,-0.0673737
2.28626,0.0850329,-0.0266348
2.3251,0.315607,-0.252749
2.28846,0.0851147,-0.213771
2.27827,0.0847356,0.0265417
2.3289,0.316123,-0.164346
2.31567,0.199745,-0.189742
2.28654,0.0850433,-0.133255
2.30825,0.199105,-0.121419
2.29056,0.0767862,-0.0266814
2.30412,0.190243,-0.0134371
2.33019,0.307603,-0.253177
2.28478,0.0765925,-0.2134
2.27457,0.0762502,0.0264951
2.31577,0.191205,0.0405594
2.32132,0.306432,-0.109069
2.30896,0.190643,-0.121419
2.33114,0.307728,-0.0547149
2.3038,0.182526,-0.0672573
2.2868,0.0690687,-0.0266348
2.30075,0.182285,-0.0134139
2.32725,0.299366,-0.252749
2.27481,0.0687064,0.0264951
2.3271,0.299346,-0.164067
2.31836,0.298223,-0.108883
2.30162,0.182353,-0.121001
2.32422,0.298975,-0.0545288
2.30443,0.174484,-0.0672573
2.28303,0.0609795,-0.0265882
2.30536,0.174555,-0.0134371
2.33223,0.291735,-0.253177
2.27503,0.0607659,0.0264951
2.32417,0.290726,-0.163788
2.30571,0.174581,-0.188766
2.31303,0.175135,0.0404896
2.32732,0.291121,-0.109255
2.30622,0.17462,-0.12121
2.32921,0.291357,-0.0546219
2.30904,0.166325,-0.0673737
2.28324,0.0526119,-0.0265882
2.29801,0.16553,-0.0133907
2.32144,0.281748,-0.251892
2.27924,0.0525197,0.0265417
2.32522,0.282206,-0.163788
2.31031,0.166416,-0.189091
2.30567,0.166082,0.04035
2.32044,0.281626,-0.108883
2.29888,0.165593,-0.120791
2.3263,0.282337,-0.0545288
2.30163,0.157716,-0.067141
2.28341,0.0446409,-0.0265882
2.29059,0.15696,-0.0133442
2.32241,0.273642,-0.251892
2.28164,0.0446064,-0.213028
2.27141,0.0444064,0.0264485
2.32223,0.273621,-0.163509
2.3069,0.158077,-0.188766
2.31744,0.273057,-0.108697
2.31535,0.272811,-0.0542496
2.29812,0.150224,-0.0670246
2.29905,0.150285,-0.0133907
2.32721,0.266798,-0.252321
2.27381,0.037308,-0.212284
2.27154,0.0372708,0.0264485
2.32704,0.266779,-0.163788
2.31829,0.265775,-0.108697
2.29993,0.150342,-0.120791
2.3162,0.265536,-0.0542496
2.29469,0.141154,-0.0669082
2.30988,0.25583,0
2.27567,0.0285992,-0.0264951
2.29961,0.141457,-0.0133907
2.32426,0.257423,-0.251892
2.27792,0.0286275,-0.212656
2.27167,0.028549,0.0264485
2.31615,0.256524,-0.162951
2.30397,0.141725,-0.18844
2.31532,0.256432,-0.108511
2.30049,0.141511,-0.120791
2.32118,0.257081,-0.0543427
2.29517,0.133143,-0.0669082
2.27975,0.0206912,-0.0265417
2.30009,0.133428,-0.0133907
2.32119,0.248884,-0.251464
2.278,0.0206753,-0.212656
2.26375,0.020546,0.0263554
2.32496,0.249288,-0.163509
2.30378,0.133642,0.0402802
2.3162,0.248348,-0.108511
2.29698,0.133248,-0.120582
2.31808,0.24855,-0.0542496
2.29163,0.124913,-0.0667919
2.30763,0.239285,0
2.27181,0.012689,-0.0264485
2.29256,0.124964,-0.0133442
2.31809,0.24037,-0.251036
2.26381,0.0126443,0.0263554
2.32185,0.24076,-0.16323
2.29624,0.125165,0.0401405
2.28272,0.124427,0.0931383
2.31308,0.23985,-0.108324
2.29743,0.12523,-0.120582
2.31098,0.239633,-0.0540635
2.29203,0.117314,-0.0667919
2.27184,0.00515582,-0.0264485
2.28897,0.117157,-0.0133209
2.31492,0.232285,-0.250607
2.27411,0.00516096,-0.212284
2.26384,0.00513766,0.0263554
2.31867,0.232661,-0.162951
2.30064,0.117754,0.0402103
2.27614,0.00516557,-0.132557
2.28312,0.116857,0.0931383
2.31783,0.232578,-0.108511
2.30778,0.231569,-0.0539705
2.28442,0.109329,-0.0665591
2.27584,-0.00238271,-0.0264951
2.28934,0.109565,-0.0133209
2.31567,0.224606,-0.250607
2.26385,-0.00237015,0.0263554
2.31545,0.224585,-0.162672
2.30666,0.223732,-0.107952
2.29422,0.109799,-0.120373
2.3165,0.224686,-0.0541566
2.28479,0.101354,-0.0665591
2.30197,0.215168,0
2.26782,-0.0102912,-0.026402
2.29371,0.10175,-0.0133442
2.31248,0.216151,-0.250179
2.25582,-0.0102367,0.0262623
2.30828,0.215758,-0.162114
2.32749,0.332909,-0.150684
2.30743,0.215679,-0.107952
2.2906,0.101612,-0.120163
2.31727,0.216598,-0.0541566
2.28914,0.0931422,-0.0666755
2.26377,-0.0185698,-0.0263554
2.29007,0.0931801,-0.0133209
2.31722,0.20803,-0.250607
2.31008,0.207389,0.0539705
2.25577,-0.0185042,0.0262623
2.31303,0.207653,-0.162393
2.29446,0.0933589,-0.187464
2.32869,0.324376,-0.150684
2.3082,0.20722,-0.107952
2.29096,0.0932163,-0.120163
2.31008,0.207389,-0.0539705
2.29344,0.085299,-0.0667919
2.29946,0.198346,0
2.26369,-0.0264723,-0.0263554
2.28238,0.0848877,-0.0132744
2.31001,0.199256,-0.24975
2.31478,0.199667,0.0540635
2.25969,-0.0264256,0.0263088
2.30976,0.199235,-0.162114
2.29079,0.0852004,-0.187138
2.29007,0.0851735,0.0400009
2.3219,0.315171,-0.150172
2.27654,0.0846702,0.0928126
2.30493,0.198818,-0.107766
2.28728,0.0850697,-0.119954
2.30681,0.19898,-0.0538774
2.28174,0.0768894,-0.0664428
2.30413,0.190649,0
2.26758,-0.0344342,-0.026402
2.28267,0.0769207,-0.0132744
2.2988,0.190208,-0.248465
2.31147,0.191257,0.0539705
2.26359,-0.0343734,0.0263554
2.31044,0.191171,-0.162114
2.32694,0.307588,-0.150428
2.30163,0.190442,-0.10758
2.29155,0.0772201,-0.120163
2.30749,0.190927,-0.0538774
2.27798,0.0692015,-0.0663264
2.29677,0.182374,0
2.26346,-0.0418791,-0.0263554
2.28291,0.0693511,-0.0132744
2.29942,0.182584,-0.248465
2.26576,-0.0419217,-0.211541
2.30412,0.182958,0.0537844
2.25546,-0.0417311,0.0262623
2.31106,0.183509,-0.162114
2.29059,0.0695846,0.0400009
2.32003,0.29885,-0.149916
2.29827,0.182493,-0.107394
2.28381,0.0693785,-0.119745
2.30014,0.182641,-0.0536913
2.3215,0.290804,-0.0408386
2.27821,0.0612488,-0.0663264
2.29341,0.174052,0
2.2593,-0.0496925,-0.0263088
2.3095,0.175274,-0.360337
2.27914,0.0612737,-0.0132512
2.30797,0.175158,-0.249322
2.30475,0.174913,0.0537844
2.2473,-0.0494286,0.0261692
2.30771,0.175138,-0.161835
2.32106,0.290749,-0.149916
2.29889,0.174469,-0.107394
2.28005,0.0612982,-0.119535
2.30873,0.175216,-0.0538774
2.32647,0.283183,-0.0409084
2.28641,0.0534835,-0.0665591
2.294,0.166046,0
2.25112,-0.0573743,-0.0262157
2.31009,0.167211,-0.360337
2.28334,0.0534117,-0.0132744
2.3046,0.166814,-0.248894
2.30534,0.166867,0.0537844
2.24712,-0.0572724,0.0261692
2.30035,0.166506,-0.161277
2.28703,0.053498,0.0399311
2.3181,0.282164,-0.149661
2.29948,0.166443,-0.107394
2.28424,0.0534328,-0.119745
2.30534,0.166867,-0.0537844
2.31553,0.273651,-0.040699
2.27858,0.0453424,-0.0663264
2.29057,0.157762,0
2.2629,-0.06558,-0.0263554
2.27551,0.0452813,-0.0132279
2.2893,0.157675,-0.24718
2.26122,-0.0655313,-0.211169
2.30591,0.158819,0.0537844
2.2469,-0.0651166,0.0261692
2.3049,0.158749,-0.161556
2.32303,0.274538,-0.149916
2.26967,0.045165,0.0924869
2.29607,0.158141,-0.107208
2.28441,0.0454584,-0.119745
2.31396,0.273466,-0.0949294
2.29793,0.158269,-0.0535983
2.31647,0.265566,-0.040699
2.27873,0.0373878,-0.0663264
2.29111,0.149765,0
2.25466,-0.0732196,-0.0262623
2.31679,0.265602,0.0135534
2.27566,0.0373374,-0.0132279
2.29778,0.150201,-0.248037
2.30246,0.150507,0.0536913
2.25066,-0.0730897,0.0262157
2.30544,0.150702,-0.161556
2.27935,0.037398,0.0397915
2.31605,0.265518,-0.149405
2.30059,0.150385,-0.107394
2.3149,0.265387,-0.0949294
2.29448,0.149985,-0.0535052
2.32533,0.258364,-0.0408386
2.27885,0.0294349,-0.0663264
2.29162,0.141768,0
2.25839,-0.0812316,-0.0263088
2.27577,0.0293952,-0.0132279
2.29829,0.142181,-0.248037
2.29898,0.142224,0.0535983
2.2424,-0.0806565,0.0261226
2.30197,0.142409,-0.161277
2.27946,0.0294429,0.0397915
2.31696,0.257433,-0.149405
2.29711,0.142108,-0.107208
2.31184,0.256865,-0.0947666
2.29898,0.142224,-0.0535983
2.3222,0.250222,-0.0407688
2.26694,0.021762,-0.0659773
2.24611,-0.0882497,-0.0261692
2.31854,0.249827,0.0135534
2.26786,0.0217709,-0.0131814
2.29477,0.134326,-0.247608
2.25644,-0.0886555,-0.210797
2.29545,0.134365,0.0535052
2.23812,-0.0879357,0.026076
2.29446,0.134307,-0.160719
2.3178,0.249748,-0.149405
2.26202,0.0217148,0.0921613
2.29358,0.134256,-0.107022
2.27278,0.0218181,-0.119117
2.30871,0.248768,-0.0946037
2.29944,0.134599,-0.0535983
2.31515,0.240882,-0.0406292
2.271,0.0134774,-0.0660937
2.28856,0.125547,0
2.24578,-0.0964811,-0.0261692
2.30082,0.12622,-0.358492
2.27592,0.0135066,-0.0132279
2.29593,0.125951,0.0535052
2.29494,0.125897,-0.160719
2.27561,0.0135048,0.0397217
2.31473,0.240838,-0.149149
2.28867,0.125554,0.133487
2.26208,0.0134245,0.0921613
2.29007,0.12563,-0.106835
2.27684,0.013512,-0.119326
2.30961,0.240305,-0.0946037
2.312,0.232398,-0.0405594
2.28499,0.117352,0
2.25342,-0.104692,-0.0262623
2.27196,0.0055517,-0.0132047
2.29568,0.117901,-0.247608
2.29635,0.117936,0.0535052
2.23743,-0.103949,0.026076
2.29536,0.117885,-0.160719
2.27165,0.00555095,0.0396519
2.30761,0.231958,-0.148637
2.25375,-0.104707,-0.131394
2.28511,0.117358,0.133255
2.26611,0.00553742,0.0923241
2.29049,0.117635,-0.106835
2.27687,0.00556371,-0.119326
2.31043,0.232241,-0.0946037
2.29236,0.117731,-0.0534122
2.31275,0.224731,-0.0405594
2.26704,-0.00197766,-0.0659773
2.28936,0.109967,0
2.25306,-0.112163,-0.0262623
2.30909,0.224374,0.0134836
2.26796,-0.00197846,-0.0131814
2.28811,0.109907,-0.246752
2.24507,-0.111765,0.0261692
2.29574,0.110273,-0.160719
2.26765,-0.0019782,0.0395821
2.31234,0.224691,-0.148893
2.29087,0.110039,-0.106835
2.30006,0.11048,0.282737
2.30323,0.223806,-0.0942781
2.28475,0.109745,-0.0532261
2.31352,0.216656,-0.0405594
2.26302,-0.00987425,-0.065861
2.28573,0.101796,0
2.30189,0.215566,0.0134371
2.26794,-0.00989571,-0.0131814
2.28848,0.101918,-0.246752
2.29311,0.102124,0.0534122
2.24067,-0.119389,0.0261226
2.28814,0.101903,-0.160161
2.27163,-0.00991182,0.0396519
2.30914,0.216245,-0.148637
2.24899,-0.119833,-0.131162
2.27788,0.101446,0.13279
2.29124,0.102041,-0.106835
2.304,0.215764,-0.0942781
2.28911,0.101946,-0.0533191
2.3063,0.207861,-0.0404198
2.26697,-0.0178045,-0.0659773
2.28208,0.0936531,0
2.24823,-0.127663,-0.0262157
2.30661,0.207889,0.0134604
2.25989,-0.0177489,-0.0131349
2.28485,0.0937668,-0.246323
2.29345,0.0941197,0.0534122
2.28848,0.0939158,-0.160161
2.26758,-0.0178094,0.0395821
2.31385,0.208542,-0.148893
2.28759,0.0938794,-0.106649
2.26882,-0.017819,-0.118907
2.30474,0.20772,-0.0942781
2.28945,0.0939557,-0.0533191
2.31498,0.200499,-0.0405594
2.2549,-0.0255822,-0.0656282
2.28639,0.0858361,0
2.23978,-0.135029,-0.0261226
2.29081,0.086002,-0.356648
2.29935,0.199146,0.0134139
2.28914,0.0859392,-0.246752
2.24614,-0.135412,-0.210054
2.28977,0.0859629,0.0533191
2.2318,-0.134548,0.0260295
2.28481,0.0857767,-0.159882
2.31059,0.200119,-0.148637
2.27853,0.0855411,0.13279
2.28391,0.0857431,-0.106463
2.26874,-0.0257392,-0.118907
2.30545,0.199674,-0.0942781
2.29376,0.0861129,-0.0534122
2.30769,0.191755,-0.0404198
2.26279,-0.0335712,-0.065861
2.27868,0.0775828,0
2.2353,-0.142591,-0.026076
2.28715,0.077871,-0.356033
2.26371,-0.0335849,-0.0131582
2.28545,0.0778133,-0.246323
2.2393,-0.142846,0.0261226
2.28509,0.0778012,-0.159882
2.2991,0.191041,0.067141
2.26341,-0.0335803,0.0395123
2.3073,0.191722,-0.148382
2.27483,0.0774516,0.132557
2.24989,-0.0333797,0.0916728
2.2842,0.0777707,-0.106463
2.26864,-0.0336579,-0.118907
2.2736,0.0774098,0.279325
2.29817,0.190963,-0.0939524
2.28606,0.077834,-0.0532261
2.30835,0.183698,-0.0404198
2.25866,-0.041397,-0.0657446
2.28693,0.069872,0
2.24277,-0.150931,-0.0261692
2.2967,0.182771,0.0133907
2.25958,-0.0414138,-0.0131349
2.27776,0.0695916,-0.245466
2.28631,0.0698531,0.0532261
2.23479,-0.150394,0.026076
2.28934,0.0699455,-0.160161
2.26328,-0.0414815,0.0395123
2.30397,0.18335,-0.148126
2.27508,0.0695099,0.132557
2.24976,-0.0412337,0.0916728
2.28046,0.0696743,-0.106277
2.3028,0.183257,-0.0941152
2.27832,0.0696088,-0.05304
2.301,0.175032,-0.0402802
2.25451,-0.0491943,-0.0656282
2.27917,0.0616717,0
2.24223,-0.158759,-0.0261692
2.28763,0.0619008,-0.356033
2.29334,0.174449,0.0133674
2.25942,-0.0493016,-0.0131349
2.27401,0.0615321,-0.245038
2.24063,-0.158646,-0.209682
2.28654,0.0618713,0.0532261
2.23425,-0.158194,0.026076
2.28558,0.0618452,-0.159882
2.29639,0.174681,0.0670246
2.26312,-0.0493821,0.0395123
2.30858,0.175608,-0.148382
2.24258,-0.158784,-0.130929
2.27531,0.0615673,0.132557
2.28069,0.0617129,-0.106277
2.26435,-0.0494091,-0.118698
2.29944,0.174913,-0.0939524
2.27855,0.061655,-0.05304
2.3016,0.167,-0.0402802
2.25432,-0.057063,-0.0656282
2.27137,0.0535278,0
2.23768,-0.166288,-0.0261226
2.28388,0.0538227,-0.355418
2.30191,0.167022,0.0134139
2.26324,-0.0572886,-0.0131582
2.27819,0.0536884,-0.245466
2.28675,0.0538902,0.0532261
2.22571,-0.165399,0.0259829
2.2778,0.0536794,-0.159324
2.26293,-0.0572808,0.0395123
2.3052,0.167261,-0.148126
2.24542,-0.0568375,0.09151
2.28089,0.0537522,-0.106277
2.26417,-0.0573121,-0.118698
2.29605,0.166597,-0.0937896
2.27875,0.0537017,-0.05304
2.30217,0.158964,-0.0402802
2.25411,-0.0649317,-0.0656282
2.27554,0.0456792,0
2.2331,-0.173788,-0.026076
2.28406,0.0458501,-0.355418
2.29051,0.158159,0.0133442
2.25503,-0.0649581,-0.0131117
2.28234,0.0458155,-0.245895
2.23946,-0.174283,-0.209682
2.22113,-0.172857,0.0259363
2.27798,0.0457281,-0.159324
2.25954,-0.0650882,-0.184535
2.26272,-0.0651796,0.0395123
2.30577,0.159213,-0.148126
2.2677,0.0455218,0.132092
2.28107,0.0457901,-0.106277
2.29662,0.158582,-0.0937896
2.28292,0.0458273,-0.053133
2.29473,0.150404,-0.0401405
2.25387,-0.0727996,-0.0656282
2.27569,0.0377358,0
2.23248,-0.181582,-0.026076
2.28025,0.0378115,-0.354803
2.29105,0.150163,0.0133442
2.25079,-0.0727001,-0.0130884
2.27453,0.0377166,-0.245038
2.27907,0.0377919,0.05304
2.22052,-0.180609,0.0259363
2.27812,0.0377762,-0.159324
2.2593,-0.072975,-0.184535
2.25848,-0.0729484,0.0394424
2.29834,0.150641,-0.147614
2.23283,-0.181611,-0.130464
2.26785,0.0376057,0.132092
2.24896,-0.072641,0.0916728
2.28121,0.0378274,-0.106277
2.29716,0.150564,-0.0937896
2.27107,0.0376593,-0.0528539
2.29923,0.142641,-0.0402103
2.2576,-0.0808096,-0.0657446
2.27181,0.0297396,0
2.23183,-0.189373,-0.026076
2.29555,0.142413,0.0133674
2.25052,-0.0805563,-0.0130884
2.27465,0.0297767,-0.245038
2.27919,0.0298362,0.05304
2.22784,-0.189035,0.0260295
2.27824,0.0298238,-0.159324
2.29062,0.142107,0.0667919
2.25821,-0.0808315,0.0394424
2.29886,0.142618,-0.147614
2.23218,-0.189403,-0.130464
2.24071,-0.080205,0.0913472
2.27734,0.029812,-0.106091
2.25546,-0.0807331,-0.118279
2.29368,0.142297,-0.0936268
2.27119,0.0297315,-0.0528539
2.29572,0.134381,-0.0401405
2.24931,-0.0883757,-0.0655119
2.2719,0.0218093,0
2.22319,-0.196459,-0.0259829
2.28804,0.133931,0.0133209
2.25422,-0.0885687,-0.0131117
2.27474,0.0218366,-0.245038
2.22958,-0.197024,-0.208938
2.27528,0.0218418,0.0529469
2.2192,-0.196107,0.0259363
2.28712,0.133877,0.0666755
2.25392,-0.0885567,0.0393726
2.29934,0.134592,-0.147614
2.23151,-0.197194,-0.130464
2.27343,0.021824,-0.105905
2.25516,-0.0886056,-0.118279
2.29417,0.13429,-0.0936268
2.26728,0.021765,-0.0527608
2.29615,0.126767,-0.0401405
2.24501,-0.095664,-0.0653955
2.27196,0.0142753,0
2.23049,-0.20456,-0.026076
2.27657,0.0143043,-0.354188
2.29247,0.126564,0.0133442
2.25392,-0.0960434,-0.0131117
2.27082,0.0142682,-0.24461
2.23288,-0.20478,-0.20931
2.27934,0.0143217,0.05304
2.22252,-0.20383,0.0259829
2.2744,0.0142907,-0.159045
2.25361,-0.0960304,0.0393726
2.29977,0.126967,-0.147614
2.26412,0.0142261,0.131859
2.27349,0.0142849,-0.105905
2.25486,-0.0960835,-0.118279
2.2946,0.126681,-0.0936268
2.26734,0.0142463,-0.0527608
2.29656,0.119152,-0.0401405
2.24868,-0.103292,-0.0655119
2.26399,0.00671741,0
2.21785,-0.21082,-0.0259363
2.27265,0.00674311,-0.353573
2.28489,0.118546,0.0132977
2.24559,-0.10315,-0.0130652
2.27085,0.00673778,-0.24461
2.22822,-0.211806,-0.208938
2.21785,-0.21082,0.0259363
2.27444,0.0067484,-0.159045
2.25412,-0.103542,-0.184209
2.24929,-0.10332,0.0393028
2.29619,0.119133,-0.147358
2.26815,0.00672974,0.132092
2.23579,-0.1027,0.0911843
2.27352,0.0067457,-0.105905
2.25453,-0.10356,-0.118279
2.28303,0.11845,-0.0931383
2.27138,0.00673932,-0.0528539
2.29696,0.111135,-0.0401405
2.2483,-0.11114,-0.0655119
2.268,-0.00118752,0
2.22506,-0.219346,-0.0260295
2.27266,-0.00118996,-0.353573
2.28129,0.110377,0.0132744
2.24522,-0.110988,-0.0130652
2.27086,-0.00118902,-0.24461
2.27538,-0.00119139,0.0529469
2.2171,-0.218561,0.0259363
2.27046,-0.00118881,-0.158766
2.28037,0.110332,0.0664428
2.25291,-0.111368,0.0393726
2.2966,0.111117,-0.147358
2.22542,-0.219381,-0.130231
2.23941,-0.110701,0.0913472
2.27353,-0.00119042,-0.105905
2.28742,0.110673,-0.0933011
2.26339,-0.00118511,-0.0526678
2.29336,0.102537,-0.0400707
2.23191,-0.118532,-0.0650464
2.26798,-0.00950015,0
2.22424,-0.227499,-0.0260295
2.28568,0.102193,0.0132977
2.23681,-0.118792,-0.0130187
2.26289,-0.00947883,-0.243753
2.22027,-0.227092,0.0259829
2.27044,-0.00951044,-0.158766
2.24934,-0.119457,-0.183884
2.29699,0.102699,-0.147358
2.22858,-0.227943,-0.130464
2.26015,-0.00946736,0.131627
2.26952,-0.0095066,-0.105719
2.24974,-0.119479,-0.11807
2.29181,0.102467,-0.0934639
2.25937,-0.00946408,-0.0525747
2.28969,0.0947655,-0.0400009
2.2355,-0.126158,-0.0651628
2.26394,-0.016991,0
2.2195,-0.234454,-0.0259829
2.28201,0.0944475,0.0132744
2.24439,-0.12666,-0.0130652
2.26682,-0.0170126,-0.244181
2.22192,-0.23471,-0.208567
2.26732,-0.0170164,0.0527608
2.21154,-0.233614,0.0258898
2.27039,-0.0170394,-0.158766
2.28108,0.0944092,0.0664428
2.24808,-0.126868,0.0393028
2.28934,0.094751,-0.146847
2.22384,-0.234912,-0.130231
2.25611,-0.0169323,0.131394
2.26548,-0.0170025,-0.105533
2.24534,-0.126713,-0.117861
2.29213,0.0948666,-0.0934639
2.25932,-0.0169564,-0.0525747
2.29001,0.0867724,-0.0400009
2.23903,-0.1342,-0.0652792
2.26386,-0.0248935,0
2.21867,-0.2422,-0.0259829
2.26857,-0.0249452,-0.352958
2.28232,0.0864813,0.0132744
2.24793,-0.134733,-0.0130884
2.26675,-0.0249252,-0.244181
2.22505,-0.242897,-0.208938
2.26325,-0.0248867,0.0526678
2.21072,-0.241332,0.0258898
2.26633,-0.0249206,-0.158487
2.24363,-0.134475,0.039233
2.28966,0.0867591,-0.146847
2.223,-0.242673,-0.130231
2.25604,-0.0248075,0.131394
2.26541,-0.0249104,-0.105533
2.24489,-0.13455,-0.117861
2.28446,0.0865624,-0.0931383
2.25925,-0.0248428,-0.0525747
2.23858,-0.141624,-0.0652792
2.26377,-0.0324006,0
2.2099,-0.248662,-0.0258898
2.26848,-0.032468,-0.352958
2.2786,0.0787741,0.0132512
2.24348,-0.141934,-0.0130652
2.26665,-0.0324419,-0.244181
2.26316,-0.0323918,0.0526678
2.26623,-0.0324359,-0.158487
2.24716,-0.142167,0.0393028
2.28993,0.0791659,-0.146847
2.25595,-0.0322886,0.131394
2.26132,-0.0323655,-0.105346
2.24443,-0.141994,-0.117861
2.27675,0.0787102,-0.0928126
2.26316,-0.0323918,-0.0526678
2.28256,0.0705361,-0.0398613
2.23804,-0.149828,-0.0652792
2.25963,-0.0406256,0
2.21295,-0.257221,-0.0259363
2.23895,-0.149888,-0.0130419
2.26254,-0.0406779,-0.243753
2.26302,-0.0406865,0.0526678
2.21692,-0.257683,0.0259829
2.2661,-0.0407418,-0.158487
2.23067,-0.149334,0.0390236
2.28622,0.070649,-0.146591
2.21332,-0.257265,-0.129766
2.25182,-0.0404851,0.131162
2.22916,-0.149233,0.0910215
2.26518,-0.0407252,-0.105533
2.24389,-0.150219,-0.117861
2.27303,0.0702415,-0.0926498
2.25502,-0.0405427,-0.0524816
2.28279,0.0625681,-0.0398613
2.22554,-0.156796,-0.0649301
2.25948,-0.0485129,0
2.20807,-0.264469,-0.0258898
2.26028,-0.0485302,-0.351728
2.27111,0.0622478,0.0132047
2.2424,-0.157984,-0.0130652
2.26239,-0.0485754,-0.243753
2.21843,-0.26571,-0.208567
2.25887,-0.0484998,0.0525747
2.27818,0.0624416,0.0663264
2.23412,-0.1574,0.0390934
2.28645,0.0626682,-0.146591
2.21638,-0.265464,-0.129999
2.24767,-0.0482594,0.130929
2.26103,-0.0485462,-0.105346
2.27326,0.0623067,-0.0926498
2.25487,-0.048414,-0.0524816
2.28701,0.0542957,-0.0399311
2.22495,-0.164952,-0.0649301
2.25929,-0.056794,0
2.21105,-0.27305,-0.0259363
2.27132,0.0539233,0.0132047
2.22585,-0.165019,-0.0129722
2.25822,-0.0567672,-0.243325
2.21744,-0.273839,-0.208567
2.25068,-0.0565777,0.0523886
2.23752,-0.165884,0.0391632
2.28666,0.0542875,-0.146591
2.21143,-0.273096,-0.129766
2.26083,-0.0568329,-0.105346
2.23878,-0.165977,-0.117651
2.27347,0.0539744,-0.0926498
2.25867,-0.0567786,-0.0525747
2.28318,0.0462313,-0.0398613
2.22037,-0.172408,-0.0648137
2.25508,-0.0645656,0
2.21009,-0.280767,-0.0259363
2.25988,-0.064703,-0.351728
2.27949,0.0461565,0.0132512
2.23324,-0.173407,-0.0130187
2.25801,-0.0646495,-0.243325
2.21647,-0.281578,-0.208567
2.25846,-0.0646626,0.0525747
2.25756,-0.0646367,-0.157929
2.26658,0.0458949,0.0659773
2.23693,-0.173693,0.0391632
2.28285,0.0462244,-0.146335
2.21442,-0.281317,-0.129999
2.24328,-0.0642278,0.130697
2.26062,-0.0647244,-0.105346
2.23818,-0.173791,-0.117651
2.27365,0.0460381,-0.0926498
2.25047,-0.0644337,-0.0523886
2.28332,0.0390582,-0.0398613
2.22381,-0.179705,-0.0649301
2.25486,-0.0716498,0
2.20126,-0.286675,-0.0258432
2.25571,-0.0716768,-0.351113
2.26763,0.0387898,0.0131814
2.23268,-0.180422,-0.0130187
2.24984,-0.0714903,-0.242468
2.21558,-0.28854,-0.208567
2.25825,-0.0717574,0.0525747
2.26133,-0.0718554,-0.158208
2.26671,0.0387741,0.0659773
2.22441,-0.179753,0.0389538
2.27899,0.0389842,-0.146079
2.20957,-0.287757,-0.129766
2.25105,-0.0715286,0.131162
2.23763,-0.180821,-0.117651
2.26978,0.0388267,-0.0924869
2.25425,-0.0716304,-0.0524816
2.27944,0.0310333,-0.0397915
2.22715,-0.187802,-0.0650464
2.2506,-0.0793793,0
2.20025,-0.294357,-0.0258432
2.2515,-0.0794109,-0.350499
2.22806,-0.187878,-0.0129954
2.24958,-0.0793433,-0.242468
2.21061,-0.295744,-0.208195
2.24999,-0.0793578,0.0523886
2.25708,-0.0796079,-0.157929
2.2366,-0.188598,-0.183233
2.22775,-0.187853,0.0390236
2.27911,0.0310288,-0.146079
2.20459,-0.294938,-0.129534
2.2428,-0.0791043,0.130697
2.25615,-0.079575,-0.10516
2.233,-0.188295,-0.117442
2.2739,0.0309578,-0.0926498
2.246,-0.0792169,-0.0522955
2.27554,0.0230358,-0.0397217
2.21851,-0.194875,-0.0648137
2.25431,-0.0873898,0
2.19921,-0.302036,-0.0258432
2.24726,-0.0871165,-0.349884
2.26785,0.022958,0.0131814
2.2234,-0.195304,-0.0129722
2.24929,-0.0871953,-0.242468
2.20956,-0.303458,-0.208195
2.2497,-0.0872112,0.0523886
2.25679,-0.0874861,-0.157929
2.26692,0.0229487,0.0659773
2.21912,-0.194928,0.038884
2.27122,0.0229922,-0.145567
2.20355,-0.302632,-0.129534
2.25187,-0.0872951,-0.104974
2.266,0.0229393,-0.0923241
2.2497,-0.0872112,-0.0523886
2.27561,0.0142983,-0.0397217
2.22173,-0.203757,-0.0649301
2.24996,-0.0958748,0
2.19407,-0.309918,-0.0257966
2.2548,-0.0960813,-0.351113
2.26392,0.0142248,0.0131582
2.22263,-0.20384,-0.0129722
2.24894,-0.0958313,-0.242468
2.20838,-0.31194,-0.208195
2.24935,-0.0958488,0.0523886
2.263,0.014219,0.065861
2.21835,-0.203447,0.038884
2.2713,0.0142712,-0.145567
2.20632,-0.311649,-0.129766
2.23817,-0.0953726,0.130464
2.24752,-0.0957709,-0.104788
2.23156,-0.204659,-0.117442
2.27007,0.0142635,-0.0924869
2.24935,-0.0958488,-0.0523886
2.27564,0.00714915,-0.0397217
2.21312,-0.209981,-0.0646974
2.24565,-0.10276,0
2.25054,-0.102984,-0.350499
2.26395,0.00711242,0.0131582
2.218,-0.210444,-0.0129489
2.24863,-0.102896,-0.242468
2.20739,-0.318876,-0.208195
2.25303,-0.103098,0.0524816
2.24815,-0.102874,-0.157371
2.22168,-0.210793,0.0389538
2.27532,0.00714814,-0.145823
2.19743,-0.317437,-0.129301
2.2512,-0.103014,-0.104974
2.23091,-0.211668,-0.117442
2.26211,0.00710665,-0.0921613
2.24504,-0.102732,-0.0522955
2.24526,-0.11099,0
2.24226,-0.110841,-0.349269
2.25996,-0.00118331,0.0131349
2.2212,-0.218964,-0.0129722
2.24823,-0.111137,-0.242468
2.20227,-0.326381,-0.207823
2.24465,-0.11096,0.0522955
2.24776,-0.111114,-0.157371
2.22974,-0.219807,-0.182907
2.21293,-0.21815,0.0388142
2.26336,-0.00118509,-0.145056
2.20415,-0.32666,-0.129766
2.23747,-0.110605,0.130464
2.25081,-0.111264,-0.104974
2.22614,-0.219452,-0.117233
2.26212,-0.00118444,-0.0921613
2.24865,-0.111157,-0.0523886
2.27164,-0.00872251,-0.0396519
2.21956,-0.226237,-0.0649301
2.24088,-0.118224,0
2.24582,-0.118485,-0.349884
2.25595,-0.00866225,0.0131117
2.22444,-0.226735,-0.0129954
2.24785,-0.118592,-0.242468
2.20117,-0.333682,-0.207823
2.24826,-0.118613,0.0523886
2.24738,-0.118567,-0.157371
2.25903,-0.00867409,0.0657446
2.22016,-0.226298,0.0389538
2.26733,-0.00870598,-0.145312
2.19121,-0.332172,-0.129069
2.25043,-0.118728,-0.104974
2.2254,-0.226833,-0.117233
2.25811,-0.00867057,-0.0919985
2.24427,-0.118403,-0.0522955
2.26759,-0.0166226,-0.0395821
2.2108,-0.233145,-0.0646974
2.24844,-0.126495,0
2.24145,-0.126101,-0.349269
2.22363,-0.234498,-0.0129954
2.24345,-0.126214,-0.242039
2.19999,-0.341364,-0.207823
2.24384,-0.126236,0.0522955
2.24695,-0.126411,-0.157371
2.2114,-0.233208,0.0388142
2.26729,-0.0166204,-0.145312
2.19398,-0.340431,-0.129301
2.24202,-0.126133,-0.104602
2.25807,-0.0165528,-0.0919985
2.23586,-0.125787,-0.0521094
2.26752,-0.0245379,-0.0395821
2.24,-0.133865,0
2.24494,-0.13416,-0.349884
2.25583,-0.0244114,0.0131117
2.21485,-0.241392,-0.0129489
2.23506,-0.13357,-0.241183
2.19879,-0.349041,-0.207823
2.23541,-0.133591,0.0521094
2.24251,-0.134015,-0.157092
2.25891,-0.0244447,0.0657446
2.26722,-0.0245346,-0.145312
2.20067,-0.349339,-0.129766
2.24157,-0.133959,-0.104602
2.21979,-0.24193,-0.117023
2.25799,-0.0244348,-0.0919985
2.2394,-0.133829,-0.0522025
2.2051,-0.248511,-0.064581
2.2395,-0.142075,0
2.24049,-0.142137,-0.349269
2.25972,-0.0327372,0.0131349
2.21395,-0.249508,-0.0129489
2.24249,-0.142265,-0.242039
2.20143,-0.357736,-0.208195
2.24288,-0.142289,0.0522955
2.23802,-0.141981,-0.156813
2.25081,-0.032608,0.0655119
2.26312,-0.0327863,-0.145056
2.19543,-0.356762,-0.129534
2.24505,-0.142427,-0.104788
2.22286,-0.250512,-0.117233
2.25389,-0.0326527,-0.0918356
2.2349,-0.141783,-0.0521094
2.2633,-0.0402963,-0.0395123
2.23502,-0.149234,0
2.23606,-0.149303,-0.348654
2.25161,-0.0400881,0.0130884
2.2424,-0.149726,0.0522955
2.25502,-0.0401488,-0.144544
2.19818,-0.364694,-0.129766
2.24058,-0.149604,-0.104602
2.21805,-0.257422,-0.117023
2.24978,-0.0400556,-0.0916728
2.2113,-0.264464,-0.0648137
2.23848,-0.157315,0
2.23947,-0.157385,-0.349269
2.24745,-0.0478623,0.0130652
2.21617,-0.265047,-0.0129722
2.24147,-0.157525,-0.242039
2.24099,-0.157491,-0.157092
2.22073,-0.265593,-0.182582
2.24654,-0.0478428,0.0653955
2.25486,-0.0480201,-0.144544
2.18508,-0.370363,-0.129069
2.23605,-0.157145,-0.104416
2.21317,-0.264688,-0.116814
2.24962,-0.0479085,-0.0916728
2.23787,-0.157272,-0.0522025
2.25895,-0.0563911,-0.0394424
2.20635,-0.272078,-0.0646974
2.2339,-0.165223,0
2.23099,-0.165009,-0.348039
2.25126,-0.0561991,0.0130884
2.21121,-0.272678,-0.0129489
2.23691,-0.165446,-0.241611
2.24127,-0.165768,0.0522955
2.24039,-0.165704,-0.157092
2.21579,-0.273242,-0.182256
2.25866,-0.0563838,-0.1448
2.18764,-0.379051,-0.129301
2.23148,-0.165044,-0.10423
2.21218,-0.272798,-0.116814
2.25343,-0.0562532,-0.0918356
2.22931,-0.164884,-0.0520164
2.25876,-0.0634875,-0.0394424
2.20151,-0.278506,-0.064581
2.23337,-0.17224,0
2.23441,-0.17232,-0.348654
2.24707,-0.063159,0.0130652
2.20638,-0.279122,-0.0129257
2.23638,-0.172473,-0.241611
2.23276,-0.172194,0.0521094
2.23191,-0.172128,-0.156534
2.25448,-0.0633672,-0.144544
2.18251,-0.385228,-0.129069
2.23892,-0.172668,-0.104602
2.21528,-0.280248,-0.117023
2.25324,-0.0633323,-0.0918356
2.22479,-0.171579,-0.0519233
2.25853,-0.0713717,-0.0394424
2.23275,-0.180035,0
2.23379,-0.180119,-0.348654
2.24684,-0.0710023,0.0130652
2.21332,-0.287853,-0.0129722
2.23129,-0.179917,-0.156534
2.24193,-0.0708472,0.0652792
2.25425,-0.0712364,-0.144544
2.18115,-0.392844,-0.129069
2.2383,-0.180483,-0.104602
2.21429,-0.287979,-0.117023
2.24901,-0.0710709,-0.0916728
2.23215,-0.179987,-0.0521094
2.19946,-0.294253,-0.064581
2.22809,-0.187881,0
2.22524,-0.187641,-0.347424
2.24657,-0.0792369,0.0130652
2.23509,-0.188472,-0.241611
2.23546,-0.188503,0.0522025
2.23459,-0.18843,-0.156813
2.21286,-0.296044,-0.182256
2.25397,-0.0794981,-0.144544
2.18755,-0.40228,-0.129534
2.23364,-0.188349,-0.104416
2.2053,-0.295033,-0.116605
2.24474,-0.0791726,-0.09151
2.23147,-0.188167,-0.0521094
2.25398,-0.0869831,-0.0393726
2.2064,-0.302631,-0.0648137
2.22347,-0.19492,0
2.22854,-0.195364,-0.348039
2.24629,-0.0866864,0.0130652
2.22653,-0.195188,-0.240754
2.22998,-0.19549,-0.156534
2.21186,-0.303381,-0.182256
2.24138,-0.086497,0.0652792
2.24971,-0.0868182,-0.144288
2.17443,-0.407326,-0.128836
2.20827,-0.302887,-0.116814
2.24447,-0.086616,-0.09151
2.22287,-0.194867,-0.0519233
2.24967,-0.0946822,-0.0393028
2.19741,-0.309217,-0.064581
2.22676,-0.203043,0
2.22785,-0.203142,-0.348039
2.24198,-0.0943587,0.0130419
2.22584,-0.202959,-0.240754
2.22616,-0.202988,0.0520164
2.23707,-0.0941522,0.0651628
2.24939,-0.0946706,-0.144288
2.23231,-0.203549,-0.104416
2.21115,-0.31115,-0.117023
2.24415,-0.0944501,-0.09151
2.22616,-0.202988,-0.0520164
2.24932,-0.102534,-0.0393028
2.19632,-0.316886,-0.064581
2.22206,-0.210438,0
2.23106,-0.21129,-0.348654
2.23764,-0.102002,0.0130187
2.22511,-0.210727,-0.240754
2.22544,-0.210758,0.0520164
2.22459,-0.210677,-0.156255
2.20969,-0.318815,-0.182256
2.23673,-0.10196,0.0651628
2.24905,-0.102522,-0.144288
2.23158,-0.21134,-0.104416
2.19819,-0.317156,-0.116395
2.2478,-0.102465,-0.0916728
2.21748,-0.210004,-0.0518303
2.24895,-0.110385,-0.0393028
2.1952,-0.32455,-0.064581
2.22131,-0.218193,0
2.22244,-0.218304,-0.347424
2.23727,-0.109812,0.0130187
2.22437,-0.218493,-0.240754
2.22071,-0.218134,0.0519233
2.22384,-0.218441,-0.156255
2.20462,-0.325943,-0.181931
2.19707,-0.324827,-0.116395
2.23944,-0.109919,-0.0913472
2.22071,-0.218134,-0.0519233
2.1901,-0.331612,-0.0644646
2.22451,-0.22635,0
2.22166,-0.22606,-0.347424
2.24087,-0.117831,0.0130419
2.22703,-0.226607,-0.156534
2.19559,-0.332443,-0.18128
2.24828,-0.118221,-0.144288
2.19987,-0.333092,-0.116605
2.23905,-0.117735,-0.0913472
2.22391,-0.226289,-0.0520164
2.2481,-0.126476,-0.0393028
2.18887,-0.339637,-0.0644646
2.21571,-0.233663,0
2.23243,-0.125594,0.0129954
2.2267,-0.234821,-0.241183
2.22222,-0.234349,-0.156255
2.19829,-0.3411,-0.181606
2.23152,-0.125543,0.0650464
2.24783,-0.12646,-0.144288
2.20258,-0.341765,-0.116814
2.2386,-0.125941,-0.0913472
2.21909,-0.234019,-0.0519233
2.24365,-0.134084,-0.039233
2.18767,-0.347276,-0.0644646
2.21886,-0.241829,0
2.23997,-0.133863,0.0130419
2.21796,-0.241731,-0.240326
2.22536,-0.242537,-0.156534
2.19709,-0.348771,-0.181606
2.23107,-0.133332,0.0650464
2.24737,-0.134306,-0.144288
2.2244,-0.242433,-0.10423
2.20138,-0.349452,-0.116814
2.23815,-0.133754,-0.0913472
2.21031,-0.240897,-0.0517372
2.2432,-0.141523,-0.039233
2.21805,-0.249186,0
2.23552,-0.141039,0.0130187
2.21715,-0.249085,-0.240326
2.22057,-0.24947,-0.156255
2.19592,-0.356055,-0.181606
2.23062,-0.14073,0.0650464
2.23895,-0.141255,-0.143777
2.21961,-0.249362,-0.104044
2.19232,-0.355471,-0.116395
2.23769,-0.141176,-0.0913472
2.2095,-0.248225,-0.0517372
2.23471,-0.148821,-0.0390934
2.21319,-0.256466,0
2.23102,-0.148575,0.0129954
2.22021,-0.25728,-0.240754
2.21969,-0.25722,-0.156255
2.19073,-0.363066,-0.18128
2.24242,-0.149335,-0.144032
2.2227,-0.257568,-0.10423
2.18318,-0.361815,-0.115976
2.2332,-0.14872,-0.0911843
2.21259,-0.256397,-0.0518303
2.21228,-0.26419,0
2.23049,-0.156362,0.0129954
2.2193,-0.265029,-0.240754
2.21482,-0.264493,-0.155975
2.18552,-0.370045,-0.180955
2.23791,-0.156882,-0.143777
2.18191,-0.369434,-0.115976
2.22868,-0.156235,-0.0910215
2.21565,-0.264593,-0.0519233
2.23364,-0.164029,-0.0390934
2.21139,-0.271525,0
2.22996,-0.163758,0.0129954
2.21841,-0.272387,-0.240754
2.21393,-0.271836,-0.155975
2.22905,-0.163691,0.0650464
2.22941,-0.163718,-0.143265
2.18854,-0.378027,-0.116395
2.23612,-0.16421,-0.0913472
2.20286,-0.270477,-0.0516442
2.23705,-0.172131,-0.0391632
2.2144,-0.279744,0
2.22937,-0.171541,0.0129954
2.21745,-0.280129,-0.240754
2.21692,-0.280063,-0.156255
2.18328,-0.384971,-0.116186
2.22756,-0.171402,-0.0910215
2.2019,-0.278165,-0.0516442
2.2364,-0.180329,-0.0391632
2.22474,-0.179389,0.0129722
2.21246,-0.287741,-0.240326
2.21193,-0.287672,-0.155975
2.21985,-0.178995,0.0648137
2.22818,-0.179667,-0.143265
2.207,-0.287031,-0.103671
2.17792,-0.392262,-0.115976
2.2309,-0.179886,-0.0911843
2.2088,-0.287264,-0.0518303
2.2318,-0.18741,-0.0390934
2.22413,-0.186766,0.0129722
2.21149,-0.295076,-0.240326
2.20305,-0.29395,-0.155417
2.23155,-0.187389,-0.143521
2.21,-0.294877,-0.103857
2.23029,-0.187283,-0.0911843
2.1999,-0.29353,-0.0516442
2.21948,-0.19418,0.0129489
2.20651,-0.302254,-0.239897
2.20992,-0.302721,-0.155975
2.23088,-0.195177,-0.143521
2.20895,-0.302589,-0.103857
2.22565,-0.194719,-0.0910215
2.20283,-0.30175,-0.0517372
2.22646,-0.202624,-0.0390236
2.21879,-0.201926,0.0129489
2.2015,-0.309401,-0.239469
2.20489,-0.309878,-0.155696
2.22224,-0.20224,-0.143009
2.20788,-0.310298,-0.103857
2.22495,-0.202487,-0.0910215
2.20176,-0.309437,-0.0517372
2.22972,-0.21077,-0.0390934
2.22206,-0.210046,0.0129722
2.20041,-0.317084,-0.239469
2.20775,-0.318141,-0.155975
2.22947,-0.210747,-0.143521
2.22025,-0.209876,-0.0908587
2.19671,-0.31655,-0.0516442
2.21703,-0.217382,-0.038884
2.21335,-0.217021,0.0129257
2.20323,-0.325344,-0.239897
2.19873,-0.32468,-0.155417
2.22475,-0.218138,-0.143265
2.19776,-0.324537,-0.103485
2.22348,-0.218015,-0.0910215
2.22421,-0.225927,-0.0390236
2.21258,-0.224745,0.0129257
2.19758,-0.332353,-0.155417
2.21603,-0.225096,-0.142753
2.19661,-0.332206,-0.103485
2.22271,-0.225775,-0.0910215
2.22341,-0.23369,-0.0390236
2.19641,-0.340022,-0.155417
2.21126,-0.232413,-0.142497
2.19544,-0.339872,-0.103485
2.21396,-0.232696,-0.0906958
2.22258,-0.24145,-0.0390236
2.21095,-0.240187,0.0129257
2.19915,-0.348311,-0.155696
2.2144,-0.240561,-0.142753
2.21711,-0.240855,-0.0908587
2.21378,-0.248315,-0.038884
2.2101,-0.247903,0.0129257
2.19398,-0.355348,-0.155417
2.20958,-0.247844,-0.142497
2.19301,-0.355191,-0.103485
2.21625,-0.248592,-0.0908587
2.21687,-0.256501,-0.0389538
2.2132,-0.256076,0.0129489
2.19273,-0.363004,-0.155417
2.2087,-0.255556,-0.142497
2.18388,-0.361538,-0.103113
2.21537,-0.256327,-0.0908587
2.21596,-0.264237,-0.0389538
2.18358,-0.369325,-0.154859
2.2078,-0.263264,-0.142497
2.19442,-0.371158,-0.103671
2.21049,-0.263585,-0.0906958
2.21909,-0.271684,-0.0390236
2.18241,-0.376183,-0.154859
2.20696,-0.270199,-0.142497
2.18143,-0.376014,-0.103113
2.20172,-0.269557,-0.0903702
2.20622,-0.277929,-0.0388142
2.18108,-0.383799,-0.154859
2.20204,-0.277402,-0.142242
2.20473,-0.277741,-0.090533
2.20916,-0.286527,-0.038884
2.17966,-0.39179,-0.154859
2.20497,-0.285984,-0.142497
2.19973,-0.285305,-0.0903702
2.21216,-0.294379,-0.0389538
2.20797,-0.293821,-0.142753
2.19878,-0.292598,-0.0903702
2.20319,-0.301016,-0.0388142
2.21088,-0.302067,-0.143009
2.20566,-0.301354,-0.0906958
2.20609,-0.30926,-0.038884
2.19795,-0.30812,-0.142242
2.20064,-0.308496,-0.090533
2.20104,-0.31639,-0.0388142
2.19687,-0.315791,-0.142242
2.19559,-0.315607,-0.0903702
2.19575,-0.323457,-0.142242
2.19448,-0.323269,-0.0903702
2.19066,-0.330524,-0.141986
2.19334,-0.330928,-0.0903702
2.20127,-0.340381,-0.142753
2.18816,-0.338354,-0.0902073
2.19619,-0.347056,-0.142497
2.19097,-0.346232,-0.0903702
2.18708,-0.353446,-0.141986
2.18975,-0.353878,-0.0903702
2.1859,-0.360697,-0.141986
2.18462,-0.360487,-0.0902073
2.18069,-0.367661,-0.14173
2.18726,-0.376626,-0.142242
2.17807,-0.382876,-0.14173
2.17534,-0.398072,-0.14173
