1.31507,0.197008,-0.0774412
1.3043,0.261098,-0.0697115
1.31397,0.191921,-0.0154594
1.30291,0.255858,0.0231768
1.30525,0.256316,-0.0697115
1.29952,0.250483,-0.0385159
1.31067,0.186769,-0.0154128
1.29612,0.249828,-0.00767173
1.30671,0.186205,0.0153662
1.31558,0.253579,0.0233862
1.31249,0.187029,-0.0772086
1.30613,0.251758,-0.0697115
1.30039,0.245946,-0.0385159
1.31131,0.182194,-0.0154128
1.30877,0.247533,-0.00774147
1.30339,0.181093,0.0153197
1.30467,0.246756,0.0231768
1.29986,0.245846,0.0538964
1.31093,0.24794,-0.0699208
1.30257,0.31296,-0.0311726
1.29726,0.240902,-0.0383995
1.29227,0.305957,0
1.30172,0.24173,-0.00769497
1.31191,0.177844,0.0154128
1.30548,0.242428,0.0231768
1.29814,0.236146,-0.0383995
1.3026,0.236958,-0.00769497
1.31091,0.172818,-0.12343
1.31255,0.173035,0.0154128
1.31423,0.239073,0.0233164
1.30154,0.236766,0.0538964
1.30472,0.303859,-0.0311726
1.30289,0.232315,-0.0385159
1.29948,0.231707,-0.00767173
1.3115,0.16824,-0.12343
1.30522,0.167434,0.0153197
1.31506,0.234484,0.0233164
1.31498,0.168686,-0.0772086
1.30236,0.232221,0.0538964
1.30188,0.298409,-0.0310796
1.30361,0.228221,-0.0385159
1.29146,0.291753,0
1.31367,0.164326,-0.0154128
1.31202,0.229693,-0.00774147
1.3097,0.163829,0.0153662
1.30791,0.228972,0.0231768
1.30702,0.228817,0.0540593
1.29891,0.293436,-0.0309865
1.30448,0.223213,-0.0385159
1.29647,0.287658,0
1.3129,0.224653,-0.00774147
1.29612,0.28758,0.0308935
1.30878,0.223948,0.0231768
1.30395,0.223123,0.0538964
1.30131,0.217998,-0.0383995
1.31484,0.154691,-0.0154128
1.29789,0.217426,-0.00764848
1.31319,0.154498,-0.12343
1.30955,0.219379,0.0231768
1.30078,0.21791,0.0537336
1.29216,0.281973,-0.0616072
1.29804,0.21326,-0.0382831
1.29444,0.278213,0
1.31135,0.150105,-0.0153662
1.30252,0.213995,-0.00767173
1.298,0.278978,0.0308935
1.30737,0.14965,0.0153197
1.31418,0.215912,0.0232466
1.30146,0.213822,0.0537336
1.29409,0.278138,-0.0308004
1.29881,0.208502,-0.0382831
1.31984,0.146178,-0.0154594
1.30724,0.209854,-0.00769497
1.30791,0.144857,0.0153197
1.31891,0.211728,0.0233164
1.30223,0.20905,0.0537336
1.30942,0.210203,-0.0695022
1.30293,0.275045,-0.0309865
1.29644,0.268717,0
1.31241,0.140488,-0.0153662
1.30405,0.204442,-0.00767173
1.30784,0.271079,0.0310796
1.30844,0.140062,0.0153197
1.31156,0.20562,-0.108377
1.31968,0.206892,0.0233164
1.30694,0.204895,0.0538964
1.29504,0.268426,-0.0616072
1.30784,0.271079,-0.0310796
1.30814,0.200641,-0.0385159
1.29733,0.264416,0
1.31685,0.136548,-0.0154128
1.31658,0.201936,-0.00774147
1.32083,0.136961,0.0154594
1.31224,0.20127,-0.108377
1.3085,0.200696,0.023107
1.31868,0.136738,-0.0772086
1.31156,0.201166,0.0540593
1.29984,0.264928,-0.0617933
1.29698,0.264345,-0.0308004
1.30488,0.195482,-0.0383995
1.3213,0.132349,-0.0154594
1.30937,0.196154,-0.00769497
1.31358,0.262956,0.0311726
1.30936,0.131153,0.0153197
1.30919,0.196127,0.023107
1.3083,0.195995,0.0538964
1.30075,0.260389,-0.0617933
1.30573,0.261386,-0.0309865
1.30555,0.190925,-0.0383995
1.32175,0.127736,-0.0154594
1.31004,0.191582,-0.00769497
1.31449,0.258369,0.0311726
1.32573,0.128121,0.0155059
1.30381,0.25627,-0.0929156
1.31382,0.192135,0.0231768
1.29381,0.254305,-0.0614211
1.30664,0.256826,-0.0309865
1.31014,0.18716,-0.0385159
1.29605,0.250284,0
1.32217,0.123352,-0.0154594
1.31463,0.187802,-0.00771822
1.31141,0.25325,0.0310796
1.3142,0.122609,0.0153662
1.2929,0.249675,-0.0920785
1.31445,0.187776,0.0231768
1.30565,0.186519,0.0537336
1.30642,0.252286,-0.0619795
1.30356,0.251733,-0.0308935
1.3029,0.181255,-0.0382831
1.31464,0.117791,-0.0153662
1.31531,0.182982,-0.00771822
1.31626,0.249185,0.0311726
1.31464,0.117791,0.0153662
1.29772,0.245677,-0.0923576
1.31513,0.182958,0.0231768
1.31424,0.182834,0.0540593
1.30734,0.247496,-0.0619795
1.31233,0.248442,-0.0310796
1.30352,0.176706,-0.0382831
1.30175,0.241734,0
1.31903,0.113544,-0.0154128
1.31198,0.177852,-0.00769497
1.31319,0.243859,0.0310796
1.31903,0.113544,0.0154128
1.3025,0.241874,-0.0926366
1.31576,0.178366,0.0231768
1.31091,0.177708,0.0538964
1.30819,0.242931,-0.0619795
1.31319,0.243859,-0.0310796
1.3041,0.172383,-0.0382831
1.30647,0.238133,0
1.32339,0.1095,-0.0154594
1.29326,0.301665,0.00771822
1.31256,0.173501,-0.00769497
1.32737,0.10983,0.0155059
1.30329,0.237553,-0.0926366
1.32031,0.174526,0.0232466
1.31149,0.17336,0.0538964
1.30899,0.238592,-0.0619795
1.29825,0.236635,-0.0307073
1.30866,0.16834,-0.0383995
1.30336,0.232868,0
1.32376,0.10488,-0.0154594
1.30267,0.167569,-0.167179
1.31713,0.169429,-0.00771822
1.31088,0.234212,0.0309865
1.32775,0.105196,0.0155059
1.32091,0.169916,0.0232466
1.30813,0.168271,0.0537336
1.30588,0.233319,-0.0617933
1.31088,0.234212,-0.0309865
1.29126,0.291708,-0.023107
1.30924,0.16377,-0.0383995
1.30417,0.228317,0
1.30718,0.163513,-0.167684
1.29143,0.291748,0.00769497
1.31771,0.16483,-0.00771822
1.31563,0.230324,0.0310796
1.31614,0.0996542,0.0153662
1.30099,0.227761,-0.0923576
1.30983,0.229308,0.0774412
1.30275,0.22807,-0.0616072
1.31169,0.229634,-0.0309865
1.30583,0.158717,-0.0382831
1.30495,0.223763,0
1.31249,0.0947717,-0.0153197
1.30921,0.224493,-0.143082
1.31643,0.22573,0.0310796
1.32047,0.0953478,0.0154128
1.30571,0.223893,-0.0926366
1.32207,0.16069,0.0232466
1.31455,0.22541,0.0776737
1.30927,0.159135,0.0537336
1.31142,0.224872,-0.0619795
1.2953,0.287872,-0.0540593
1.31429,0.155325,-0.0385159
1.31358,0.220761,0
1.32078,0.0909687,-0.0154128
1.31221,0.155078,-0.168189
1.31483,0.155388,-0.00769497
1.31717,0.221364,0.0310796
1.32078,0.0909687,0.0154128
1.31465,0.155367,0.023107
1.31136,0.220388,0.0774412
1.31773,0.155731,0.0540593
1.30033,0.218535,-0.0614211
1.31322,0.220701,-0.0309865
1.31485,0.150506,-0.0385159
1.30648,0.214648,0
1.32111,0.0861268,-0.0154128
1.30744,0.149658,-0.00764848
1.29505,0.212768,-0.141368
1.3251,0.086387,0.0154594
1.30724,0.214772,-0.0926366
1.32316,0.151457,0.0232466
1.29569,0.278482,-0.0849356
1.3161,0.216227,0.0776737
1.31432,0.150445,0.0538964
1.30507,0.214415,-0.0616072
1.28946,0.277142,-0.0537336
1.31008,0.215238,-0.0308935
1.3114,0.145475,-0.0383995
1.31118,0.210721,0
1.3214,0.0815151,-0.0154128
1.31477,0.211298,0.0309865
1.31192,0.210841,-0.0929156
1.32368,0.146837,0.0232466
1.31684,0.211632,0.0776737
1.31484,0.145857,0.0538964
1.30187,0.209225,-0.0614211
1.29824,0.274292,-0.0540593
1.31082,0.210664,-0.0308935
1.31187,0.141125,-0.0383995
1.30396,0.205128,0
1.32036,0.142038,-0.00771822
1.31546,0.206937,0.0309865
1.32166,0.0771323,0.0154128
1.30867,0.205869,-0.0926366
1.29575,0.269281,0.0385159
1.3162,0.141591,0.023107
1.31754,0.207263,0.0776737
1.31134,0.141068,0.0537336
1.31045,0.206148,-0.0617933
1.29914,0.269985,-0.0540593
1.31546,0.206937,-0.0309865
1.29317,0.263803,-0.0230372
1.31238,0.136316,-0.0383995
1.30471,0.200348,0
1.32593,0.0725063,-0.0154594
1.31032,0.136102,-0.167684
1.29726,0.264638,0.00769497
1.32087,0.137198,-0.00771822
1.30507,0.200403,-0.142225
1.31226,0.201507,0.0308935
1.32593,0.0725063,0.0154594
1.30547,0.200465,-0.0923576
1.32069,0.13718,0.0231768
1.31582,0.136674,0.0538964
1.30724,0.200737,-0.0616072
1.29621,0.264423,-0.0538964
1.31621,0.202114,-0.0309865
1.298,0.260073,-0.023107
1.31285,0.131734,-0.0383995
1.30935,0.196385,0
1.32617,0.0678772,-0.0154594
1.31474,0.131923,-0.168189
1.31736,0.132187,-0.00769497
1.30969,0.196435,-0.142653
1.31819,0.0674683,0.0153662
1.31406,0.197091,-0.0929156
1.32116,0.132568,0.0231768
1.29554,0.25958,-0.0846798
1.31109,0.196645,0.0772086
1.31232,0.13168,0.0537336
1.31189,0.196765,-0.0617933
1.31955,0.132407,-0.0695022
1.2932,0.259112,-0.0537336
1.31295,0.196925,-0.0308935
1.31726,0.127766,-0.0385159
1.31,0.192042,0
1.31122,0.12718,-0.167684
1.31381,0.127432,-0.00767173
1.32639,0.0634793,0.0154594
1.31076,0.192153,-0.0926366
1.32558,0.128573,0.0232466
1.29248,0.254511,-0.084424
1.30778,0.191718,0.0769761
1.32468,0.128486,0.0542221
1.29798,0.255594,-0.0538964
1.30964,0.19199,-0.0308004
1.31371,0.122795,-0.0383995
1.31462,0.188035,0
1.32661,0.0588493,-0.0154594
1.31165,0.122603,-0.167684
1.30706,0.186954,-0.142225
1.31822,0.18855,0.0309865
1.32261,0.058672,0.0154128
1.32204,0.123573,0.0231768
1.29728,0.250756,-0.0846798
1.3203,0.188848,0.0776737
1.3092,0.122373,0.0535708
1.30924,0.187266,-0.0616072
1.30278,0.251821,-0.0540593
1.31426,0.187984,-0.0308935
1.31414,0.118208,-0.0383995
1.30338,0.181787,0
1.3308,0.0543811,-0.0155059
1.31865,0.118615,-0.00769497
1.31164,0.182939,-0.142653
1.31887,0.183948,0.0309865
1.32281,0.0540545,0.0154128
1.31207,0.182998,-0.0926366
1.32644,0.119315,0.0232466
1.30599,0.247714,-0.0851914
1.317,0.183686,0.0774412
1.31758,0.118519,0.0538964
1.30989,0.182694,-0.0616072
1.29973,0.246526,-0.0538964
1.31887,0.183948,-0.0309865
1.31852,0.113964,-0.0385159
1.29347,0.111799,-0.259659
1.30401,0.177236,0
1.33098,0.0497351,-0.0155059
1.31248,0.113442,-0.167684
1.29771,0.241453,0.00767173
1.30833,0.177824,-0.142225
1.32299,0.0494364,0.0154128
1.3127,0.178417,-0.0926366
1.299,0.241693,-0.0846798
1.31763,0.179087,0.0774412
1.31401,0.113574,0.0537336
1.30656,0.177582,-0.0614211
1.29665,0.241257,-0.0537336
1.31555,0.178804,-0.0308935
1.3229,0.109692,-0.0386322
1.30859,0.173208,0
1.32715,0.0449537,-0.0154594
1.30891,0.108532,-0.167179
1.32344,0.109737,-0.00771822
1.31289,0.173778,-0.142653
1.31915,0.0446829,0.0153662
1.31331,0.173834,-0.0926366
1.32724,0.110052,0.0232466
1.2959,0.236441,-0.084424
1.31429,0.173963,0.0772086
1.31838,0.109317,0.0538964
1.31509,0.174069,-0.0617933
1.29356,0.236012,-0.0535708
1.31929,0.104757,-0.0385159
1.30918,0.16864,0
1.30928,0.103963,-0.167179
1.29936,0.232388,0.00767173
1.31185,0.104167,-0.00764848
1.30165,0.16767,-0.141368
1.3313,0.0404425,0.0155059
1.30995,0.168739,-0.0923576
1.29883,0.232293,0.0383995
1.30065,0.232619,-0.0846798
1.31489,0.169375,0.0772086
1.31875,0.104715,0.0538964
1.31804,0.104658,-0.0692928
1.29831,0.232199,-0.0537336
1.31167,0.0995466,-0.0382831
1.3177,0.165063,0
1.29812,0.16261,-0.203535
1.31755,0.0999928,-0.168189
1.32018,0.100192,-0.00769497
1.30618,0.16362,-0.141797
1.31735,0.165019,0.0308935
1.32743,0.035688,0.0154594
1.31449,0.164661,-0.0926366
1.29964,0.227758,0.0383995
1.32399,0.100482,0.0231768
1.30539,0.228766,-0.0849356
1.32927,0.0357374,-0.0774412
1.30755,0.163791,0.0767435
1.31911,0.100111,0.0538964
1.31231,0.164388,-0.0616072
1.30304,0.228356,-0.0538964
1.31735,0.165019,-0.0308935
1.29683,0.222604,-0.0229674
1.31999,0.0955444,-0.0385159
1.30636,0.159012,0
1.31789,0.0953927,-0.168189
1.31653,0.0952944,-0.00767173
1.31069,0.159539,-0.142225
1.31955,0.0308667,0.0153662
1.3111,0.159589,-0.0923576
1.30436,0.223896,0.0385159
1.32832,0.0961477,0.0232466
1.31011,0.224883,-0.0851914
1.32,0.160673,0.0774412
1.31945,0.0955056,0.0538964
1.31288,0.159806,-0.0616072
1.30383,0.223806,-0.0538964
1.30155,0.218738,-0.0230372
1.3243,0.0912105,-0.0386322
1.31485,0.15539,0
1.33165,0.0264988,-0.0155059
1.30315,0.154007,-0.20415
1.31822,0.0907915,-0.168189
1.30567,0.219431,0.00769497
1.31519,0.15543,-0.142653
1.32765,0.0264193,0.0154594
1.31561,0.15548,-0.0926366
1.30514,0.219342,0.0385159
1.31089,0.220308,-0.0851914
1.31263,0.155127,0.0769761
1.31978,0.0908989,0.0538964
1.30067,0.21859,-0.0537336
1.30625,0.214843,-0.023107
1.32062,0.0863268,-0.0385159
1.31538,0.1508,0
1.29975,0.149007,-0.203535
1.31061,0.0856721,-0.167179
1.29853,0.213574,0.00764848
1.31572,0.150838,-0.142653
1.32373,0.0217194,0.0154128
1.30822,0.149978,-0.0920785
1.30195,0.214136,0.0383995
1.32896,0.0868719,0.0232466
1.29589,0.21314,-0.0841681
1.32109,0.151454,0.0774412
1.32407,0.0865525,0.0540593
1.31396,0.150636,-0.0616072
1.30536,0.214698,-0.0538964
1.30301,0.209874,-0.0230372
1.32489,0.0821948,-0.0386322
1.31588,0.146437,0
1.3318,0.0174346,-0.0155059
1.31202,0.146008,-0.20538
1.31088,0.0813258,-0.167179
1.29923,0.209267,0.00764848
1.32543,0.0822282,-0.00771822
1.31621,0.146475,-0.142653
1.3278,0.0173823,0.0154594
1.30474,0.145198,-0.0917995
1.31055,0.211089,0.0386322
1.32525,0.0822171,0.0231768
1.29659,0.208842,-0.0841681
1.31762,0.146631,0.0772086
1.32834,0.0824089,0.0542221
1.31445,0.146278,-0.0616072
1.3258,0.147541,0.163792
1.30607,0.210368,-0.0538964
1.31552,0.146397,-0.0308004
1.3132,0.0768683,-0.0382831
1.31638,0.141843,0
1.32385,0.0127085,-0.0154128
1.30859,0.141003,-0.204765
1.31116,0.0767491,-0.167179
1.29996,0.20473,0.00764848
1.32571,0.0776008,-0.00771822
1.33585,0.0128237,0.0155525
1.31714,0.141925,-0.0926366
1.3052,0.205556,-0.0846798
1.31812,0.14203,0.0772086
1.31665,0.0770707,0.0537336
1.31893,0.142117,-0.0617933
1.30285,0.205186,-0.0537336
1.31602,0.141804,-0.0308004
1.31745,0.0725039,-0.0383995
1.31289,0.136832,0
1.30515,0.136025,-0.20415
1.31538,0.0723901,-0.167684
1.30066,0.200191,0.00764848
1.32597,0.072973,-0.00771822
1.33588,0.00816093,0.0155525
1.31763,0.137326,-0.0926366
1.30804,0.201327,0.0385159
1.32579,0.0729631,0.0231768
1.30197,0.200392,-0.084424
1.31464,0.137015,0.0769761
1.31691,0.0724745,0.0537336
1.31147,0.136684,-0.0614211
1.32418,0.0728742,-0.0695022
1.32285,0.13787,0.163305
1.31146,0.201853,-0.0540593
1.30118,0.195623,-0.0229674
1.3137,0.0676986,-0.0382831
1.31734,0.132649,0
1.30561,0.131468,-0.20415
1.30135,0.19565,0.00764848
1.31823,0.067932,-0.00767173
1.32791,0.00347648,0.0154594
1.31413,0.132326,-0.0923576
1.30873,0.196759,0.0385159
1.31055,0.197033,-0.0849356
1.32703,0.133625,0.0776737
1.32115,0.0680825,0.0538964
1.31194,0.132105,-0.0614211
1.32727,0.133649,0.163792
1.3082,0.196679,-0.0538964
1.31698,0.132613,-0.0308004
1.30185,0.19108,-0.0229674
1.31792,0.063304,-0.0383995
1.31638,0.0632301,-0.263582
1.31779,0.12805,0
1.33191,-0.00116265,-0.0155059
1.30606,0.12691,-0.20415
1.30793,0.0628239,-0.166674
1.32245,0.0635217,-0.00769497
1.33191,-0.00116265,0.0155059
1.31855,0.128124,-0.0926366
1.30545,0.191609,0.0383995
1.33026,0.0638968,0.0232466
1.30728,0.191877,-0.0846798
1.31954,0.128219,0.0772086
1.32138,0.0634701,0.0538964
1.32034,0.128297,-0.0617933
1.30888,0.192111,-0.0538964
1.32213,0.058882,-0.0385159
1.3166,0.0586355,-0.263582
1.31823,0.12345,0
1.3279,-0.00579349,-0.0154594
1.29863,0.121614,-0.20292
1.3121,0.0584355,-0.167179
1.30269,0.18656,0.00764848
1.33066,0.0592619,-0.00774147
1.31461,0.12311,-0.142225
1.3359,-0.00582839,0.0155525
1.31899,0.123521,-0.0926366
1.32648,0.0590759,0.0231768
1.30004,0.186182,-0.0841681
1.31203,0.122869,0.0767435
1.32559,0.0590359,0.0540593
1.32078,0.123689,-0.0617933
1.3135,0.188109,-0.0540593
1.31788,0.123416,-0.0308004
1.30315,0.181987,-0.0229674
1.31833,0.0541023,-0.0383995
1.33587,-0.0104919,-0.0155525
1.30692,0.117789,-0.20415
1.3123,0.0538547,-0.167179
1.31887,0.0541242,-0.00767173
1.32626,0.119533,0.0309865
1.32787,-0.010429,0.0154594
1.31942,0.118916,-0.0926366
1.30676,0.182491,0.0383995
1.33068,0.0546089,0.0232466
1.30859,0.182746,-0.0846798
1.32578,0.0544081,0.0540593
1.32121,0.119077,-0.0617933
1.33255,0.120099,0.16428
1.30623,0.182417,-0.0537336
1.33289,0.0546996,0.243224
1.30375,0.177664,-0.0229674
1.3225,0.0498805,-0.0385159
1.31506,0.114127,0
1.30336,0.113113,-0.203535
1.30393,0.177688,0.00764848
1.32304,0.0499008,-0.00769497
1.32783,-0.0148327,0.0154594
1.3198,0.114539,-0.0926366
1.30736,0.178156,0.0383995
1.30128,0.177327,-0.0841681
1.32875,0.115315,0.0776737
1.32596,0.0500109,0.0540593
1.31761,0.114349,-0.0616072
1.33294,0.11568,0.16428
1.30683,0.178084,-0.0537336
1.3083,0.173867,-0.0230372
1.31866,0.0453575,-0.0383995
1.31712,0.0453045,-0.263582
1.31144,0.109434,0
1.29979,0.108461,-0.20292
1.30451,0.173364,0.00764848
1.32719,0.045651,-0.00771822
1.32777,-0.0192356,0.0154594
1.3162,0.109831,-0.0923576
1.30794,0.17382,0.0383995
1.30582,0.173537,-0.084424
1.31813,0.0453391,0.0537336
1.32197,0.110312,-0.0617933
1.33332,0.111259,0.16428
1.31137,0.174276,-0.0538964
1.32929,0.045723,0.242507
1.30496,0.168558,-0.0229674
1.32282,0.0406465,-0.0385159
1.31981,0.105262,0
1.33569,-0.0242475,-0.0155525
1.30412,0.104011,-0.203535
1.31278,0.0403383,-0.167179
1.33169,-0.0241749,0.0155059
1.31659,0.105005,-0.0923576
1.30644,0.16875,-0.084424
1.32627,0.0407528,0.0540593
1.32236,0.105465,-0.0617933
1.33372,0.106371,0.16428
1.30804,0.168956,-0.0537336
1.32945,0.0408503,0.242507
1.30948,0.164729,-0.0230372
1.32294,0.03626,-0.0385159
1.32414,0.10119,0
1.30446,0.0996856,-0.203535
1.30569,0.164252,0.00764848
1.32348,0.0362747,-0.00769497
1.3396,-0.0287623,0.0155991
1.32091,0.100943,-0.0926366
1.3313,0.0364889,0.0232466
1.307,0.164417,-0.084424
1.32241,0.0362453,0.0538964
1.32271,0.10108,-0.0617933
1.30463,0.164119,-0.0535708
1.34137,0.0367652,0.244659
1.32378,0.101162,-0.0308935
1.31005,0.160157,-0.0230372
1.31507,0.0314509,-0.0382831
1.3205,0.0962763,0
1.30874,0.0954193,-0.20415
1.32096,0.0315919,-0.168189
1.30625,0.159694,0.00764848
1.3276,0.0317506,-0.00771822
1.31687,0.0960118,-0.142225
1.33549,-0.0333381,0.0155525
1.32126,0.0963319,-0.0926366
1.30969,0.160114,0.0383995
1.3036,0.159369,-0.0841681
1.33021,0.0969846,0.0776737
1.31853,0.0315337,0.0537336
1.31109,0.0955909,-0.061235
1.30916,0.160049,-0.0537336
1.33363,0.0318948,0.243224
1.32413,0.096541,-0.0308935
1.31062,0.155354,-0.0230372
1.32717,0.0268732,-0.0386322
1.31685,0.0911592,0
1.30908,0.0906216,-0.20415
1.32504,0.0268301,-0.168694
1.32846,0.0919631,0.0309865
1.32337,-0.0378896,0.0154128
1.3216,0.0914883,-0.0926366
1.3121,0.15553,-0.0846798
1.32657,0.0918324,0.0774412
1.31864,0.0267005,0.0537336
1.31144,0.0907846,-0.061235
1.3308,0.0921248,0.163792
1.31371,0.15572,-0.0538964
1.31113,0.151007,-0.0230372
1.31925,0.0223363,-0.0383995
1.31714,0.0867915,0
1.30937,0.0862796,-0.20415
1.31131,0.151028,0.00767173
1.32779,0.0224808,-0.00771822
1.32147,0.0870768,-0.142653
1.33352,-0.0426068,-0.124545
1.33123,-0.0425337,0.0155059
1.31261,0.151178,-0.0846798
1.33085,0.087695,0.0776737
1.32671,0.0224626,0.0540593
1.3197,0.0869603,-0.0616072
1.32713,0.0874498,0.163305
1.31421,0.151362,-0.0538964
1.33775,0.0226495,0.243942
1.30768,0.145987,-0.0229674
1.32332,0.0177858,-0.0385159
1.32143,0.0824433,0
1.30967,0.0817094,-0.20415
1.32122,0.0177575,-0.168189
1.31183,0.14645,0.00767173
1.32786,0.0178467,-0.00771822
1.33907,-0.0474628,0.0155991
1.31821,0.0822425,-0.0923576
1.30732,0.145947,0.0382831
1.33168,0.0178981,0.0232466
1.30916,0.146153,-0.084424
1.32678,0.0178322,0.0540593
1.31076,0.146331,-0.0537336
1.33782,0.0179807,0.243942
1.32506,0.08267,-0.0308935
1.30423,0.140763,-0.0228976
1.32338,0.0129351,-0.0385159
1.32572,0.0778336,0
1.30601,0.0766767,-0.203535
1.31236,0.141641,0.00767173
1.33191,0.0130185,-0.00774147
1.3185,0.0774101,-0.0923576
1.30969,0.141353,-0.084424
1.33272,-0.0521296,-0.0776737
1.32347,0.0777019,0.0772086
1.32284,0.0129298,0.0538964
1.31526,0.141955,-0.0538964
1.33788,0.0130768,0.243942
1.32741,0.00880365,-0.0386322
1.32596,0.0736679,0
1.33871,-0.0565771,-0.0155991
1.30625,0.072573,-0.203535
1.32528,0.00878952,-0.168694
1.33195,0.00883376,-0.00774147
1.31436,0.0730236,-0.141797
1.32959,0.0738698,0.0309865
1.33472,-0.0564082,0.0155525
1.30219,0.136406,-0.0839123
1.32371,0.0735433,0.0772086
1.31888,0.00874707,0.0537336
1.32053,0.0733665,-0.0616072
1.31173,0.137405,-0.0537336
1.3256,0.073648,-0.0308935
1.31309,0.132916,-0.0230372
1.32343,0.00415779,-0.0385159
1.31789,0.00414039,-0.263582
1.31822,0.0686234,0
1.31044,0.0682187,-0.20415
1.3253,0.00416366,-0.168694
1.32797,0.00417205,-0.00771822
1.33451,-0.0610666,0.0155525
1.315,0.0684563,-0.0920785
1.30663,0.132262,-0.0841681
1.33194,0.0693377,0.0776737
1.33089,0.00418122,0.0542221
1.32477,0.0689645,-0.0617933
1.33218,0.0693503,0.163792
1.31618,0.133228,-0.0538964
1.34187,0.00421572,0.244659
1.30961,0.127486,-0.0229674
1.31944,-0.000920749,-0.0383995
1.32246,0.0637543,0
1.31069,0.0631867,-0.20415
1.31377,0.12789,0.00767173
1.33198,-0.000929497,-0.00774147
1.33256,-0.0661053,-0.124545
1.33427,-0.06619,0.0155525
1.31905,0.128404,-0.0849356
1.32422,0.0638387,0.0772086
1.3309,-0.000928743,0.0542221
1.32502,0.0638776,-0.0617933
1.32847,0.0640437,0.163305
1.30872,0.127399,-0.0535708
1.33794,-0.00093366,0.243942
1.30602,0.122996,-0.0228976
1.32343,-0.00508098,-0.0385159
1.32665,0.0597796,0
1.33405,-0.0703811,-0.0155525
1.30694,0.0588911,-0.203535
1.31018,0.123388,0.00764848
1.33597,-0.00512912,-0.00776472
1.33632,-0.0705009,-0.124917
1.33029,0.0599434,0.0309865
1.33805,-0.0705918,0.0155991
1.32342,0.059634,-0.0926366
1.33579,-0.00512842,0.0233164
1.31149,0.123512,-0.084424
1.33239,0.060038,0.0776737
1.33089,-0.00510961,0.0542221
1.30912,0.123288,-0.0535708
1.334,-0.00512156,0.243224
1.31043,0.118797,-0.0229674
1.3354,-0.00978886,-0.038865
1.31886,0.0548158,0
1.34179,-0.0754871,-0.0156456
1.30713,0.0543284,-0.203535
1.3213,-0.00968554,-0.168189
1.33194,-0.00976352,-0.00774147
1.31525,0.0546657,-0.141797
1.33607,-0.0751654,-0.124917
1.3338,-0.0750378,0.0155525
1.31964,0.054848,-0.0923576
1.31007,0.118765,0.0382831
1.30794,0.118572,-0.0841681
1.32062,0.0548889,0.0769761
1.32686,-0.0097263,0.0540593
1.32542,0.0550883,-0.0617933
1.3175,0.119438,-0.0538964
1.33791,-0.00980725,0.243942
1.3265,0.0551331,-0.0308935
1.31085,0.113994,-0.0229674
1.32336,-0.0145511,-0.0385159
1.33104,0.0504362,0
1.33751,-0.0801649,-0.0155991
1.31127,0.0496871,-0.20415
1.32523,-0.0145716,-0.168694
1.30704,0.113663,0.00762523
1.3319,-0.014645,-0.00774147
1.31942,0.0499956,-0.142225
1.33181,-0.0798233,-0.124545
1.33751,-0.0801649,0.0155991
1.3105,0.113963,0.0382831
1.3203,0.114815,-0.0849356
1.33932,-0.0802736,-0.0781389
1.33278,0.0505021,0.0776737
1.32191,0.114955,-0.0540593
1.33068,0.0504226,-0.0309865
1.31124,0.109417,-0.0229674
1.3273,-0.0192287,-0.0386322
1.31922,0.0453768,0
1.33722,-0.0848335,-0.0155991
1.31539,0.0452451,-0.204765
1.32517,-0.0191978,-0.168694
1.31142,0.109432,0.00764848
1.33184,-0.0192944,-0.00774147
1.31958,0.0453893,-0.142225
1.33722,-0.0848335,0.0155991
1.31487,0.10972,0.0383995
1.33966,-0.0194077,0.0233862
1.32069,0.110205,-0.0849356
1.33295,0.0458492,0.0776737
1.32276,-0.019163,0.0538964
1.33403,-0.0193262,-0.0699208
1.33716,0.045994,0.16428
1.31434,0.109675,-0.0537336
1.33387,-0.0193238,0.243224
1.33085,0.045777,-0.0309865
1.31957,0.105706,-0.023107
1.32323,-0.0235592,-0.0385159
1.31769,-0.0234606,-0.263582
1.31537,0.0408773,0
1.33294,-0.0890013,-0.0155525
1.30763,0.0406369,-0.203535
1.32906,-0.0236631,-0.169199
1.31576,0.105401,0.00767173
1.33177,-0.0237112,-0.00774147
1.33693,-0.0892678,0.0155991
1.31124,0.105039,0.0382831
1.33958,-0.0238504,0.0233862
1.31309,0.105187,-0.084424
1.33709,0.0415524,0.0779063
1.32669,-0.0236208,0.0540593
1.33731,0.0415592,0.16428
1.31469,0.105316,-0.0537336
1.33773,-0.0238174,0.243942
1.31594,0.100795,-0.0230372
1.33113,-0.0283474,-0.0387486
1.32544,-0.0282262,-0.265151
1.3275,0.0366173,0
1.32104,-0.0281324,-0.168189
1.31213,0.100503,0.00764848
1.33567,-0.0284441,-0.00776472
1.34459,-0.0944939,0.0156922
1.32825,0.0366382,-0.0929156
1.33549,-0.0284402,0.0233164
1.30549,0.0999944,-0.0839123
1.33059,-0.0283359,0.0542221
1.32206,0.0364675,-0.0616072
1.33744,0.0368918,0.16428
1.31904,0.101032,-0.0538964
1.3123,0.0959087,-0.0229674
1.33103,-0.0329945,-0.0387486
1.32761,0.0319825,0
1.33628,-0.098599,-0.0155991
1.31183,0.0316023,-0.20415
1.3249,-0.0328426,-0.168694
1.31248,0.0959217,0.00764848
1.33157,-0.0330079,-0.00774147
1.31998,0.0317986,-0.142225
1.34027,-0.0988933,0.0156456
1.33539,-0.0331026,0.0233164
1.31379,0.0960179,-0.084424
1.32936,0.0320246,0.0774412
1.33448,-0.0330802,0.0543849
1.33017,0.0320441,-0.0619795
1.33756,0.0322222,0.16428
1.32337,0.0967178,-0.0540593
1.33125,0.0320702,-0.0309865
1.31264,0.0910983,-0.0229674
1.3269,-0.037759,-0.0386322
1.33172,0.027198,0
1.31194,0.026794,-0.20415
1.31681,0.0913875,0.00767173
1.33544,-0.0380019,-0.00776472
1.33536,0.0272723,0.0310796
1.33989,-0.103805,0.0156456
1.31628,0.0913504,0.0383995
1.31414,0.091202,-0.084424
1.32947,0.027152,0.0774412
1.32636,-0.0377437,0.0540593
1.32629,0.027087,-0.0617933
1.32372,0.0918667,-0.0540593
1.33136,0.0271907,-0.0309865
1.30895,0.0864812,-0.0228976
1.33476,-0.0424129,-0.038865
1.31331,0.0224654,-0.367701
1.32381,0.0226449,0
1.34353,-0.10857,-0.0156922
1.31993,0.0225785,-0.20538
1.31711,0.0870203,0.00767173
1.32731,-0.0421761,-0.00771822
1.3378,-0.108107,-0.125289
1.33544,0.0228439,0.0310796
1.33157,-0.107603,0.0155525
1.32058,0.0225897,-0.0923576
1.32056,0.0872486,0.0385159
1.33912,-0.0425515,0.0233862
1.31841,0.0871068,-0.0846798
1.33355,0.0228115,0.0776737
1.32623,-0.0421419,0.0540593
1.32237,0.0226204,-0.0616072
1.33776,0.0228835,0.16428
1.32401,0.0874766,-0.0540593
1.33334,-0.0423676,0.243224
1.32745,0.0227072,-0.0308935
1.31722,0.0824111,-0.0230372
1.33061,-0.0469309,-0.0387486
1.32492,-0.0467303,-0.265151
1.32388,0.0180238,0
1.33119,-0.112251,-0.0155525
1.31604,0.0179172,-0.204765
1.3174,0.0824222,0.00767173
1.32464,0.0180342,-0.0926366
1.31288,0.0821391,0.0382831
1.33497,-0.0470846,0.0233164
1.31871,0.0825041,-0.0846798
1.33007,-0.0469119,0.0542221
1.32644,0.0180587,-0.0617933
1.3418,0.0182678,0.164767
1.31633,0.0823553,-0.0537336
1.34104,-0.047299,0.244659
1.32151,0.0778178,-0.023107
1.33842,-0.0521187,-0.0389813
1.32082,-0.0514335,-0.264366
1.33193,0.013251,0
1.34272,-0.118181,-0.0156922
1.3161,0.0130935,-0.204765
1.32827,-0.0517234,-0.169199
1.33896,-0.0521399,-0.00778796
1.32427,0.0131748,-0.142653
1.33873,-0.11783,0.0156456
1.31716,0.0775616,0.0383995
1.33878,-0.0521328,0.0233862
1.31103,0.077201,-0.0841681
1.32989,-0.0517865,0.0542221
1.3265,0.0131969,-0.0617933
1.34186,0.0133497,0.164767
1.3246,0.078,-0.0540593
1.34479,-0.052367,0.245377
1.31778,0.0729832,-0.0230372
1.33823,-0.0567903,-0.0389813
1.33197,0.00860162,0
1.33831,-0.122503,-0.0156456
1.31614,0.00849938,-0.204765
1.33204,-0.0565279,-0.169705
1.31796,0.0729931,0.00767173
1.33078,-0.0564742,-0.00774147
1.32033,0.00852647,-0.142225
1.33831,-0.122503,0.0156456
1.31343,0.0727423,0.0382831
1.31927,0.0730656,-0.0846798
1.32972,0.00858707,0.0774412
1.3297,-0.0564284,0.0542221
1.34189,0.0086657,0.164767
1.32487,0.0733758,-0.0540593
1.33674,-0.0567272,0.243942
1.31401,0.0686343,-0.0229674
1.33006,-0.0606301,-0.0387486
1.32799,0.00440381,0
1.31221,0.00435146,-0.20415
1.33186,-0.0607123,-0.169705
1.31419,0.0686436,0.00764848
1.32831,0.00440486,-0.143082
1.33792,-0.126707,0.0156456
1.32164,0.0690328,0.0385159
1.3155,0.0687124,-0.084424
1.33773,0.00443609,0.0779063
1.32552,-0.0604235,0.0540593
1.32655,0.00439904,-0.0617933
1.32509,0.0692133,-0.0540593
1.31025,0.0638525,-0.0228976
1.32584,-0.0650764,-0.0386322
1.2981,-0.000226559,-0.363388
1.324,-0.00023108,0
1.31617,-0.000229713,-0.204765
1.31841,0.0642505,0.00767173
1.33837,-0.0656912,-0.00778796
1.32434,-0.000231139,-0.142653
1.3397,-0.131595,-0.12566
1.33747,-0.131376,0.0156456
1.32876,-0.00023191,-0.0929156
1.31788,0.0642244,0.0383995
1.33819,-0.0656823,0.0233862
1.31574,0.06412,-0.084424
1.3293,-0.065246,0.0542221
1.32257,-0.00023083,-0.0616072
1.33795,-0.000233515,0.16428
1.33164,-0.000232413,-0.0309865
1.31047,0.0590497,-0.0228976
1.33757,-0.0705674,-0.0389813
1.32782,-0.0700529,-0.265935
1.32799,-0.00509914,0
1.31616,-0.00505371,-0.204765
1.32264,0.0595979,0.00769497
1.34096,-0.136683,0.0156922
1.31411,0.0592137,0.0382831
1.34193,-0.0707972,0.023456
1.31995,0.0594769,-0.0846798
1.33373,-0.00512118,0.0776737
1.33304,-0.0703282,0.0543849
1.33794,-0.00513735,0.16428
1.31358,0.0591897,-0.0535708
1.34787,-0.0711109,0.246094
1.33733,-0.0750026,-0.0389813
1.32797,-0.00950289,0
1.34448,-0.141548,-0.0157387
1.32009,-0.0094465,-0.20538
1.32323,-0.0742116,-0.168694
1.33787,-0.0750331,-0.00778796
1.3405,-0.141129,0.0156922
1.3143,0.0548556,0.0382831
1.3337,-0.0747989,0.0233164
1.31615,0.054933,-0.084424
1.33679,-0.0749721,0.0545478
1.34586,-0.00963092,0.165255
1.32574,0.0553334,-0.0540593
1.31484,0.0502812,-0.0229674
1.33706,-0.0796703,-0.0389813
1.30573,-0.013902,-0.365544
1.33192,-0.0141809,0
1.34398,-0.14624,-0.0157387
1.324,-0.0140965,-0.205995
1.33088,-0.0793021,-0.169705
1.3416,-0.0799406,-0.00781121
1.34398,-0.14624,0.0157387
1.33267,-0.0141888,-0.0931946
1.32247,0.0505731,0.0385159
1.34142,-0.0799298,0.023456
1.32032,0.050491,-0.0846798
1.34179,-0.146002,-0.078604
1.33766,-0.0142419,0.0779063
1.33253,-0.0794002,0.0543849
1.33448,-0.0142081,-0.0621656
1.33978,-0.0798324,-0.0703395
1.32593,0.0507053,-0.0540593
1.32757,-0.0141345,-0.0308935
1.3248,-0.0835818,-0.0386322
1.33187,-0.0188301,0
1.34743,-0.151377,-0.0157853
1.31999,-0.0186621,-0.20538
1.3306,-0.0839472,-0.169705
1.31918,0.0458363,0.00767173
1.33732,-0.0843713,-0.00778796
1.34743,-0.151377,0.0157853
1.32664,0.0460954,0.0386322
1.32049,0.0458819,-0.0846798
1.33042,-0.0188097,-0.0619795
1.34179,-0.0189704,0.164767
1.3221,0.0459379,-0.0538964
1.34314,-0.0847388,0.245377
1.32849,-0.0884713,-0.0387486
1.3056,-0.0230172,-0.365544
1.33179,-0.023479,0
1.31991,-0.0232696,-0.20538
1.33426,-0.088855,-0.17021
1.32333,0.0413562,0.00769497
1.32811,-0.0234141,-0.143082
1.34292,-0.155619,0.0157387
1.32855,-0.0234219,-0.0929156
1.32279,0.0413394,0.0385159
1.34083,-0.0892926,0.023456
1.31665,0.0411475,-0.084424
1.32636,-0.0233832,-0.0617933
1.32625,0.0414474,-0.0540593
1.34677,-0.0896882,0.246094
1.31929,0.0366207,-0.0230372
1.33615,-0.0936673,-0.0389813
1.30166,-0.0274931,-0.364466
1.33032,-0.0932587,-0.26672
1.3237,-0.0279588,0
1.34634,-0.16078,-0.0157853
1.31587,-0.0277934,-0.204765
1.33394,-0.0935119,-0.17021
1.31947,0.0366257,0.00767173
1.34069,-0.0939851,-0.00781121
1.34237,-0.160306,0.0157387
1.33245,-0.0281435,-0.0931946
1.31893,0.0366108,0.0383995
1.32876,0.0368836,-0.0851914
1.34143,-0.0283331,0.0781389
1.33561,-0.0936293,0.0545478
1.33026,-0.0280973,-0.0619795
1.33765,-0.0282534,0.16428
1.33038,0.0369286,-0.0542221
1.32741,0.0319776,-0.0231768
1.33979,-0.0988582,-0.0390977
1.30155,-0.0322638,-0.364466
1.32997,-0.0981339,-0.26672
1.33159,-0.0330085,0
1.34574,-0.165713,-0.0157853
1.31576,-0.0326161,-0.204765
1.32567,-0.0978164,-0.169199
1.34396,-0.165494,-0.126404
1.34177,-0.165225,0.0157387
1.32306,0.0318727,0.0385159
1.34015,-0.098885,0.023456
1.32091,0.0318209,-0.0846798
1.33732,-0.0331505,0.0779063
1.33127,-0.0982298,0.0543849
1.32252,0.0318598,-0.0538964
1.34216,-0.0990335,0.245377
1.31552,0.0270968,-0.0229674
1.34342,-0.103842,-0.039214
1.30528,-0.0369157,-0.365544
1.33547,-0.0377695,0
1.34119,-0.169907,-0.0157387
1.31564,-0.0372088,-0.204765
1.32532,-0.102443,-0.169199
1.3197,0.0271829,0.00767173
1.33599,-0.103268,-0.00778796
1.33722,-0.169405,0.0156922
1.32316,0.0272542,0.0385159
1.34379,-0.103871,0.0235258
1.32101,0.0272099,-0.0846798
1.32922,-0.0375927,0.0774412
1.33092,-0.102876,0.0543849
1.34535,-0.0380491,0.165255
1.32262,0.0272431,-0.0538964
1.33111,-0.0376462,-0.0309865
1.3196,0.0228034,-0.0230372
1.33111,-0.107333,-0.038865
1.33533,-0.0421978,0
1.31946,-0.0416962,-0.20538
1.33684,-0.107794,-0.170715
1.31978,0.0228064,0.00767173
1.34362,-0.108341,-0.00783446
1.32765,-0.0419551,-0.143082
1.3428,-0.174638,-0.126404
1.33897,-0.0423127,0.0311726
1.34062,-0.174354,0.0157387
1.31924,0.0227972,0.0383995
1.34742,-0.108648,0.0235957
1.32508,0.0228981,-0.0849356
1.34106,-0.0423787,0.0781389
1.33057,-0.107289,0.0543849
1.32989,-0.0420259,-0.0619795
1.3307,0.0229951,-0.0542221
1.34538,-0.108483,0.246094
1.32367,0.0182521,-0.023107
1.33472,-0.112314,-0.0389813
1.32319,-0.0464379,0
1.34793,-0.180092,-0.0158319
1.32721,-0.046579,-0.20661
1.33646,-0.11246,-0.170715
1.32385,0.0182546,0.00769497
1.33924,-0.112695,-0.00781121
1.3275,-0.0465893,-0.143082
1.34397,-0.179562,0.0157853
1.32794,-0.0466047,-0.0929156
1.32731,0.0183023,0.0386322
1.32915,0.0183276,-0.0851914
1.34574,-0.179799,-0.0790691
1.3409,-0.0470596,0.0781389
1.33019,-0.111933,0.0543849
1.33373,-0.046808,-0.0621656
1.34506,-0.0472057,0.165255
1.32677,0.0182948,-0.0540593
1.34892,-0.113509,0.246812
1.33881,-0.0469863,-0.0311726
1.33173,0.0137139,-0.0232466
1.33432,-0.116972,-0.0389813
1.30868,-0.0505031,-0.366622
1.3324,-0.116804,-0.267504
1.33101,-0.0513649,0
1.34729,-0.184796,-0.0158319
1.31914,-0.0509067,-0.20538
1.33605,-0.117125,-0.170715
1.32391,0.0136333,0.00769497
1.33884,-0.117369,-0.00781121
1.34264,-0.0518136,0.0312657
1.34729,-0.184796,0.0158319
1.33574,-0.0515475,-0.0934737
1.32521,0.0136468,-0.0849356
1.34073,-0.0517399,0.0781389
1.33356,-0.0514633,-0.0621656
1.34092,-0.0517475,0.164767
1.32283,0.0136223,-0.0538964
1.34851,-0.118217,0.246812
1.32777,0.00903796,-0.0231768
1.32594,-0.120903,-0.0387486
1.30464,-0.0549089,-0.365544
1.33881,-0.056347,0
1.31895,-0.0555111,-0.20538
1.33564,-0.121788,-0.170715
1.34639,-0.122768,-0.00785771
1.33111,-0.056023,-0.14351
1.33696,-0.188135,-0.126032
1.34268,-0.18894,0.0157853
1.32341,0.0090083,0.0385159
1.33824,-0.122025,0.023456
1.32126,0.00899366,-0.0846798
1.34453,-0.0565876,0.0783714
1.3453,-0.122669,0.0550363
1.32687,0.00903185,-0.0540593
1.33845,-0.0563318,-0.0311726
1.33747,-0.126428,-0.0390977
1.3083,-0.0594097,-0.366622
1.33462,-0.0606049,0
1.32271,-0.0600639,-0.205995
1.33523,-0.126216,-0.170715
1.31997,0.00460759,0.00767173
1.33801,-0.126479,-0.00781121
1.33092,-0.0604368,-0.14351
1.34205,-0.193392,0.0157853
1.33536,-0.0606383,-0.0934737
1.32343,0.00461967,0.0385159
1.3458,-0.127215,0.0235957
1.32926,0.00464004,-0.0851914
1.34035,-0.0608647,0.0781389
1.34091,-0.126753,0.0548734
1.34451,-0.0610537,0.165255
1.32689,0.00463175,-0.0540593
1.34768,-0.127393,0.246812
1.33826,-0.0607699,-0.0311726
1.3158,-0,-0.0229674
1.341,-0.131486,-0.039214
1.3384,-0.0654587,0
1.35323,-0.199828,-0.015925
1.32249,-0.0646806,-0.205995
1.33478,-0.130876,-0.170715
1.34552,-0.13193,-0.00785771
1.33467,-0.0652765,-0.143938
1.33959,-0.197813,-0.126404
1.34203,-0.0656363,0.0312657
1.34928,-0.199244,0.0158784
1.32744,-0,0.0386322
1.34534,-0.131912,0.0235957
1.32129,-0,-0.0846798
1.33614,-0.065348,0.0779063
1.34331,-0.131712,0.246094
1.33404,-0.0652456,-0.0310796
1.31979,-0.00460697,-0.0230372
1.33258,-0.135358,-0.0389813
1.33417,-0.0699208,0
1.35253,-0.20455,-0.015925
1.32226,-0.0692966,-0.205995
1.32397,-0.00462155,0.00769497
1.34506,-0.136626,-0.00785771
1.33444,-0.069935,-0.143938
1.34676,-0.203679,-0.127147
1.34857,-0.203952,0.0158784
1.32743,-0.00463363,0.0386322
1.34885,-0.137011,0.0236655
1.32926,-0.00464004,-0.0851914
1.33204,-0.135303,0.0545478
1.33671,-0.0700542,-0.0623517
1.34405,-0.0704386,0.165255
1.33089,-0.0046457,-0.0542221
1.34284,-0.136401,0.246094
1.32377,-0.00924178,-0.023107
1.34402,-0.141263,-0.0393304
1.32992,-0.0743542,0
1.34785,-0.208659,-0.0158784
1.32201,-0.0739117,-0.205995
1.33778,-0.140606,-0.17122
1.32795,-0.00927096,0.00771822
1.34457,-0.14132,-0.00785771
1.34604,-0.208379,-0.127147
1.3439,-0.208047,0.0158319
1.33465,-0.0746186,-0.0934737
1.34837,-0.141719,0.0236655
1.32525,-0.00925213,-0.0849356
1.33565,-0.0746743,0.0779063
1.33553,-0.14037,0.0547106
1.33247,-0.0744968,-0.0621656
1.34776,-0.0753514,0.165742
1.34627,-0.141499,0.246812
1.32372,-0.0140936,-0.023107
1.3435,-0.146188,-0.0393304
1.32565,-0.0789902,0
1.31778,-0.0785215,-0.20538
1.33725,-0.145508,-0.17122
1.34404,-0.146247,-0.00785771
1.34527,-0.213311,-0.127147
1.34525,-0.0801582,0.0313587
1.34708,-0.213597,0.0158784
1.33835,-0.0797472,-0.0937527
1.32336,-0.0140897,0.0385159
1.34784,-0.14666,0.0236655
1.32521,-0.0141093,-0.0849356
1.34334,-0.0800442,0.0783714
1.33618,-0.0796177,-0.0623517
1.33082,-0.0141691,-0.0542221
1.35762,-0.080895,0.364417
1.32367,-0.0187141,-0.023107
1.33503,-0.149984,-0.0390977
1.30705,-0.0824618,-0.366622
1.33734,-0.0843727,0
1.35027,-0.218938,-0.015925
1.32539,-0.0836187,-0.20661
1.34068,-0.150618,-0.171725
1.31985,-0.0186601,0.00767173
1.33955,-0.150491,-0.00783446
1.34452,-0.218005,-0.127147
1.34632,-0.218298,0.0158784
1.33807,-0.0844184,-0.0937527
1.3313,-0.0188221,0.0387486
1.34732,-0.151364,0.0236655
1.32914,-0.0187915,-0.0851914
1.34305,-0.0847329,0.0783714
1.33846,-0.150369,0.0548734
1.33589,-0.0842813,-0.0623517
1.35115,-0.0852437,0.16623
1.33076,-0.0188145,-0.0542221
1.34576,-0.0849036,0.361311
1.34522,-0.151128,0.246812
1.33299,-0.0840981,-0.0310796
1.33453,-0.15441,-0.0390977
1.30677,-0.0867957,-0.366622
1.33306,-0.0885419,0
1.35349,-0.224068,-0.0159716
1.3251,-0.0880134,-0.20661
1.33229,-0.154151,-0.170715
1.31978,-0.0230368,0.00767173
1.34699,-0.155852,-0.00788096
1.33333,-0.0885598,-0.143938
1.34467,-0.089313,0.0313587
1.34954,-0.223415,0.015925
1.33778,-0.0888552,-0.0937527
1.33123,-0.0232368,0.0387486
1.34681,-0.155831,0.0236655
1.32907,-0.023199,-0.0851914
1.33878,-0.0889215,0.0781389
1.33399,-0.154347,0.0547106
1.33162,-0.088446,-0.0621656
1.33469,-0.0232971,-0.0543849
1.34932,-0.0896219,0.362347
1.35253,-0.156493,0.248247
1.33669,-0.088783,-0.0311726
1.32751,-0.0278073,-0.0231768
1.33795,-0.159541,-0.039214
1.30646,-0.0913567,-0.366622
1.33589,-0.159296,-0.269073
1.33674,-0.0934737,0
1.32873,-0.092914,-0.207225
1.32369,-0.0277273,0.00769497
1.35041,-0.161027,-0.0079042
1.34693,-0.227816,-0.127519
1.34481,-0.227457,0.0158784
1.33746,-0.0935243,-0.0937527
1.32315,-0.027716,0.0385159
1.32499,-0.0277546,-0.0849356
1.33927,-0.0936512,-0.0625378
1.34462,-0.160336,-0.0709676
1.34657,-0.0941617,0.165742
1.349,-0.0943314,0.362347
1.34416,-0.160282,0.246812
1.3274,-0.032441,-0.0231768
1.33739,-0.16421,-0.039214
1.33533,-0.163958,-0.269073
1.33241,-0.0978462,0
1.34795,-0.232831,-0.015925
1.32446,-0.0972621,-0.20661
1.33906,-0.164416,-0.171725
1.32758,-0.0324454,0.00771822
1.34984,-0.16574,-0.0079042
1.35005,-0.233194,-0.127891
1.34401,-0.23215,0.0158784
1.33713,-0.0981924,-0.0937527
1.32304,-0.0323345,0.0385159
1.33287,-0.0325746,-0.0854473
1.34609,-0.0988506,0.078604
1.34081,-0.164631,0.0550363
1.3265,-0.032419,-0.0540593
1.34866,-0.0990397,0.362347
1.32328,-0.0369626,-0.023107
1.3368,-0.168878,-0.039214
1.33206,-0.102497,0
1.355,-0.238924,-0.0160181
1.32017,-0.101581,-0.205995
1.33454,-0.168592,-0.17122
1.32346,-0.0369676,0.00769497
1.34531,-0.237214,-0.127519
1.34713,-0.237535,0.015925
1.34075,-0.103165,-0.0940317
1.32692,-0.0370642,0.0386322
1.34907,-0.170427,0.0237353
1.32476,-0.037004,-0.0849356
1.34023,-0.16931,0.0550363
1.34257,-0.103305,-0.062724
1.3538,-0.104169,0.166717
1.33038,-0.0371608,-0.0542221
1.35863,-0.171634,0.249681
1.32714,-0.0417071,-0.0231768
1.34414,-0.174573,-0.0394468
1.34366,-0.108108,0
1.34629,-0.242236,-0.015925
1.31981,-0.106189,-0.205995
1.33394,-0.173249,-0.17122
1.32732,-0.0417128,0.00771822
1.34468,-0.174644,-0.00788096
1.33593,-0.107486,-0.144367
1.35416,-0.243652,0.0160181
1.32279,-0.0415703,0.0385159
1.34847,-0.175135,0.0237353
1.32862,-0.0417535,-0.0851914
1.34139,-0.107925,0.0783714
1.34359,-0.174502,0.0551991
1.3422,-0.107991,-0.062724
1.35343,-0.108894,0.166717
1.33024,-0.0418045,-0.0542221
1.34794,-0.108453,0.362347
1.33566,-0.17774,-0.039214
1.33933,-0.111996,0
1.34945,-0.247184,-0.0159716
1.32341,-0.110664,-0.20661
1.34126,-0.178486,-0.17223
1.32319,-0.0457443,0.00769497
1.35206,-0.179923,-0.00792745
1.33979,-0.245414,-0.127147
1.34295,-0.112298,0.0313587
1.34159,-0.245743,0.0158784
1.34004,-0.112055,-0.0940317
1.32665,-0.0458638,0.0386322
1.33998,-0.178316,0.0235957
1.33247,-0.0460651,-0.0854473
1.33706,-0.111806,0.0781389
1.34186,-0.112207,-0.062724
1.3341,-0.0461214,-0.0543849
1.34759,-0.112687,0.362347
1.35746,-0.180641,0.249681
1.34295,-0.112298,-0.0313587
1.33896,-0.183176,-0.0393304
1.33094,-0.116208,0
1.3564,-0.253599,-0.0160647
1.32299,-0.115514,-0.20661
1.32701,-0.0507465,0.00771822
1.34743,-0.184335,-0.0079042
1.33517,-0.116577,-0.144367
1.34671,-0.251786,-0.127891
1.34651,-0.117568,0.0314518
1.3564,-0.253599,0.0160647
1.33564,-0.116619,-0.0937527
1.32647,-0.0507259,0.0386322
1.33628,-0.0511011,-0.0857031
1.34858,-0.117748,0.0788365
1.33791,-0.0511635,-0.0545478
1.34717,-0.117625,0.362347
1.34899,-0.184549,0.248247
1.32665,-0.0551393,-0.0231768
1.3423,-0.18817,-0.0394468
1.30814,-0.11859,-0.367701
1.33621,-0.187317,-0.269857
1.33054,-0.120621,0
1.35163,-0.257347,-0.0160181
1.33047,-0.120614,-0.20784
1.33605,-0.187294,-0.171725
1.32683,-0.0551468,0.00771822
1.34587,-0.256251,-0.127891
1.3477,-0.256599,0.0159716
1.33922,-0.121408,-0.0940317
1.32629,-0.0551244,0.0386322
1.33211,-0.0553663,-0.0854473
1.34818,-0.122219,0.0788365
1.34176,-0.188094,0.0551991
1.33773,-0.0555999,-0.0545478
1.35447,-0.12279,0.364417
1.35227,-0.189567,0.248964
1.33045,-0.0599499,-0.0232466
1.34559,-0.193424,-0.0395631
1.31539,-0.123877,-0.369857
1.33555,-0.19198,-0.269857
1.33808,-0.126015,0
1.35072,-0.262064,-0.0160181
1.32217,-0.124517,-0.20661
1.33539,-0.191957,-0.171725
1.32663,-0.059778,0.00771822
1.34614,-0.193502,-0.0079042
1.33434,-0.125663,-0.144367
1.34887,-0.261706,-0.128263
1.34679,-0.261302,0.0159716
1.34277,-0.126456,-0.0943108
1.32609,-0.0597537,0.0386322
1.35388,-0.194614,0.0238749
1.32793,-0.0598363,-0.0851914
1.33714,-0.192208,0.0550363
1.33663,-0.125878,-0.0625378
1.35577,-0.127681,0.167205
1.33753,-0.0602691,-0.0545478
1.35549,-0.194846,0.249681
1.3417,-0.126355,-0.0313587
1.32624,-0.0643997,-0.0231768
1.337,-0.196954,-0.0393304
1.33875,-0.197212,-0.270642
1.33763,-0.130685,0
1.35764,-0.268328,-0.0161113
1.33353,-0.130284,-0.208454
1.34256,-0.197773,-0.172735
1.32641,-0.0644084,0.00771822
1.3415,-0.197617,-0.00788096
1.33785,-0.130706,-0.144795
1.35186,-0.267185,-0.128635
1.34587,-0.266002,0.0159716
1.32588,-0.0643822,0.0386322
1.35319,-0.199339,0.0238749
1.3317,-0.0646648,-0.0854473
1.34729,-0.131628,0.0788365
1.33618,-0.130543,-0.0625378
1.35532,-0.132413,0.167205
1.3587,-0.20015,0.250399
1.34125,-0.131038,-0.0313587
1.34026,-0.202216,-0.0394468
1.33806,-0.201884,-0.270642
1.33319,-0.13495,0
1.32914,-0.13454,-0.20784
1.34186,-0.202459,-0.172735
1.33417,-0.069454,0.00776472
1.33685,-0.201702,-0.00785771
1.3392,-0.269545,-0.127519
1.34874,-0.136524,0.0315448
1.3567,-0.273066,0.0161113
1.32964,-0.0692179,0.0387486
1.35248,-0.204061,0.0238749
1.33545,-0.0695204,-0.0857031
1.34285,-0.135928,0.078604
1.33572,-0.135206,-0.0625378
1.33309,-0.0693976,-0.0543849
1.34927,-0.136578,0.363382
1.34078,-0.135719,-0.0313587
1.33954,-0.206893,-0.0394468
1.33734,-0.206554,-0.270642
1.35574,-0.2778,-0.0161113
1.33652,-0.140002,-0.209069
1.34507,-0.207747,-0.17324
1.32993,-0.0738888,0.00774147
1.35195,-0.208809,-0.0079507
1.34606,-0.275817,-0.128263
1.3479,-0.276194,0.0160181
1.34137,-0.14051,-0.0943108
1.33338,-0.0740805,0.038865
1.33121,-0.0739602,-0.0854473
1.34237,-0.140615,0.078604
1.33921,-0.140284,-0.062724
1.35436,-0.141871,0.167205
1.35647,-0.142092,0.365452
1.34949,-0.208429,0.248964
1.32948,-0.07852,-0.0232466
1.34671,-0.212816,-0.0396795
1.34049,-0.211833,-0.271426
1.33619,-0.144685,0
1.35084,-0.281714,-0.0160647
1.32817,-0.143816,-0.20784
1.33365,-0.0787665,0.00776472
1.35121,-0.213527,-0.0079507
1.34509,-0.280513,-0.128263
1.35476,-0.28253,0.0161113
1.35498,-0.214122,0.0239447
1.33892,-0.0790772,-0.0859589
1.33827,-0.211482,0.0551991
1.34269,-0.145388,-0.0629101
1.33656,-0.0789381,-0.0545478
1.35596,-0.146826,0.365452
1.34875,-0.213139,0.248964
1.34776,-0.145937,-0.0315448
1.32521,-0.0829105,-0.0231768
1.34596,-0.217516,-0.0396795
1.32068,-0.147671,-0.372014
1.3476,-0.150681,0
1.34985,-0.286427,-0.0160647
1.32766,-0.148451,-0.20784
1.33967,-0.216499,-0.172735
1.32539,-0.0829218,0.00771822
1.32799,-0.148489,-0.143938
1.35189,-0.28686,-0.129006
1.35376,-0.287258,0.0161113
1.34432,-0.150314,-0.0945898
1.32884,-0.0831377,0.0387486
1.35422,-0.218851,0.0239447
1.33465,-0.0835012,-0.0857031
1.34217,-0.150074,-0.0629101
1.35729,-0.151764,0.167692
1.33628,-0.0836031,-0.0545478
1.35188,-0.218473,0.249681
1.3289,-0.0877995,-0.0232466
1.34914,-0.222864,-0.0397958
1.31633,-0.151839,-0.370936
1.33898,-0.221186,-0.271426
1.33912,-0.154468,0
1.33891,-0.154443,-0.209684
1.33499,-0.220528,-0.17223
1.32509,-0.0875477,0.00771822
1.34574,-0.222303,-0.00792745
1.34699,-0.290737,-0.128635
1.35275,-0.291982,0.0161113
1.32854,-0.0877757,0.0387486
1.35345,-0.223577,0.0239447
1.33833,-0.0884226,-0.0859589
1.35836,-0.293192,-0.0809295
1.35272,-0.156037,0.0793016
1.34465,-0.222123,0.0555247
1.34561,-0.155216,-0.0630962
1.3528,-0.156046,0.167205
1.33996,-0.0885306,-0.0547106
1.3549,-0.156288,0.365452
1.3246,-0.0921601,-0.0231768
1.33652,-0.225576,-0.0394468
1.35049,-0.160558,0
1.33051,-0.158183,-0.208454
1.34595,-0.227167,-0.173745
1.32877,-0.0924502,0.00774147
1.34597,-0.295437,-0.128635
1.34782,-0.295844,0.0160647
1.34324,-0.159696,-0.0945898
1.34019,-0.0932452,0.0390977
1.35266,-0.2283,0.0239447
1.33403,-0.0928166,-0.0857031
1.3482,-0.160286,0.0790691
1.33992,-0.22615,0.0553619
1.34506,-0.159912,-0.0630962
1.33965,-0.0932073,-0.0547106
1.35051,-0.160561,0.364417
1.34365,-0.231364,-0.0396795
1.35854,-0.302924,-0.0162044
1.3339,-0.163074,-0.209069
1.34519,-0.231629,-0.173745
1.33244,-0.0971469,0.00776472
1.35602,-0.233494,-0.00799719
1.33429,-0.163121,-0.144795
1.35275,-0.301633,-0.129378
1.34683,-0.300312,0.0160647
1.3427,-0.164149,-0.0945898
1.3319,-0.0971075,0.038865
1.3519,-0.232784,0.0239447
1.3377,-0.0975302,-0.0859589
1.3431,-0.23127,0.0555247
1.34056,-0.163887,-0.0629101
1.35171,-0.165251,0.167205
1.33933,-0.0976493,-0.0547106
1.36915,-0.167383,0.369594
1.35344,-0.23305,0.250399
1.33191,-0.101784,-0.0233164
1.34283,-0.236053,-0.0396795
1.33663,-0.234962,-0.271426
1.33349,-0.16775,0
1.35358,-0.30678,-0.0161578
1.33333,-0.167729,-0.209069
1.34828,-0.237011,-0.17425
1.33209,-0.101797,0.00776472
1.35169,-0.306353,-0.129378
1.35358,-0.30678,0.0161578
1.34608,-0.169333,-0.0948688
1.33155,-0.101756,0.038865
1.35501,-0.238194,0.0240145
1.33735,-0.102199,-0.0859589
1.35917,-0.308047,-0.0811621
1.34622,-0.236649,0.0556876
1.3479,-0.169563,-0.0632823
1.35506,-0.170464,0.167692
1.335,-0.102019,-0.0545478
1.35262,-0.237773,0.250399
1.32756,-0.106114,-0.0232466
1.34594,-0.241445,-0.0397958
1.31411,-0.169974,-0.370936
1.34083,-0.17343,0
1.3525,-0.311503,-0.0161578
1.32489,-0.171368,-0.20784
1.34354,-0.241015,-0.173745
1.32774,-0.106128,0.00774147
1.35436,-0.242955,-0.00799719
1.3486,-0.310605,0.0161113
1.34152,-0.173519,-0.0945898
1.33517,-0.106722,0.0389813
1.33301,-0.106549,-0.0857031
1.35808,-0.312789,-0.0811621
1.3544,-0.175185,0.0795342
1.34539,-0.241347,0.0556876
1.34334,-0.173754,-0.0630962
1.35446,-0.175193,0.167692
1.3426,-0.107316,-0.0548734
1.35953,-0.243883,0.251834
1.33516,-0.111412,-0.0233862
1.34509,-0.246141,-0.0397958
1.31351,-0.17456,-0.370936
1.35211,-0.17969,0
1.35919,-0.318045,-0.016251
1.33604,-0.177554,-0.209684
1.32736,-0.110762,0.00774147
1.3535,-0.247682,-0.00799719
1.33251,-0.177085,-0.144795
1.34952,-0.315782,-0.129378
1.3514,-0.316222,0.0161578
1.34486,-0.178726,-0.0948688
1.33081,-0.11105,0.038865
1.35725,-0.248368,0.0240843
1.34058,-0.111865,-0.0862148
1.35378,-0.179912,0.0795342
1.34847,-0.246761,0.0558504
1.34273,-0.178442,-0.0630962
1.35778,-0.180443,0.16818
1.34222,-0.112001,-0.0548734
1.35867,-0.248627,0.251834
1.34778,-0.179114,-0.0316379
1.33077,-0.115726,-0.0233164
1.34422,-0.250835,-0.0397958
1.34355,-0.183327,0
1.35807,-0.322787,-0.016251
1.32758,-0.181148,-0.208454
1.34573,-0.251117,-0.17425
1.33095,-0.115741,0.00776472
1.33188,-0.181735,-0.144795
1.35229,-0.321412,-0.12975
1.35807,-0.322787,0.016251
1.35209,-0.252303,-0.112283
1.33838,-0.116387,0.0390977
1.33621,-0.116198,-0.0859589
1.35975,-0.323186,-0.0813946
1.34919,-0.184097,0.0793016
1.34367,-0.250733,0.0556876
1.3421,-0.183128,-0.0630962
1.35472,-0.252796,-0.0722236
1.34927,-0.184107,0.167205
1.34182,-0.116686,-0.0548734
1.33833,-0.121091,-0.023456
1.34333,-0.255526,-0.0397958
1.34092,-0.255067,-0.272995
1.3429,-0.188016,0
1.36471,-0.329403,-0.0163441
1.33085,-0.186329,-0.209069
1.34874,-0.256554,-0.174755
1.33851,-0.121107,0.00781121
1.35174,-0.257125,-0.00799719
1.35116,-0.32613,-0.12975
1.35442,-0.189628,0.031824
1.33963,-0.187558,-0.0945898
1.33797,-0.121058,0.0390977
1.35156,-0.25709,0.0240145
1.33579,-0.120861,-0.0859589
1.35862,-0.327931,-0.0813946
1.35645,-0.189912,0.0797667
1.34279,-0.255422,0.0556876
1.33749,-0.187258,-0.0629101
1.35648,-0.189917,0.16818
1.36463,-0.259577,0.253269
1.35046,-0.189074,-0.0317309
1.32993,-0.125013,-0.0233164
1.34243,-0.260213,-0.0397958
1.31542,-0.188853,-0.372014
1.34388,-0.260493,-0.27378
1.34224,-0.192702,0
1.36356,-0.334164,-0.0163441
1.33411,-0.191535,-0.209684
1.34206,-0.126153,0.00783446
1.35476,-0.262603,-0.00802044
1.35388,-0.331792,-0.130122
1.35967,-0.333212,0.0162975
1.34687,-0.193367,-0.0951478
1.35458,-0.262567,0.0240843
1.34331,-0.126271,-0.0864706
1.35746,-0.332671,-0.0813946
1.35578,-0.194646,0.0797667
1.34581,-0.260868,0.0558504
