1.95001,0.441242,-0.186632
1.98633,0.449461,-0.118604
1.96709,0.437894,-0.188119
1.98789,0.442525,-0.118604
1.96082,0.429323,-0.187375
1.96231,0.422475,-0.187375
2.00481,0.431625,-0.0716138
1.96377,0.415622,-0.187375
1.99241,0.421684,-0.118604
1.95741,0.407143,-0.186632
1.99387,0.414727,-0.118604
1.96273,0.401105,-0.187003
1.9914,0.406964,-0.118371
1.96411,0.394252,-0.187003
1.97316,0.389622,-0.187747
1.96668,0.381216,-0.187003
1.99542,0.386785,-0.118371
2.02757,0.385314,-0.0240272
1.96416,0.373262,-0.186632
1.99682,0.37947,-0.118371
1.96936,0.367133,-0.187003
2.02621,0.370784,-0.0239806
1.96665,0.359884,-0.186632
1.96423,0.459622,-0.164682
2.02356,0.363002,-0.0239341
1.97574,0.354423,-0.187375
1.96194,0.451867,-0.164356
2.02882,0.356275,-0.0239806
1.97702,0.34718,-0.187375
1.96358,0.444674,-0.164356
2.03393,0.350223,-0.0240272
1.96639,0.338594,-0.18626
1.96115,0.437292,-0.164031
2.00308,0.344911,-0.118371
2.03514,0.343122,-0.0240272
1.97541,0.333052,-0.187003
2.05091,0.345782,0.0242135
1.97046,0.432152,-0.164682
2.00427,0.337918,-0.118371
2.02454,0.333709,-0.0238875
1.97662,0.325809,-0.187003
1.97203,0.424926,-0.164682
1.9915,0.429121,-0.106765
2.02953,0.327985,-0.0239341
1.9737,0.318963,-0.186632
1.96555,0.417074,-0.164031
2.00652,0.324267,-0.118371
2.02671,0.320274,-0.0238875
2.04646,0.323395,0.0241203
1.9709,0.411024,-0.164356
1.99777,0.408632,-0.0593447
2.03978,0.314318,-0.0240272
1.97599,0.304487,-0.186632
1.97246,0.403455,-0.164356
1.99197,0.407444,-0.106556
2.04076,0.307908,-0.0240272
1.98087,0.298872,-0.187003
2.04867,0.309102,0.0241203
1.96981,0.396469,-0.164031
1.99715,0.401972,-0.106765
2.03396,0.299261,-0.0239341
1.98195,0.291609,-0.187003
2.05375,0.302172,0.0241669
1.97125,0.389246,-0.164031
1.99469,0.393875,-0.106556
2.035,0.292159,-0.0239341
1.93995,0.376033,-0.251526
1.98296,0.284688,-0.187003
2.05875,0.29557,0.0242135
1.9726,0.382362,-0.164031
1.99606,0.386909,-0.106556
2.03595,0.28541,-0.0239341
1.98784,0.278664,-0.187375
2.05972,0.288741,0.0242135
1.97386,0.375819,-0.164031
1.99733,0.380288,-0.106556
2.0409,0.278843,-0.0239806
1.9809,0.270646,-0.186632
2.06071,0.28155,0.0242135
1.97908,0.369659,-0.164356
2.00583,0.367054,-0.0593447
2.03398,0.270307,-0.0238875
2.02238,0.370083,-0.0119493
1.98583,0.263909,-0.187003
2.05777,0.273469,0.0241669
1.98434,0.363121,-0.164682
2.00393,0.366706,-0.106765
2.03878,0.26443,-0.0239341
1.94879,0.350292,-0.252031
1.98665,0.257668,-0.187003
2.05862,0.267002,0.0241669
1.97762,0.355474,-0.164031
2.00114,0.359701,-0.106556
2.00434,0.352699,-0.0592283
2.03577,0.256456,-0.0238875
1.95397,0.343835,-0.252536
1.99153,0.250883,-0.187375
2.06355,0.259956,0.0242135
1.97499,0.347533,-0.163705
2.00244,0.352365,-0.106556
2.00562,0.345351,-0.0592283
2.04464,0.249964,-0.0239806
1.95522,0.336672,-0.252536
2.03797,0.350921,-0.012019
1.98849,0.2431,-0.187003
2.06449,0.252391,0.0242135
1.96678,0.438547,-0.140908
1.9841,0.341645,-0.164356
2.04153,0.242354,-0.0239341
1.95638,0.329844,-0.252536
1.98932,0.236156,-0.187003
2.06536,0.245183,0.0242135
1.9644,0.430824,-0.140629
1.98528,0.334717,-0.164356
2.05022,0.236856,-0.0240272
1.95741,0.323696,-0.252536
1.99005,0.229905,-0.187003
2.06214,0.238233,0.0241669
1.96574,0.42465,-0.140629
2.04309,0.228808,-0.0239341
1.9948,0.223401,-0.187375
2.06694,0.231479,0.0242135
1.98746,0.321543,-0.164356
1.98943,0.422503,-0.0947374
2.00711,0.324722,-0.106556
2.04789,0.221749,-0.0239806
1.95576,0.309061,-0.252031
1.99561,0.216087,-0.187375
1.98863,0.314256,-0.164356
1.99878,0.416839,-0.0951096
2.04464,0.214539,-0.0239341
1.95677,0.302574,-0.252031
2.04368,0.316013,-0.012019
1.99631,0.209469,-0.187375
1.98572,0.30705,-0.164031
1.98841,0.407801,-0.0945512
2.05337,0.20785,-0.0240272
1.95786,0.295401,-0.252031
2.04482,0.308521,-0.012019
1.99707,0.202151,-0.187375
1.97155,0.396819,-0.140629
1.98289,0.299176,-0.163705
1.98598,0.399722,-0.0943651
1.96281,0.289142,-0.252536
2.04589,0.301381,-0.012019
2.06602,0.201847,0.0241669
1.97292,0.389934,-0.140629
1.99181,0.293414,-0.164356
1.99128,0.393562,-0.0945512
2.0115,0.296315,-0.106556
2.01438,0.289918,-0.0592283
2.04677,0.193116,-0.0239341
1.96376,0.282631,-0.252536
2.04687,0.294594,-0.012019
1.99443,0.188178,-0.187003
2.07066,0.19537,0.0242135
1.97421,0.383389,-0.140629
1.98882,0.286239,-0.164031
2.00434,0.389241,-0.0951096
2.0233,0.283997,-0.0594611
2.04743,0.185972,-0.0239341
1.95687,0.274673,-0.251526
1.94943,0.371523,-0.213766
2.07133,0.188142,0.0242135
1.98981,0.279296,-0.164031
2.00176,0.381495,-0.0949235
2.0191,0.3848,-0.047829
2.05205,0.179171,-0.0239806
1.96568,0.268916,-0.252536
2.04888,0.280298,-0.012019
1.94681,0.363984,-0.213337
1.99967,0.174597,-0.187375
2.07198,0.18091,0.0242135
1.97684,0.369598,-0.140629
1.99077,0.272348,-0.164031
2.06445,0.282428,0.0363708
2.02485,0.176796,-0.118371
1.99915,0.373771,-0.0947374
2.0165,0.377014,-0.047736
1.96661,0.262053,-0.252536
2.04588,0.272616,-0.0119958
1.94807,0.357187,-0.213337
2.06861,0.173343,0.0241669
1.97811,0.362696,-0.140629
1.99566,0.265925,-0.164356
2.07591,0.276618,0.0853225
2.00831,0.368232,-0.0951096
2.0222,0.262279,-0.0593447
2.05724,0.165161,-0.0240272
1.96751,0.255186,-0.252536
1.99687,0.160313,-0.187003
2.0692,0.166121,0.0241669
1.97544,0.355082,-0.14035
1.99658,0.258956,-0.164356
2.08083,0.269884,0.0854853
2.00171,0.359805,-0.0947374
2.01632,0.261517,-0.106556
2.05781,0.157978,-0.0240272
2.0517,0.258826,-0.012019
1.95051,0.343577,-0.213337
2.07376,0.159203,0.0242135
1.97667,0.348184,-0.14035
1.99747,0.251985,-0.164356
1.96974,0.447152,-0.12945
2.08176,0.262618,0.0854853
2.00296,0.352815,-0.0947374
2.05435,0.150502,-0.0239806
1.96531,0.240961,-0.252031
2.0743,0.151963,0.0242135
1.98574,0.342639,-0.140908
1.99438,0.244526,-0.164031
2.08266,0.25535,0.0854853
2.00812,0.346501,-0.0949235
2.02876,0.241916,-0.0594611
2.04298,0.345545,0
2.05883,0.143968,-0.0240272
1.9661,0.234443,-0.252031
2.05342,0.244856,-0.012019
2.00636,0.140299,-0.187747
2.07878,0.145363,0.02426
1.98293,0.335387,-0.140629
1.99914,0.238384,-0.164356
2.08747,0.248916,0.0856481
2.01891,0.240741,-0.106556
2.02666,0.342784,-0.047829
2.04418,0.338411,0
2.05932,0.13678,-0.0240272
1.9669,0.227578,-0.252031
2.00286,0.13303,-0.187375
2.07529,0.13784,0.0242135
1.98408,0.328463,-0.140629
2.07244,0.23979,0.0849968
2.00254,0.331519,-0.0945512
2.03751,0.32964,0
2.05981,0.129232,-0.0240272
1.96378,0.219927,-0.251526
2.05512,0.230156,-0.012019
1.95512,0.316311,-0.213337
2.00333,0.125689,-0.187375
2.07179,0.129983,0.0241669
1.98921,0.321827,-0.140908
2.00079,0.224072,-0.164356
1.97579,0.419607,-0.12945
2.08125,0.233082,0.0853225
2.00769,0.324816,-0.0947374
2.02058,0.226287,-0.106556
1.98602,0.42178,-0.0827172
2.02906,0.328273,-0.047829
2.03859,0.322881,0
2.05224,0.121926,-0.0239341
1.96844,0.213841,-0.252031
2.07221,0.123112,0.0241669
1.99756,0.217005,-0.164031
1.97326,0.412236,-0.129194
2.08201,0.226179,0.0853225
2.0127,0.318781,-0.0949235
2.02399,0.212729,-0.0592283
1.92701,0.202537,-0.387528
2.0397,0.315762,0
2.06464,0.11543,-0.0240738
1.97312,0.207383,-0.252536
2.08061,0.116323,0.02426
1.99136,0.308278,-0.140908
2.00227,0.210447,-0.164356
2.07227,0.217803,0.0363708
2.08677,0.219327,0.0854853
1.98885,0.408251,-0.0827172
2.03125,0.314453,-0.047829
2.03684,0.308044,0
2.05704,0.107805,-0.0239806
1.93837,0.293152,-0.304995
1.97384,0.200496,-0.252536
2.05738,0.208982,-0.012019
2.081,0.109061,0.02426
1.98848,0.30073,-0.140629
2.003,0.203458,-0.164356
1.97218,0.397662,-0.128938
2.03376,0.106585,-0.118604
2.08752,0.212043,0.0854853
1.99418,0.402097,-0.08288
2.03233,0.307362,-0.047829
2.00869,0.397732,-0.0357425
2.02543,0.198595,-0.0592283
2.04582,0.3021,0
2.0614,0.100819,-0.0240272
1.97452,0.193604,-0.252536
2.0009,0.0978605,-0.187003
2.07738,0.101601,0.0242135
1.98951,0.293786,-0.140629
2.00369,0.196464,-0.164356
1.97356,0.390775,-0.128938
2.08427,0.204364,0.0853225
2.01593,0.297687,-0.0949235
2.02351,0.198407,-0.106556
1.99557,0.395134,-0.08288
2.02611,0.191524,-0.0592283
1.92512,0.181978,-0.386743
2.03894,0.293816,0
2.05774,0.093442,-0.0239806
1.93646,0.279049,-0.30438
1.97124,0.186337,-0.252031
1.96029,0.282483,-0.213337
2.00521,0.0910565,-0.187375
2.06609,0.297729,0.0485734
2.07372,0.0941678,0.0241669
1.98658,0.286271,-0.14035
2.00437,0.189469,-0.164356
1.97883,0.384646,-0.129194
2.08099,0.196712,0.0851596
2.01696,0.290648,-0.0949235
2.02419,0.191343,-0.106556
2.10756,0.199224,0.172818
2.00086,0.388928,-0.0830429
2.03443,0.293166,-0.047829
2.02676,0.18445,-0.0592283
1.92965,0.175612,-0.387528
2.05184,0.288367,0
2.06205,0.0864256,-0.0240272
1.96521,0.276192,-0.213766
2.07803,0.0870955,0.0242135
1.98757,0.279334,-0.14035
2.00502,0.182471,-0.164356
1.97624,0.376987,-0.128938
2.08962,0.190171,0.0854853
2.02882,0.184637,-0.106765
2.01668,0.37741,-0.0358123
1.93025,0.168875,-0.387528
2.0449,0.280116,0
2.06634,0.0793801,-0.0240738
1.97644,0.172916,-0.252536
1.96222,0.26879,-0.213337
2.08632,0.0801478,0.0243066
2.00039,0.274019,-0.141187
2.00564,0.17547,-0.164356
1.97754,0.370086,-0.128938
2.09426,0.183223,0.0856481
1.99567,0.373479,-0.0827172
2.03643,0.278955,-0.047829
2.01405,0.369647,-0.0357425
2.03995,0.1713,-0.0595774
1.92692,0.161808,-0.386743
2.04983,0.273506,0
2.0666,0.0721672,-0.0240738
1.93144,0.257709,-0.303151
1.97308,0.165684,-0.252031
2.06071,0.173043,-0.012019
2.07859,0.072586,0.0242135
1.99342,0.265979,-0.140629
2.00624,0.168469,-0.164356
2.08036,0.174693,0.0364406
2.0393,0.0712139,-0.118836
1.99303,0.365789,-0.0825544
2.03739,0.271846,-0.047829
1.93139,0.155396,-0.387528
2.07084,0.0650791,-0.0241203
1.9776,0.159114,-0.252536
2.01026,0.0631755,-0.187747
2.08683,0.0655816,0.0243066
1.99434,0.25902,-0.140629
2.00682,0.161465,-0.164356
1.984,0.356979,-0.129194
2.03954,0.0640954,-0.118836
2.0915,0.168279,0.0854853
2.02082,0.262459,-0.0949235
2.03064,0.163382,-0.106765
2.11014,0.169778,0.172818
1.99823,0.359538,-0.0827172
2.03832,0.264732,-0.047829
2.01658,0.355578,-0.0357425
1.93192,0.148654,-0.387528
2.05169,0.25919,0
2.07105,0.0578505,-0.0241203
1.93712,0.244715,-0.303765
1.97419,0.151906,-0.252031
2.01047,0.0561584,-0.187747
2.08305,0.0581856,0.02426
1.99523,0.252057,-0.140629
2.08153,0.160166,0.0364406
2.08809,0.160671,0.0853225
2.02172,0.255404,-0.0949235
2.02722,0.155987,-0.106556
2.11072,0.162412,0.172818
1.99947,0.352561,-0.0827172
2.03924,0.257616,-0.047829
2.01781,0.348536,-0.0357425
2.03765,0.149636,-0.0594611
1.9246,0.141334,-0.385959
2.04862,0.251539,0
2.07124,0.0506203,-0.0241203
1.96578,0.241368,-0.213337
2.01464,0.0492369,-0.188119
2.08324,0.0509135,0.02426
1.9961,0.24509,-0.140629
2.0079,0.147451,-0.164356
1.98252,0.34244,-0.128938
2.09262,0.153673,0.0854853
2.02775,0.148909,-0.106556
1.99675,0.344899,-0.0825544
2.01889,0.342196,-0.0357425
1.92895,0.135562,-0.386743
2.0494,0.245102,0
2.06739,0.0440283,-0.0240738
1.97911,0.139088,-0.252536
2.03888,0.345584,0.012019
1.97443,0.236136,-0.214194
2.01876,0.0429927,-0.188491
2.08339,0.044369,0.02426
1.99686,0.238819,-0.140629
2.01233,0.141422,-0.164682
2.07856,0.146077,0.0363708
1.98358,0.33621,-0.128938
2.10144,0.251326,0.123255
2.09708,0.147379,0.0856481
2.02337,0.241989,-0.0949235
2.03219,0.142818,-0.106765
1.99782,0.338625,-0.0825544
2.0409,0.244086,-0.047829
2.02008,0.335146,-0.0357425
2.04259,0.136385,-0.0595774
2.05024,0.237946,0
2.07553,0.0369533,-0.0241669
1.93949,0.225093,-0.303765
1.98354,0.132442,-0.253042
2.04008,0.338465,0.012019
2.06337,0.137772,-0.012019
2.0189,0.0359451,-0.188491
1.99768,0.231846,-0.140629
2.01281,0.134396,-0.164682
1.98868,0.329937,-0.129194
2.04421,0.0363957,-0.119069
2.09437,0.243068,0.12279
2.0936,0.139791,0.0854853
2.0242,0.234925,-0.0949235
2.03268,0.135723,-0.106765
2.00294,0.332303,-0.0827172
2.01729,0.327452,-0.0356727
2.03507,0.128749,-0.0593447
1.93376,0.12234,-0.387528
2.05503,0.231236,0
1.94027,0.218322,-0.303765
1.98399,0.125518,-0.253042
2.04125,0.331342,0.012019
2.01105,0.028784,-0.187747
2.07434,0.233409,0.0485734
2.08764,0.0298803,0.0243066
2.00244,0.225318,-0.140908
1.98982,0.322994,-0.129194
2.04433,0.0292603,-0.119069
2.10314,0.236649,0.123255
2.09806,0.132735,0.0856481
2.02501,0.227858,-0.0949235
2.00803,0.32595,-0.08288
1.92635,0.115121,-0.385959
2.05185,0.223627,0
2.07574,0.0224625,-0.0241669
1.94102,0.211548,-0.303765
2.04634,0.324841,0.0120423
2.06827,0.123603,-0.0120423
2.01114,0.0217634,-0.187747
2.07974,0.0225058,0.0242135
1.99528,0.217462,-0.14035
2.0137,0.120341,-0.164682
2.05736,0.32659,0.0606247
1.99488,0.316671,-0.12945
2.09999,0.228873,0.123022
2.09452,0.125171,0.0854853
2.02579,0.220787,-0.0949235
2.03358,0.121529,-0.106765
2.11717,0.126525,0.173144
2.00916,0.318938,-0.08288
2.01952,0.31336,-0.0356727
1.92674,0.108395,-0.385959
2.04864,0.216043,0
2.0638,0.0151282,-0.0240272
1.98482,0.111663,-0.253042
2.04746,0.317695,0.0120423
1.96962,0.20771,-0.213337
2.01917,0.014801,-0.188491
2.0798,0.0152455,0.0242135
2,0.210914,-0.140629
2.0141,0.113311,-0.164682
2.08838,0.117489,0.0365104
1.99597,0.309706,-0.12945
2.04049,0.0149573,-0.118836
2.10474,0.22196,0.123255
2.09894,0.118083,0.0856481
2.03399,0.114429,-0.106765
2.00631,0.311309,-0.0827172
1.93102,0.101877,-0.386743
2.05734,0.209703,0
2.07584,0.00797158,-0.0241669
1.93852,0.197592,-0.303151
1.98124,0.104527,-0.252536
2.04065,0.309349,0.0119958
1.97429,0.201238,-0.213766
2.01921,0.00775408,-0.188491
2.08065,0.21208,0.0486665
2.08784,0.00801766,0.0243066
2.00469,0.204337,-0.140908
2.01449,0.106281,-0.164682
2.0768,0.109568,0.036301
1.9852,0.300943,-0.128683
2.09934,0.110757,0.0856481
2.03836,0.10754,-0.106975
2.00343,0.303707,-0.0825544
2.04465,0.100716,-0.0595774
1.93528,0.0953285,-0.387528
2.06204,0.202912,0
2.07586,0.000724924,-0.0241669
1.94313,0.19121,-0.303765
1.98555,0.0978048,-0.253042
2.04568,0.302809,0.012019
2.06946,0.101938,-0.0120423
1.97498,0.194345,-0.213766
2.0232,0.000706536,-0.188862
2.08138,0.204815,0.0486665
2.08786,0.000729114,0.0243066
2.00142,0.196947,-0.140629
2.01883,0.0994439,-0.165007
2.05275,0.303857,0.060392
1.98624,0.294011,-0.128683
2.04853,0.000715379,-0.119301
2.09829,0.206479,0.12279
2.09971,0.103428,0.0856481
2.01239,0.297881,-0.08288
2.04158,0.200899,-0.047736
2.03061,0.29334,-0.0358123
1.93952,0.0887522,-0.388312
2.05875,0.195335,0
2.07585,-0.00652074,-0.0241669
1.94378,0.184427,-0.303765
1.98192,0.0906923,-0.252536
2.04276,0.295095,0.0119958
2.0738,0.0948966,-0.0120655
1.97169,0.187075,-0.213337
2.08208,0.197549,0.0486665
2.08785,-0.00655843,0.0243066
2.00607,0.190337,-0.140908
2.01916,0.0923967,-0.165007
2.0538,0.29669,0.060392
2.0855,0.0954322,0.0364406
1.9912,0.287647,-0.128938
2.10298,0.199531,0.123022
2.10006,0.0960984,0.0856481
2.03907,0.0933074,-0.106975
2.12271,0.097135,0.173469
2.01341,0.290855,-0.08288
2.04227,0.193772,-0.047736
2.03162,0.286249,-0.0358123
2.04131,0.0862704,-0.0594611
1.9359,0.0818153,-0.387528
2.05942,0.188147,0
2.07581,-0.0137673,-0.0241669
1.94048,0.177281,-0.303151
1.98619,0.0839406,-0.253042
2.04774,0.28852,0.012019
2.08276,0.190279,0.0486665
2.08381,-0.0138204,0.02426
2.00275,0.18297,-0.140629
2.05878,0.290076,0.0605083
1.99615,0.281251,-0.129194
2.10764,0.192552,0.123255
2.10437,0.0889355,0.085811
2.03938,0.0861886,-0.106975
2.01046,0.283267,-0.0827172
2.04692,0.187005,-0.047829
2.02468,0.278067,-0.0356727
2.0416,0.0791438,-0.0594611
1.94009,0.0752087,-0.388312
2.05608,0.180607,0
2.07175,-0.0209732,-0.0241203
1.99043,0.0771602,-0.253547
2.04873,0.28137,0.012019
2.07441,0.0804155,-0.0120655
1.97295,0.173304,-0.213337
2.0231,-0.0204807,-0.188862
2.08341,0.183007,0.0486665
2.09175,-0.0211757,0.0243531
2.00338,0.175977,-0.140629
2.01976,0.0782971,-0.165007
2.05582,0.282344,0.060392
1.99316,0.273738,-0.128938
2.10432,0.184844,0.123022
2.10068,0.0814339,0.0856481
2.03395,0.178663,-0.0951096
2.03967,0.0790688,-0.106975
2.1515,0.188988,0.265188
2.00748,0.275703,-0.0825544
2.04756,0.179858,-0.047829
2.03357,0.272059,-0.0358123
2.04586,0.0721582,-0.0595774
1.94034,0.0684365,-0.388312
2.0567,0.173429,0
2.07567,-0.0282589,-0.0241669
1.94561,0.164061,-0.303765
1.98673,0.0700724,-0.253042
2.0497,0.274217,0.012019
1.9775,0.166751,-0.213766
2.08766,-0.0284222,0.0243066
2,0.168648,-0.14035
2.02002,0.0712467,-0.165007
2.09438,0.0738694,0.0365802
1.99015,0.26625,-0.128683
2.05233,-0.0279412,-0.119534
2.10095,0.0741011,0.0856481
2.03058,0.171227,-0.0949235
2.03993,0.071949,-0.106975
2.1561,0.181811,0.265675
2.01239,0.269225,-0.0827172
2.05011,0.064786,-0.0596938
1.9445,0.0614486,-0.389097
2.06131,0.166212,0
2.07955,-0.0359351,-0.0242135
1.983,0.0626653,-0.252536
2.05069,0.266703,0.012019
2.07493,0.0655703,-0.0120655
2.09555,-0.0362115,0.0243997
2.00856,0.161958,-0.140908
2.02425,0.0639689,-0.165333
2.06176,0.268142,0.0605083
1.99111,0.258954,-0.128683
2.04423,-0.0353247,-0.119069
2.09763,0.16914,0.122557
2.1052,0.066527,0.085811
2.04417,0.0645984,-0.107184
2.16071,0.174227,0.266163
2.01336,0.261848,-0.0827172
2.04481,0.164881,-0.047736
2.02744,0.257204,-0.0356727
2.04231,0.058117,-0.0594611
1.94468,0.055339,-0.389097
2.0698,0.160352,0
2.07543,-0.0423869,-0.0241669
1.94668,0.150814,-0.303765
2.05549,0.260762,0.0120423
2.07912,0.0591646,-0.0120888
2.02278,-0.0413117,-0.188862
2.08519,0.161545,0.0486665
2.09142,-0.0427136,0.0243531
2.00906,0.155647,-0.140908
2.02444,0.0576086,-0.165333
2.06656,0.262166,0.0606247
2.09483,0.0596117,0.0365802
1.99984,0.253702,-0.129194
2.10611,0.163166,0.123022
2.09741,0.059685,0.0854853
2.03569,0.15771,-0.0951096
2.04037,0.0580619,-0.106975
2.16124,0.167437,0.266163
2.12407,0.0604437,0.173469
2.0221,0.256527,-0.0830429
2.05329,0.159074,-0.0479221
2.02832,0.250125,-0.0356727
1.94487,0.0485508,-0.389097
2.06237,0.152537,0
2.07926,-0.0497264,-0.0242135
1.94719,0.144018,-0.303765
1.99131,0.0497102,-0.253547
2.04845,0.252607,0.0119958
2.07932,0.0519072,-0.0120888
2.02661,-0.0484671,-0.189234
2.09526,-0.0501089,0.0243997
2.00561,0.148339,-0.140629
2.02463,0.0505421,-0.165333
2.06746,0.254951,0.0606247
2.00071,0.24672,-0.129194
2.1016,0.0524635,0.0856481
2.03622,0.150603,-0.0951096
2.04056,0.0509398,-0.106975
2.15786,0.159599,0.265675
2.01902,0.248978,-0.08288
2.05383,0.151906,-0.0479221
2.03324,0.24281,-0.0357425
2.04668,0.04323,-0.0595774
1.94112,0.0410003,-0.388312
2.06693,0.144897,0
2.07106,-0.0574874,-0.0241203
1.99148,0.0420642,-0.253547
2.0494,0.24474,0.0119958
2.0795,0.0439233,-0.0120888
1.97966,0.138779,-0.213766
2.03039,-0.0563584,-0.189606
2.08631,0.146256,0.0486665
2.09505,-0.0581533,0.0243997
2.00617,0.140637,-0.140629
2.01684,0.0425998,-0.164682
2.06048,0.246063,0.060392
2.00164,0.239037,-0.129194
2.05572,-0.0570616,-0.119766
2.10725,0.147724,0.123022
2.10578,0.0444784,0.085811
2.02882,0.142225,-0.0947374
2.03675,0.0430203,-0.106765
2.15449,0.151036,0.265188
2.01599,0.24075,-0.0827172
2.0544,0.144019,-0.0479221
2.03002,0.23596,-0.0356727
2.0468,0.0368004,-0.0595774
1.94516,0.0349728,-0.389097
2.06338,0.138136,0
2.07887,-0.0642402,-0.0242135
1.99161,0.035808,-0.253547
2.04619,0.237839,0.0119725
2.07563,0.0373186,-0.0120655
2.09886,-0.0648579,0.0244463
2.01456,0.134868,-0.141187
2.02494,0.0364072,-0.165333
2.06124,0.239589,0.060392
2.09934,0.037745,0.0366501
1.99842,0.232286,-0.128938
2.11567,0.141637,0.123487
2.10591,0.0378631,0.085811
2.04486,0.0367655,-0.107184
2.16288,0.144797,0.266163
2.01674,0.234416,-0.0827172
2.05484,0.137564,-0.0479221
2.03481,0.22932,-0.0357425
2.05092,0.0297128,-0.0596938
1.94135,0.0281254,-0.388312
2.06784,0.131185,0
2.08662,-0.0717719,-0.0243066
1.94859,0.12362,-0.303765
1.99172,0.0288552,-0.253547
2.05496,0.231591,0.012019
2.07575,0.0300726,-0.0120655
1.98054,0.125647,-0.213766
2.10661,-0.0724594,0.0245394
2.01104,0.127582,-0.140908
2.02505,0.0293381,-0.165333
2.06207,0.232392,0.060392
2.09946,0.0304161,0.0366501
1.99922,0.225309,-0.128938
2.0553,-0.0706945,-0.119766
2.11615,0.13425,0.123487
2.11003,0.0305692,0.0859738
2.0337,0.129019,-0.0949235
2.16733,0.137497,0.26665
2.01754,0.227374,-0.0827172
2.05531,0.13039,-0.0479221
2.03162,0.221781,-0.0356727
2.04701,0.0225091,-0.0595774
1.94535,0.0213913,-0.389097
2.06829,0.123966,0
2.08636,-0.0790557,-0.0243066
1.95296,0.117054,-0.30438
1.99578,0.0219457,-0.254052
2.05575,0.224415,0.012019
2.07984,0.0228701,-0.0120888
2.02573,-0.0767585,-0.189234
2.09168,0.125368,0.0487595
2.10635,-0.079813,0.0245394
2.01545,0.120799,-0.141187
2.02514,0.0222686,-0.165333
2.06684,0.225626,0.0605083
2.00396,0.218761,-0.129194
2.05903,-0.0780202,-0.119999
2.11262,0.126623,0.123255
2.10213,0.0231152,0.0856481
2.03813,0.122158,-0.0951096
2.04507,0.0224878,-0.107184
2.12879,0.0234084,0.173795
2.0223,0.220763,-0.08288
2.03238,0.214688,-0.0356727
2.04708,0.015364,-0.0595774
1.94542,0.014601,-0.389097
2.06072,0.116295,0
2.08208,-0.0861722,-0.02426
1.94941,0.110013,-0.303765
1.99584,0.0149795,-0.254052
2.05255,0.216818,0.0119958
2.07991,0.0156104,-0.0120888
1.98137,0.111817,-0.213766
2.03341,-0.0841581,-0.189978
2.09007,-0.086503,0.0243531
2.00789,0.113314,-0.140629
2.07159,0.21883,0.0606247
2.09962,0.0157584,0.0366501
2.00471,0.211765,-0.129194
2.11305,0.119248,0.123255
2.1022,0.0157777,0.0856481
2.03455,0.114818,-0.0949235
2.04514,0.0153494,-0.107184
2.16031,0.121916,0.265675
2.02306,0.213703,-0.08288
2.05617,0.116038,-0.0479221
2.0371,0.207998,-0.0357425
1.94546,0.00780964,-0.389097
2.0691,0.109524,0
2.08176,-0.09344,-0.02426
1.99588,0.00801206,-0.254052
2.06125,0.210464,0.0120423
1.98572,0.10511,-0.214194
2.02913,-0.0910774,-0.189606
2.09775,-0.0941574,0.0244463
2.01226,0.106515,-0.140908
2.02525,0.00812994,-0.165333
2.06837,0.211191,0.0605083
2.00544,0.204766,-0.129194
2.11346,0.111871,0.123255
2.10624,0.00845506,0.085811
2.03893,0.107926,-0.0951096
2.04917,0.00822598,-0.107393
2.15676,0.114164,0.265188
2.01981,0.206234,-0.0827172
2.03383,0.200494,-0.0356727
1.94939,0.00102114,-0.389881
2.06548,0.102103,0
2.08142,-0.100706,-0.02426
1.95013,0.0964013,-0.303765
1.9959,0.0010455,-0.254052
2.05401,0.202484,0.0119958
2.07996,0.00108954,-0.0120888
1.9821,0.0979816,-0.213766
2.0288,-0.0981594,-0.189606
2.09341,-0.101286,0.0243997
2.01262,0.0994904,-0.140908
2.06909,0.20397,0.0605083
2.09968,0.00109987,0.0366501
2.00217,0.197373,-0.128938
2.11425,0.0011075,0.0861366
2.04919,0.00107342,-0.107393
2.16508,0.107027,0.266163
2.01654,0.19879,-0.0825544
2.06093,0.101878,-0.0480151
2.03452,0.193393,-0.0356727
1.94939,-0.00578403,-0.389881
2.06982,0.0950758,0
2.08505,-0.108178,-0.0243066
1.99986,-0.00593378,-0.254557
2.0547,0.195312,0.0119958
2.07596,-0.00615958,-0.0120655
2.03242,-0.105448,-0.189978
2.09704,-0.1088,0.0244463
2.01296,0.0924639,-0.140908
2.02924,-0.00602097,-0.165658
2.06979,0.196746,0.0605083
2.09967,-0.00622995,0.0366501
2.00284,0.190383,-0.128938
2.05774,-0.106761,-0.119999
2.1102,0.0969306,0.123022
2.11024,-0.00626131,0.0859738
2.04363,0.0938727,-0.0952957
2.02518,0.192506,-0.08288
2.05727,0.0944996,-0.0479221
2.03916,0.186655,-0.0357425
2.05109,-0.0132452,-0.0596938
1.94935,-0.0125882,-0.389881
2.07813,0.0881898,0
2.09265,-0.115898,-0.0243997
1.95865,0.0831196,-0.304995
1.99982,-0.0129141,-0.254557
2.05936,0.188504,0.012019
2.08792,-0.013483,-0.0121353
2.02806,-0.112321,-0.189606
2.08955,0.0886746,0.0486665
2.09664,-0.116119,0.0244463
2.01327,0.0854373,-0.140908
2.02921,-0.0131039,-0.165658
2.07046,0.18952,0.0605083
2.09964,-0.0135587,0.0366501
2.01145,0.184118,-0.12945
2.1185,0.0899031,0.123487
2.1142,-0.0136528,0.0861366
2.04394,0.086739,-0.0952957
2.05314,-0.0132584,-0.107603
2.1737,0.0922458,0.267138
2.02584,0.185436,-0.08288
2.0536,0.0871487,-0.047829
2.0398,0.179537,-0.0357425
1.94538,-0.0193532,-0.389097
2.06643,0.0804688,0
2.08824,-0.122966,-0.0243531
1.95498,0.0761288,-0.30438
2.06399,0.181665,0.0120423
2.08786,-0.0207707,-0.0121353
1.98699,0.0773752,-0.214194
2.03163,-0.119633,-0.189978
2.09784,0.0816918,0.0488526
2.09623,-0.123437,0.0244463
2.01355,0.0784096,-0.140908
2.0751,0.182643,0.0606247
2.01208,0.177096,-0.12945
2.12279,0.0826634,0.12372
2.11414,-0.0210322,0.0861366
2.04024,0.0794488,-0.0951096
2.04909,-0.020385,-0.107393
2.17005,0.0845035,0.26665
2.13679,-0.0212574,0.174445
2.02648,0.178364,-0.08288
2.05788,0.0801358,-0.0479221
2.04039,0.172771,-0.0357425
2.05895,-0.0273123,-0.0599265
1.94922,-0.0258568,-0.389881
2.06669,0.0736152,0
2.08383,-0.129643,-0.0243066
1.95522,0.0696448,-0.30438
2.06059,0.174482,0.012019
2.08778,-0.0276948,-0.0121353
1.98724,0.0707851,-0.214194
2.0352,-0.126617,-0.190349
2.0981,0.0747341,0.0488526
2.0998,-0.130636,0.0244928
2.0138,0.0717314,-0.140908
2.02907,-0.026916,-0.165658
2.07171,0.175423,0.0605083
2.10749,-0.0279563,0.0367897
2.00868,0.170086,-0.129194
2.11006,-0.0279904,0.0859738
2.0365,0.0725398,-0.0949235
2.04901,-0.0271804,-0.107393
2.16238,0.0770237,0.265675
2.15265,-0.0285553,0.175747
2.02706,0.171642,-0.08288
2.05814,0.0733106,-0.0479221
2.04496,0.16597,-0.0358123
2.05484,-0.0344328,-0.0598101
1.95696,-0.0327926,-0.39145
2.07493,0.066657,0
2.08736,-0.137179,-0.0243531
1.95546,0.0628189,-0.30438
1.99958,-0.0335068,-0.254557
2.06517,0.167611,0.0120423
2.08767,-0.0349829,-0.0121353
2.03475,-0.133721,-0.190349
2.10332,-0.138228,0.0245394
2.01803,0.0648291,-0.141187
2.02896,-0.0339991,-0.165658
2.00528,0.16275,-0.128938
2.06404,-0.135647,-0.120464
2.11931,0.0680828,0.123487
2.10995,-0.0353563,0.0859738
2.03674,0.0654301,-0.0949235
2.05689,-0.0344671,-0.107812
2.17454,0.069857,0.267138
2.02765,0.164565,-0.08288
2.05838,0.0661254,-0.0479221
2.03756,0.158213,-0.0356727
2.05471,-0.0416039,-0.0598101
1.95292,-0.0395428,-0.390666
2.07515,0.0594152,0
2.08686,-0.144463,-0.0243531
1.95961,0.0561072,-0.304995
1.99549,-0.0404047,-0.254052
2.06176,0.160093,0.012019
2.08754,-0.0422686,-0.0121353
2.03427,-0.140822,-0.190349
2.09857,0.0600858,0.0488526
2.11081,-0.14612,0.0246325
2.02223,0.0579,-0.141466
2.02883,-0.0410799,-0.165658
2.07288,0.160956,0.0605083
2.00583,0.15575,-0.128938
2.11555,0.0605718,0.123255
2.11781,-0.0428815,0.0862994
2.04494,0.0585503,-0.0952957
2.05676,-0.0416453,-0.107812
2.02422,0.157178,-0.0827172
2.0586,0.0589413,-0.0479221
1.95277,-0.04636,-0.390666
2.07135,0.0520701,0
2.09034,-0.152037,-0.0243997
1.96375,0.0493653,-0.30561
2.07028,0.153486,0.0120655
2.09138,-0.0496507,-0.0121585
1.98787,0.0499716,-0.214194
2.03376,-0.147922,-0.190349
2.09877,0.0527595,0.0488526
2.11028,-0.153488,0.0246325
2.02242,0.0508402,-0.141466
2.07343,0.153719,0.0605083
2.10309,-0.0499287,0.0367199
2.00637,0.148747,-0.128938
2.06305,-0.150052,-0.120464
2.12772,0.0534873,0.123952
2.10966,-0.0500846,0.0859738
2.04114,0.0513108,-0.0951096
2.0566,-0.048825,-0.107812
2.17894,0.0547749,0.267625
2.02874,0.150406,-0.08288
2.05879,0.0517545,-0.0479221
2.0426,0.144266,-0.0357425
1.94083,-0.0528563,-0.388312
2.07151,0.0448389,0
2.09378,-0.159637,-0.0244463
1.95996,0.0424242,-0.304995
2.07081,0.146258,0.0120655
2.08719,-0.0568423,-0.0121353
1.99201,0.0431179,-0.214623
2.04118,-0.155627,-0.191093
2.10176,-0.160245,0.0245394
2.02259,0.0437798,-0.141466
2.07794,0.146762,0.0606247
2.1069,-0.057379,0.0367897
2.01086,0.142023,-0.129194
2.06649,-0.157557,-0.120697
2.1239,0.0459729,0.12372
2.11746,-0.0576666,0.0862994
2.03731,0.0440986,-0.0949235
2.04843,-0.0557866,-0.107393
2.16721,0.0469103,0.266163
2.03324,0.143605,-0.0830429
2.06296,0.0446537,-0.0480151
2.04309,0.137135,-0.0357425
1.95632,-0.0601126,-0.39145
2.07566,0.0376803,0
2.08524,-0.166309,-0.0243531
2.00685,-0.0616655,-0.255567
2.06332,0.138493,0.012019
2.03665,-0.162434,-0.190721
2.10916,-0.168217,0.0246325
2.02273,0.0367194,-0.141466
2.04025,-0.0626916,-0.166634
2.07844,0.139507,0.0606247
2.11068,-0.0648559,0.0368595
2.01134,0.135003,-0.129194
2.12804,0.0386313,0.123952
2.11325,-0.0649348,0.0861366
2.04145,0.0370593,-0.0951096
2.0602,-0.0633047,-0.108021
2.1753,0.0394892,0.267138
2.02576,0.135971,-0.0827172
2.0671,0.0375249,-0.0481082
2.04356,0.130002,-0.0357425
2.06592,-0.0706994,-0.0601592
1.95609,-0.0669411,-0.39145
2.07978,0.0304933,0
2.09262,-0.174251,-0.0244463
2.00266,-0.0685346,-0.255062
2.06779,0.131543,0.0120423
2.09074,-0.0715489,-0.0121585
2.04401,-0.170203,-0.191465
2.1032,0.0308368,0.0489456
2.10856,-0.175578,0.0246325
2.02284,0.0296586,-0.141466
2.03603,-0.0696767,-0.166309
2.07892,0.132251,0.0606247
2.10645,-0.0720864,0.0367897
2.00781,0.127728,-0.128938
2.06932,-0.172311,-0.120929
2.121,-0.0725844,0.0864623
2.04556,0.0299917,-0.0952957
2.17543,0.0318957,0.267138
2.02622,0.128899,-0.0827172
2.06322,0.0302506,-0.0480151
2.06166,-0.0777596,-0.0600429
1.95193,-0.0736209,-0.390666
2.07187,0.023144,0
2.09598,-0.1819,-0.0244928
1.96029,0.0218976,-0.304995
2.00637,-0.0756744,-0.255567
2.06424,0.124085,0.012019
2.08648,-0.0786958,-0.0121353
2.10395,-0.182592,0.024586
2.02692,0.0226419,-0.141745
2.07936,0.124994,0.0606247
2.10618,-0.0794388,0.0367897
2.06871,-0.179533,-0.120929
2.12826,0.0237739,0.123952
2.11674,-0.079837,0.0862994
2.04565,0.0228511,-0.0952957
2.05971,-0.0776859,-0.108021
2.1795,0.0243462,0.267625
2.03863,0.122545,-0.0832057
2.05931,0.0230037,-0.0479221
1.95165,-0.0807745,-0.390666
2.07594,0.0155801,0
2.09132,-0.189221,-0.0244463
1.96431,0.0147423,-0.30561
2.00212,-0.0828635,-0.255062
2.06468,0.116518,0.012019
2.09018,-0.086508,-0.0121585
1.99242,0.0149532,-0.214623
2.03481,-0.184108,-0.190721
2.10337,0.0157859,0.0489456
2.10725,-0.190662,0.0246325
2.023,0.0151828,-0.141466
2.03548,-0.0842443,-0.166309
2.07981,0.117372,0.0606247
2.11387,-0.0874886,0.0369293
2.01266,0.113582,-0.129194
2.06803,-0.187114,-0.120929
2.12434,0.0159433,0.12372
2.11643,-0.0875947,0.0862994
2.04173,0.0153233,-0.0951096
2.0634,-0.0853998,-0.108231
2.18354,0.0163876,0.268113
2.03507,0.114847,-0.0830429
2.06338,0.0154858,-0.0480151
2.06107,-0.0921507,-0.0600429
1.94745,-0.0870708,-0.389881
2.09864,-0.196902,-0.0245394
1.96435,0.00822831,-0.30561
2.00976,-0.0898568,-0.256072
2.06905,0.109883,0.0120423
2.08988,-0.0934388,-0.0121585
2.04211,-0.191598,-0.191465
2.10341,0.00881081,0.0489456
2.10661,-0.197649,0.0246325
2.02703,0.00849087,-0.141745
2.04316,-0.0913499,-0.16696
2.08019,0.110474,0.0606247
2.01303,0.106908,-0.129194
2.13237,0.0089321,0.124185
2.12012,-0.094791,0.0864623
2.04177,0.00855259,-0.0951096
2.05911,-0.0920634,-0.108021
2.17961,0.00913,0.267625
2.03943,0.10831,-0.0832057
2.06742,0.00866005,-0.0481082
2.05316,0.101853,-0.0358821
1.95497,-0.0942459,-0.39145
2.08,0.00145212,0
2.09396,-0.203839,-0.0244928
2.00943,-0.0968716,-0.256072
2.07741,0.103056,0.0120888
2.04143,-0.198725,-0.191465
2.1059,-0.205001,0.0246325
2.02705,0.00141515,-0.141745
2.04282,-0.0984812,-0.16696
2.01738,0.100078,-0.12945
2.07466,-0.20196,-0.121394
2.12377,-0.102384,0.0866251
2.04978,0.00143102,-0.0954819
2.06277,-0.0994428,-0.108231
2.03581,0.100992,-0.0830429
2.06744,0.00144335,-0.0481082
2.04951,0.0945015,-0.0358123
1.95463,-0.101069,-0.39145
2.08399,-0.00581961,0
2.09721,-0.211548,-0.0245394
2.00512,-0.10368,-0.255567
2.06977,0.0954355,0.0120423
2.10116,-0.108646,-0.0122283
1.99644,-0.00557513,-0.215051
2.04469,-0.20625,-0.191837
2.10915,-0.212752,0.0246791
2.02704,-0.00566058,-0.141745
2.03849,-0.105406,-0.166634
2.08091,0.0959492,0.0606247
2.11286,-0.109251,0.0369293
2.01372,0.0928515,-0.129194
2.1234,-0.109796,0.0866251
2.04977,-0.00572405,-0.0954819
2.06241,-0.106643,-0.108231
2.03615,0.0938853,-0.0830429
2.07143,-0.00578454,-0.0482012
2.06398,-0.113949,-0.0601592
1.95426,-0.107892,-0.39145
2.08396,-0.0130941,0
2.09249,-0.218452,-0.0244928
2.00475,-0.110679,-0.255567
2.07408,0.0883804,0.0120655
2.09677,-0.115759,-0.012205
2.00039,-0.012569,-0.215479
2.04792,-0.2138,-0.192208
2.11635,-0.220944,0.0247722
2.031,-0.0127613,-0.142024
2.04209,-0.11274,-0.16696
2.11246,-0.116626,0.0369293
2.01802,0.0859917,-0.12945
2.0732,-0.216439,-0.121394
2.13234,-0.0133981,0.124185
2.12699,-0.117428,0.0867879
2.04974,-0.012879,-0.0954819
2.06601,-0.114061,-0.10844
2.03646,0.0867773,-0.0830429
2.0674,-0.01299,-0.0481082
1.96171,-0.115172,-0.393019
2.0839,-0.0203684,0
2.09966,-0.226613,-0.024586
2.00435,-0.117676,-0.255567
2.07038,0.0809836,0.0120423
2.09635,-0.123078,-0.012205
2.03528,-0.219665,-0.191093
2.10733,-0.0205973,0.0490387
2.11557,-0.22833,0.0247722
2.02695,-0.0198117,-0.141745
2.04566,-0.120102,-0.167285
2.08153,0.0814195,0.0606247
2.11603,-0.124233,0.0369991
2.01831,0.0789469,-0.12945
2.0764,-0.224103,-0.121627
2.12829,-0.0208022,0.123952
2.11859,-0.124383,0.0864623
2.04568,-0.0199948,-0.0952957
2.0656,-0.121272,-0.10844
2.04075,0.0798244,-0.0832057
2.07134,-0.0202456,-0.0482012
1.96131,-0.121677,-0.393019
2.07982,-0.0272264,0
2.0989,-0.233575,-0.024586
1.96815,-0.0257645,-0.306225
2.01187,-0.124813,-0.256577
2.07064,0.0741175,0.0120423
2.09194,-0.129781,-0.0121818
2.04246,-0.227294,-0.191837
2.10725,-0.0275854,0.0490387
2.02688,-0.0265333,-0.141745
2.04525,-0.126885,-0.167285
2.08578,0.0746595,0.060741
2.11162,-0.131002,0.0369293
2.02255,0.0723963,-0.129706
2.1362,-0.0279643,0.124418
2.12216,-0.131656,0.0866251
2.0536,-0.0268831,-0.095668
2.06519,-0.128121,-0.10844
2.03301,0.0727706,-0.08288
2.06726,-0.027062,-0.0481082
2.05062,0.0662346,-0.0358123
2.06669,-0.135458,-0.0602756
2.09171,-0.0346851,0
2.09807,-0.2409,-0.024586
2.00746,-0.131576,-0.256072
2.07088,0.0668892,0.0120423
2.09547,-0.137344,-0.012205
2.04956,-0.23533,-0.19258
2.10714,-0.0349409,0.0490387
2.02677,-0.0336082,-0.141745
2.04082,-0.133762,-0.16696
2.11913,-0.138895,0.0370689
2.0188,0.065207,-0.12945
2.0788,-0.238687,-0.121859
2.14008,-0.0354871,0.12465
2.12567,-0.139324,0.0867879
2.05749,-0.0341175,-0.0958541
2.06074,-0.135068,-0.108231
2.03725,0.0658027,-0.0830429
2.07515,-0.0344105,-0.0482943
2.05084,0.0590762,-0.0358123
2.07418,-0.143222,-0.0605083
2.08358,-0.0418257,0
2.09722,-0.248222,-0.024586
2.00699,-0.138582,-0.256072
2.07111,0.0596601,0.0120423
2.00003,-0.0401485,-0.215479
2.05269,-0.242951,-0.192952
2.03462,-0.0408429,-0.142303
2.04034,-0.140885,-0.16696
2.09025,0.0602115,0.0608574
2.10666,-0.145465,0.0368595
2.13994,-0.0429572,0.12465
2.05735,-0.0412993,-0.0958541
2.06823,-0.142811,-0.108649
2.03347,0.0585759,-0.08288
2.07902,-0.0417342,-0.0483873
2.07942,-0.0490043,0
2.10031,-0.256025,-0.0246325
1.96778,-0.0463732,-0.306225
2.01837,-0.146449,-0.257587
2.0713,0.0524302,0.0120423
2.09446,-0.15197,-0.012205
2.00385,-0.0472233,-0.215908
2.05183,-0.250115,-0.192952
2.03447,-0.0479449,-0.142303
2.04779,-0.148584,-0.167611
2.11013,-0.153107,0.0369293
2.01921,0.0511116,-0.12945
2.06915,-0.252227,-0.121394
2.1318,-0.0502385,0.124185
2.0572,-0.0484806,-0.0958541
2.06772,-0.15003,-0.108649
2.04165,0.0516797,-0.0832057
2.07086,-0.0488026,-0.0482012
2.08724,-0.0564789,0
2.10734,-0.264351,-0.0247257
1.9755,-0.0534556,-0.307455
2.01389,-0.153192,-0.257082
2.07547,0.0452869,0.0120655
2.10189,-0.159887,-0.0122515
2.04304,-0.256284,-0.192208
2.11465,-0.0572208,0.0492248
2.03429,-0.0550462,-0.142303
2.04726,-0.155731,-0.167611
2.12155,-0.161382,0.0371387
2.01938,0.0440629,-0.12945
2.07222,-0.259945,-0.121627
2.1356,-0.0577876,0.124418
2.05702,-0.0556612,-0.0958541
2.04981,0.044727,-0.0835313
2.07468,-0.0561392,-0.0482943
2.05534,0.0376703,-0.0358821
2.08703,-0.0637644,0
2.1064,-0.271705,-0.0247257
2.01334,-0.160221,-0.257082
2.07562,0.0380419,0.0120655
2.10132,-0.167223,-0.0122515
2.04608,-0.263924,-0.19258
2.11044,-0.0644799,0.0491318
2.03009,-0.062025,-0.142024
2.09476,0.0383928,0.0609738
2.12097,-0.168786,0.0371387
2.01952,0.0370137,-0.12945
2.08318,-0.26871,-0.122325
2.13538,-0.0652419,0.124418
2.05282,-0.0627192,-0.095668
2.06264,-0.164145,-0.10844
2.04596,0.0374984,-0.0833685
2.07447,-0.0633808,-0.0482943
2.05946,0.030555,-0.035952
2.07596,-0.172499,-0.0606247
2.09079,-0.0711852,0
2.10148,-0.278531,-0.0246791
1.97113,-0.0671113,-0.30684
2.01672,-0.167577,-0.257587
2.07974,0.0308558,0.0120888
2.10471,-0.174888,-0.0122748
2.04515,-0.271064,-0.19258
2.1182,-0.0721185,0.0493179
2.02986,-0.0691109,-0.142024
2.05009,-0.170349,-0.167936
2.12037,-0.176189,0.0371387
2.02363,0.0300233,-0.129706
2.05258,-0.0698845,-0.095668
2.074,-0.172336,-0.109068
2.04208,0.0302971,-0.0832057
2.07823,-0.0707577,-0.0483873
2.05955,0.0233659,-0.035952
2.09053,-0.078483,0
2.10049,-0.285865,-0.0246791
2.01612,-0.174615,-0.257587
2.07583,0.0235506,0.0120655
2.10409,-0.182234,-0.0122748
2.00697,-0.075346,-0.216336
2.04813,-0.278739,-0.192952
2.0336,-0.0763458,-0.142303
2.04154,-0.176817,-0.167285
2.11974,-0.183589,0.0371387
2.08521,-0.283785,-0.122557
2.06031,-0.0773487,-0.0960402
2.0694,-0.17923,-0.108859
2.04617,0.0232141,-0.0833685
2.08197,-0.0781617,-0.0484804
2.07471,-0.186988,-0.0606247
2.09024,-0.0857798,0
2.10344,-0.293748,-0.0247257
1.97456,-0.0810327,-0.307455
2.01155,-0.181296,-0.257082
2.0759,0.0163044,0.0120655
2.10742,-0.189936,-0.012298
2.04129,-0.0837711,-0.142861
2.04488,-0.1843,-0.167611
2.09105,0.0164234,0.0608574
2.12705,-0.191706,0.0372783
2.02379,0.0158951,-0.129706
2.08421,-0.291062,-0.122557
2.14655,-0.0880908,0.125115
2.06003,-0.0845401,-0.0960402
2.07274,-0.186811,-0.109068
2.04224,0.0160401,-0.0832057
2.07369,-0.0851007,-0.0482943
2.09792,-0.0934315,0
1.97427,-0.0879247,-0.307455
2.01486,-0.188686,-0.257587
2.07995,0.00907552,0.0120888
2.09878,-0.196546,-0.0122515
2.11333,-0.0941179,0.0492248
2.037,-0.0907185,-0.142582
2.05216,-0.19218,-0.168262
2.09109,0.00912417,0.0608574
2.11841,-0.198383,0.0371387
2.02383,0.00883067,-0.129706
2.07923,-0.297769,-0.122325
2.14623,-0.0955831,0.125115
2.05573,-0.0915526,-0.0958541
2.06412,-0.1933,-0.108649
2.05428,0.00896352,-0.0836942
2.07338,-0.0923388,-0.0482943
2.05969,0.00179741,-0.035952
2.08959,-0.10037,0
1.9779,-0.0950053,-0.30807
2.01419,-0.195718,-0.257587
2.08396,0.0018186,0.012112
2.10206,-0.204257,-0.0122748
2.11299,-0.101494,0.0492248
2.04066,-0.0980199,-0.142861
2.05148,-0.199342,-0.168262
2.12566,-0.20655,0.0372783
2.02784,0.00176962,-0.129962
2.08608,-0.306185,-0.12279
2.0554,-0.0987279,-0.0958541
2.06741,-0.20089,-0.108859
2.0503,0.00178922,-0.0835313
2.06905,-0.0993838,-0.0482012
2.07662,-0.209104,-0.060741
2.09322,-0.10787,0
2.01349,-0.202748,-0.257587
2.07996,-0.00544532,0.0120888
2.1093,-0.212395,-0.0123213
2.00969,-0.103565,-0.216764
2.0403,-0.105142,-0.142861
2.05077,-0.206502,-0.168262
2.11299,-0.212767,0.0370689
2.02783,-0.00530885,-0.129962
2.05903,-0.106108,-0.0960402
2.07465,-0.208906,-0.109277
2.0423,-0.00534673,-0.0832057
2.08068,-0.107223,-0.0484804
2.06365,-0.0126063,-0.0360218
2.09683,-0.115395,0
1.97719,-0.108811,-0.30807
2.01277,-0.209775,-0.257587
2.07993,-0.0127057,0.0120888
2.01329,-0.110798,-0.217193
2.12022,-0.116683,0.0494109
2.03594,-0.112045,-0.142582
2.05004,-0.213659,-0.168262
2.09507,-0.0127982,0.0609738
2.06663,-0.113733,-0.0964125
2.07788,-0.216561,-0.109487
2.04626,-0.0125001,-0.0833685
2.0763,-0.114265,-0.0483873
2.08306,-0.224453,-0.0609738
2.09242,-0.12248,0
1.9768,-0.115712,-0.30807
2.01203,-0.2168,-0.257587
2.08387,-0.0200043,0.012112
2.09981,-0.226258,-0.0122748
2.0435,-0.119617,-0.14314
2.05325,-0.221241,-0.168587
2.09502,-0.0201113,0.0609738
2.02775,-0.0194656,-0.129962
2.06622,-0.120947,-0.0964125
2.08108,-0.22424,-0.109696
2.04621,-0.0196428,-0.0833685
2.07588,-0.121512,-0.0483873
2.09597,-0.130031,0
2.0152,-0.22426,-0.258092
2.08379,-0.0272783,0.012112
2.10298,-0.234029,-0.012298
2.01247,-0.124851,-0.217193
2.11536,-0.131234,0.0493179
2.04307,-0.126749,-0.14314
2.05642,-0.228848,-0.168913
2.03166,-0.0265959,-0.130218
2.0618,-0.127911,-0.0962264
2.08029,-0.231503,-0.109696
2.05412,-0.0268899,-0.0836942
2.07944,-0.129005,-0.0484804
2.09555,-0.136615,0
1.97993,-0.129077,-0.308685
2.08769,-0.0338894,0.0121353
2.11416,-0.241999,-0.0123678
2.12691,-0.138659,0.049597
2.04267,-0.133167,-0.14314
2.05173,-0.234854,-0.168587
2.03556,-0.0330431,-0.130473
2.06138,-0.134388,-0.0962264
2.07558,-0.237583,-0.109487
2.05003,-0.0332781,-0.0835313
2.07503,-0.135277,-0.0483873
2.06328,-0.0410579,-0.0360218
2.09504,-0.144295,0
2.08755,-0.041541,0.0121353
2.10929,-0.249277,-0.0123445
2.05086,-0.242372,-0.168587
2.03542,-0.0405036,-0.130473
2.07284,-0.142766,-0.0967847
2.07073,-0.24472,-0.109277
2.04989,-0.0407916,-0.0835313
2.0825,-0.143431,-0.0485734
2.06713,-0.0479926,-0.0360916
2.10253,-0.151818,0
2.0834,-0.0483705,0.012112
2.11639,-0.257236,-0.012391
2.04567,-0.147712,-0.143419
2.054,-0.249653,-0.168913
2.09855,-0.048722,0.0610901
2.03128,-0.0471604,-0.130218
2.06837,-0.149351,-0.0965986
2.07784,-0.25255,-0.109696
2.05774,-0.0477746,-0.083857
2.08201,-0.150336,-0.0485734
2.06695,-0.055208,-0.0360916
2.10198,-0.159156,0
2.08722,-0.0557494,0.0121353
2.11548,-0.264622,-0.012391
2.12534,-0.160924,0.049597
2.04116,-0.15455,-0.14314
2.05707,-0.257316,-0.169238
2.0351,-0.0543573,-0.130473
2.0758,-0.157173,-0.0969709
2.08487,-0.260793,-0.110115
2.05756,-0.0549572,-0.083857
2.07749,-0.157301,-0.0484804
2.10537,-0.167175,0
1.98185,-0.157367,-0.3093
2.091,-0.0635205,0.0121585
2.11053,-0.271862,-0.0123678
2.01397,-0.159918,-0.217621
2.12872,-0.169029,0.0496901
2.04853,-0.162662,-0.143698
2.06007,-0.265363,-0.169564
2.10214,-0.0638589,0.0612065
2.06725,-0.164148,-0.0965986
2.0839,-0.268432,-0.110115
2.06134,-0.0626195,-0.0840198
2.08089,-0.165231,-0.0485734
2.06651,-0.0696365,-0.0360916
2.10082,-0.173826,0
1.98919,-0.16459,-0.310529
2.09078,-0.0704542,0.0121585
2.12815,-0.176088,0.0496901
2.04401,-0.169125,-0.143419
2.06313,-0.272715,-0.169889
2.10591,-0.0709642,0.0613228
2.03866,-0.0686979,-0.130729
2.07067,-0.171332,-0.0967847
2.083,-0.275341,-0.110115
2.05713,-0.0693202,-0.083857
2.0883,-0.17279,-0.0487595
2.10415,-0.18187,0
2.0945,-0.0782662,0.0121818
2.12749,-0.183886,0.0496901
2.04735,-0.17696,-0.143698
2.05027,-0.278664,-0.168913
2.03839,-0.0761695,-0.130729
2.07003,-0.17892,-0.0967847
2.08197,-0.282974,-0.110115
2.05686,-0.0768594,-0.083857
2.08765,-0.180443,-0.0487595
2.07395,-0.0847488,-0.0362312
2.08691,-0.291068,-0.0613228
2.09952,-0.188855,0
1.98796,-0.17882,-0.310529
2.09022,-0.0854136,0.0121585
2.13082,-0.19167,0.0497831
2.04672,-0.184105,-0.143698
2.05323,-0.28637,-0.169238
2.03811,-0.0832843,-0.130729
2.07337,-0.186503,-0.0969709
2.08097,-0.29024,-0.110115
2.05258,-0.0838756,-0.0836942
2.09099,-0.188087,-0.0488526
2.06966,-0.0914493,-0.0361614
2.08989,-0.298552,-0.0614392
2.10685,-0.196559,0
2.09392,-0.0925211,0.0121818
2.12619,-0.198364,0.0496901
2.05007,-0.191262,-0.143977
2.05622,-0.293741,-0.169564
2.10505,-0.093013,0.0613228
2.07274,-0.193377,-0.0969709
2.08,-0.297139,-0.110115
2.06028,-0.0910346,-0.0840198
2.08637,-0.194649,-0.0487595
2.1101,-0.204666,0
2.09756,-0.100386,0.012205
2.01879,-0.19581,-0.218478
2.05333,-0.19916,-0.144256
2.03748,-0.0975109,-0.130729
2.07202,-0.200973,-0.0969709
2.09075,-0.306499,-0.110743
2.06392,-0.0987763,-0.0841827
2.08963,-0.202681,-0.0488526
2.08094,-0.106872,-0.0363708
2.0972,-0.107708,0.012205
2.07131,-0.208204,-0.0969709
2.08572,-0.313202,-0.110534
2.06756,-0.106185,-0.0843455
2.08493,-0.209573,-0.0487595
2.07257,-0.113697,-0.0362312
2.10862,-0.219392,0
2.09681,-0.115027,0.012205
2.02133,-0.210311,-0.218906
2.05585,-0.213903,-0.144535
2.07454,-0.215847,-0.097157
2.08856,-0.321087,-0.110743
2.05919,-0.112964,-0.0840198
2.09611,-0.218091,-0.0490387
2.10394,-0.225589,0
2.09644,-0.121614,0.012205
2.02462,-0.217084,-0.219335
2.05121,-0.219935,-0.144256
2.07385,-0.222363,-0.097157
2.0836,-0.327028,-0.110534
2.06681,-0.119895,-0.0843455
2.09542,-0.224675,-0.0490387
2.10703,-0.234108,0
2.09995,-0.12991,0.0122283
2.05431,-0.22825,-0.144535
2.04389,-0.126442,-0.131241
2.07298,-0.230324,-0.097157
2.08627,-0.33566,-0.110743
2.06234,-0.127584,-0.0841827
2.09057,-0.232278,-0.0489456
2.11018,-0.241917,0
2.09549,-0.136979,0.012205
2.02297,-0.231919,-0.219335
2.06143,-0.236328,-0.145093
2.11459,-0.138227,0.0616719
2.04344,-0.133576,-0.131241
2.07217,-0.237559,-0.097157
2.08903,-0.343589,-0.110952
2.06189,-0.134782,-0.0841827
2.08577,-0.239119,-0.0488526
2.0828,-0.142721,-0.0364406
2.09505,-0.143561,0.012205
2.05275,-0.241869,-0.144535
2.04699,-0.140268,-0.131497
2.07538,-0.244535,-0.0973431
2.06943,-0.141805,-0.0845083
2.09295,-0.246606,-0.0490387
2.07827,-0.150066,-0.0363708
2.10451,-0.255792,0
2.0985,-0.151527,0.0122283
2.02529,-0.246163,-0.219763
2.05185,-0.249392,-0.144535
2.05044,-0.148057,-0.131753
2.07843,-0.252622,-0.0975292
2.06491,-0.149101,-0.0843455
2.09203,-0.254275,-0.0490387
2.09793,-0.159217,0.0122283
2.03227,-0.254573,-0.22062
2.05488,-0.257406,-0.144814
2.08146,-0.260735,-0.0977154
2.06435,-0.156668,-0.0843455
2.09506,-0.262438,-0.0491318
2.09742,-0.165807,0.0122283
2.05802,-0.264369,-0.145093
2.04541,-0.161696,-0.131497
2.08063,-0.267273,-0.0977154
2.06783,-0.163468,-0.0845083
2.08057,-0.172151,-0.0364406
2.061,-0.272433,-0.145372
2.0836,-0.275421,-0.0979015
2.06722,-0.171046,-0.0845083
2.09718,-0.277217,-0.0492248
2.08394,-0.179756,-0.0365104
2.10415,-0.181499,0.0122748
2.05613,-0.177357,-0.132264
2.08262,-0.282692,-0.0979015
2.06661,-0.178261,-0.0845083
2.10017,-0.285074,-0.0493179
2.1035,-0.188843,0.0122748
2.0555,-0.184533,-0.132264
2.08162,-0.28996,-0.0979015
2.06995,-0.185831,-0.0846712
2.0952,-0.291851,-0.0492248
2.09064,-0.194678,-0.0366501
2.07669,-0.296297,-0.0977154
2.06932,-0.192694,-0.0846712
2.10214,-0.299927,-0.0494109
2.06494,-0.301978,-0.145931
2.05022,-0.198136,-0.132008
2.0796,-0.304122,-0.0979015
2.07659,-0.200685,-0.0849968
2.09316,-0.306106,-0.0492248
2.08521,-0.209234,-0.0365802
2.10539,-0.211259,0.012298
2.05987,-0.308953,-0.145652
2.07847,-0.311743,-0.0979015
2.07585,-0.208295,-0.0849968
2.09598,-0.314369,-0.0493179
2.10472,-0.217873,0.012298
2.05677,-0.212909,-0.13252
2.08143,-0.318876,-0.0980876
2.07518,-0.214815,-0.0849968
2.09173,-0.223911,-0.0367199
2.10792,-0.225644,0.0123213
2.05601,-0.220087,-0.13252
2.08031,-0.326139,-0.0980876
2.07442,-0.222058,-0.0849968
2.08699,-0.335028,-0.0984599
2.07756,-0.230099,-0.0851596
2.05839,-0.234888,-0.132776
2.08587,-0.341947,-0.0984599
2.07679,-0.236987,-0.0851596
2.09721,-0.246737,-0.0368595
2.05756,-0.242072,-0.132776
2.08389,-0.245169,-0.0854853
2.09237,-0.253575,-0.0367897
2.0567,-0.249252,-0.132776
2.08699,-0.252923,-0.0856481
2.09143,-0.261242,-0.0367897
2.0637,-0.257778,-0.133288
2.08208,-0.260075,-0.0854853
2.05882,-0.264472,-0.133032
2.07719,-0.266832,-0.0853225
2.06189,-0.27182,-0.133288
2.08026,-0.274241,-0.0854853
2.08325,-0.282037,-0.0856481
2.09951,-0.291705,-0.0369991
2.06785,-0.287306,-0.133799
2.09017,-0.290407,-0.0859738
2.06679,-0.294883,-0.133799
2.09742,-0.306355,-0.0369991
2.0658,-0.301735,-0.133799
2.08809,-0.304992,-0.0859738
2.06473,-0.308945,-0.133799
2.08702,-0.312279,-0.0859738
2.08591,-0.319562,-0.0859738
2.08484,-0.326477,-0.0859738
2.08363,-0.334117,-0.0859738
2.08646,-0.34167,-0.0861366
