2.04793,0.318134,-0.120697
2.0484,0.310889,-0.0241203
2.0484,0.310889,0.0241203
2.02276,0.408962,0.0360218
2.06087,0.312781,-0.121394
2.05343,0.304323,-0.0241669
2.02445,0.401953,-0.0119958
2.06195,0.305585,-0.121394
2.0624,0.298299,-0.02426
2.02584,0.394884,-0.0119958
2.05448,0.297154,0.0241669
2.063,0.298386,-0.121394
2.02638,0.387653,-0.0600429
2.06739,0.291657,-0.0243066
2.03113,0.388562,-0.012019
2.05551,0.289981,0.0241669
2.03086,0.38851,0.0360916
2.06798,0.291741,-0.121627
2.06839,0.284438,-0.0243066
2.02855,0.380731,-0.0119958
2.06047,0.283348,0.0242135
2.0322,0.381418,0.0360916
2.06899,0.28452,-0.121627
2.07339,0.277386,-0.0243531
2.03386,0.374018,-0.012019
2.05753,0.275264,0.0241669
2.03359,0.373967,0.0360916
2.06606,0.276406,-0.121394
2.03503,0.367627,-0.012019
2.04262,0.368999,0.0362312
2.07088,0.270431,-0.121627
2.07121,0.263124,-0.0243066
2.04417,0.361915,-0.0120655
2.06239,0.262003,-0.194067
2.05931,0.261612,0.0241669
2.0439,0.361866,0.0362312
2.07181,0.2632,-0.121627
2.08006,0.256874,-0.0243997
2.03754,0.353411,-0.012019
2.07119,0.255779,-0.194811
2.06815,0.255403,0.02426
2.04121,0.354046,0.0361614
2.07668,0.256457,-0.121859
2.038,0.345799,-0.0601592
2.08098,0.249248,-0.0243997
2.04277,0.346609,-0.0120423
2.07212,0.248186,-0.194811
2.06907,0.247821,0.02426
2.05038,0.3479,0.036301
2.06968,0.247893,-0.121394
2.04505,0.346996,0.0845083
2.04788,0.347476,-0.108859
2.03913,0.339039,-0.0601592
2.0818,0.242345,-0.0243997
2.04785,0.340488,-0.0120655
2.07293,0.241312,-0.194811
2.07842,0.241952,-0.121859
2.04225,0.339556,0.0843455
2.04902,0.340683,-0.108859
2.04425,0.332561,-0.0602756
2.07866,0.234629,-0.0243531
2.05298,0.333981,-0.0120888
2.07468,0.23418,0.0243066
2.08322,0.235143,-0.122092
2.04342,0.332426,0.0843455
2.0502,0.333529,-0.108859
2.05335,0.326321,-0.0605083
2.02408,0.423957,0
2.08348,0.227442,-0.0243997
2.0746,0.226473,-0.194811
2.05786,0.327037,0.0363708
2.08804,0.227939,-0.122325
2.05252,0.326188,0.0846712
2.05141,0.326012,-0.108859
2.05047,0.318897,-0.060392
2.02155,0.416437,0
2.0882,0.220954,-0.0244463
2.05921,0.320256,-0.012112
2.08326,0.220431,-0.195554
2.07627,0.219691,0.0243066
2.08084,0.220175,-0.121859
2.04964,0.318767,0.0845083
2.05248,0.319208,-0.108859
2.04762,0.311136,-0.0602756
2.02692,0.410171,0
2.08498,0.213256,-0.0243997
2.06032,0.313065,-0.012112
2.08402,0.213158,-0.195554
2.081,0.212849,0.0243531
2.06399,0.313624,0.0364406
2.08954,0.213722,-0.122325
2.04679,0.31101,0.0843455
2.06148,0.313242,-0.109277
2.02441,0.402313,0
2.09367,0.206762,-0.0244928
2.06535,0.306458,-0.0121353
2.08079,0.20549,-0.195183
2.06507,0.306417,0.0364406
2.09027,0.206426,-0.122325
2.05861,0.305457,-0.109068
2.02386,0.402204,-0.0480151
2.0258,0.395244,0
2.0904,0.199074,-0.0244463
2.06245,0.298674,-0.012112
2.08149,0.198226,-0.195183
2.08244,0.198315,0.0243531
2.09098,0.199129,-0.122325
2.05287,0.297286,0.0845083
2.05571,0.297697,-0.108859
2.02525,0.395138,-0.0480151
2.02717,0.38817,0
2.0871,0.19141,-0.0243997
2.05952,0.290913,-0.0120888
2.08614,0.191322,-0.195554
2.0871,0.19141,0.0243997
2.09166,0.191829,-0.122325
2.05389,0.290118,0.0845083
2.06069,0.291078,-0.109068
2.03055,0.388817,-0.0481082
2.05964,0.283967,-0.0605083
2.03238,0.382185,0
2.09967,0.185544,-0.0245394
2.06047,0.284082,-0.0120888
2.08374,0.184136,0.0243531
2.06158,0.284234,-0.169889
2.06416,0.28459,0.0363708
2.09627,0.185243,-0.122557
2.05484,0.283306,0.0845083
2.0656,0.284789,-0.109277
2.03183,0.382082,-0.0481082
2.06062,0.276776,-0.0605083
2.03763,0.375815,0
2.04101,0.376438,0.0482943
2.08835,0.1772,0.0243997
2.06651,0.277567,-0.170214
2.0691,0.277916,0.0364406
2.10088,0.178263,-0.12279
2.05582,0.276132,0.0845083
2.07054,0.278109,-0.109487
2.03315,0.374988,-0.0481082
2.0695,0.270618,-0.060741
2.035,0.367987,0
2.07034,0.270728,-0.0121353
2.088,0.16983,-0.195554
2.04232,0.369311,0.0482943
2.08896,0.169909,0.0243997
2.07142,0.270868,-0.17054
2.07006,0.270691,0.0364406
2.09751,0.170604,-0.122557
2.06073,0.269471,0.0846712
2.0715,0.270879,-0.109487
2.03838,0.368599,-0.0482012
2.0625,0.262382,-0.0605083
2.03627,0.360881,0
2.10549,0.163857,-0.024586
2.0673,0.262994,-0.012112
2.09255,0.162849,-0.195926
2.04753,0.362877,0.0483873
2.09353,0.162926,0.0244463
2.07235,0.263636,-0.17054
2.07496,0.263968,0.0365104
2.09809,0.163281,-0.122557
2.0577,0.261772,0.0845083
2.038,0.361188,-0.0964125
2.06847,0.263142,-0.109277
2.03965,0.361481,-0.0482012
2.06737,0.255672,-0.0606247
2.03752,0.353771,0
2.10206,0.15621,-0.0245394
2.07218,0.256267,-0.0121353
2.04878,0.355728,0.0483873
2.09009,0.155321,0.0243997
2.07326,0.256401,-0.17054
2.07587,0.256723,0.0365104
2.10661,0.156548,-0.123022
2.06653,0.255569,0.084834
2.04318,0.354755,-0.0965986
2.06541,0.25543,-0.109068
2.05743,0.254443,0.169238
2.03696,0.353676,-0.0481082
2.06428,0.247978,-0.0605083
2.03874,0.346657,0
2.10658,0.149154,-0.024586
2.07703,0.24951,-0.0121585
2.09761,0.148519,-0.196298
2.05396,0.349245,0.0484804
2.0986,0.14859,0.0244928
2.07414,0.249162,-0.17054
2.07675,0.249476,0.0365104
2.10715,0.149194,-0.123022
2.06741,0.248354,0.084834
2.04835,0.348291,-0.0967847
2.07025,0.248696,-0.109277
2.06226,0.247736,0.169564
2.04783,0.340853,0
2.1031,0.141532,-0.0245394
2.07789,0.242259,-0.0121585
2.09811,0.141196,-0.196298
2.05122,0.341417,0.0483873
2.07104,0.24146,-0.170214
2.07364,0.241763,0.0364406
2.10765,0.141839,-0.123022
2.06826,0.241136,0.084834
2.04955,0.34114,-0.0967847
2.07508,0.241931,-0.109487
2.06312,0.240536,0.169564
2.0143,0.429991,-0.035952
2.07788,0.234908,-0.0608574
2.04506,0.333059,0
2.01458,0.430049,0.0119725
2.0827,0.235453,-0.0121818
2.0524,0.334254,0.0483873
2.09959,0.133935,0.0244928
2.07979,0.235124,-0.170865
2.07844,0.234972,0.0365104
2.11212,0.134734,-0.123255
2.05073,0.333983,-0.0967847
2.07194,0.234237,-0.109277
2.0679,0.23378,0.169889
2.07074,0.226782,-0.0606247
2.11202,0.127327,-0.0246325
2.08351,0.228181,-0.0121818
2.05355,0.327088,0.0483873
2.10004,0.126605,0.0244928
2.0806,0.227862,-0.170865
2.08323,0.22815,0.0365802
2.10859,0.12712,-0.123022
2.08182,0.227996,0.0853225
2.05188,0.326822,-0.0967847
2.07672,0.227437,-0.109487
2.05355,0.327088,-0.0483873
2.07947,0.220396,-0.0608574
2.04733,0.318774,0
2.10447,0.119501,-0.0245394
2.08031,0.220486,-0.0121585
2.10345,0.119443,-0.19667
2.05468,0.319918,0.0483873
2.10447,0.119501,0.0245394
2.05417,0.319839,-0.145372
2.08534,0.221019,-0.171191
2.08401,0.220877,0.0365802
2.11301,0.119986,-0.123255
2.07465,0.219885,0.0849968
2.05696,0.320273,-0.0969709
2.0775,0.220187,-0.109487
2.05468,0.319918,-0.0483873
2.03045,0.411255,-0.0361614
2.0842,0.213543,-0.0609738
2.10887,0.112366,-0.024586
2.08505,0.21363,-0.0121818
2.10386,0.112099,-0.19667
2.06369,0.313946,0.0485734
2.11286,0.112579,0.0246325
2.08214,0.213331,-0.170865
2.08875,0.214008,0.0366501
2.1174,0.112821,-0.123487
2.04892,0.311698,0.120697
2.08733,0.213864,0.0854853
2.05806,0.31309,-0.0969709
2.08223,0.213341,-0.109696
2.07024,0.212112,0.169889
2.05183,0.312142,-0.0482943
2.08891,0.206661,-0.0610901
2.12123,0.105602,-0.0247257
2.08976,0.206745,-0.012205
2.06477,0.306742,0.0485734
2.11723,0.105403,0.0246791
2.0603,0.306078,-0.145652
2.08287,0.206063,-0.170865
2.08948,0.206717,0.0366501
2.10981,0.105034,-0.123022
2.04999,0.304546,0.120697
2.08409,0.206184,0.0853225
2.05914,0.305905,-0.0969709
2.08693,0.206466,-0.109906
2.07493,0.205278,0.170214
2.05686,0.305567,-0.0483873
2.02935,0.396304,-0.0360916
2.08166,0.198608,-0.0608574
2.05056,0.297317,0
2.11759,0.0980115,-0.0246791
2.09047,0.199449,-0.012205
2.06583,0.299532,0.0485734
2.11359,0.0978266,0.0246325
2.06136,0.298883,-0.145652
2.08754,0.19917,-0.171191
2.05894,0.298533,0.121162
2.0848,0.198907,0.0853225
2.06415,0.299289,-0.097157
2.08367,0.1988,-0.109696
2.07564,0.198034,0.170214
2.06188,0.298958,-0.0484804
2.02679,0.388465,-0.0360218
2.09031,0.192072,-0.0610901
2.11792,0.0906186,-0.0246791
2.09816,0.192794,-0.268194
2.11792,0.0906186,0.0246791
2.06239,0.291685,-0.145652
2.08823,0.191881,-0.171191
2.02624,0.38836,0.0600429
2.09087,0.192124,0.0366501
2.11847,0.0906422,-0.123487
2.05997,0.291344,0.121162
2.08946,0.191994,0.0854853
2.05727,0.290962,-0.0967847
2.08037,0.191159,-0.109487
2.08029,0.191151,0.17054
2.03327,0.389707,-0.0843455
2.06291,0.291759,-0.0484804
2.036,0.382866,-0.0361614
2.09096,0.184775,-0.0610901
2.12222,0.0833826,-0.0247257
2.09487,0.18512,-0.267689
2.0958,0.185202,-0.0122283
2.11716,0.0831837,-0.197785
2.11423,0.0830686,0.0246325
2.06735,0.28503,-0.145931
2.08888,0.184591,-0.171191
2.12276,0.083404,-0.12372
2.06493,0.284697,0.121394
2.09011,0.1847,0.0854853
2.06223,0.284325,-0.0969709
2.09296,0.184951,-0.110115
2.08094,0.183889,0.17054
2.06391,0.284556,-0.0484804
2.03339,0.375031,-0.0360916
2.08761,0.177136,-0.0609738
2.1185,0.0758305,-0.0246791
2.10341,0.178477,-0.268699
2.08447,0.17687,-0.0121585
2.12539,0.0760773,-0.198529
2.07282,0.278414,0.0486665
2.1225,0.0759736,0.0247257
2.06438,0.27728,-0.145652
2.09349,0.177635,-0.171516
2.12304,0.0759931,-0.12372
2.058,0.276424,0.120929
2.09473,0.17774,0.0856481
2.06321,0.277124,-0.0969709
2.09359,0.177644,-0.110115
2.08157,0.176624,0.17054
2.03594,0.375502,-0.0843455
2.06886,0.277882,-0.0485734
2.03849,0.369355,-0.0361614
2.09613,0.171228,-0.0612065
2.06235,0.270415,0
2.13072,0.0695667,-0.0248188
2.10396,0.171868,-0.268699
2.0309,0.367978,0.0119958
2.08901,0.170647,-0.0121818
2.11766,0.0691403,-0.197785
2.12273,0.0693056,0.0247257
2.07315,0.271831,-0.14621
2.09404,0.171058,-0.171516
2.11928,0.0691931,-0.123487
2.06282,0.270477,0.121162
2.09528,0.171159,0.0856481
2.06804,0.271161,-0.097157
2.09414,0.171066,-0.110115
2.03318,0.368392,-0.0841827
2.06179,0.270342,-0.0483873
2.04377,0.36258,-0.0362312
2.09275,0.163234,-0.0610901
2.05936,0.262349,0
2.13096,0.0617572,-0.0248188
2.10853,0.164465,-0.269204
2.03617,0.361232,0.012019
2.09361,0.1633,-0.012205
2.12188,0.061494,-0.198157
2.12696,0.0616413,0.0247722
2.07413,0.264231,-0.14621
2.09465,0.163382,-0.171516
2.1275,0.0616569,-0.123952
2.0638,0.262915,0.121162
2.09191,0.163168,0.0854853
2.06902,0.26358,-0.097157
2.09475,0.16339,-0.110115
2.09465,0.163382,0.171516
2.04632,0.363033,-0.0846712
2.0707,0.263794,-0.0485734
2.04509,0.355086,-0.0362312
2.09733,0.155858,-0.0612065
2.13117,0.0539459,-0.0248188
2.10516,0.156441,-0.268699
2.03748,0.353766,0.012019
2.09818,0.155922,-0.0122283
2.12209,0.053716,-0.198157
2.07562,0.256693,0.0486665
2.12717,0.0538446,0.0247722
2.07113,0.256137,-0.145931
2.09921,0.155998,-0.171842
2.1317,0.0539593,-0.124185
2.06871,0.255838,0.121394
2.09648,0.155795,0.0856481
2.066,0.255504,-0.0969709
2.09932,0.156007,-0.110324
2.03976,0.354162,-0.0843455
2.07562,0.256693,-0.0486665
2.05013,0.349331,-0.036301
2.10179,0.149552,-0.0613228
2.07301,0.24976,0
2.12733,0.0471611,-0.0247722
2.10564,0.149826,-0.268699
2.04253,0.348034,0.0120423
2.10265,0.149613,-0.0122515
2.07642,0.250171,0.0486665
2.12733,0.0471611,0.0247722
2.07192,0.249629,-0.145931
2.09969,0.149402,-0.171842
2.05412,0.35001,-0.133543
2.13186,0.0472615,-0.124185
2.07347,0.249815,0.121627
2.09695,0.149208,0.0856481
2.0668,0.249011,-0.0969709
2.0998,0.14941,-0.110324
2.09174,0.148836,0.171191
2.04087,0.347752,-0.0843455
2.07245,0.249692,-0.0485734
2.05535,0.342472,-0.0363708
2.10632,0.142117,-0.0614392
2.07391,0.242161,0
2.13549,0.0395121,-0.0248654
2.10618,0.142108,-0.268699
2.09919,0.141636,-0.0122283
2.12639,0.0393438,-0.198529
2.12749,0.0393642,0.0247722
2.07678,0.242496,-0.14621
2.1042,0.141974,-0.172167
2.04296,0.340408,0.0602756
2.13202,0.039448,-0.124185
2.0704,0.241751,0.121394
2.10546,0.142059,0.0859738
2.07166,0.241898,-0.097157
2.10432,0.141982,-0.110534
2.09227,0.141169,0.171191
2.04213,0.34027,-0.0843455
2.08129,0.243023,-0.0487595
2.04068,0.333078,-0.0360916
2.10279,0.134876,-0.0613228
2.07868,0.235733,0
2.13161,0.0323701,-0.0248188
2.10664,0.135123,-0.268699
2.09566,0.134419,-0.012205
2.12651,0.0322926,-0.198529
2.08209,0.23612,0.0487595
2.13561,0.0324308,0.0248654
2.08551,0.236508,-0.146768
2.10466,0.134996,-0.172167
2.04013,0.332988,0.0601592
2.11134,0.135425,0.0369293
2.13214,0.0323782,-0.124185
2.07119,0.234884,0.121394
2.10193,0.134821,0.085811
2.07245,0.235028,-0.097157
2.10877,0.13526,-0.110743
2.10068,0.134741,0.171842
2.04719,0.33414,-0.0845083
2.07414,0.235219,-0.0485734
2.04973,0.327213,-0.0362312
2.10724,0.127777,-0.0614392
2.07551,0.228038,0
2.13971,0.0250222,-0.0249119
2.11106,0.128008,-0.269204
2.04606,0.326627,0.0120423
2.07543,0.22803,-0.224904
2.13059,0.0249155,-0.1989
2.08687,0.229287,0.0488526
2.13571,0.0249754,0.0248654
2.08632,0.229226,-0.146768
2.1091,0.127889,-0.172493
2.04128,0.325864,0.0601592
2.10781,0.127811,0.0368595
2.04585,0.326593,-0.132776
2.13623,0.0249815,-0.124418
2.07597,0.228089,0.121627
2.10239,0.127483,0.085811
2.11321,0.128139,-0.110952
2.09716,0.127165,0.171516
2.05624,0.328252,-0.084834
2.07892,0.228413,-0.0486665
2.05876,0.32129,-0.0363708
2.11166,0.120649,-0.0615556
2.07232,0.22037,0
2.11942,0.121092,-0.270214
2.04719,0.319483,0.0120423
2.11252,0.120698,-0.012298
2.07622,0.220784,-0.224904
2.13863,0.017544,-0.199644
2.08766,0.222001,0.0488526
2.13978,0.0175535,0.0249119
2.07917,0.221099,-0.14621
2.10555,0.1203,-0.172167
2.04635,0.319353,0.0602756
2.11623,0.120909,0.0369991
2.05092,0.320065,-0.133032
2.13232,0.0174922,-0.124185
2.08072,0.221264,0.121859
2.10681,0.120372,0.0859738
2.07802,0.220976,-0.0973431
2.10168,0.120079,-0.110324
2.10157,0.120072,0.171842
2.05342,0.320456,-0.0846712
2.08766,0.222001,-0.0488526
2.06388,0.314344,-0.0364406
2.1081,0.112695,-0.0614392
2.08107,0.21359,0
2.14383,0.00972928,-0.0249585
2.11588,0.113111,-0.269709
2.07701,0.213174,-0.224904
2.13868,0.00970589,-0.199644
2.13983,0.00971112,0.0249119
2.076,0.21307,-0.145931
2.10996,0.112795,-0.172493
2.04751,0.311851,0.0602756
2.11666,0.113153,0.0369991
2.05208,0.312547,-0.133032
2.14434,0.0097316,-0.124883
2.08152,0.213636,0.121859
2.11123,0.112863,0.0861366
2.08279,0.213767,-0.0975292
2.11009,0.112802,-0.110743
2.09802,0.112156,0.171516
2.05458,0.312928,-0.0846712
2.08448,0.21394,-0.0487595
2.06491,0.307499,-0.0364406
2.08575,0.207083,0
2.14785,0.00262535,-0.025005
2.10832,0.105697,-0.268699
2.11731,0.106148,-0.0123213
2.1387,0.00261416,-0.199644
2.14385,0.00262046,0.0249585
2.08066,0.206579,-0.14621
2.1143,0.105997,-0.172818
2.11702,0.106133,0.0369991
2.14037,0.00261621,-0.12465
2.08222,0.206733,0.121859
2.08349,0.206859,-0.0975292
2.11444,0.106004,-0.110952
2.10236,0.105398,0.171842
2.05561,0.306114,-0.0846712
2.08916,0.207422,-0.0488526
2.06207,0.299353,-0.0363708
2.10883,0.0979742,-0.0614392
2.08649,0.199436,0
2.14785,-0.00524854,-0.025005
2.11266,0.0981519,-0.269204
2.05047,0.297669,0.0120423
2.12168,0.0985709,-0.0123445
2.13471,-0.00521644,-0.199272
2.09389,0.200143,0.0489456
2.14385,-0.00523876,0.0249585
2.08141,0.19895,-0.14621
2.11468,0.0982457,-0.172818
2.11739,0.0983719,0.0369991
2.06211,0.299359,-0.133543
2.14436,-0.00524001,-0.124883
2.08296,0.199098,0.121859
2.10798,0.0979344,0.0859738
2.08025,0.19884,-0.0973431
2.11481,0.0982521,-0.110952
2.10671,0.0978757,0.172167
2.05672,0.298576,-0.0846712
2.08593,0.199382,-0.0487595
2.0631,0.292153,-0.0363708
2.11715,0.0909561,-0.0616719
2.08717,0.192152,0
2.15182,-0.0127692,-0.0250516
2.12092,0.0911178,-0.270214
2.05546,0.291071,0.0120655
2.12201,0.0911647,-0.0123445
2.09059,0.192466,0.0488526
2.14382,-0.0127217,0.0249585
2.08209,0.191684,-0.14621
2.12297,0.0912062,-0.173469
2.05462,0.290953,0.060392
2.06314,0.292159,-0.133543
2.14832,-0.0127484,-0.125115
2.0916,0.192559,0.122325
2.1083,0.0905761,0.0859738
2.08491,0.191944,-0.0975292
2.11514,0.0908699,-0.110952
2.11501,0.090864,0.172818
2.05775,0.291395,-0.0846712
2.09059,0.192466,-0.0488526
2.06797,0.286219,-0.0364406
2.10943,0.0839867,-0.0614392
2.08777,0.185594,0
2.14377,-0.0194562,-0.0249585
2.12119,0.0844548,-0.270214
2.0524,0.284064,0.0120423
2.13861,-0.0194095,-0.199644
2.09119,0.185898,0.0488526
2.14377,-0.0194562,0.0249585
2.08268,0.185142,-0.14621
2.11528,0.0842195,-0.172818
2.05157,0.283949,0.0602756
2.068,0.286224,-0.133799
2.14827,-0.0194971,-0.125115
2.08821,0.185634,0.122092
2.12056,0.0844296,0.0864623
2.08949,0.185747,-0.0977154
2.11542,0.0842249,-0.110952
2.08011,0.184914,0.256413
2.10731,0.0839023,0.172167
2.05865,0.28493,-0.0846712
2.09517,0.186252,-0.0489456
2.07292,0.279533,-0.0365104
2.11771,0.0769125,-0.0616719
2.0884,0.178305,0
2.15168,-0.0270403,-0.0250516
2.12147,0.0770493,-0.270214
2.09979,0.179277,0.0490387
2.14768,-0.0269901,0.025005
2.11955,0.0769794,-0.173144
2.05651,0.27732,0.060392
2.12627,0.0772237,0.0371387
2.06503,0.27847,-0.133543
2.15218,-0.0270466,-0.125348
2.09283,0.178683,0.122325
2.12484,0.0771714,0.0866251
2.09012,0.178452,-0.0977154
2.11969,0.0769846,-0.111162
2.0847,0.177989,0.256901
2.10759,0.0765453,0.172167
2.09182,0.178597,-0.0488526
2.07001,0.271053,-0.0364406
2.11799,0.0687811,-0.0616719
2.08508,0.16996,0
2.15156,-0.0353015,-0.0250516
2.11779,0.0687746,-0.269709
2.12684,0.0690687,-0.0123678
2.15434,-0.0353471,-0.201131
2.15556,-0.0353671,0.0250982
2.08796,0.170195,-0.146489
2.12381,0.0689702,-0.173469
2.05756,0.269422,0.060392
2.12655,0.0690593,0.0371387
2.06609,0.270539,-0.133543
2.14807,-0.0352442,-0.125115
2.0935,0.170646,0.122325
2.12512,0.0690126,0.0866251
2.09079,0.170425,-0.0977154
2.11598,0.0687159,-0.110952
2.08537,0.169984,0.256901
2.11186,0.068582,0.172493
2.06861,0.270869,-0.0849968
2.10046,0.171214,-0.0490387
2.06689,0.264042,-0.0363708
2.12219,0.0622445,-0.0617883
2.0896,0.163722,0
2.15144,-0.0420602,-0.0250516
2.12593,0.0623541,-0.270719
2.0632,0.263571,0.0120888
2.14626,-0.0419589,-0.200387
2.10099,0.164614,0.0490387
2.15544,-0.0421384,0.0250982
2.08848,0.163635,-0.146489
2.12003,0.0621813,-0.173144
2.06236,0.263463,0.0605083
2.13076,0.0624959,0.0372085
2.06297,0.263541,-0.133288
2.14396,-0.0419139,-0.124883
2.09004,0.163757,0.122092
2.12532,0.0623364,0.0866251
2.0953,0.164169,-0.0979015
2.12018,0.0621855,-0.111162
2.08589,0.163432,0.256901
2.11605,0.0620644,0.172818
2.06152,0.263357,-0.0846712
2.11226,0.0619532,0.385284
2.08903,0.163677,-0.0487595
2.0797,0.258304,-0.0365802
2.1184,0.0547325,-0.0616719
2.13303,0.0551106,-0.426751
2.09414,0.156725,0
2.15928,-0.0497548,-0.0251447
2.13406,0.0551373,-0.271729
2.06014,0.255874,0.0120655
2.13125,0.0550647,-0.012391
2.1461,-0.049451,-0.200387
2.10554,0.157578,0.0491318
2.15528,-0.0496626,0.0250982
2.12821,0.054986,-0.173795
2.06327,0.256262,0.0605083
2.13096,0.0550572,0.0372085
2.06784,0.25683,-0.133543
2.15178,-0.049582,-0.125348
2.09857,0.157056,0.122557
2.12952,0.0550199,0.0867879
2.09188,0.156555,-0.0977154
2.12437,0.0548869,-0.111371
2.09041,0.156445,0.257388
2.12422,0.054883,0.173469
2.07036,0.257144,-0.0849968
2.10554,0.157578,-0.0491318
2.08068,0.250316,-0.0365802
2.11859,0.0465975,-0.0616719
2.09473,0.148682,0
2.15508,-0.0579385,-0.0250982
2.13029,0.0468549,-0.271224
2.06507,0.248439,0.0120888
2.09458,0.148672,-0.226189
2.14987,-0.0577986,-0.200759
2.15108,-0.057831,0.0250516
2.1284,0.0468133,-0.173795
2.13516,0.0469619,0.0372783
2.07673,0.249841,-0.134055
2.15158,-0.0578444,-0.125348
2.09517,0.148713,0.122325
2.12572,0.0467544,0.0866251
2.09645,0.148804,-0.0979015
2.12058,0.0466412,-0.111162
2.08704,0.148136,0.256901
2.12043,0.046638,0.173144
2.07133,0.249192,-0.0849968
2.12446,0.0467265,0.387437
2.10613,0.149491,-0.0491318
2.07757,0.242589,-0.0365104
2.12274,0.0392774,-0.0617883
2.10322,0.141909,0
2.15886,-0.0655807,-0.0251447
2.13441,0.0394934,-0.271729
2.15364,-0.0654222,-0.201131
2.16286,-0.0657021,0.0251913
2.09809,0.141563,-0.147047
2.12457,0.0393112,-0.173469
2.13531,0.03951,0.0372783
2.07363,0.242129,-0.133799
2.15934,-0.0655954,-0.125813
2.10364,0.141938,0.12279
2.12987,0.0394093,0.0867879
2.10094,0.141755,-0.0980876
2.13271,0.0394619,-0.11179
2.09942,0.141653,0.258363
2.12855,0.039385,0.173795
2.06822,0.241498,-0.084834
2.12854,0.0393847,0.388154
2.10664,0.14214,-0.0491318
2.07832,0.236059,-0.0365104
2.13085,0.0327296,-0.062021
2.10365,0.135299,0
2.16264,-0.0724983,-0.0251913
2.13056,0.0327252,-0.271224
2.06668,0.234737,0.0120888
2.13571,0.0328044,-0.0124142
2.16138,-0.0724562,-0.201875
2.15864,-0.0723642,0.0251447
2.10251,0.135226,-0.147326
2.13265,0.0327574,-0.17412
2.06584,0.234642,0.0605083
2.13942,0.0328613,0.0373482
2.07835,0.236062,-0.134055
2.15913,-0.0723805,-0.125813
2.10408,0.135327,0.12279
2.13797,0.0328391,0.0871136
2.10935,0.135666,-0.0984599
2.13682,0.0328213,-0.111999
2.09986,0.135055,0.258363
2.12069,0.0325737,0.173144
2.07294,0.235448,-0.0849968
2.12472,0.0326355,0.387437
2.10707,0.135519,-0.0491318
2.08315,0.228877,-0.0365802
2.12695,0.0248732,-0.0619047
2.11212,0.128073,0
2.16236,-0.0804238,-0.0251913
2.14257,0.0250557,-0.272739
2.07548,0.228035,0.0121353
2.13982,0.0250236,-0.0124375
2.1611,-0.0803771,-0.201875
2.17035,-0.0807211,0.0252844
2.10299,0.127519,-0.147326
2.14073,0.0250343,-0.174771
2.07463,0.227942,0.060741
2.08316,0.22888,-0.134311
2.15486,-0.0801448,-0.12558
2.10456,0.127615,0.12279
2.13009,0.0249098,0.0867879
2.10983,0.127934,-0.0984599
2.14092,0.0250364,-0.112208
2.1043,0.127599,0.258851
2.12877,0.0248944,0.173795
2.07776,0.228286,-0.0851596
2.12876,0.0248943,0.388154
2.10756,0.127796,-0.0491318
2.08389,0.221969,-0.0365802
2.10854,0.12084,0
2.16608,-0.0877554,-0.0252379
2.10715,0.12076,-0.328362
2.13073,0.0178513,-0.271224
2.07224,0.220728,0.012112
2.14389,0.0179615,-0.0124607
2.11196,0.121036,0.0492248
2.16208,-0.0875935,0.0251913
2.10739,0.120774,-0.147605
2.14479,0.0179691,-0.175096
2.07538,0.221062,0.060741
2.1436,0.0179591,0.037418
2.07994,0.221548,-0.134055
2.16655,-0.0877746,-0.126278
2.10896,0.120864,0.123022
2.13815,0.0179134,0.0871136
2.13699,0.0179037,-0.111999
2.10471,0.12062,0.258851
2.12884,0.0178355,0.173795
2.08248,0.221818,-0.0853225
2.13276,0.0178683,0.388872
2.11196,0.121036,-0.0492248
2.16061,0.0105598,-1.00752
2.08863,0.215103,-0.0366501
2.10495,0.113264,0
2.16975,-0.0954913,-0.0252844
2.13475,0.0104334,-0.271729
2.08096,0.214313,0.0121585
2.14394,0.0104783,-0.0124607
2.16051,-0.0950844,-0.201875
2.16975,-0.0954913,0.0252844
2.1078,0.113417,-0.147605
2.14085,0.0104632,-0.174771
2.07614,0.213816,0.060741
2.14365,0.0104769,0.037418
2.08467,0.214696,-0.134311
2.16224,-0.0951607,-0.126045
2.10538,0.113287,0.12279
2.1382,0.0104502,0.0871136
2.10666,0.113356,-0.0982737
2.13704,0.0104446,-0.111999
2.10909,0.113487,0.259338
2.13687,0.0104437,0.174445
2.07529,0.213729,-0.0849968
2.11237,0.113663,-0.0492248
2.16426,0.00264455,-1.00921
2.09339,0.207841,-0.0367199
2.1311,0.00260402,-0.062021
2.10536,0.105548,0
2.16939,-0.103444,-0.0252844
2.10796,0.105679,-0.328362
2.13874,0.00261336,-0.272234
2.07775,0.206289,0.0121353
2.10516,0.105538,-0.227046
2.1681,-0.103382,-0.202618
2.16939,-0.103444,0.0252844
2.1082,0.10569,-0.147605
2.14088,0.00261597,-0.174771
2.07691,0.206205,0.060741
2.13967,0.0026145,0.0373482
2.08148,0.206659,-0.134055
2.16985,-0.103466,-0.126511
2.11376,0.105969,0.123255
2.14222,0.00261762,0.0872764
2.10308,0.105434,-0.0980876
2.14106,0.0026162,-0.112208
2.11345,0.105954,0.259825
2.12493,0.00259649,0.173469
2.08004,0.206516,-0.0851596
2.11677,0.10612,-0.0493179
2.16426,-0.00415428,-1.00921
2.09403,0.201264,-0.0367199
2.13509,-0.00409829,-0.0621374
2.11367,0.0993092,0
2.16506,-0.110055,-0.0252379
2.13874,-0.00410529,-0.272234
2.07839,0.199761,0.0121353
2.16776,-0.110193,-0.202618
2.16905,-0.110258,0.0252844
2.11251,0.0992545,-0.147884
2.14885,-0.00412469,-0.175422
2.07754,0.199679,0.060741
2.14367,-0.00411475,0.037418
2.07814,0.199737,-0.133799
2.17351,-0.110485,-0.126743
2.11408,0.0993286,0.123255
2.11138,0.0992016,-0.0984599
2.14505,-0.00411741,-0.112418
2.11378,0.0993142,0.259825
2.14087,-0.00410939,0.174771
2.08466,0.200363,-0.0853225
2.11709,0.09947,-0.0493179
2.15698,-0.0116703,-1.00583
2.09074,0.193584,-0.0366501
2.13906,-0.0115733,-0.0622537
2.118,0.0921037,0
2.17265,-0.118046,-0.025331
2.14268,-0.0115929,-0.272739
2.07907,0.192504,0.0121353
2.14393,-0.0115997,-0.0124607
2.16737,-0.11776,-0.202618
2.18064,-0.11848,0.0254241
2.11683,0.0920527,-0.148163
2.14483,-0.0116045,-0.175096
2.08619,0.193163,0.0609738
2.09075,0.193585,-0.134567
2.14619,-0.0116119,0.0874392
2.11171,0.0918303,-0.0984599
2.14503,-0.0116056,-0.112418
2.11411,0.0919346,0.259825
2.14085,-0.011583,0.174771
2.08932,0.193453,-0.0854853
2.12142,0.0922525,-0.0494109
2.16055,-0.0196094,-1.00752
2.09143,0.185919,-0.0366501
2.12232,0.0844988,0
2.16821,-0.125778,-0.0252844
2.11684,0.0842806,-0.329592
2.14659,-0.0194827,-0.273244
2.08375,0.185236,0.0121585
2.1709,-0.125934,-0.20299
2.1722,-0.126009,0.025331
2.11715,0.084293,-0.148163
2.14876,-0.0195024,-0.175422
2.08688,0.185515,0.0609738
2.09542,0.186274,-0.134823
2.16867,-0.125805,-0.126511
2.12272,0.0845147,0.12372
2.13814,-0.019406,0.0871136
2.11204,0.0840894,-0.0984599
2.14497,-0.019468,-0.112418
2.11443,0.0841849,0.259825
2.14478,-0.0194662,0.175096
2.08604,0.18544,-0.0853225
2.11775,0.0843168,-0.0493179
2.16409,-0.0275738,-1.00921
2.10007,0.178932,-0.0367897
2.13892,-0.0272531,-0.0622537
2.11462,0.0764311,0
2.17971,-0.134462,-0.0254241
2.14651,-0.0273497,-0.273244
2.09238,0.178277,0.012205
2.15179,-0.0274171,-0.0125072
2.17172,-0.13397,0.025331
2.11346,0.076389,-0.147884
2.14469,-0.0273266,-0.175096
2.08755,0.177865,0.0609738
2.1515,-0.0274133,0.0375576
2.09211,0.178254,-0.134567
2.17218,-0.133998,-0.126743
2.12301,0.0767345,0.12372
2.14605,-0.0273439,0.0874392
2.11632,0.0764926,-0.098646
2.14488,-0.0273291,-0.112418
2.11473,0.076435,0.259825
2.1407,-0.0272758,0.174771
2.09068,0.178132,-0.0854853
2.12204,0.0766992,-0.0494109
2.16399,-0.0343719,-1.00921
2.11885,0.0699197,0
2.17528,-0.14105,-0.0253776
2.12131,0.0700011,-0.330207
2.14641,-0.0340926,-0.273244
2.08895,0.171376,0.0121818
2.11461,0.0697799,-0.227903
2.17794,-0.141222,-0.203733
2.17928,-0.141309,0.0254241
2.11767,0.069881,-0.148163
2.14459,-0.0340638,-0.175096
2.0881,0.171307,0.0609738
2.1554,-0.0342354,0.0376274
2.09266,0.171681,-0.134567
2.17574,-0.141079,-0.126976
2.12724,0.0701966,0.123952
2.14995,-0.0341488,0.0876021
2.12454,0.0701076,-0.0990182
2.14878,-0.0341303,-0.112627
2.12289,0.0700533,0.2608
2.15257,-0.0341904,0.175747
2.09522,0.171891,-0.0856481
2.13026,0.0702965,-0.049597
2.16747,-0.0423745,-1.0109
2.10124,0.164633,-0.0367897
2.14268,-0.0418898,-0.0623701
2.11509,0.0620355,0
2.17874,-0.149296,-0.0254241
2.15024,-0.0420375,-0.27375
2.08557,0.163406,0.0121585
2.1228,0.0622617,-0.228759
2.17741,-0.149204,-0.203733
2.18273,-0.149569,0.0254707
2.12589,0.0623523,-0.148721
2.14446,-0.0419245,-0.175096
2.08473,0.163339,0.0608574
2.15126,-0.0420575,0.0375576
2.09328,0.164009,-0.134567
2.17919,-0.149326,-0.127208
2.12748,0.0623988,0.123952
2.14981,-0.0420291,0.0876021
2.11679,0.0620854,-0.098646
2.14465,-0.0419282,-0.112418
2.11917,0.0621551,0.260313
2.14844,-0.0420024,0.175422
2.09185,0.163897,-0.0854853
2.12651,0.0623704,-0.049504
2.09781,0.156999,-0.0367199
2.12329,0.0548591,0
2.17422,-0.156612,-0.0253776
2.12176,0.0548195,-0.330207
2.09411,0.156722,0.012205
2.15939,-0.0497571,-0.0125537
2.1822,-0.157187,0.0254707
2.1261,0.0549316,-0.148721
2.09724,0.156957,0.0612065
2.1591,-0.0497504,0.0376972
2.1018,0.157298,-0.135078
2.17467,-0.156645,-0.126976
2.12768,0.0549726,0.123952
2.15364,-0.0496247,0.0877649
2.12499,0.0549029,-0.0990182
2.14848,-0.0495057,-0.112627
2.12731,0.0549629,0.261288
2.15227,-0.049593,0.175747
2.09639,0.156893,-0.0856481
2.12671,0.0549476,-0.049504
2.10234,0.14996,-0.0367897
2.12347,0.0474467,0
2.18164,-0.164804,-0.0254707
2.12984,0.047589,-0.331436
2.14989,-0.0570479,-0.27375
2.09464,0.149411,0.012205
2.1632,-0.0574011,-0.012577
2.18164,-0.164804,0.0254707
2.12628,0.0475094,-0.148721
2.15208,-0.057106,-0.175747
2.09778,0.149635,0.0612065
2.10632,0.150244,-0.135334
2.17809,-0.164536,-0.127208
2.12786,0.0475448,0.123952
2.14946,-0.0570364,0.0876021
2.12117,0.0473953,-0.0988321
2.15628,-0.0572174,-0.113046
2.12352,0.0474478,0.2608
2.15208,-0.057106,0.175747
2.10091,0.149858,-0.085811
2.13489,0.0477018,-0.0496901
2.11083,0.143162,-0.0369293
2.11962,0.0399587,0
2.18105,-0.172418,-0.0254707
2.15364,-0.0646711,-0.274255
2.09914,0.142369,0.0122283
2.16299,-0.0649517,-0.012577
2.18366,-0.172625,-0.204477
2.17706,-0.172103,0.0254241
2.12643,0.040087,-0.148721
2.15187,-0.0646178,-0.175747
2.09829,0.142311,0.0612065
2.1627,-0.0649429,0.037767
2.10683,0.14289,-0.135334
2.18149,-0.172453,-0.127441
2.13201,0.0401922,0.124185
2.16123,-0.064899,0.0880906
2.12532,0.040066,-0.0990182
2.12764,0.0401098,0.261288
2.15585,-0.0647374,0.176073
2.10541,0.142794,-0.0859738
2.13504,0.0402494,-0.0496901
2.14989,-0.071695,-0.0626028
2.12774,0.0330538,0
2.18046,-0.17965,-0.0254707
2.15738,-0.0719448,-0.27476
2.10359,0.135665,0.0122515
2.12744,0.033049,-0.229188
2.13916,0.0332312,0.0497831
2.18445,-0.179978,0.0255173
2.12655,0.0330353,-0.148721
2.09875,0.135352,0.0612065
2.16647,-0.0722476,0.0378368
2.10729,0.135903,-0.135334
2.18488,-0.180014,-0.127673
2.13612,0.033184,0.124418
2.165,-0.0721987,0.0882534
2.13343,0.0331421,-0.0993905
2.15185,-0.0717602,-0.112836
2.12776,0.0330541,0.261288
2.15164,-0.0717533,0.175747
2.10189,0.135554,-0.085811
2.13516,0.0331691,-0.0496901
2.15363,-0.0793463,-0.0627192
2.12785,0.0256264,0
2.09607,0.127834,0.012205
2.16649,-0.0798204,-0.0126002
2.18779,-0.187945,0.0255638
2.12665,0.025612,-0.148721
2.15536,-0.0794103,-0.176073
2.09921,0.128025,0.0612065
2.15821,-0.079515,0.0376972
2.10775,0.128546,-0.135334
2.18822,-0.187981,-0.127906
2.16473,-0.0797555,0.0882534
2.12954,0.0256468,-0.0992044
2.16356,-0.0797123,-0.113464
2.12786,0.0256266,0.261288
2.15536,-0.0794103,0.176073
2.10634,0.12846,-0.0859738
2.14326,0.0258121,-0.0498762
2.10822,0.120821,-0.0368595
2.13193,0.0178608,0
2.1085,0.120837,0.0122748
2.16619,-0.0877604,-0.0126002
2.18967,-0.196193,-0.205221
2.19107,-0.196319,0.0256104
2.14269,0.017951,-0.149837
2.10765,0.120788,0.0614392
2.16589,-0.0877485,0.0378368
2.10821,0.12082,-0.135334
2.13231,0.017864,0.124185
2.16043,-0.0875274,0.0880906
2.12962,0.0178414,-0.0992044
2.16325,-0.0876416,-0.113464
2.13588,0.017894,0.262263
2.16302,-0.0876323,0.176724
2.11477,0.121196,-0.0862994
2.14334,0.0179565,-0.0498762
2.13597,0.0104384,0
2.19038,-0.203966,-0.0256104
2.1343,0.0104302,-0.332051
2.16442,-0.0952578,-0.27577
2.11291,0.113691,0.012298
2.16986,-0.0954971,-0.0126235
2.18897,-0.203836,-0.205221
2.19038,-0.203966,0.0256104
2.13077,0.010413,-0.149
2.16669,-0.0953574,-0.177049
2.11604,0.11386,0.0616719
2.17356,-0.0956601,0.0379764
2.11659,0.113889,-0.135846
2.18682,-0.203635,-0.127906
2.13635,0.0104403,0.124418
2.16012,-0.0950681,0.0880906
2.12967,0.0104076,-0.0992044
2.16294,-0.0951923,-0.113464
2.13593,0.0104382,0.262263
2.16669,-0.0953574,0.177049
2.11518,0.113814,-0.0862994
2.14339,0.0104747,-0.0498762
2.12098,0.107073,-0.0370689
2.132,0.00334894,0
2.1641,-0.102435,-0.27577
2.11327,0.106684,0.012298
2.17353,-0.102881,-0.0126467
2.13564,0.00335467,-0.230044
2.18571,-0.210845,0.0255638
2.13478,0.00335332,-0.149279
2.16238,-0.102353,-0.176724
2.11241,0.106641,0.0615556
2.17324,-0.102867,0.0379764
2.11696,0.10687,-0.135846
2.19011,-0.211269,-0.128138
2.13638,0.00335582,0.124418
2.16777,-0.102609,0.0884162
2.14168,0.00336414,-0.0997627
2.16261,-0.102364,-0.113464
2.13993,0.00336139,0.26275
2.16636,-0.102542,0.177049
2.11555,0.106799,-0.0862994
2.14742,0.00337316,-0.0499692
2.12134,0.0996686,-0.0370689
2.136,-0.00410082,0
2.11763,0.0994944,0.0123213
2.17316,-0.110468,-0.0126467
2.13564,-0.00410014,-0.230044
2.18894,-0.218871,0.0256104
2.13877,-0.00410615,-0.149558
2.16201,-0.109901,-0.176724
2.11277,0.0992663,0.0615556
2.17286,-0.110453,0.0379764
2.11333,0.0992924,-0.13559
2.1973,-0.219707,-0.128604
2.14037,-0.00410922,0.12465
2.17139,-0.110378,0.0885791
2.14167,-0.00411172,-0.0997627
2.16623,-0.110115,-0.113674
2.13596,-0.00410074,0.262263
2.16599,-0.110103,0.177049
2.1199,0.0996012,-0.0864623
2.14741,-0.00412274,-0.0499692
2.12169,0.0918929,-0.0370689
2.13197,-0.0119073,0
2.1921,-0.227305,-0.0256569
2.10999,0.0913861,0.0122748
2.17673,-0.11865,-0.01267
2.19608,-0.227717,0.0257035
2.13874,-0.0119451,-0.149558
2.16557,-0.118041,-0.177049
2.11712,0.091695,0.0616719
2.16845,-0.118198,0.0379066
2.11368,0.091546,-0.13559
2.20045,-0.228171,-0.128836
2.14034,-0.011954,0.12465
2.17097,-0.118336,0.0885791
2.14964,-0.012006,-0.100135
2.16581,-0.118054,-0.113674
2.14387,-0.0119737,0.263238
2.16557,-0.118041,0.177049
2.12025,0.0918307,-0.0864623
2.14339,-0.011971,-0.0498762
2.12598,0.0850164,-0.0371387
2.13992,-0.0190483,0
2.19531,-0.234998,-0.0257035
2.11427,0.0845484,0.012298
2.18032,-0.126098,-0.0126932
2.15133,-0.0191499,0.0500623
2.19531,-0.234998,0.0257035
2.14667,-0.0191084,-0.150116
2.16915,-0.125452,-0.177375
2.11741,0.0846738,0.0616719
2.17603,-0.12585,0.0380462
2.11397,0.0845363,-0.13559
2.19571,-0.235042,-0.128604
2.14029,-0.0190516,0.12465
2.17057,-0.125534,0.0885791
2.1376,-0.0190276,-0.0995766
2.17338,-0.125697,-0.114092
2.13984,-0.0190476,0.26275
2.17313,-0.125682,0.1777
2.12454,0.0849589,-0.0866251
2.14733,-0.0191143,-0.0499692
2.12626,0.0775948,-0.0371387
2.13584,-0.0264683,0
2.20243,-0.243539,-0.0257966
2.17434,-0.133369,-0.277285
2.12655,0.0776053,0.0123678
2.17987,-0.133708,-0.0126932
2.15525,-0.0267089,0.0501553
2.19845,-0.2431,0.0257501
2.14659,-0.0266016,-0.150116
2.17666,-0.133511,-0.178025
2.12169,0.077428,0.0617883
2.18356,-0.133935,0.0381859
2.12223,0.0774478,-0.136102
2.19885,-0.243144,-0.128836
2.1442,-0.026572,0.124883
2.17012,-0.13311,0.0885791
2.14151,-0.0265386,-0.0997627
2.13977,-0.026517,0.26275
2.17666,-0.133511,0.178025
2.12482,0.0775423,-0.0866251
2.15125,-0.0266593,-0.0500623
2.1305,0.0706761,-0.0372085
2.13974,-0.0336137,0
2.14592,-0.0337108,-0.333896
2.1188,0.0702878,0.0123213
2.1834,-0.141194,-0.0127165
2.1425,-0.0336571,-0.149837
2.17222,-0.140471,-0.1777
2.12593,0.0705244,0.0619047
2.18311,-0.141175,0.0381859
2.12248,0.0704098,-0.136102
2.14809,-0.033745,0.125115
2.16966,-0.140306,0.0885791
2.14541,-0.0337028,-0.0999489
2.13967,-0.0336125,0.26275
2.17222,-0.140471,0.1777
2.12507,0.0704957,-0.0866251
2.14715,-0.0337302,-0.0499692
2.13074,0.0632388,-0.0372085
2.20866,-0.259458,-0.0258898
2.12303,0.06301,0.0123445
2.17891,-0.148543,-0.0126932
2.14718,-0.041228,-0.23133
2.14636,-0.0412123,-0.150116
2.12217,0.0629844,0.0617883
2.17861,-0.148523,0.0381161
2.1267,0.0631189,-0.136357
2.20508,-0.259037,-0.129301
2.15196,-0.0413197,0.125348
2.17714,-0.148422,0.0889047
2.14927,-0.0412681,-0.100135
2.17197,-0.14807,-0.114092
2.1435,-0.0411574,0.263238
2.16774,-0.147782,0.177375
2.1293,0.063196,-0.0867879
2.15502,-0.0413785,-0.0501553
2.13494,0.0559055,-0.0372783
2.14745,-0.0487324,0
2.20377,-0.266686,-0.0258432
2.14958,-0.0487808,-0.334511
2.13123,0.0558083,0.012391
2.18635,-0.15672,-0.0127397
2.14702,-0.0487228,-0.23133
2.14621,-0.0487042,-0.150116
2.17914,-0.156203,-0.178351
2.17808,-0.156127,0.0381161
2.12691,0.055695,-0.136357
2.20416,-0.266732,-0.129301
2.1518,-0.0488312,0.125348
2.1766,-0.156021,0.0889047
2.14912,-0.0487703,-0.100135
2.17543,-0.155936,-0.114302
2.14732,-0.0487294,0.263725
2.17516,-0.155918,0.178025
2.12151,0.0555538,-0.0864623
2.15486,-0.0489007,-0.0501553
2.13513,0.0480801,-0.0372783
2.15525,-0.0568137,0
2.15334,-0.0567632,-0.335126
2.13142,0.0479966,0.012391
2.18178,-0.164431,-0.0127165
2.20675,-0.275256,0.0258898
2.15,-0.0566753,-0.150395
2.17855,-0.164189,-0.178351
2.13056,0.0479771,0.062021
2.18946,-0.16501,0.0383255
2.13109,0.047989,-0.136613
2.15959,-0.056928,0.125813
2.18,-0.164298,0.0890675
2.15292,-0.0567521,-0.100321
2.18281,-0.164509,-0.11472
2.15109,-0.056704,0.264213
2.17855,-0.164189,0.178351
2.12969,0.0479576,-0.0867879
2.15867,-0.0569037,-0.0502484
2.13129,0.0405507,-0.0372085
2.15104,-0.0642172,0
2.20577,-0.282958,-0.0258898
2.13158,0.0405562,0.012391
2.19315,-0.17299,-0.0127862
2.15457,-0.0643226,-0.232186
2.20577,-0.282958,0.0258898
2.15777,-0.064418,-0.150953
2.13471,0.0406158,0.0621374
2.18488,-0.172337,0.0382557
2.13124,0.0405498,-0.136613
2.15139,-0.0642277,0.125348
2.17543,-0.171592,0.0889047
2.1567,-0.0643861,-0.100507
2.18222,-0.172128,-0.11472
2.14691,-0.0640939,0.263725
2.18194,-0.172106,0.178676
2.13784,0.0406754,-0.0871136
2.16245,-0.0645578,-0.0503414
2.13941,0.0336085,-0.0373482
2.1357,0.0335503,0.0124142
2.19257,-0.180262,-0.0127862
2.15435,-0.071467,-0.232186
2.15355,-0.0714407,-0.150674
2.18136,-0.17934,-0.178676
2.13483,0.0335366,0.0621374
2.19227,-0.180237,0.0383953
2.13136,0.0334821,-0.136613
2.15516,-0.0714941,0.12558
2.17884,-0.179133,0.0890675
2.14669,-0.071213,0.263725
2.17739,-0.179014,0.178351
2.13397,0.033523,-0.0869508
2.16622,-0.071861,-0.0504345
2.15055,-0.0788573,0
2.1318,0.0260462,0.012391
2.19192,-0.187914,-0.0127862
2.16127,-0.0792501,-0.151232
2.13494,0.0260845,0.0621374
2.18764,-0.187547,0.0383255
2.13147,0.0260421,-0.136613
2.15889,-0.0791629,0.125813
2.18616,-0.18742,0.0893932
2.1602,-0.0792111,-0.100693
2.18498,-0.187319,-0.11493
2.15833,-0.0791424,0.265188
2.18072,-0.186954,0.178676
2.13407,0.0260739,-0.0869508
2.16995,-0.0795686,-0.0505275
2.13959,0.018672,-0.0373482
2.15426,-0.0865242,0
2.22255,-0.308405,-0.0261226
2.13188,0.0186047,0.012391
2.19524,-0.19592,-0.0128095
2.21067,-0.306755,0.0259829
2.16098,-0.0867938,-0.151232
2.188,-0.195273,-0.179327
2.13901,0.0186669,0.0622537
2.18697,-0.195182,0.0383255
2.13554,0.0186366,-0.136869
2.1586,-0.0866983,0.125813
2.18947,-0.195405,0.089556
2.15592,-0.0865908,-0.100507
2.18431,-0.194944,-0.11493
2.16201,-0.0868352,0.265675
2.18403,-0.194919,0.179002
2.13015,0.0185896,-0.0867879
2.16167,-0.0868217,-0.0503414
2.13964,0.0112033,-0.0373482
2.15794,-0.0942179,0
2.22146,-0.316161,-0.0261226
2.13593,0.0111838,0.0124142
2.19454,-0.203581,-0.0128095
2.17334,-0.0948901,0.0506206
2.21354,-0.315034,0.0260295
2.17262,-0.0948586,-0.152069
2.13907,0.0112002,0.0622537
2.19424,-0.203554,0.0384651
2.13958,0.0112029,-0.137125
2.15828,-0.0942327,0.125813
2.18878,-0.203047,0.089556
2.16359,-0.0944644,-0.100879
2.19157,-0.203306,-0.115348
2.16169,-0.0943815,0.265675
2.14219,0.0112166,-0.0872764
2.16136,-0.0943668,-0.0503414
2.14767,0.00374839,-0.0374878
2.1576,-0.10175,0
2.22035,-0.323913,-0.0261226
2.14796,0.0037489,0.012484
2.19382,-0.21124,-0.0128095
2.169,-0.102288,0.0505275
2.1643,-0.102066,-0.151511
2.19452,-0.211308,-0.179978
2.14709,0.00374738,0.0624865
2.19352,-0.211212,0.0384651
2.13961,0.00373432,-0.137125
2.15794,-0.101766,0.125813
2.19203,-0.211069,0.0897188
2.15926,-0.101828,-0.100693
2.16135,-0.101927,0.265675
2.13423,0.00372493,-0.0869508
2.169,-0.102288,-0.0505275
2.16123,-0.109483,0
2.2192,-0.331662,-0.0261226
2.14796,-0.0037489,0.012484
2.20103,-0.219692,-0.012856
2.17263,-0.11006,0.0506206
2.16792,-0.109822,-0.15179
2.14709,-0.00374738,0.0624865
2.19675,-0.219265,0.0385349
2.14759,-0.00374826,-0.137637
2.16555,-0.109702,0.126278
2.19526,-0.219116,0.0898817
2.17086,-0.109971,-0.101252
2.16494,-0.109671,0.266163
2.13822,-0.00373191,-0.0871136
2.17662,-0.110263,-0.0507136
2.1914,-0.226459,-0.0641155
2.16483,-0.117243,0
2.15193,-0.0112676,0.0125072
2.20422,-0.227784,-0.0128792
2.16826,-0.117429,-0.2339
2.17622,-0.11786,0.0507136
2.16752,-0.117389,-0.15179
2.15106,-0.011263,0.0626028
2.19597,-0.226931,0.0385349
2.13958,-0.0112029,-0.137125
2.16914,-0.117476,0.126511
2.19448,-0.226778,0.0898817
2.16647,-0.117332,-0.101066
2.14219,-0.0112166,-0.0872764
2.17622,-0.11786,-0.0507136
2.14759,-0.0187417,-0.0374878
2.1684,-0.125029,0
2.14788,-0.0187443,0.012484
2.20342,-0.235477,-0.0128792
2.17181,-0.125226,-0.234328
2.17979,-0.125686,0.0508067
2.22474,-0.348384,0.0262157
2.17507,-0.125414,-0.152348
2.14701,-0.0187367,0.0624865
2.19914,-0.23502,0.0386047
2.14352,-0.0187062,-0.137381
2.16074,-0.124588,0.126045
2.20163,-0.235286,0.0902073
2.17403,-0.125354,-0.101438
2.19646,-0.234734,-0.115767
2.14614,-0.0187291,-0.0874392
2.1718,-0.125225,-0.0506206
2.15151,-0.026287,-0.0375576
2.17194,-0.132842,0
2.1518,-0.0262905,0.0125072
2.20258,-0.243167,-0.0128792
2.17136,-0.132806,-0.234328
2.18333,-0.133538,0.0508998
2.17462,-0.133005,-0.152348
2.15493,-0.0263287,0.0627192
2.19831,-0.242695,0.0386047
2.14344,-0.0261884,-0.137381
2.16827,-0.132617,0.126511
2.20079,-0.24297,0.0902073
2.17358,-0.132942,-0.101438
2.1996,-0.242838,-0.115976
2.15006,-0.0262692,-0.0876021
2.17135,-0.132806,-0.0506206
2.15141,-0.033797,-0.0375576
2.17146,-0.140422,0
2.1557,-0.0338644,0.0125305
2.20569,-0.251307,-0.0129024
2.17088,-0.140385,-0.234328
2.17886,-0.1409,0.0508067
2.2262,-0.364554,0.0262623
2.17812,-0.140853,-0.152627
2.15482,-0.0338506,0.0627192
2.20539,-0.251273,0.0387443
2.14334,-0.0336702,-0.137381
2.17975,-0.140958,0.127208
2.19596,-0.250198,0.0900445
2.16911,-0.14027,-0.101252
2.19874,-0.250515,-0.115976
2.14995,-0.0337741,-0.0876021
2.17088,-0.140384,-0.0506206
2.15528,-0.0410072,-0.0376274
2.19998,-0.258049,-0.0644646
2.17498,-0.147894,0
2.20485,-0.25862,-0.0129024
2.17834,-0.148122,-0.235185
2.18636,-0.148668,0.0509928
2.17764,-0.148075,-0.152627
2.1507,-0.04092,0.0626028
2.20852,-0.259051,0.0388142
2.1512,-0.0409295,-0.137892
2.17927,-0.148185,0.127208
2.20306,-0.25841,0.0903702
2.17661,-0.148005,-0.101624
2.20186,-0.25827,-0.116186
2.14983,-0.0409034,-0.0876021
2.18237,-0.148396,-0.0508998
2.15913,-0.0482435,-0.0376972
2.18246,-0.155675,0
2.15942,-0.04825,0.0125537
2.21192,-0.266888,-0.0129489
2.1818,-0.155628,-0.235614
2.18984,-0.156202,0.0510859
2.1851,-0.155863,-0.153185
2.15455,-0.0481411,0.0627192
2.20765,-0.266373,0.0388142
2.15504,-0.0481521,-0.138148
2.18275,-0.155695,0.127441
2.20616,-0.266193,0.090533
2.18408,-0.15579,-0.101996
2.15368,-0.0481216,-0.0877649
2.17788,-0.155348,-0.0508067
2.15494,-0.0560528,-0.0376274
2.17788,-0.163373,0
2.15923,-0.0561644,0.0125537
2.2149,-0.275487,-0.0129722
2.18122,-0.163624,-0.235614
2.18925,-0.164227,0.0510859
2.18053,-0.163572,-0.152906
2.15836,-0.0561416,0.0628356
2.20269,-0.273969,0.0387443
2.14687,-0.0558428,-0.137637
2.17818,-0.163396,0.127208
2.20913,-0.27477,0.0906958
2.19146,-0.164392,-0.102368
2.2119,-0.275114,-0.116814
2.15348,-0.0560149,-0.0877649
2.17729,-0.163329,-0.0508067
2.15873,-0.0636925,-0.0376972
2.18129,-0.171288,0
2.20599,-0.282202,-0.0129257
2.1846,-0.171548,-0.236042
2.18867,-0.171868,0.0510859
2.18791,-0.171808,-0.153464
2.16214,-0.0637932,0.0629519
2.20965,-0.282671,0.038884
2.15863,-0.0636896,-0.138404
2.18158,-0.171311,0.127441
2.20816,-0.28248,0.0906958
2.18689,-0.171728,-0.102182
2.21092,-0.282834,-0.116814
2.15727,-0.0636495,-0.0879277
2.1807,-0.171241,-0.0508998
2.1665,-0.0711132,-0.0378368
2.18469,-0.178847,0
2.1628,-0.0709916,0.012577
2.21297,-0.290557,-0.0129722
2.19207,-0.179451,0.0511789
2.18732,-0.179062,-0.153464
2.16592,-0.071094,0.0630683
2.21267,-0.290518,0.0389538
2.15442,-0.0707165,-0.138148
2.18498,-0.17887,0.127673
2.18631,-0.178979,-0.102182
2.15705,-0.0708029,-0.0879277
2.18012,-0.178472,-0.0508998
2.16623,-0.0790534,-0.0378368
2.18402,-0.186853,0
2.21585,-0.299201,-0.0129954
2.19538,-0.187825,0.051272
2.18665,-0.187078,-0.153464
2.16165,-0.0788861,0.0629519
2.21555,-0.299161,0.0390236
2.15813,-0.078758,-0.138404
2.18431,-0.186877,0.127673
2.1936,-0.187672,-0.102555
2.15278,-0.0785626,-0.0877649
2.18742,-0.187143,-0.0510859
2.16594,-0.0866145,-0.0378368
2.18734,-0.19483,0
2.17023,-0.086786,0.0126235
2.22272,-0.308032,-0.0130419
2.19471,-0.195487,0.051272
2.18996,-0.195064,-0.153743
2.16136,-0.0864312,0.0629519
2.21846,-0.307442,0.0390934
2.16183,-0.0864503,-0.13866
2.18762,-0.194855,0.127906
2.18895,-0.194974,-0.102368
2.16048,-0.0863961,-0.0880906
2.19073,-0.195132,-0.0511789
2.16962,-0.0943482,-0.0379066
2.19461,-0.203202,0
2.16991,-0.094361,0.0126235
2.21371,-0.314663,-0.0129954
2.198,-0.203515,0.051365
2.19324,-0.203075,-0.154022
2.16504,-0.094149,0.0630683
2.21737,-0.315184,0.0390934
2.16152,-0.093996,-0.13866
2.1909,-0.202858,0.128138
2.20019,-0.203718,-0.102927
2.16815,-0.0942844,-0.0884162
2.18606,-0.202409,-0.0510859
2.16928,-0.101921,-0.0379066
2.18991,-0.210478,0
2.17357,-0.102123,0.0126467
2.21656,-0.322966,-0.0130187
2.20126,-0.211569,0.0514581
2.19252,-0.210729,-0.154022
2.16469,-0.101706,0.0630683
2.22813,-0.324652,0.0393028
2.16516,-0.101728,-0.138916
2.19018,-0.210504,0.128138
2.20345,-0.21178,-0.103113
2.15982,-0.101477,-0.0880906
2.1933,-0.210804,-0.051272
2.16891,-0.109493,-0.0379066
2.19314,-0.218518,0
2.1732,-0.109709,0.0126467
2.22728,-0.332472,-0.0130884
2.20051,-0.219252,0.0514581
2.19177,-0.218381,-0.154022
2.16832,-0.109463,0.0631846
2.22698,-0.332427,0.0393028
2.16081,-0.109084,-0.13866
2.1934,-0.218544,0.128371
2.19474,-0.218677,-0.102741
2.17143,-0.10962,-0.0885791
2.19255,-0.218459,-0.051272
2.17654,-0.116734,-0.0380462
2.19642,-0.225816,0
2.17683,-0.11675,0.01267
2.22227,-0.338865,-0.0130652
2.20378,-0.226573,0.0515511
2.19504,-0.225674,-0.154301
2.17595,-0.116703,0.0634174
2.16444,-0.116085,-0.138916
2.19668,-0.225842,0.128604
2.19404,-0.225571,-0.102741
2.16309,-0.116013,-0.0882534
2.19583,-0.225755,-0.051365
2.17608,-0.125091,-0.0380462
2.19156,-0.233824,0
2.18036,-0.125337,0.0126932
2.22886,-0.348632,-0.0131117
2.20687,-0.235457,0.0516442
2.20209,-0.234947,-0.154859
2.17549,-0.125057,0.0634174
2.16797,-0.124624,-0.139172
2.19183,-0.233852,0.128371
2.20508,-0.235266,-0.103299
2.16662,-0.124547,-0.0884162
2.19495,-0.234185,-0.051365
2.17563,-0.132686,-0.0380462
2.19868,-0.242349,0
2.17592,-0.132704,0.01267
2.21001,-0.243597,0.0517372
2.20126,-0.242633,-0.154859
2.17903,-0.132893,0.0635337
2.16752,-0.132191,-0.139172
2.19496,-0.241939,0.128604
2.20822,-0.243399,-0.103485
2.17415,-0.132596,-0.0887419
2.19809,-0.242283,-0.0514581
2.18313,-0.140794,-0.0381859
2.20577,-0.250926,0
2.17944,-0.140556,0.0126932
2.20915,-0.25131,0.0517372
2.17855,-0.140499,0.0635337
2.17501,-0.14027,-0.139683
2.20204,-0.250502,0.129069
2.20735,-0.251106,-0.103485
2.17767,-0.140442,-0.0889047
2.2012,-0.250406,-0.0515511
2.18664,-0.148304,-0.0382557
2.20493,-0.258239,0
2.2083,-0.258635,0.0517372
2.17807,-0.147722,0.0635337
2.20651,-0.258424,-0.103485
2.18118,-0.147933,-0.0890675
2.20433,-0.25817,-0.0516442
2.18212,-0.155651,-0.0381859
2.20004,-0.265455,0
2.1904,-0.156241,0.012763
2.21136,-0.266821,0.0518303
2.17754,-0.155324,0.0635337
2.17799,-0.155356,-0.139939
2.20956,-0.266604,-0.103671
2.17267,-0.154977,-0.0887419
2.20739,-0.266342,-0.0517372
2.18157,-0.163267,-0.0381859
2.21101,-0.274612,0
2.18186,-0.163289,0.0127165
2.22232,-0.276017,0.0521094
2.17699,-0.162924,0.0635337
2.17743,-0.162957,-0.139939
2.21258,-0.274807,-0.103857
2.1761,-0.162858,-0.0889047
2.20644,-0.274045,-0.0517372
2.185,-0.170812,-0.0382557
2.21406,-0.282449,0
2.19327,-0.171459,0.0127862
2.21742,-0.282879,0.0520164
2.18839,-0.171077,0.0638828
2.21959,-0.283154,-0.10423
2.17954,-0.170385,-0.0890675
2.20949,-0.281866,-0.0518303
2.18834,-0.179146,-0.0383255
2.20904,-0.290041,0
2.19263,-0.179496,0.0127862
2.21637,-0.291004,0.0520164
2.18775,-0.179097,0.0638828
2.1842,-0.178806,-0.140451
2.21061,-0.290247,-0.103857
2.18288,-0.178698,-0.0892304
2.18771,-0.186783,-0.0383255
2.21198,-0.298285,0
2.19597,-0.187489,0.0128095
2.21931,-0.299273,0.0521094
2.1911,-0.187073,0.0639992
2.18754,-0.186769,-0.140707
2.18623,-0.186657,-0.0893932
2.21138,-0.298204,-0.0519233
2.19106,-0.19439,-0.0383953
2.21098,-0.305619,0
2.19932,-0.195124,0.0128327
2.22226,-0.307179,0.0522025
2.19046,-0.194338,0.0639992
2.18691,-0.194022,-0.140707
2.1856,-0.193906,-0.0893932
2.19431,-0.202788,-0.0384651
2.21776,-0.314845,0
2.19461,-0.202815,0.0128095
2.22508,-0.315884,0.0522955
2.18974,-0.202365,0.0639992
2.18618,-0.202036,-0.140707
2.18487,-0.201915,-0.0893932
2.20156,-0.21121,-0.0386047
2.22061,-0.32316,0
2.19787,-0.210857,0.0128327
2.193,-0.210389,0.0641155
2.19341,-0.210428,-0.141218
2.18813,-0.209922,-0.089556
2.19682,-0.218498,-0.0385349
2.22738,-0.332089,0
2.20508,-0.219319,0.0128792
2.19225,-0.218043,0.0641155
2.19534,-0.21835,-0.0898817
2.21887,-0.33082,-0.0522025
2.20408,-0.226215,-0.0386745
2.22237,-0.338483,0
2.20836,-0.226654,0.0129024
2.19553,-0.225337,0.0642319
2.19991,-0.225786,-0.14173
2.19862,-0.225654,-0.0900445
2.20324,-0.234292,-0.0386745
2.20752,-0.234746,0.0129024
2.20264,-0.234228,0.0644646
2.20303,-0.23427,-0.141986
2.20175,-0.234133,-0.0902073
2.21434,-0.243291,-0.038884
