2.39374,0.706331,-0.145348
2.37702,0.692388,-0.144185
2.37558,0.682983,-0.143952
2.37027,0.672506,-0.143487
2.36876,0.663151,-0.143255
2.37117,0.654465,-0.143255
2.36562,0.644499,-0.142789
2.35629,0.63313,-0.142092
2.37524,0.629785,-0.229386
2.35837,0.625312,-0.142092
2.36972,0.619475,-0.228642
2.35668,0.616066,-0.141859
2.36801,0.610205,-0.228271
2.35882,0.607835,-0.141859
2.34926,0.596636,-0.028218
2.36627,0.600956,-0.227899
2.34931,0.59665,-0.141162
2.34356,0.586489,-0.0281249
2.36062,0.590758,-0.227155
2.34751,0.587476,-0.140929
2.34948,0.579263,-0.0281714
2.35107,0.579655,-0.22604
2.34179,0.577367,-0.140464
2.3476,0.570114,-0.0281249
2.34379,0.569188,-0.140464
2.37523,0.701321,-0.129793
2.33791,0.559124,-0.0279852
2.35506,0.563226,-0.22604
2.33402,0.558194,0.0279386
2.34188,0.560074,-0.140231
2.3815,0.694142,-0.130003
2.33595,0.550044,-0.0279386
2.35313,0.55409,-0.225668
2.34382,0.551896,-0.140231
2.37623,0.683617,-0.129584
2.34175,0.542789,-0.0279852
2.34342,0.543174,-0.224553
2.33786,0.541886,0.0279386
2.33795,0.541908,-0.139766
2.37476,0.674226,-0.129375
2.34141,0.534106,-0.224181
2.32804,0.531055,0.0277989
2.33204,0.531969,-0.139301
2.37325,0.664857,-0.129165
2.35854,0.651865,-0.0712136
2.33549,0.524185,-0.223438
2.32988,0.522925,0.0277989
2.37477,0.656351,-0.201133
2.32999,0.52295,-0.139069
2.36785,0.65444,-0.128746
2.32778,0.513926,-0.0277523
2.33731,0.516029,-0.223438
2.32778,0.513926,0.0277523
2.36935,0.64596,-0.200482
2.324,0.513091,-0.138603
2.36627,0.645119,-0.128537
2.35917,0.634345,-0.0710973
2.32956,0.505798,-0.0277523
2.37159,0.637686,-0.200482
2.32188,0.504129,-0.138371
2.36851,0.636856,-0.128537
2.35751,0.625081,-0.0709809
2.3274,0.496827,-0.0277058
2.33306,0.498036,-0.222694
2.3661,0.62736,-0.199831
2.31972,0.495187,-0.138138
2.36299,0.626536,-0.128118
2.34807,0.613815,-0.0706318
2.33089,0.489072,-0.222322
2.31738,0.486237,0.0275661
2.37213,0.620105,-0.200157
2.31361,0.485447,-0.137673
2.35357,0.615254,-0.12749
2.34611,0.605435,-0.0705155
2.32281,0.479762,-0.0276127
2.32461,0.480135,-0.221579
2.31498,0.478144,0.0275195
2.36249,0.609661,-0.19918
2.31122,0.477368,-0.137441
2.35163,0.606858,-0.127281
2.34057,0.594863,-0.0702827
2.32063,0.470451,-0.0275661
2.35315,0.598061,-0.0141113
2.31855,0.470029,-0.220835
2.30887,0.468067,0.0274264
2.36471,0.600998,-0.19918
2.31687,0.469687,-0.137673
2.35383,0.598235,-0.127281
2.34641,0.588071,-0.0703991
2.31826,0.461972,-0.0275195
2.34348,0.587337,-0.0140416
2.31041,0.460409,0.0274264
2.35895,0.591215,-0.198529
2.31058,0.460441,-0.137208
2.35581,0.590427,-0.127281
2.31601,0.452704,-0.027473
2.3495,0.579702,-0.0140648
2.31787,0.453067,-0.220463
2.35723,0.58161,-0.198204
2.30833,0.451203,-0.136976
2.38481,0.713662,-0.115956
2.3502,0.579874,-0.126862
2.33113,0.566544,-0.0698173
2.34374,0.569608,-0.0140183
2.31552,0.444224,-0.220092
2.30972,0.44311,0.0273798
2.3515,0.571495,-0.197553
2.30989,0.443143,-0.136976
2.34444,0.569781,-0.126444
2.3291,0.557879,-0.0697009
2.34172,0.560901,-0.0139951
2.31307,0.435805,-0.21972
2.37871,0.694232,-0.173275
2.34563,0.561836,-0.196902
2.30742,0.434741,-0.136743
2.38194,0.695174,-0.115583
2.34632,0.562002,-0.126444
2.32715,0.548828,-0.0695846
2.34812,0.553774,-0.307084
2.34367,0.552724,-0.0139951
2.31066,0.427005,-0.219348
2.33981,0.551815,-0.196251
2.30107,0.425233,-0.136278
2.37667,0.684643,-0.115211
2.33272,0.550142,-0.125606
2.32525,0.539392,-0.0694682
2.3424,0.543371,-0.306074
2.34178,0.543227,-0.0139718
2.30829,0.417824,-0.218976
2.37978,0.676103,-0.172996
2.33405,0.541435,-0.1956
2.29869,0.416086,-0.136045
2.37916,0.675928,-0.115211
2.33472,0.541589,-0.125606
2.33092,0.532569,-0.0695846
2.34032,0.534717,-0.305569
2.33967,0.534568,-0.0139486
2.30574,0.409471,-0.218604
2.38201,0.668209,-0.172996
2.33584,0.533692,-0.1956
2.32765,0.531823,0.0416763
2.29612,0.407763,-0.135813
2.3737,0.665877,-0.114839
2.3365,0.533844,-0.125606
2.32496,0.522675,-0.0693518
2.34217,0.526544,-0.305569
2.32981,0.523765,-0.0138789
2.29931,0.400054,-0.217861
2.29339,0.399024,0.0271004
2.37664,0.657761,-0.172438
2.3338,0.52466,-0.195275
2.3295,0.523694,0.0416763
2.30147,0.400429,-0.136045
2.36831,0.655455,-0.114467
2.33056,0.523932,-0.125188
2.36252,0.653855,-0.0570412
2.31515,0.511563,-0.0690027
2.33634,0.516244,-0.304559
2.33172,0.515223,-0.0138789
2.30469,0.392293,-0.218233
2.29484,0.390616,0.0271004
2.37133,0.646945,-0.17188
2.3396,0.516964,-0.1956
2.32749,0.51429,0.0416065
2.29505,0.390652,-0.13558
2.37455,0.647823,-0.114653
2.32466,0.513663,-0.124769
2.35719,0.643087,-0.0568551
2.32065,0.505135,-0.0691191
2.3302,0.507212,-0.303549
2.29805,0.383737,-0.217489
2.28816,0.382085,0.0270073
2.37335,0.63949,-0.17188
2.32563,0.506217,-0.194298
2.32128,0.505272,0.0414669
2.29232,0.38278,-0.135348
2.36114,0.6362,-0.113908
2.32626,0.506356,-0.124769
2.3592,0.635677,-0.0568551
2.32631,0.49787,-0.0692355
2.33195,0.499077,-0.303549
2.32335,0.497235,-0.0138091
2.29938,0.375714,-0.217489
2.28948,0.374097,0.0270073
2.37171,0.630179,-0.171601
2.32348,0.497264,-0.193973
2.31912,0.496331,0.0413971
2.2897,0.374134,-0.135115
2.36721,0.628981,-0.114094
2.3202,0.496562,-0.12435
2.30847,0.485631,-0.0686537
2.3298,0.490116,-0.303044
2.32507,0.489122,-0.0138091
2.28888,0.3658,-0.216374
2.28682,0.365471,0.0269608
2.36232,0.618862,-0.170764
2.3252,0.48915,-0.193973
2.31693,0.487409,0.0413273
2.28705,0.365508,-0.134883
2.36552,0.619701,-0.113908
2.32192,0.48846,-0.12435
2.34811,0.615138,-0.0564829
2.30641,0.475954,-0.0685373
2.32389,0.479562,-0.302034
2.29026,0.357008,-0.216374
2.28031,0.355455,0.0268676
2.36468,0.609786,-0.170764
2.32316,0.479412,-0.193647
2.31486,0.4777,0.0412575
2.28844,0.356723,-0.134883
2.36015,0.608618,-0.113536
2.31987,0.478733,-0.124141
2.34658,0.605119,-0.0563898
2.30789,0.468707,-0.0685373
2.32538,0.47226,-0.302034
2.32059,0.471286,-0.0137626
2.27956,0.348008,-0.215258
2.27746,0.347687,0.0268211
2.35498,0.599402,-0.169927
2.31684,0.470524,-0.192997
2.31243,0.46963,0.0411877
2.2856,0.34893,-0.13465
2.31479,0.470107,0.096232
2.36205,0.601201,-0.113536
2.31353,0.469853,-0.123722
2.34459,0.596758,-0.0562968
2.30175,0.458682,-0.0683046
2.35128,0.589292,0
2.32321,0.462959,-0.301529
2.3609,0.591704,-0.262174
2.28082,0.339651,-0.215258
2.27476,0.338748,0.0267745
2.35716,0.590767,-0.169927
2.31464,0.461251,-0.192671
2.3063,0.459588,0.0410481
2.28686,0.340551,-0.13465
2.31257,0.46084,0.0960692
2.35648,0.590597,-0.113164
2.31132,0.46059,-0.123513
2.33901,0.586217,-0.0561107
2.30718,0.451815,-0.0684209
2.32084,0.454489,-0.301023
2.34741,0.580055,-0.26046
2.28588,0.332659,-0.21563
2.27587,0.331202,0.0267745
2.35524,0.581989,-0.169648
2.31224,0.452806,-0.192346
2.31173,0.452706,0.0411179
2.28008,0.331815,-0.134185
2.31017,0.4524,0.0959064
2.30499,0.451387,-0.123094
2.33317,0.576538,-0.0559246
2.29697,0.441494,-0.0680718
2.33969,0.569489,0
2.31851,0.445635,-0.300518
2.30968,0.443938,-0.0136696
2.34169,0.569976,-0.259603
2.2752,0.322998,-0.214515
2.26909,0.322131,0.0266814
2.35338,0.57282,-0.169369
2.31381,0.444731,-0.192346
2.27727,0.323292,-0.133952
2.30388,0.442823,0.0955807
2.35268,0.572652,-0.112791
2.30656,0.443337,-0.123094
2.33517,0.568389,-0.0559246
2.3025,0.433813,-0.0681882
2.32812,0.438641,-0.473819
2.33787,0.559979,0
2.32013,0.437135,-0.300518
2.3515,0.563243,-0.26046
2.27242,0.314112,-0.214143
2.27026,0.313813,0.0266814
2.33994,0.560474,-0.168253
2.31542,0.436248,-0.192346
2.37964,0.694503,-0.158871
2.27844,0.314944,-0.133952
2.30156,0.433637,0.0954179
2.33922,0.560303,-0.112047
2.30817,0.434881,-0.123094
2.33724,0.559827,-0.0559246
2.29606,0.424721,-0.0679555
2.32804,0.549467,0
2.31766,0.428717,-0.300013
2.35335,0.555442,-0.26046
2.27345,0.306575,-0.214143
2.2594,0.30468,0.0265417
2.3379,0.551795,-0.167974
2.3051,0.426393,-0.191369
2.37809,0.685503,-0.158615
2.29513,0.424549,0.0950922
2.34885,0.554379,-0.112419
2.30174,0.425772,-0.122675
2.3313,0.550237,-0.0557385
2.29359,0.41599,-0.0678391
2.3079,0.418584,-0.469113
2.32604,0.540431,0
2.26441,0.297311,-0.0265882
2.3514,0.546323,-0.260032
2.27451,0.298636,-0.214143
2.33981,0.54363,-0.167974
2.30265,0.417632,-0.191044
2.37663,0.676104,-0.158359
2.30053,0.417247,0.095255
2.3352,0.542559,-0.111675
2.29928,0.417021,-0.122466
2.3371,0.543,-0.0558315
2.2951,0.407581,-0.0678391
2.30942,0.410122,-0.469113
2.33191,0.532794,0
2.30895,0.41004,-0.298498
2.33788,0.534159,-0.258318
2.27163,0.289795,-0.213771
2.33128,0.53265,0.0556454
2.26152,0.288504,0.0265417
2.34179,0.535051,-0.167974
2.30809,0.409887,-0.191369
2.29966,0.408391,0.0407688
2.36756,0.664155,-0.157591
2.26973,0.289551,-0.133255
2.34107,0.534887,-0.111861
2.30473,0.40929,-0.122675
2.36276,0.662807,-0.0999771
2.32738,0.531759,-0.0555524
2.29651,0.399567,-0.0678391
2.3147,0.402731,-0.469897
2.33375,0.524651,0
2.26251,0.280608,-0.0265417
2.31037,0.401978,-0.298498
2.33585,0.525123,-0.25789
2.26473,0.280883,-0.213028
2.26251,0.280608,0.0265417
2.33586,0.525123,-0.167416
2.29772,0.399778,-0.190393
2.36217,0.653758,-0.15708
2.2628,0.280644,-0.13279
2.29164,0.39872,0.0947666
2.33512,0.524959,-0.111489
2.29827,0.399873,-0.122257
2.36121,0.65349,-0.0998143
2.32532,0.522755,-0.0554593
2.28987,0.391004,-0.0676064
2.30049,0.392816,-0.466759
2.31586,0.512991,0
2.30771,0.39405,-0.297993
2.33361,0.516921,-0.257461
2.2656,0.273767,-0.213028
2.32305,0.514582,0.0553663
2.25147,0.272059,0.026402
2.3336,0.516919,-0.167137
2.29897,0.392557,-0.190393
2.36422,0.646333,-0.15708
2.26367,0.273534,-0.13279
2.28501,0.390173,0.0944409
2.32896,0.515892,-0.111116
2.29558,0.391978,-0.122047
2.35939,0.645014,-0.0996514
2.32305,0.514582,-0.0553663
2.3555,0.635124,-0.0425839
2.28334,0.381691,-0.0673737
2.29797,0.384137,-0.465975
2.31764,0.504904,0
2.32871,0.507316,-0.370791
2.3354,0.508773,-0.257461
2.26654,0.265857,-0.213028
2.32483,0.50647,0.0553663
2.24843,0.263733,0.0263554
2.32759,0.507072,-0.166578
2.29246,0.383215,-0.189742
2.35489,0.634959,-0.156312
2.26065,0.265165,-0.132557
2.29029,0.382854,0.0946037
2.33465,0.50861,-0.111302
2.28905,0.382646,-0.121629
2.35391,0.634694,-0.0993258
2.32483,0.50647,-0.0553663
2.28472,0.373319,-0.0673737
2.29937,0.375712,-0.465975
2.30774,0.493894,0
2.30264,0.376246,-0.296983
2.33336,0.499377,-0.257033
2.25958,0.256648,-0.212284
2.32276,0.497108,0.0552732
2.24541,0.255038,0.0263088
2.32943,0.498537,-0.166578
2.29385,0.37481,-0.189742
2.35721,0.626323,-0.156312
2.28774,0.373812,0.0944409
2.32868,0.498377,-0.11093
2.29044,0.374253,-0.121629
2.27024,0.370953,0.187789
2.32667,0.497945,-0.0553663
2.35225,0.616225,-0.0424443
2.28601,0.365342,-0.0673737
2.29679,0.367065,-0.46519
2.31337,0.48666,0
2.25424,0.248074,-0.026402
2.33228,0.490639,-0.370791
2.30002,0.367581,-0.296478
2.32341,0.488773,-0.255748
2.26047,0.24876,-0.212284
2.24629,0.247199,0.0263088
2.32335,0.48876,-0.16602
2.29121,0.366172,-0.189416
2.28663,0.365441,0.0404198
2.35166,0.616069,-0.155801
2.25852,0.248545,-0.132324
2.28508,0.365193,0.0942781
2.33041,0.490245,-0.11093
2.28779,0.365626,-0.121419
2.26759,0.362397,0.187464
2.35066,0.615808,-0.0990001
2.32057,0.488175,-0.0551802
2.34654,0.606419,-0.0423046
2.28326,0.35714,-0.0672573
2.298,0.359445,-0.46519
2.31497,0.478985,0
2.33389,0.482902,-0.370791
2.31723,0.479454,-0.254891
2.31826,0.479666,0.0550871
2.24709,0.239748,0.0263088
2.32496,0.481052,-0.16602
2.29241,0.358571,-0.189416
2.34982,0.607267,-0.155545
2.28233,0.356996,0.0941152
2.32811,0.481705,-0.110744
2.28899,0.358037,-0.121419
2.26484,0.354259,0.187138
2.35269,0.608009,-0.0990001
2.31826,0.479666,-0.0550871
2.34487,0.596829,-0.0422348
2.27665,0.347563,-0.0670246
2.29542,0.350429,-0.464406
2.30495,0.468109,0
2.24796,0.231511,-0.0263088
2.33565,0.474345,-0.370791
2.31507,0.470166,-0.254463
2.25423,0.232157,-0.211541
2.31608,0.47037,0.0549941
2.24398,0.231101,0.0262623
2.32279,0.471734,-0.165741
2.28977,0.349566,-0.189091
2.34816,0.597667,-0.155289
2.25225,0.231953,-0.131859
2.27572,0.347422,0.0937896
2.31811,0.470783,-0.110186
2.28634,0.349042,-0.12121
2.27006,0.346557,0.187464
2.35103,0.598396,-0.0988373
2.31608,0.47037,-0.0549941
2.34296,0.588076,-0.042165
2.27383,0.339422,-0.0669082
2.28881,0.341657,-0.462837
2.30649,0.460464,0
2.32171,0.463502,-0.368331
2.31272,0.461708,-0.254034
2.25102,0.224286,-0.211169
2.3137,0.461905,0.054901
2.22881,0.222073,0.026076
2.31261,0.461686,-0.164904
2.28303,0.340794,-0.18844
2.34239,0.587933,-0.154777
2.24506,0.223692,-0.131394
2.27291,0.339284,0.0936268
2.31574,0.462312,-0.11
2.28353,0.340869,-0.121001
2.25937,0.337262,0.186487
2.34525,0.588651,-0.0985116
2.30586,0.460339,-0.0547149
2.345,0.579894,-0.042165
2.28611,0.3331,-0.462052
2.2963,0.450101,0
2.32331,0.455394,-0.368331
2.28916,0.333545,-0.294457
2.34143,0.579012,0.0140183
2.31432,0.453632,-0.254034
2.25179,0.216426,-0.211169
2.23754,0.215056,0.0261692
2.31029,0.452842,-0.164625
2.2842,0.332822,-0.18844
2.34443,0.579753,-0.154777
2.27408,0.331347,0.0936268
2.3095,0.452688,-0.109627
2.25659,0.328798,0.186162
2.33953,0.578542,-0.098186
2.3153,0.453825,-0.054901
2.34322,0.57035,-0.0420952
2.27225,0.32258,-0.0667919
2.28731,0.324719,-0.462052
2.30579,0.443192,0
2.24229,0.207223,-0.0262157
2.32108,0.44613,-0.367716
2.28644,0.324595,-0.293952
2.31206,0.444396,-0.253606
2.23034,0.206118,0.026076
2.31193,0.444372,-0.164625
2.28146,0.323888,-0.188115
2.33878,0.569269,-0.154266
2.2466,0.207621,-0.131394
2.26737,0.321887,0.0933011
2.31114,0.44422,-0.109627
2.278,0.323397,-0.120582
2.24988,0.319405,0.185511
2.33387,0.568073,-0.0978603
2.3091,0.443827,-0.0547149
2.33343,0.559776,-0.0418858
2.2733,0.315043,-0.0667919
2.28449,0.316593,-0.461268
2.30332,0.434801,0
2.23898,0.19943,-0.0261692
2.3109,0.436231,-0.365871
2.34153,0.561718,0.0139951
2.30961,0.435989,-0.253177
2.24531,0.199994,-0.210425
2.3027,0.434683,0.0545288
2.23102,0.19872,0.026076
2.30555,0.435222,-0.164067
2.27857,0.315773,-0.187789
2.33677,0.560578,-0.15401
2.23933,0.199461,-0.130929
2.29942,0.434065,0.136278
2.26842,0.314366,0.0933011
2.3126,0.436553,-0.109627
2.25093,0.311942,0.185511
2.33574,0.56033,-0.0978603
2.31056,0.436167,-0.0547149
2.32759,0.549788,-0.0417462
2.26646,0.306035,-0.0665591
2.27781,0.307567,-0.459699
2.29302,0.424573,0
2.31629,0.428881,-0.366486
2.33569,0.551702,0.0139486
2.30721,0.427199,-0.252749
2.23806,0.191475,-0.209682
2.3042,0.426642,0.0545288
2.22771,0.19059,0.0260295
2.30313,0.426444,-0.163788
2.27176,0.30675,-0.187138
2.33483,0.551499,-0.153754
2.30093,0.426035,0.136278
2.25762,0.304841,0.0928126
2.30233,0.426295,-0.109069
2.27619,0.307348,-0.120373
2.252,0.304082,0.185511
2.33379,0.551254,-0.0976975
2.30027,0.425914,-0.0544357
2.32949,0.541662,-0.0417462
2.26355,0.297602,-0.0664428
2.27887,0.299615,-0.459699
2.29056,0.415853,0
2.23633,0.183468,-0.0261226
2.30611,0.418676,-0.364642
2.3376,0.543547,0.0139486
2.30477,0.418434,-0.252321
2.23871,0.183663,-0.209682
2.22836,0.182814,0.0260295
2.30068,0.417691,-0.163509
2.27281,0.298819,-0.187138
2.23668,0.183497,-0.130697
2.29454,0.416576,0.135813
2.25867,0.29696,0.0928126
2.3038,0.418257,-0.109069
2.27329,0.298882,-0.120163
2.24515,0.295181,0.18486
2.32791,0.541295,-0.0973718
2.30174,0.417883,-0.0544357
2.32357,0.531742,-0.0416065
2.26061,0.289191,-0.0663264
2.27212,0.290663,-0.45813
2.29199,0.407854,0
2.22899,0.175034,-0.0260295
2.31145,0.411316,-0.365256
2.27889,0.291529,-0.292437
2.33168,0.533599,0.0139021
2.30622,0.410386,-0.252321
2.225,0.174721,0.0259829
2.2982,0.408958,-0.16323
2.26989,0.290377,-0.186813
2.26123,0.289269,0.0397915
2.32695,0.532515,-0.152986
2.22935,0.175062,-0.130231
2.29598,0.408564,0.135813
2.25573,0.288566,0.0926498
2.30131,0.409512,-0.108883
2.27036,0.290437,-0.119954
2.23825,0.28633,0.184209
2.30319,0.409846,-0.0544357
2.32151,0.52275,-0.0415367
2.27701,0.283214,-0.458915
2.28552,0.398478,0
2.30508,0.401887,-0.364027
2.27202,0.282593,-0.291427
2.32963,0.524578,0.0138789
2.30372,0.40165,-0.251892
2.22161,0.166655,0.0259363
2.29568,0.400248,-0.162951
2.27089,0.282453,-0.186813
2.26222,0.281375,0.0397915
2.32879,0.52439,-0.152986
2.22596,0.166981,-0.129999
2.29346,0.399861,0.13558
2.25672,0.280691,0.0926498
2.29879,0.400791,-0.108697
2.2432,0.279008,0.184535
2.32384,0.523274,-0.0970462
2.32323,0.515048,-0.0415367
2.26253,0.273796,-0.0663264
2.27794,0.275661,-0.458915
2.28683,0.390896,0
2.22614,0.159572,-0.0259829
2.29471,0.392243,-0.362182
2.32355,0.515118,0.0138324
2.28936,0.391328,-0.250179
2.23651,0.160316,-0.20931
2.22215,0.159286,0.0259363
2.29699,0.392633,-0.162951
2.32272,0.514936,-0.152475
2.22651,0.159598,-0.129999
2.2869,0.390907,0.135115
2.25367,0.272725,0.0924869
2.30011,0.393165,-0.108697
2.23619,0.270609,0.183884
2.31776,0.513835,-0.0967205
2.29804,0.392811,-0.0542496
2.32501,0.506935,-0.0415367
2.25553,0.264963,-0.0660937
2.2711,0.266792,-0.457346
2.28424,0.38225,0
2.22269,0.151528,-0.0259363
2.30386,0.385534,-0.363412
2.26995,0.266658,-0.290922
2.28679,0.382677,-0.24975
2.23309,0.152236,-0.208938
2.2187,0.151256,0.0258898
2.29048,0.383295,-0.162393
2.31657,0.505094,0.0690027
2.32451,0.506824,-0.152475
2.22705,0.151825,-0.129999
2.24271,0.263457,0.0919985
2.2857,0.382495,-0.107952
2.24108,0.263267,0.184209
2.32344,0.506592,-0.0968833
2.29545,0.384127,-0.0541566
2.31904,0.496735,-0.0413971
2.25251,0.256243,-0.0659773
2.26427,0.25758,-0.455777
2.28168,0.37323,0
2.30136,0.37645,-0.362797
2.32326,0.49764,0.0138091
2.29603,0.375578,-0.250607
2.22965,0.143795,-0.208567
2.21924,0.143123,0.0258898
2.28793,0.374253,-0.162114
2.26184,0.257304,-0.185836
2.31059,0.494926,0.06877
2.32245,0.497466,-0.152219
2.22361,0.143405,-0.129766
2.24763,0.255688,0.0921613
2.28315,0.373471,-0.107766
2.23015,0.253699,0.183233
2.31676,0.488218,-0.0413273
2.24938,0.248334,-0.065861
2.26511,0.250071,-0.455777
2.275,0.364397,0
2.21571,0.135519,-0.0258432
2.29479,0.367567,-0.361567
2.3249,0.489934,0.0138091
2.28941,0.366704,-0.24975
2.22217,0.135914,-0.207823
2.21172,0.135275,0.0257966
2.28522,0.366034,-0.161835
2.25872,0.249365,-0.185511
2.31222,0.487261,0.06877
2.31237,0.487292,-0.151451
2.24052,0.247356,0.0918356
2.28437,0.365898,-0.107766
2.25915,0.249414,-0.119117
2.22702,0.245866,0.182907
2.31845,0.480127,-0.0413273
2.24625,0.240055,-0.0657446
2.26207,0.241745,-0.454992
2.27626,0.356453,0
2.21617,0.127784,-0.0258432
2.28435,0.357719,-0.359722
2.25684,0.241186,-0.288902
2.31093,0.47857,0.0137161
2.25114,0.240578,-0.0131582
2.22263,0.128156,-0.207823
2.21617,0.127784,0.0258432
2.28254,0.357437,-0.161556
2.25561,0.241055,-0.185186
2.30999,0.478376,0.0686537
2.31405,0.479217,-0.151451
2.21656,0.127806,-0.129301
2.24137,0.239533,0.0918356
2.28564,0.357921,-0.107766
2.22786,0.23809,0.182907
2.30905,0.478181,-0.0960692
2.28355,0.357594,-0.0537844
2.30843,0.469237,-0.0411179
2.23916,0.231001,-0.0655119
2.26294,0.233453,-0.454992
2.27755,0.348108,0
2.20464,0.119014,-0.0257035
2.29346,0.350539,-0.360952
2.2577,0.232913,-0.288902
2.31267,0.470097,0.0137161
2.24803,0.231915,-0.0131349
2.28018,0.348509,-0.248465
2.22308,0.120009,-0.207823
2.21263,0.119445,0.0257966
2.27989,0.348466,-0.161277
2.25648,0.232787,-0.185186
2.30389,0.468313,0.0684209
2.31188,0.469938,-0.151196
2.21302,0.119466,-0.129069
2.23825,0.230907,0.0916728
2.27903,0.348335,-0.107394
2.22475,0.229514,0.182582
2.30687,0.468919,-0.0959064
2.28089,0.348618,-0.0536913
2.3139,0.462362,-0.0411877
2.23594,0.223176,-0.0653955
2.25589,0.225168,-0.453423
2.27869,0.340553,0
2.20502,0.111702,-0.0257035
2.28288,0.341178,-0.359107
2.25846,0.225425,-0.288902
2.31421,0.462425,0.0137161
2.24083,0.223664,-0.0130884
2.27739,0.340358,-0.248037
2.21949,0.112435,-0.207451
2.20502,0.111702,0.0257035
2.2692,0.339134,-0.16044
2.30935,0.461454,0.0685373
2.3056,0.460704,-0.150684
2.20942,0.111924,-0.128836
2.23503,0.223086,0.09151
2.27622,0.340184,-0.107208
2.24972,0.224552,-0.118489
2.2255,0.222135,0.182582
2.30449,0.460483,-0.0957435
2.28203,0.341052,-0.0536913
2.31157,0.453512,-0.0411179
2.2367,0.215369,-0.0653955
2.25276,0.216916,-0.452639
2.26799,0.330864,0
2.2054,0.104003,-0.0257035
2.27623,0.332066,-0.357877
2.25529,0.217159,-0.288397
2.27463,0.331831,-0.247608
2.21589,0.104498,-0.207079
2.20939,0.104192,0.0257501
2.27037,0.33121,-0.16044
2.24611,0.216275,-0.184209
2.29918,0.45108,0.0681882
2.31111,0.453421,-0.15094
2.20182,0.103834,-0.128371
2.22784,0.214516,0.0911843
2.2774,0.332236,-0.107208
2.24651,0.216314,-0.118279
2.22229,0.213982,0.182256
2.30217,0.451666,-0.0955807
2.27529,0.331929,-0.0535052
2.30922,0.444686,-0.0410481
2.23346,0.207193,-0.0652792
2.2535,0.209052,-0.452639
2.27309,0.32351,0
2.19376,0.0957826,-0.0255638
2.24813,0.208554,-0.287386
2.30953,0.444746,0.0136696
2.27971,0.324451,-0.248037
2.21624,0.0967642,-0.207079
2.19776,0.095957,0.0256104
2.27151,0.323284,-0.16044
2.24288,0.208066,-0.183884
2.30074,0.443053,0.0681882
2.23805,0.207618,0.039233
2.30876,0.444598,-0.150684
2.21015,0.096498,-0.128836
2.22857,0.20674,0.0911843
2.27063,0.32316,-0.106835
2.24725,0.208472,-0.118279
2.25222,0.320539,0.279325
2.29588,0.442118,-0.095255
2.30289,0.435137,-0.0409084
2.24214,0.200106,-0.0655119
2.25031,0.200835,-0.451854
2.26232,0.313924,0
2.19808,0.0882843,-0.0256104
2.27067,0.315081,-0.356648
2.24489,0.200352,-0.286881
2.29928,0.434453,0.0135999
2.26507,0.314305,-0.246323
2.21259,0.0888671,-0.206708
2.20208,0.0884448,0.0256569
2.27262,0.315353,-0.16044
2.24756,0.20059,-0.184209
2.30227,0.435019,0.0681882
2.23478,0.199449,0.0391632
2.30245,0.435053,-0.150172
2.1985,0.0883011,-0.128138
2.23326,0.199314,0.0913472
2.27175,0.315231,-0.106835
2.25333,0.312675,0.279325
2.29348,0.433358,-0.0950922
2.26963,0.314938,-0.0533191
2.30047,0.426367,-0.0408386
2.23485,0.191595,-0.0652792
2.251,0.19298,-0.451854
2.20237,0.080758,-0.0256569
2.26784,0.306624,-0.356033
2.24162,0.192176,-0.286376
2.29684,0.425696,0.0135766
2.23576,0.191673,-0.0130419
2.26221,0.305864,-0.245895
2.20493,0.0808517,-0.205964
2.20237,0.080758,0.0256569
2.27766,0.307953,-0.160719
2.2403,0.192062,-0.183558
2.29591,0.425523,0.0679555
2.30003,0.426286,-0.149916
2.19879,0.0806269,-0.128138
2.26353,0.306043,0.133022
2.22598,0.190835,0.0910215
2.26887,0.306764,-0.106649
2.29105,0.424622,-0.0949294
2.26279,0.305942,-0.053133
2.30588,0.419049,-0.0409084
2.22754,0.183137,-0.0650464
2.23993,0.184156,-0.449501
2.26446,0.298122,0
2.20264,0.0730693,-0.0256569
2.27281,0.299221,-0.356648
2.24228,0.184349,-0.286376
2.30225,0.41839,0.0135999
2.23243,0.183539,-0.0130187
2.25932,0.297446,-0.245466
2.20519,0.073154,-0.205964
2.19864,0.0729366,0.0256104
2.27081,0.298958,-0.160161
2.30132,0.41822,0.0680718
2.23213,0.183514,0.0390934
2.29758,0.417541,-0.149661
2.19906,0.0729506,-0.128138
2.21867,0.182408,0.0906958
2.26201,0.297799,-0.106277
2.23737,0.183946,-0.117651
2.29252,0.416621,-0.0949294
2.26385,0.298041,-0.053133
2.29551,0.408892,-0.040699
2.22816,0.17536,-0.0650464
2.23274,0.17572,-0.447932
2.25755,0.289199,0
2.19888,0.0652609,-0.0256104
2.26208,0.289779,-0.354803
2.23306,0.175745,-0.0130187
2.26035,0.289557,-0.245466
2.19747,0.0652191,-0.205221
2.19888,0.0652609,0.0256104
2.26393,0.290015,-0.159603
2.23364,0.175791,-0.182907
2.28702,0.407379,0.0676064
2.29902,0.409518,-0.149661
2.20329,0.0653919,-0.128371
2.21929,0.174662,0.0906958
2.25907,0.289393,-0.106091
2.23003,0.175507,-0.117233
2.29002,0.407915,-0.0947666
2.26487,0.290137,-0.053133
2.30087,0.401565,-0.0407688
2.22876,0.167582,-0.0650464
2.25855,0.281317,0
2.1951,0.0574807,-0.0255638
2.26308,0.281881,-0.354803
2.2356,0.168096,-0.285366
2.28936,0.399557,0.0135069
2.22967,0.16765,-0.0129954
2.26134,0.281665,-0.245466
2.19769,0.0575486,-0.205221
2.26097,0.281618,-0.159324
2.23026,0.167694,-0.182582
2.28449,0.398707,0.06749
2.29257,0.400118,-0.149149
2.19553,0.0574919,-0.127906
2.25869,0.281335,0.132557
2.21192,0.166315,0.0903702
2.26403,0.282,-0.106277
2.23462,0.168022,-0.117442
2.2875,0.399232,-0.0946037
2.2619,0.281735,-0.05304
2.29036,0.39191,-0.0405594
2.22133,0.159617,-0.0648137
2.19128,0.0501102,-0.0255173
2.25615,0.273425,-0.353573
2.23219,0.160397,-0.284861
2.28278,0.390614,0.0134604
2.22622,0.159969,-0.0129722
2.25437,0.273208,-0.24461
2.19389,0.0501698,-0.204849
2.25793,0.273639,-0.159045
2.23081,0.160298,-0.182582
2.2858,0.391129,0.06749
2.22592,0.159947,0.0389538
2.29389,0.392514,-0.149149
2.18373,0.0499375,-0.127208
2.25565,0.273363,0.132324
2.22043,0.159552,0.0906958
2.26099,0.27401,-0.106091
2.22719,0.160038,-0.117023
2.28093,0.390297,-0.0942781
2.25092,0.27279,-0.0527608
2.29171,0.383912,-0.0405594
2.2139,0.151316,-0.064581
2.19144,0.0424603,-0.0255173
2.26102,0.266009,-0.354188
2.23273,0.152604,-0.284861
2.28808,0.383303,0.0134836
2.19405,0.0425109,-0.204849
2.22738,0.152238,-0.182256
2.2832,0.382487,0.0673737
2.22248,0.151903,0.038884
2.29131,0.383844,-0.148893
2.18389,0.042314,-0.127208
2.24865,0.264554,0.131859
2.213,0.151255,0.0903702
2.25796,0.265649,-0.105905
2.22375,0.15199,-0.116814
2.28228,0.382332,-0.0942781
2.25186,0.264931,-0.0527608
2.28909,0.375264,-0.0404896
2.20643,0.143071,-0.0643483
2.25338,0.257139,0
2.25408,0.257219,-0.352958
2.22929,0.144553,-0.284356
2.28151,0.37402,0.0134371
2.2193,0.143905,-0.0129257
2.25227,0.257012,-0.244181
2.1902,0.0347892,-0.204477
2.25582,0.257417,-0.158766
2.28847,0.375162,0.06749
2.219,0.143886,0.0388142
2.28869,0.375198,-0.148637
2.17604,0.0345642,-0.126743
2.20952,0.143271,0.0902073
2.25888,0.257766,-0.105905
2.22028,0.143969,-0.116605
2.2836,0.374363,-0.0942781
2.24879,0.256616,-0.0526678
2.29045,0.366871,-0.0404896
2.20694,0.134982,-0.0643483
2.2543,0.248877,0
2.18369,0.0266799,-0.0254241
2.25501,0.248955,-0.352958
2.22585,0.136139,-0.283851
2.28681,0.366288,0.0134604
2.24924,0.248319,-0.243753
2.18633,0.0267122,-0.204105
2.25278,0.248709,-0.158487
2.22045,0.135808,-0.181606
2.27799,0.364874,0.067141
2.21552,0.135507,0.0387443
2.29005,0.366807,-0.148637
2.18014,0.0266366,-0.126976
2.20604,0.134927,0.0900445
2.25583,0.249046,-0.105719
2.21282,0.135342,-0.116186
2.27706,0.364726,-0.0939524
2.24177,0.247493,-0.0524816
2.28375,0.358036,-0.04035
2.20738,0.127664,-0.0643483
2.24716,0.24055,0
2.18777,0.0194755,-0.0254707
2.25189,0.241057,-0.352343
2.22629,0.128758,-0.283851
2.27616,0.356845,0.0133907
2.21626,0.128178,-0.0129024
2.25005,0.24086,-0.243753
2.18641,0.0194634,-0.204105
2.24962,0.240814,-0.158208
2.21293,0.127985,-0.180955
2.27523,0.3567,0.0670246
2.21197,0.12793,0.0386745
2.28337,0.357976,-0.148126
2.18022,0.0194083,-0.126976
2.21446,0.128074,0.0903702
2.25267,0.24114,-0.105533
2.20528,0.127543,-0.115767
2.27036,0.355937,-0.0936268
2.24258,0.24006,-0.0524816
2.27708,0.34885,-0.0402103
2.20382,0.119741,-0.0642319
2.24401,0.232292,0
2.24879,0.232787,-0.351728
2.21484,0.12034,-0.282336
2.27344,0.348292,0.0133674
2.2127,0.120224,-0.0128792
2.24297,0.232185,-0.242896
2.18646,0.0118307,-0.204105
2.25045,0.232959,-0.158208
2.21734,0.120476,-0.18128
2.27647,0.348756,0.0670246
2.20441,0.119773,0.0385349
2.27671,0.348793,-0.147614
2.23624,0.231488,0.130929
2.2535,0.233275,-0.105533
2.21369,0.120278,-0.116186
2.27159,0.348009,-0.0936268
2.2434,0.23223,-0.0524816
2.27829,0.340899,-0.0402103
2.20023,0.111844,-0.0641155
2.24565,0.224542,-0.351113
2.21524,0.112607,-0.282336
2.27464,0.340353,0.0133674
2.20911,0.112295,-0.012856
2.24377,0.224353,-0.242896
2.17852,0.0041826,-0.203362
2.25125,0.225102,-0.158208
2.21377,0.112532,-0.180955
2.26581,0.339031,0.0666755
2.20881,0.11228,0.0386047
2.27792,0.340843,-0.147614
2.16832,0.00416301,-0.126278
2.24101,0.224078,0.131162
2.25033,0.225009,-0.105346
2.21809,0.112752,-0.116395
2.26884,0.339485,-0.0934639
2.23624,0.223601,-0.0522955
2.2794,0.333341,-0.0402103
2.20059,0.104546,-0.0641155
2.24156,0.216627,0
2.24245,0.216713,-0.350499
2.2156,0.10526,-0.282336
2.27575,0.332808,0.0133674
2.20548,0.104779,-0.0128327
2.24054,0.216528,-0.242468
2.17056,-0.00303116,-0.202618
2.24095,0.216568,0.0523886
2.25198,0.217634,-0.158208
2.21015,0.105001,-0.180629
2.26692,0.331515,0.0666755
2.20518,0.104764,0.0385349
2.27508,0.332709,-0.147358
2.23379,0.215876,0.130697
2.24708,0.217161,-0.10516
2.20249,0.104637,-0.115558
2.27391,0.332537,-0.0936268
2.23697,0.216183,-0.0522955
2.27263,0.324254,-0.0400707
2.23433,0.208061,0
2.23926,0.208519,-0.349884
2.21199,0.0973524,-0.281831
2.26898,0.323733,0.0133209
2.20183,0.0969051,-0.0128095
2.24128,0.208708,-0.242468
2.17054,-0.0106063,-0.202618
2.24081,0.208664,-0.157371
2.19855,0.0967608,-0.179653
2.26014,0.322472,0.0664428
2.27623,0.324767,-0.147358
2.1683,-0.0105954,-0.126278
2.23453,0.208079,0.130697
2.20284,0.0969496,-0.115558
2.26714,0.32347,-0.0933011
2.23771,0.208375,-0.0522955
2.18929,0.0883143,-0.0637664
2.23907,0.200226,0
2.23607,0.199958,-0.349269
2.20837,0.0890839,-0.281326
2.26619,0.314864,0.0132977
2.20617,0.088995,-0.0128327
2.24203,0.200491,-0.242468
2.17048,-0.0185622,-0.202618
2.23361,0.199738,-0.156813
2.19889,0.0887015,-0.179653
2.25735,0.313635,0.0663264
2.19788,0.0886606,0.0383953
2.27345,0.315873,-0.147102
2.16825,-0.0185431,-0.126278
2.2313,0.199531,0.130464
2.2446,0.200721,-0.104974
2.1952,0.0885526,-0.115139
2.26039,0.314058,-0.0929754
2.23846,0.200172,-0.0522955
2.27093,0.307446,-0.0400009
2.19358,0.0808183,-0.0638828
2.23577,0.192066,0
2.2047,0.081228,-0.280821
2.25935,0.305878,0.0132512
2.23876,0.192323,-0.242039
2.17041,-0.0261391,-0.202618
2.23827,0.192281,-0.157092
2.20716,0.0813183,-0.180304
2.25447,0.305217,0.0662101
2.19817,0.0809874,0.0383953
2.26663,0.306863,-0.146591
2.16418,-0.026064,-0.126045
2.22403,0.191057,0.129999
2.19949,0.0810358,-0.115348
2.26544,0.306702,-0.0931383
2.22719,0.191329,-0.0520164
2.26803,0.298995,-0.0399311
2.18586,0.0728947,-0.0636501
2.22953,0.183693,-0.348039
2.20101,0.0733999,-0.280315
2.26437,0.298512,0.0132744
2.23545,0.184181,-0.241611
2.23893,0.184467,-0.157092
2.20344,0.073481,-0.179978
2.26345,0.298391,0.0664428
2.26373,0.298428,-0.146335
2.15609,-0.0334938,-0.12558
2.22468,0.183293,0.129999
2.23798,0.184389,-0.104602
2.19976,0.0733582,-0.115348
2.26253,0.29827,-0.0929754
2.22785,0.183554,-0.0520164
2.26509,0.290568,-0.0398613
2.23016,0.17591,-0.348039
2.20125,0.0657169,-0.280315
2.2535,0.28908,0.0132047
2.19898,0.0656492,-0.0127862
2.22815,0.175751,-0.240754
2.23558,0.176337,-0.156813
2.19571,0.0655516,-0.179327
2.25258,0.288963,0.0660937
2.26476,0.290525,-0.146335
2.23463,0.176262,-0.104416
2.18802,0.065322,-0.11472
2.26356,0.290371,-0.0929754
2.22449,0.175462,-0.0519233
2.26212,0.282164,-0.0397915
2.18631,0.0576327,-0.0636501
2.22569,0.167741,0
2.23076,0.168124,-0.348039
2.20147,0.0580321,-0.280315
2.22875,0.167972,-0.240754
2.22822,0.167932,-0.156255
2.19194,0.0577811,-0.179002
2.24961,0.280602,0.0659773
2.26576,0.282617,-0.146335
2.15979,-0.0486352,-0.125813
2.21794,0.167157,0.129534
2.23523,0.16846,-0.104416
2.18824,0.0576834,-0.11472
2.25663,0.281478,-0.0926498
2.22907,0.167996,-0.0520164
2.25515,0.273304,-0.0396519
2.17851,0.0498183,-0.0634174
2.22626,0.159972,0
2.22345,0.15977,-0.346809
2.19372,0.0501663,-0.279305
2.25149,0.272859,0.0131814
2.23329,0.160477,-0.241183
2.1539,-0.0560251,-0.201131
2.2288,0.160154,-0.156255
2.18416,0.0499476,-0.178351
2.2466,0.272268,0.065861
2.25484,0.273266,-0.145567
2.15961,-0.0561735,-0.125813
2.18842,0.0500451,-0.11472
2.24966,0.272638,-0.0923241
2.22167,0.159642,-0.0518303
2.25997,0.266686,-0.0397217
2.22276,0.152702,0
2.22,0.152512,-0.346194
2.18593,0.0431171,-0.278295
2.24836,0.265315,0.0131582
2.22188,0.152641,-0.239897
2.1577,-0.0629082,-0.201503
2.22531,0.152877,-0.155975
2.18829,0.0431636,-0.178676
2.24745,0.265208,0.065861
2.25569,0.26618,-0.145567
2.15144,-0.0627257,-0.125348
2.18458,0.0430903,-0.114511
2.25447,0.266037,-0.0924869
2.21817,0.152387,-0.0517372
2.25701,0.257552,-0.0396519
2.22333,0.144166,0
2.24539,0.256226,0.0131349
2.17969,0.0346213,-0.01267
2.21451,0.143594,-0.239041
2.15346,-0.0710619,-0.201131
2.22588,0.144331,-0.155975
2.18446,0.0346971,-0.178351
2.23653,0.255216,0.0655119
2.25273,0.257064,-0.145312
2.22491,0.144268,-0.103857
2.18473,0.0347013,-0.114511
2.25151,0.256925,-0.0923241
2.21076,0.14335,-0.0515511
2.25392,0.249234,-0.0395821
2.21584,0.135916,0
2.21711,0.135994,-0.345579
2.18619,0.0270933,-0.278295
2.24627,0.248388,0.0131349
2.215,0.135864,-0.239041
2.21923,0.136124,0.0517372
2.22637,0.136562,-0.155975
2.18058,0.0270238,-0.178025
2.24536,0.248288,0.0657446
2.24964,0.248762,-0.145056
2.22141,0.136258,-0.103671
2.17685,0.0269775,-0.114092
2.24842,0.248626,-0.0921613
2.20725,0.135389,-0.0514581
2.2428,0.240479,-0.0393726
2.20829,0.128103,0
2.21755,0.12864,-0.345579
2.1823,0.0198069,-0.27779
2.24708,0.240938,0.0131349
2.21147,0.128287,-0.238612
2.21486,0.128484,-0.155138
2.18066,0.019792,-0.178025
2.24219,0.240413,0.0656282
2.25046,0.241299,-0.145056
2.21387,0.128427,-0.103299
2.17692,0.0197581,-0.114092
2.24526,0.240742,-0.0919985
2.20769,0.128068,-0.0514581
2.25158,0.233473,-0.0395123
2.16705,0.012103,-0.0630683
2.20872,0.120393,0
2.17839,0.0121664,-0.277285
2.23995,0.232267,0.0130884
2.2119,0.120567,-0.238612
2.21131,0.120534,-0.154859
2.23506,0.23176,0.0653955
2.24732,0.23303,-0.1448
2.2183,0.120915,-0.103485
2.17298,0.0121362,-0.113883
2.23813,0.232078,-0.0916728
2.21212,0.120578,-0.0515511
2.24443,0.224815,-0.0393726
2.20913,0.112683,0
2.2105,0.112753,-0.344349
2.23279,0.223649,0.0130419
2.21231,0.112845,-0.238612
2.21172,0.112815,-0.154859
2.23188,0.223559,0.0652792
2.24414,0.224787,-0.144544
2.21871,0.113172,-0.103485
2.16902,0.00454308,-0.113674
2.24291,0.224663,-0.0918356
2.20054,0.112245,-0.051272
2.24122,0.216595,-0.0393028
2.20152,0.104592,0
2.23356,0.215855,0.0130419
2.20811,0.104905,-0.15458
2.16878,-0.00302745,-0.177049
2.22867,0.215382,0.0651628
2.24094,0.216568,-0.144288
2.2151,0.105237,-0.103299
2.16902,-0.00302778,-0.113674
2.23572,0.216064,-0.09151
2.19693,0.104374,-0.0511789
2.23798,0.208399,-0.039233
2.19787,0.09673,0
2.21123,0.097318,-0.344349
2.2343,0.208056,0.0130419
2.20112,0.0968731,-0.237327
2.20527,0.0970555,0.051365
2.20049,0.0968453,-0.154022
2.16477,-0.010579,-0.176724
2.22941,0.207601,0.0651628
2.23373,0.208004,-0.143777
2.21146,0.097328,-0.103113
2.23646,0.208258,-0.09151
2.19728,0.0967039,-0.0511789
2.23869,0.200586,-0.039233
2.1942,0.088896,0
2.20761,0.0894393,-0.343735
2.23102,0.199899,0.0130187
2.20145,0.0891897,-0.237327
2.20082,0.089164,-0.154022
2.22215,0.199104,0.0649301
2.23842,0.200562,-0.144032
2.20779,0.0894467,-0.102927
2.23717,0.20045,-0.09151
2.1976,0.0890338,-0.0511789
2.23532,0.193208,-0.0391632
2.19447,0.0820027,0
2.19998,0.0822087,-0.342505
2.23164,0.19289,0.0130187
2.20172,0.0822736,-0.237327
2.20507,0.082399,-0.154301
2.21878,0.191778,0.0648137
2.23109,0.192842,-0.143521
2.20407,0.0823615,-0.102741
2.16089,-0.0248917,-0.113255
2.23381,0.193077,-0.0913472
2.19387,0.0819805,-0.0510859
2.22406,0.184023,-0.0389538
2.19076,0.0738227,0
2.22436,0.184048,0.0129722
2.19406,0.0739339,-0.23647
2.19738,0.074046,-0.153743
2.21947,0.183643,0.0648137
2.23178,0.184662,-0.143521
2.20436,0.074281,-0.102741
2.22654,0.184228,-0.0910215
2.19416,0.0739374,-0.0510859
2.22868,0.176576,-0.0390236
2.199,0.0664181,0
2.221,0.175968,0.0129489
2.1943,0.0662762,-0.23647
2.20162,0.0664972,-0.154022
2.2201,0.175896,0.0648137
2.22445,0.176241,-0.143009
2.19262,0.0662255,-0.102182
2.22318,0.176141,-0.0908587
2.19041,0.0661587,-0.0509928
2.22529,0.168493,-0.0389538
2.18322,0.058314,0
2.21761,0.167911,0.0129257
2.19054,0.0585095,-0.236042
2.19386,0.0585981,-0.153464
2.21671,0.167843,0.0646974
2.22505,0.168475,-0.143009
2.19683,0.0586775,-0.102368
2.15252,-0.0477195,-0.112836
2.22378,0.168379,-0.0908587
2.18263,0.0582982,-0.0508067
2.21792,0.15976,-0.0388142
2.18342,0.0503113,0
2.2222,0.160069,0.0129489
2.18608,0.0503726,-0.152906
2.21333,0.15943,0.064581
2.22566,0.160318,-0.143009
2.19304,0.0505329,-0.102182
2.22439,0.160226,-0.0908587
2.18683,0.0503898,-0.0508998
2.22639,0.153341,-0.0389538
2.21472,0.152538,0.0129024
2.19089,0.0435974,-0.236042
2.18623,0.0435046,-0.152906
2.20983,0.152201,0.0644646
2.21818,0.152776,-0.142497
2.18919,0.0435636,-0.101996
2.21292,0.152414,-0.0903702
2.18698,0.0435195,-0.0508998
2.21496,0.1444,-0.0387443
2.21925,0.144679,0.0129257
2.18308,0.035438,-0.235185
2.18637,0.0354914,-0.152906
2.20638,0.14384,0.0643483
2.21076,0.144126,-0.141986
2.18934,0.0355395,-0.101996
2.21346,0.144302,-0.0903702
2.17912,0.0353737,-0.0507136
2.20747,0.136175,-0.0386047
2.21575,0.136686,0.0129024
2.18319,0.0278174,-0.235185
2.18249,0.0278084,-0.152627
2.21086,0.136384,0.0644646
2.21125,0.136408,-0.141986
2.18146,0.0277952,-0.101624
2.20996,0.136329,-0.0902073
2.17523,0.027716,-0.0506206
2.20793,0.128468,-0.0386047
2.20823,0.128486,0.012856
2.1793,0.0201596,-0.234757
2.1746,0.0201161,-0.152069
2.20334,0.128201,0.0642319
2.2157,0.12892,-0.142242
2.17755,0.0201434,-0.101438
2.21042,0.128614,-0.0902073
2.17532,0.0201228,-0.0506206
2.21234,0.121365,-0.0386745
2.21264,0.121381,0.0128792
2.17465,0.0129048,-0.152069
2.19577,0.120456,0.0639992
2.21213,0.121354,-0.141986
2.16961,0.0128749,-0.101066
2.20286,0.120845,-0.0898817
2.17137,0.0128854,-0.0505275
2.20877,0.113051,-0.0386047
2.20907,0.113066,0.012856
2.17939,0.00494488,-0.234757
2.17069,0.00492516,-0.15179
2.19619,0.112407,0.0639992
2.20857,0.113041,-0.14173
2.16964,0.00492277,-0.101066
2.19929,0.112566,-0.0897188
2.16741,0.0049177,-0.0504345
2.20915,0.10534,-0.0386047
2.20546,0.105164,0.0128327
2.17469,-0.00265688,-0.152069
2.20098,0.104951,-0.141218
2.17364,-0.0026556,-0.101252
2.19967,0.104888,-0.0897188
2.1975,0.0974822,-0.0383953
2.20579,0.09785,0.0128327
2.16744,-0.0098356,-0.233472
2.19733,0.0974744,-0.140962
2.16963,-0.00984552,-0.101066
2.20001,0.0975934,-0.0897188
2.19383,0.0896476,-0.0383255
2.20213,0.0899864,0.0128095
2.16739,-0.0174013,-0.233472
2.17462,-0.0174593,-0.152069
2.19765,0.0898037,-0.140962
2.16558,-0.0173868,-0.100879
2.19634,0.0897501,-0.089556
2.18614,0.0816904,-0.0381859
2.19843,0.0821496,0.0127862
2.16732,-0.0249668,-0.233472
2.16258,-0.0249122,-0.151232
2.19795,0.0821319,-0.140962
2.16151,-0.0248999,-0.100693
2.19664,0.0820829,-0.089556
2.19441,0.0743297,-0.0383255
2.19071,0.0742043,0.0127397
2.16324,-0.0324723,-0.233043
2.16248,-0.0324608,-0.151232
2.19424,0.0743239,-0.140707
2.18893,0.0741441,-0.0892304
2.19066,0.0665479,-0.0382557
2.19495,0.0666784,0.012763
2.15836,-0.0399353,-0.150953
2.1865,0.0664218,-0.140195
2.16528,-0.0400633,-0.100879
2.18288,0.0586857,-0.0381161
2.15422,-0.0473813,-0.150674
2.1854,0.0587534,-0.0890675
2.17907,0.0509721,-0.0380462
2.18292,0.0510622,-0.139939
2.18559,0.0511246,-0.0890675
2.18323,0.0438261,-0.0381161
2.18308,0.0438231,-0.139939
2.18175,0.0437964,-0.0889047
2.18337,0.0358238,-0.0381161
2.17923,0.0357559,-0.139683
2.17549,0.0280989,-0.0379764
2.17157,0.0204672,-0.0379066
2.14509,-0.0846557,-0.150116
2.1701,0.0204533,-0.0884162
2.1715,0.0132651,-0.139172
2.17016,0.0132569,-0.0884162
2.17154,0.0056851,-0.139172
2.16354,-0.00944028,-0.13866
2.16219,-0.00943437,-0.0880906
2.15091,-0.0540696,-0.137892
