2.21954,0.393762,-0.210425
2.21039,0.376638,-0.20931
2.2039,0.367226,-0.208567
2.19731,0.358249,-0.207823
2.19461,0.349949,-0.207451
2.19177,0.342438,-0.207079
2.19306,0.33402,-0.207079
2.18308,0.332499,-0.128604
2.18623,0.325953,-0.206336
2.17622,0.324461,-0.128138
2.17958,0.316413,-0.205592
2.1735,0.31553,-0.127906
2.17673,0.308244,-0.205221
2.17458,0.307941,-0.127906
2.17768,0.301405,-0.205221
2.17158,0.300561,-0.127673
2.17478,0.293269,-0.204849
2.16471,0.291911,-0.127208
2.16794,0.284261,-0.204105
2.1618,0.283456,-0.126976
2.16892,0.276691,-0.204105
2.16278,0.275908,-0.126976
2.16982,0.269496,-0.204105
2.15576,0.267749,-0.126511
2.15893,0.260113,-0.20299
2.19692,0.374343,-0.181931
2.15672,0.259847,-0.126511
2.15983,0.252575,-0.20299
2.14968,0.251388,-0.126045
2.16061,0.245789,-0.20299
2.19542,0.359121,-0.181606
2.1465,0.244183,-0.125813
2.14562,0.2365,-0.201503
2.19273,0.350826,-0.18128
2.14733,0.236689,-0.125813
2.197,0.35151,-0.116605
2.14766,0.22914,-0.0251447
2.15435,0.229854,-0.202246
2.18606,0.341937,-0.180629
2.14815,0.229191,-0.125813
2.14049,0.220821,-0.0250516
2.14326,0.221106,-0.201131
2.15291,0.222102,-0.126045
2.14802,0.213643,-0.201503
2.14179,0.213023,-0.125348
2.14082,0.205383,-0.200759
2.17774,0.316921,-0.179653
2.13457,0.204783,-0.124883
2.18032,0.309917,-0.280315
2.13356,0.197549,-0.200016
2.13074,0.197288,0.0249119
2.17483,0.309138,-0.179327
2.13126,0.197336,-0.12465
2.16721,0.308055,-0.11472
2.17751,0.301379,-0.27981
2.1422,0.190433,-0.200759
2.12747,0.189123,0.0248654
2.172,0.300617,-0.179002
2.12799,0.189169,-0.124418
2.12811,0.181696,-0.0248654
2.17854,0.293777,-0.27981
2.13492,0.182277,-0.200016
2.11616,0.180675,0.0247257
2.13261,0.18208,-0.12465
2.16144,0.291471,-0.114302
2.17164,0.285517,-0.2788
2.1236,0.17422,-0.1989
2.12472,0.174311,0.0248188
2.16214,0.284268,-0.178025
2.12923,0.174681,-0.124418
2.15844,0.283781,-0.114092
2.16869,0.277431,-0.278295
2.12817,0.167117,-0.199272
2.12133,0.16658,0.0247722
2.12584,0.166935,-0.124185
2.12189,0.159174,-0.0247722
2.1657,0.26937,-0.27779
2.11682,0.158794,-0.198157
2.10993,0.158277,0.0246325
2.16407,0.269167,-0.178025
2.12243,0.159215,-0.123952
2.1564,0.268213,-0.113883
2.16663,0.261808,-0.27779
2.11737,0.151404,-0.198157
2.10648,0.150625,0.024586
2.15312,0.260176,-0.177049
2.11899,0.15152,-0.12372
2.14939,0.259725,-0.113464
2.14041,0.251062,-0.0627192
2.11497,0.143813,-0.0246791
2.15965,0.253318,-0.27678
2.11391,0.143741,-0.197785
2.10699,0.143271,0.024586
2.15006,0.252193,-0.176724
2.15029,0.25222,-0.113464
2.14521,0.244416,-0.0628356
2.15654,0.245706,-0.276275
2.19784,0.359911,-0.239897
2.11437,0.136731,-0.197785
2.10346,0.136025,0.0245394
2.15484,0.245514,-0.177049
2.14317,0.244184,-0.113046
2.13417,0.235237,-0.0624865
2.14953,0.236931,-0.275265
2.11088,0.128737,-0.197413
2.10395,0.128314,0.0245394
2.14384,0.236303,-0.176073
2.1085,0.128592,-0.123022
2.14405,0.236327,-0.113046
2.15429,0.229848,-0.27577
2.18857,0.342331,-0.238612
2.10734,0.121141,-0.197041
2.0964,0.120511,0.0244463
2.18405,0.341623,-0.15458
2.14465,0.22882,-0.176073
2.14089,0.228419,-0.112836
2.1511,0.222295,-0.275265
2.11171,0.114367,-0.197413
2.09279,0.113342,0.0243997
2.1454,0.221706,-0.176073
2.13767,0.220907,-0.112627
2.12454,0.212057,-0.0621374
2.14791,0.21439,-0.27476
2.19085,0.327425,-0.238612
2.10414,0.106591,-0.19667
2.08918,0.105833,0.0243531
2.17843,0.325568,-0.154022
2.13823,0.213423,-0.175422
2.10573,0.106672,-0.12279
2.13445,0.213046,-0.112418
2.1253,0.204269,-0.0621374
2.14078,0.205757,-0.27375
2.10054,0.098692,-0.196298
2.08556,0.097988,0.0243066
2.17566,0.317007,-0.153743
2.14296,0.205967,-0.175747
2.13124,0.20484,-0.112208
2.11804,0.196112,-0.0619047
2.14149,0.198283,-0.27375
2.13483,0.197666,-0.0124607
2.09291,0.0910125,-0.195554
2.08589,0.0907069,0.0243066
2.1728,0.308848,-0.153464
2.13573,0.19775,-0.175096
2.17575,0.309267,-0.102368
2.13194,0.197399,-0.112208
2.11473,0.188363,-0.0617883
2.09019,0.0835855,-0.0243531
2.14217,0.190807,-0.27375
2.17058,0.300807,-0.236042
2.08924,0.0835476,-0.195183
2.0782,0.0831061,0.0242135
2.16596,0.300167,-0.152906
2.13244,0.18994,-0.174771
2.12725,0.189478,0.0372783
2.1689,0.300574,-0.101996
2.12466,0.189248,-0.11179
2.11534,0.18135,-0.0617883
2.13883,0.183364,-0.273244
2.08951,0.0766194,-0.195183
2.08246,0.076361,0.02426
2.16694,0.292983,-0.152906
2.12908,0.182527,-0.174445
2.12388,0.182082,0.0372085
2.16592,0.292845,-0.10181
2.1213,0.18186,-0.11158
2.16421,0.177931,-1.01259
2.12393,0.174619,-0.062021
2.08271,0.0690909,-0.02426
2.13551,0.175571,-0.272739
2.16863,0.285506,-0.235614
2.08976,0.0693247,-0.195183
2.07872,0.0689583,0.0242135
2.164,0.284896,-0.152627
2.12573,0.174767,-0.17412
2.12052,0.174339,0.0371387
2.16693,0.285282,-0.10181
2.11794,0.174126,-0.111371
2.11656,0.166576,-0.0617883
2.07894,0.0617012,-0.0242135
2.13215,0.167803,-0.272234
2.16173,0.276923,-0.234757
2.08999,0.0620291,-0.195183
2.07095,0.0614639,0.0241203
2.12236,0.167033,-0.173795
2.11713,0.166621,0.0370689
2.08754,0.0619564,-0.121627
2.1157,0.166509,0.0864623
2.16791,0.277716,-0.10181
2.12252,0.167045,-0.11158
2.15381,0.275909,-0.0505275
2.15817,0.162274,-1.00921
2.12111,0.159487,-0.0619047
2.07915,0.0544444,-0.0242135
2.13272,0.16036,-0.272234
2.11799,0.159252,-0.0123445
2.15873,0.268885,-0.234328
2.08621,0.0546294,-0.194811
2.07515,0.0543397,0.0241669
2.16989,0.270275,-0.152906
2.1269,0.159923,-0.17412
2.1177,0.159231,0.0370689
2.08375,0.0545651,-0.121394
2.15698,0.268666,-0.101252
2.1191,0.159336,-0.111371
2.16234,0.154999,-1.0109
2.10969,0.151225,-0.0615556
2.13219,0.152838,-0.427536
2.15966,0.261348,-0.234328
2.07843,0.0471666,-0.194067
2.06733,0.0469147,0.0240738
2.15498,0.260782,-0.15179
2.12347,0.152213,-0.173795
2.11425,0.151552,0.0369991
2.15393,0.260655,-0.101066
2.11566,0.151653,-0.111162
2.15569,0.260867,-0.0505275
2.16287,0.147451,-1.0109
2.10223,0.143316,-0.0613228
2.13272,0.145395,-0.427536
2.06748,0.0396985,-0.0240738
2.12587,0.144928,-0.271224
2.16056,0.253808,-0.234328
2.07858,0.0399117,-0.194067
2.06348,0.0396218,0.0240272
2.14795,0.252327,-0.151232
2.11603,0.144258,-0.173144
2.09739,0.142986,0.0856481
2.15086,0.252669,-0.100879
2.11219,0.143996,-0.110952
2.15261,0.252875,-0.0504345
2.16699,0.140133,-1.01259
2.10272,0.135977,-0.0613228
2.1293,0.137696,-0.426751
2.06361,0.0324181,-0.0240272
2.12241,0.13725,-0.270719
2.15748,0.245814,-0.2339
2.07472,0.0325927,-0.193695
2.05561,0.0322924,0.0239341
2.14882,0.244827,-0.151232
2.11255,0.136613,-0.172818
2.09787,0.135664,0.0856481
2.14776,0.244707,-0.100693
2.1087,0.136364,-0.110743
2.15348,0.245359,-0.0504345
2.11116,0.129124,-0.0615556
2.12585,0.130022,-0.425967
2.16858,0.239413,-0.33943
2.11495,0.129356,-0.269709
2.15042,0.237408,-0.233043
2.07482,0.0253498,-0.193695
2.05571,0.0251163,0.0239341
2.14569,0.236886,-0.150953
2.11301,0.129237,-0.172818
2.07233,0.0253194,-0.120697
2.09834,0.128339,0.0856481
2.14463,0.236769,-0.100507
2.11315,0.129245,-0.110952
2.13843,0.236084,-0.0500623
2.15706,0.124375,-1.00752
2.09962,0.121064,-0.0612065
2.16547,0.231422,-0.338815
2.11935,0.122201,-0.270214
2.15124,0.229901,-0.233043
2.07092,0.0180729,-0.193324
2.05578,0.0179408,0.0239341
2.15047,0.22982,-0.151232
2.10549,0.121402,-0.172167
2.0962,0.120866,0.0366501
2.09079,0.120554,0.0853225
2.14147,0.228857,-0.100321
2.1096,0.121639,-0.110743
2.13526,0.228194,-0.0499692
2.104,0.114318,-0.0613228
2.11885,0.115124,-0.424398
2.13658,0.221172,0
2.15443,0.22302,-0.336971
2.11578,0.114958,-0.269709
2.14012,0.221538,-0.231758
2.06698,0.0111842,-0.192952
2.04783,0.0110806,0.0238409
2.13535,0.221044,-0.150116
2.10588,0.11442,-0.172167
2.09259,0.113698,0.0365802
2.0832,0.113187,0.0849968
2.13427,0.220932,-0.0999489
2.10201,0.114209,-0.110324
2.13998,0.221524,-0.0500623
2.0964,0.106566,-0.0610901
2.11532,0.107528,-0.423613
2.1254,0.212518,0
2.05586,0.00394708,-0.0239341
2.1434,0.214318,-0.335126
2.14088,0.214066,-0.231758
2.06303,0.00396085,-0.19258
2.03986,0.00391637,0.0237478
2.13611,0.213588,-0.150116
2.10626,0.107067,-0.172167
2.09298,0.106392,0.0365802
2.08358,0.105914,0.0849968
2.139,0.213878,-0.100135
2.09841,0.106668,-0.110115
2.13278,0.213256,-0.0498762
2.09277,0.0990592,-0.0609738
2.11569,0.100144,-0.423613
2.05586,-0.00322879,-0.0239341
2.1402,0.206455,-0.334511
2.14161,0.206592,-0.231758
2.03986,-0.00320366,0.0237478
2.13287,0.205748,-0.149837
2.09866,0.099338,-0.171516
2.17244,0.317313,-0.140707
2.07994,0.0984521,0.084834
2.13178,0.205643,-0.0997627
2.12954,0.205427,-0.0497831
2.08911,0.0915778,-0.0608574
2.10818,0.092414,-0.422044
2.11489,0.196564,0
2.05183,-0.0103854,-0.0238875
2.14484,0.199349,-0.335126
2.13836,0.198746,-0.23133
2.04384,-0.0103449,0.0237944
2.13357,0.198301,-0.149837
2.10298,0.0921857,-0.171842
2.08028,0.0911905,0.084834
2.13647,0.19857,-0.0999489
2.09112,0.0916659,-0.109696
2.13024,0.197991,-0.0497831
2.08942,0.0842853,-0.0608574
2.11241,0.085213,-0.422829
2.11556,0.189181,0
2.04779,-0.0175129,-0.0238409
2.14159,0.191509,-0.334511
2.09026,0.0843196,-0.0121585
2.13112,0.190573,-0.230473
2.05897,-0.0176086,-0.192208
2.04379,-0.0174787,0.0237944
2.13028,0.190497,-0.149558
2.0993,0.0846842,-0.171516
2.04845,-0.0175186,-0.119301
2.07259,0.0836067,0.0845083
2.12919,0.1904,-0.0995766
2.09143,0.0843665,-0.109696
2.05947,0.0830773,0.168262
2.13092,0.190555,-0.0497831
2.08169,0.0770607,-0.0606247
2.10485,0.0779178,-0.42126
2.11219,0.181822,0
2.14615,0.184746,-0.335126
2.08654,0.07724,-0.0121353
2.12778,0.183164,-0.230044
2.03572,-0.0241607,0.0237012
2.12295,0.182748,-0.149
2.09559,0.0775751,-0.171191
2.16373,0.293318,-0.139939
2.06487,0.076438,0.0841827
2.12184,0.182653,-0.0992044
2.0917,0.077431,-0.109696
2.05973,0.0762478,0.168262
2.12357,0.182802,-0.049597
2.08196,0.0694299,-0.0606247
2.1012,0.0700713,-0.420475
2.11284,0.174079,0
2.04361,-0.0317466,-0.0237944
2.12712,0.175255,-0.332051
2.0979,0.0699613,-0.267184
2.08281,0.0694581,-0.012112
2.12843,0.175363,-0.230044
2.05084,-0.0318587,-0.191465
2.12024,0.174688,0.049504
2.03162,-0.0315602,0.0236547
2.11565,0.17431,-0.148442
2.09187,0.0697605,-0.170865
2.06514,0.0688689,0.0841827
2.1225,0.174874,-0.0992044
2.08398,0.0694972,-0.109277
2.11227,0.174032,-0.0493179
2.07819,0.0620432,-0.0605083
2.09751,0.0626198,-0.419691
2.10945,0.166388,0
2.1356,0.168451,-0.333281
2.07904,0.0620684,-0.0120888
2.12507,0.167621,-0.229616
2.05071,-0.0390169,-0.191465
2.0275,-0.0385752,0.0236081
2.12022,0.167238,-0.148721
2.08015,0.0621016,-0.169889
2.06537,0.0616602,0.0841827
2.11911,0.167151,-0.0990182
2.08421,0.0622228,-0.109277
2.12084,0.167287,-0.049504
2.07438,0.0554077,-0.060392
2.10597,0.159459,0
2.12429,0.160846,-0.331436
2.08642,0.0557291,-0.265668
2.11765,0.160343,-0.228759
2.02736,-0.0449441,0.0236081
2.11676,0.160276,-0.148442
2.07635,0.0554602,-0.169564
2.07494,0.0554227,0.0362312
2.04403,-0.0453137,-0.119069
2.06155,0.055065,0.0840198
2.11564,0.160191,-0.0988321
2.0804,0.0555685,-0.109068
2.11338,0.16002,-0.0493179
2.07058,0.0473503,-0.0602756
2.09789,0.0479749,-0.419691
2.10657,0.151371,0
2.03118,-0.0528328,-0.0236547
2.12489,0.152688,-0.331436
2.08661,0.0477169,-0.265668
2.07142,0.0473695,-0.0120423
2.04243,-0.0531255,-0.190721
2.02718,-0.0527288,0.0236081
2.11736,0.152146,-0.148442
2.08053,0.0475779,-0.169889
2.07114,0.0473631,0.0361614
2.15577,0.261259,-0.139172
2.05775,0.0470569,0.083857
2.10827,0.151493,-0.0984599
2.04865,0.0468487,0.167285
2.11398,0.151903,-0.0493179
2.14488,0.252345,-0.0376972
2.09413,0.040575,-0.418907
2.0991,0.143471,0
2.12541,0.145269,-0.331436
2.11084,0.144273,-0.227903
2.1105,0.14425,0.0492248
2.02698,-0.0598052,0.0236081
2.10991,0.14421,-0.147884
2.14874,0.252799,-0.13866
2.04991,0.0397184,0.0835313
2.1048,0.14386,-0.0982737
2.07277,0.0401611,-0.108649
2.04481,0.0396195,0.16696
2.14343,0.252174,-0.0879277
2.10651,0.143977,-0.0491318
2.14566,0.245606,-0.0376972
2.06285,0.0334868,-0.0600429
2.0864,0.033869,-0.417338
2.09954,0.136876,0
2.02678,-0.0661725,-0.0236081
2.11403,0.13782,-0.329592
2.06769,0.0335653,-0.012019
2.11128,0.137641,-0.227903
2.03805,-0.0665403,-0.190349
2.10696,0.137359,0.0491318
2.02279,-0.0660419,0.0235616
2.10637,0.137321,-0.147605
2.07283,0.0336487,-0.169238
2.14556,0.245594,-0.138404
2.05403,0.0333434,0.0836942
2.10524,0.137247,-0.0982737
2.06889,0.0335847,-0.10844
2.10696,0.137359,-0.0491318
2.13864,0.236487,-0.0375576
2.06297,0.0255662,-0.0600429
2.08259,0.0258095,-0.416553
2.09606,0.128569,0
2.02252,-0.0738079,-0.0235616
2.10665,0.129218,-0.328362
2.07906,0.0257657,-0.264658
2.11179,0.129534,-0.227903
2.10348,0.129024,0.0490387
2.01452,-0.0735162,0.0234684
2.1029,0.128988,-0.147326
2.06896,0.0256405,-0.168913
2.06353,0.0255732,0.0360218
2.14252,0.236916,-0.138148
2.05014,0.0254073,0.0835313
2.10974,0.129408,-0.0984599
2.069,0.025641,-0.10844
2.10348,0.129024,-0.0490387
2.13547,0.228594,-0.0374878
2.05905,0.0183288,-0.0599265
2.08267,0.0185391,-0.416553
2.0925,0.12102,0
2.02225,-0.0808679,-0.0235616
2.10709,0.121863,-0.328362
2.07121,0.0184371,-0.263648
2.10429,0.121702,-0.227046
2.01425,-0.0805483,0.0234684
2.10334,0.121647,-0.147326
2.06904,0.0184177,-0.168913
2.05161,0.0182626,0.0358123
2.13539,0.228585,-0.137637
2.02694,-0.0810557,-0.118138
2.08498,0.120585,0.121627
2.04622,0.0182147,0.0833685
2.1022,0.121581,-0.0980876
2.06908,0.0184181,-0.10844
2.03714,0.0181339,0.166309
2.09593,0.121218,-0.0488526
2.12822,0.221058,-0.0373482
2.0551,0.0118374,-0.0598101
2.09687,0.114664,0
2.11535,0.115675,-0.329592
2.05593,0.0118422,-0.0119493
2.09672,0.114656,-0.226189
2.1077,0.115256,-0.147605
2.06908,0.011918,-0.168913
2.05565,0.0118406,0.0358821
2.1361,0.221876,-0.137637
2.02269,-0.0872506,-0.117906
2.08535,0.114034,0.121627
2.03828,0.0117405,0.0830429
2.0946,0.11454,-0.0977154
2.06513,0.0118952,-0.108231
2.09231,0.114415,-0.0487595
2.12898,0.213627,-0.0373482
2.05113,0.00465411,-0.0596938
2.07883,0.00471696,-0.415769
2.09326,0.107139,0
2.1039,0.107684,-0.327747
2.07128,0.00469985,-0.263648
2.12927,0.213656,0.0124375
2.10505,0.107743,-0.227046
2.02101,-0.0942476,-0.188862
2.09669,0.107315,0.0488526
2.01367,-0.0939056,0.0234684
2.10012,0.10749,-0.147047
2.05568,0.00466445,0.0358821
2.13289,0.214019,-0.137381
2.01838,-0.0941251,-0.117673
2.08573,0.106754,0.121627
2.0383,0.00462502,0.0830429
2.09498,0.107227,-0.0977154
2.06117,0.00467689,-0.108021
2.08162,0.106543,0.255926
2.02924,0.00460446,0.165658
2.09269,0.10711,-0.0487595
2.12975,0.205823,-0.0373482
2.04313,-0.00285205,-0.0594611
2.08964,0.0992768,0
2.10034,0.0997849,-0.327132
2.13004,0.205851,0.0124375
2.09749,0.0996495,-0.226189
2.08908,0.09925,0.0486665
2.00932,-0.101084,0.0234219
2.09252,0.0994137,-0.146489
2.06114,-0.00287719,-0.168262
2.12969,0.205817,-0.137125
2.08212,0.0989194,0.121394
2.03431,-0.00283974,0.08288
2.09137,0.0993589,-0.0975292
2.05718,-0.00287166,-0.107812
2.02526,-0.00282711,0.165333
2.08908,0.09925,-0.0486665
2.12249,0.197645,-0.0372085
2.04711,-0.010004,-0.0595774
2.07096,-0.0101205,-0.4142
2.08198,0.0916297,0
2.00896,-0.108098,-0.0234219
2.05936,-0.0100638,-0.262133
2.12278,0.197672,0.012391
2.09782,0.0923268,-0.226189
2.02028,-0.108707,-0.188862
2.00896,-0.108098,0.0234219
2.09286,0.0921083,-0.146489
2.05713,-0.010053,-0.167936
2.04366,-0.00998715,0.0356727
2.12642,0.198011,-0.136869
2.01766,-0.108566,-0.117673
2.03429,-0.00994133,0.08288
2.08771,0.0918818,-0.0973431
2.05715,-0.0100531,-0.107812
2.08941,0.0919566,-0.0486665
2.12314,0.190606,-0.0372085
2.04706,-0.016792,-0.0595774
2.07092,-0.0169876,-0.4142
2.08228,0.0847255,0
2.09702,0.0853253,-0.326517
2.05931,-0.0168925,-0.262133
2.12342,0.190632,0.012391
2.0479,-0.0167988,-0.0119028
2.09017,0.0850467,-0.225332
2.09714,0.0853303,-0.146768
2.0531,-0.0168415,-0.167611
2.03962,-0.0167309,0.0356029
2.12309,0.190602,-0.136613
2.00533,-0.114572,-0.116976
2.07876,0.0845822,0.121162
2.03424,-0.0166868,0.08288
2.08801,0.0849586,-0.0973431
2.04912,-0.0168088,-0.107393
2.02519,-0.0166126,0.165333
2.08171,0.0847026,-0.0484804
2.11585,0.182137,-0.0370689
2.035,-0.0241529,-0.0592283
2.06692,-0.0245318,-0.413415
2.08257,0.0770925,0
2.09337,0.077492,-0.325902
2.11614,0.182161,0.0123445
2.03982,-0.0242102,-0.0118563
2.08649,0.0772376,-0.224904
2.0155,-0.122567,-0.188491
2.00017,-0.121635,0.0233287
2.04904,-0.0243196,-0.167285
2.04354,-0.0242544,0.0356727
2.1198,0.182476,-0.136357
2.00888,-0.122164,-0.117208
2.06708,0.0765189,0.120464
2.02618,-0.0240482,0.0825544
2.08431,0.0771568,-0.097157
2.01715,-0.0239411,0.164682
2.11442,0.182013,-0.0864623
2.08201,0.0770716,-0.0484804
2.11249,0.174421,-0.0369991
2.0389,-0.0313172,-0.0593447
2.0629,-0.0316859,-0.412631
2.07483,0.0695549,0
2.08967,0.0700524,-0.325287
2.05121,-0.0315063,-0.261123
2.10879,0.174116,0.012298
2.04372,-0.0313914,-0.0118796
2.09072,0.0700876,-0.225332
2.01108,-0.129346,-0.188119
2.08972,0.0700539,-0.14621
2.04894,-0.0314715,-0.167285
2.11192,0.174374,0.0616719
2.03545,-0.0312643,0.0355331
2.12042,0.175076,-0.136357
2.07532,0.069571,0.120929
2.02608,-0.0311203,0.0825544
2.08057,0.0697473,-0.0969709
2.04495,-0.0314102,-0.107184
2.01705,-0.0309817,0.164682
2.11106,0.174303,-0.0862994
2.07427,0.0695361,-0.0482943
2.12103,0.168047,-0.0371387
2.03079,-0.0379285,-0.059112
2.06278,-0.0385261,-0.412631
2.07505,0.0626745,0
2.08594,0.0630035,-0.324672
2.11334,0.167438,0.0123213
2.083,0.0629144,-0.224475
2.01064,-0.136013,-0.188119
2.07449,0.0626576,0.0482943
2.08595,0.0630037,-0.145931
2.1085,0.167054,0.0615556
2.11701,0.167729,-0.136102
2.00402,-0.135565,-0.116976
2.06755,0.062448,0.120464
2.02197,-0.0377639,0.0823915
2.08079,0.0628479,-0.0969709
2.03286,-0.0379672,-0.106556
2.04768,0.0618478,0.251538
2.01295,-0.0375954,0.164356
2.10764,0.166986,-0.0861366
2.07849,0.0627783,-0.0483873
2.11366,0.159668,-0.0369991
2.03463,-0.0454623,-0.0592283
2.05871,-0.0460002,-0.411846
2.07527,0.0550671,0
1.99879,-0.142574,-0.0233287
2.04697,-0.045738,-0.260618
2.10198,0.158786,0.0122515
2.08321,0.0552779,-0.224475
1.99821,-0.142533,-0.187003
2.07471,0.0550522,0.0482943
2.08218,0.0552505,-0.145652
2.04469,-0.0456869,-0.16696
2.09713,0.15842,0.0612065
2.03118,-0.0453852,0.0354633
2.11363,0.159666,-0.135846
2.07176,0.054974,0.120697
2.02182,-0.045176,0.0823915
2.08101,0.0552195,-0.0969709
2.04069,-0.0455976,-0.106975
2.00881,-0.0448854,0.164031
2.10824,0.159259,-0.0861366
2.07071,0.0549462,-0.0482012
2.11417,0.152659,-0.0369991
2.03447,-0.0522085,-0.0592283
2.05462,-0.0527256,-0.411062
2.07144,0.0480928,0
1.99431,-0.148903,-0.0232822
2.07843,0.048255,-0.323443
2.04681,-0.0525251,-0.260618
2.0985,0.151527,0.0122283
2.0353,-0.0522297,-0.0118331
2.08338,0.04837,-0.224475
2.08235,0.0483461,-0.145652
2.04054,-0.0523642,-0.166634
2.09765,0.151465,0.0612065
2.02702,-0.0520174,0.0353935
2.11017,0.152369,-0.13559
2.05995,0.047826,0.119999
2.02166,-0.0518797,0.0823915
2.04013,0.0473657,0.250563
2.00865,-0.051546,0.164031
2.10477,0.15198,-0.0859738
2.06688,0.0479869,-0.0481082
2.10275,0.144088,-0.0367897
2.02227,-0.0593132,-0.0588792
2.0716,0.0405002,0
2.08254,0.0407141,-0.324057
2.04263,-0.0599103,-0.260113
2.09904,0.143834,0.0122283
2.03109,-0.0595718,-0.0118098
2.06764,0.0404228,-0.222762
2.00114,-0.15679,-0.187375
1.98578,-0.155587,0.023189
2.07853,0.0406356,-0.145372
2.04033,-0.0598428,-0.166634
2.09819,0.143776,0.0612065
2.02682,-0.0594465,0.0353935
2.10673,0.144361,-0.135334
2.06012,0.0402756,0.119999
2.01346,-0.0590547,0.0820659
2.07336,0.0405345,-0.0965986
2.02834,-0.0594912,-0.106347
2.00845,-0.0589078,0.164031
2.05905,0.0402548,-0.0479221
2.09925,0.136488,-0.0367199
2.01406,-0.0661095,-0.0586465
2.04635,-0.0671693,-0.409493
2.06373,0.0331403,0
2.07872,0.033381,-0.323443
2.03448,-0.0667797,-0.259102
2.09155,0.135988,0.0121818
2.02687,-0.0665301,-0.0117866
2.07175,0.033269,-0.22319
1.99661,-0.16345,-0.187003
2.07467,0.0333158,-0.145093
2.02816,-0.0665722,-0.165658
2.0907,0.135932,0.0609738
2.0226,-0.0663899,0.0353237
2.10324,0.136747,-0.135078
1.99394,-0.163231,-0.116511
2.05625,0.0330201,0.119766
2.01324,-0.0660827,0.0820659
2.07348,0.0332969,-0.0965986
2.03212,-0.0667021,-0.106556
2.03644,0.032702,0.250076
2.01222,-0.066049,0.164356
2.09783,0.136396,-0.0856481
2.05918,0.0330671,-0.0479221
2.10765,0.130386,-0.0368595
2.01784,-0.0725803,-0.0587629
2.04221,-0.0734568,-0.408708
2.06383,0.0266567,0
2.07091,0.0267482,-0.322213
2.09596,0.129663,0.012205
2.07582,0.0268116,-0.223619
1.99212,-0.169384,-0.186632
2.06678,0.0266949,-0.144535
2.02794,-0.0729435,-0.165658
2.09112,0.129364,0.0609738
2.10764,0.130386,-0.135334
1.99342,-0.169494,-0.116511
2.04836,0.0264569,0.119301
2.00903,-0.0722635,0.0819031
2.06559,0.0266795,-0.0962264
2.02391,-0.0727987,-0.106137
2.0405,0.0263555,0.250563
2.06327,0.0266495,-0.0480151
2.10412,0.122428,-0.0367897
2.01357,-0.0798172,-0.0586465
2.05991,0.0190552,0
1.98407,-0.176027,-0.023189
2.06704,0.0191212,-0.321598
2.03001,-0.0804692,-0.258597
2.09243,0.121748,0.0121818
2.02238,-0.0801665,-0.0117633
2.06397,0.0190928,-0.222334
2.05935,0.0190501,0.0479221
2.06686,0.0191195,-0.144535
2.03164,-0.0805337,-0.165984
2.08359,0.121234,0.060741
2.10013,0.122196,-0.134823
2.05643,0.019023,0.119766
2.00476,-0.0794682,0.0817402
2.01964,-0.080058,-0.105928
2.04059,0.0188765,0.250563
2.09073,0.121649,-0.0853225
2.05536,0.0190131,-0.047829
2.09655,0.114646,-0.0366501
2.02126,-0.08719,-0.0588792
2.04163,-0.0880685,-0.408708
2.05597,0.0118417,0
2.06315,0.011883,-0.320983
2.02972,-0.0875548,-0.258597
2.08485,0.114006,0.0121353
2.01809,-0.087053,-0.0117401
2.06005,0.0118652,-0.221905
1.99086,-0.183635,-0.186632
2.06692,0.0119047,-0.144535
2.0194,-0.0871095,-0.165007
2.084,0.11396,0.060741
2.00982,-0.0866965,0.0351142
2.09656,0.114647,-0.134567
2.0485,0.0117986,0.119301
2.00846,-0.0866378,0.0819031
2.06573,0.0118979,-0.0962264
2.01935,-0.0871073,-0.105928
2.08715,0.114132,-0.0851596
2.05541,0.0118384,-0.047829
2.09694,0.107327,-0.0366501
2.00497,-0.0935,-0.0584138
2.05922,0.00467224,-0.320368
2.02148,-0.0942696,-0.257587
2.07725,0.106319,0.0120888
2.01777,-0.0940969,-0.0117401
2.06008,0.00467418,-0.221905
1.98227,-0.189824,-0.185888
2.02306,-0.0943437,-0.165333
2.0764,0.106276,0.0605083
2.0135,-0.0938979,0.0351841
2.09296,0.107124,-0.134311
1.98355,-0.189946,-0.116045
2.04054,0.00462984,0.118836
2.00416,-0.093462,0.0817402
2.05776,0.00466893,-0.0958541
2.02302,-0.0943417,-0.106137
2.09153,0.10705,-0.0853225
2.04744,0.00464551,-0.0476429
2.09329,0.100182,-0.0365802
2.00465,-0.100148,-0.0584138
2.02531,-0.10118,-0.405571
2.052,-0.00214885,0
2.05923,-0.00215642,-0.320368
2.02511,-0.101171,-0.258092
2.08558,0.0998126,0.0121353
2.01345,-0.100588,-0.0117168
2.0561,-0.00215315,-0.221477
1.97767,-0.196003,-0.185516
2.04744,-0.00214408,0.0476429
2.06296,-0.00216033,-0.144256
2.07674,0.0993898,0.0605083
2.09729,0.100373,-0.134567
2.04853,-0.00214522,0.119301
1.99985,-0.0999081,0.0815774
2.05777,-0.00215489,-0.0958541
2.01871,-0.10085,-0.105928
2.09187,0.100114,-0.0853225
2.05144,-0.00214827,-0.047736
2.08565,0.0921555,-0.0364406
2.00427,-0.107495,-0.0584138
2.06846,-0.00974744,-0.579048
2.02885,-0.108813,-0.406355
2.04798,-0.00965093,0
2.05525,-0.00968522,-0.319753
2.02077,-0.10838,-0.257587
2.08593,0.092168,0.0121353
2.05211,-0.00967039,-0.221048
1.97694,-0.203251,-0.185516
2.05496,-0.00968384,-0.143698
2.01439,-0.108038,-0.164682
2.0731,0.091601,0.060392
2.00082,-0.10731,0.0349746
2.09366,0.0925094,-0.134311
1.97423,-0.202972,-0.11558
2.03653,-0.00959697,0.118604
1.99547,-0.107023,0.0814146
2.01035,-0.107821,-0.105509
2.08424,0.0920931,-0.0849968
2.03943,-0.00961063,-0.0474568
2.08596,0.0848746,-0.0364406
1.99989,-0.114262,-0.0582974
2.06071,-0.0169045,-0.576891
2.02454,-0.115671,-0.405571
2.03993,-0.016734,0
2.0473,-0.0167945,-0.318523
2.01642,-0.115207,-0.257082
2.07425,0.0843983,0.0120655
2.06001,-0.0168988,-0.221905
1.97622,-0.21015,-0.185516
1.96877,-0.209358,0.0230493
2.05491,-0.0168569,-0.143698
2.01799,-0.115296,-0.165007
2.07341,0.084364,0.060392
2.08599,0.084876,-0.133799
2.04047,-0.0167385,0.118836
1.99509,-0.113988,0.0814146
2.0537,-0.016847,-0.095668
2.01395,-0.115065,-0.105719
2.08055,0.0846547,-0.084834
2.04338,-0.0167623,-0.0475499
2.08223,0.0778075,-0.0363708
2.00748,-0.121376,-0.0585302
2.05679,-0.0236935,-0.575813
2.02414,-0.122384,-0.405571
2.04386,-0.0235447,0
1.96806,-0.215885,-0.0230493
2.05119,-0.023629,-0.319138
2.01206,-0.121653,-0.256577
2.07052,0.07737,0.0120423
2.05199,-0.0236383,-0.221048
1.96408,-0.215449,0.0230028
2.05086,-0.0236252,-0.143419
2.06968,0.0773385,0.0602756
1.99605,-0.120685,0.0349048
2.08227,0.0778091,-0.133543
2.03641,-0.0234589,0.118604
1.9947,-0.120603,0.0814146
2.00558,-0.121261,-0.1053
2.07683,0.0776056,-0.0846712
2.03931,-0.0234922,-0.0474568
2.0785,0.0700406,-0.036301
1.99505,-0.127965,-0.0581811
2.02368,-0.129802,-0.405571
2.03977,-0.0309749,0
2.04318,-0.0310268,-0.317908
2.00368,-0.128519,-0.255567
2.07079,0.0697806,0.0120423
2.04792,-0.0310987,-0.22062
1.96679,-0.223044,-0.184773
2.00122,-0.128361,-0.163705
2.06595,0.0696176,0.0601592
2.08254,0.0701767,-0.133543
1.96406,-0.222735,-0.115115
2.02434,-0.0307406,0.117906
1.99424,-0.127913,0.0814146
2.00512,-0.128611,-0.1053
2.0731,0.0698586,-0.0845083
2.03122,-0.0308451,-0.0472707
2.07874,0.0627848,-0.036301
1.98662,-0.134389,-0.0579483
2.0193,-0.1366,-0.404786
2.03165,-0.0379454,0
2.03911,-0.0380849,-0.317293
2.01114,-0.136048,-0.256577
2.07502,0.0626726,0.0120655
2.0478,-0.0382471,-0.22062
1.96204,-0.229445,-0.184401
2.0311,-0.0379352,0.0472707
2.06219,0.062285,0.0600429
1.99514,-0.134965,0.0349048
2.0748,0.0626658,-0.133032
1.96724,-0.230053,-0.115348
2.02821,-0.0378813,0.118138
1.9898,-0.134604,0.0812517
2.04143,-0.0381282,-0.0951096
2.00068,-0.13534,-0.105091
2.06934,0.062501,-0.0843455
2.03509,-0.0380098,-0.0473638
2.07493,0.0557837,-0.0362312
1.99015,-0.141259,-0.0580647
2.01101,-0.14274,-0.403217
2.03151,-0.0446824,0
2.03897,-0.0448466,-0.317293
2.01068,-0.142716,-0.256577
2.06722,0.0555762,0.012019
2.0397,-0.0448627,-0.219763
1.96918,-0.236902,-0.185145
2.03496,-0.0447582,0.0473638
2.04252,-0.0449245,-0.142861
1.99632,-0.141697,-0.16338
2.05439,0.0552313,0.0598101
1.99468,-0.141581,0.0349048
2.07499,0.0557852,-0.133032
1.95854,-0.235622,-0.114883
2.02009,-0.0444312,0.117673
1.98535,-0.140919,0.0810889
2.04129,-0.0448976,-0.0951096
1.99623,-0.141691,-0.104881
2.06954,0.0556385,-0.0843455
2.03096,-0.0446703,-0.0472707
2.07112,0.0484469,-0.0361614
2.00659,-0.149468,-0.402433
2.02734,-0.0516715,0
2.0388,-0.0519636,-0.317293
2.00621,-0.149439,-0.256072
2.0674,0.0483599,0.012019
1.95648,-0.242306,-0.184029
2.03079,-0.0517594,0.0472707
2.04235,-0.052054,-0.142861
1.99184,-0.148369,-0.163054
2.05457,0.0480598,0.0598101
1.99018,-0.148245,0.034835
2.07118,0.0484485,-0.132776
1.96166,-0.242948,-0.115115
2.02391,-0.0515841,0.117906
1.98884,-0.148145,0.0812517
1.99174,-0.148361,-0.104672
2.06173,0.0482272,-0.0840198
2.03479,-0.0518613,-0.0473638
2.06728,0.0411375,-0.0360916
1.98114,-0.154528,-0.057832
2.00997,-0.156776,-0.403217
2.01915,-0.0585162,0
2.03861,-0.0590801,-0.317293
2.00172,-0.156133,-0.255567
2.05556,0.0409043,0.0119493
2.03537,-0.0589861,-0.219335
1.96353,-0.25014,-0.184773
1.99528,-0.155631,-0.16338
2.05472,0.0408877,0.0598101
1.98965,-0.155192,0.034835
2.06735,0.041139,-0.13252
1.9608,-0.249794,-0.115115
2.01973,-0.0585329,0.117673
1.98723,-0.155002,-0.104463
2.06188,0.0410302,-0.0840198
2.0226,-0.0586162,-0.0470846
2.06341,0.0338555,-0.0360218
1.98059,-0.161442,-0.057832
1.99768,-0.162835,-0.400864
2.02293,-0.0656938,0
2.03444,-0.0660675,-0.316679
1.99721,-0.162797,-0.255062
2.05569,0.0337288,0.0119493
1.98937,-0.162158,-0.0116006
2.03515,-0.0660905,-0.219335
1.95474,-0.255959,-0.184029
2.02638,-0.0658058,0.0471777
1.98678,-0.161947,-0.162729
2.05086,0.0336496,0.0596938
2.07147,0.0339878,-0.132776
1.95596,-0.256118,-0.114883
2.01552,-0.0654531,0.117441
2.03272,-0.0660117,-0.0947374
1.99066,-0.162263,-0.104672
2.05802,0.033767,-0.083857
2.01839,-0.0655462,-0.0469915
2.05951,0.026601,-0.035952
1.97205,-0.167677,-0.0575993
2.00101,-0.17014,-0.401648
2.01869,-0.072611,0
2.0342,-0.0731687,-0.316679
1.99267,-0.169431,-0.254557
2.05179,0.0265013,0.011926
2.03491,-0.0731941,-0.219335
1.94989,-0.262249,-0.183657
2.01815,-0.0725913,0.0469915
2.02973,-0.0730079,-0.142024
1.99017,-0.169219,-0.163054
2.04296,0.0263872,0.0594611
1.98055,-0.1684,0.0346954
2.05561,0.0265506,-0.131753
1.95505,-0.262944,-0.114883
2.01927,-0.0726317,0.117673
2.02449,-0.0728196,-0.0943651
1.97814,-0.168195,-0.104044
2.06212,0.0266346,-0.0840198
2.01815,-0.0725913,-0.0469915
2.05559,0.0197329,-0.0358821
1.97148,-0.174216,-0.0575993
1.98871,-0.175739,-0.399295
2.00645,-0.0788337,0
2.02605,-0.0796035,-0.315449
1.99605,-0.176387,-0.255062
2.05187,0.0196972,0.011926
2.03465,-0.0799417,-0.219335
1.94901,-0.268714,-0.183657
2.02947,-0.0797383,-0.142024
1.98166,-0.175115,-0.162403
2.04304,0.0196124,0.0594611
1.97998,-0.174967,0.0346954
2.06367,0.0198104,-0.132264
1.99907,-0.0785436,0.116511
2.02823,-0.0796895,-0.0945512
1.97359,-0.174402,-0.103835
2.0502,0.0196812,-0.0835313
2.0139,-0.0791264,-0.0468985
2.05965,0.0122223,-0.035952
1.97083,-0.181441,-0.0575993
1.99196,-0.183386,-0.400079
2.01015,-0.0863589,0
2.02574,-0.0870288,-0.315449
1.98749,-0.182975,-0.254052
2.03993,0.0121053,0.0118563
2.03037,-0.0872278,-0.218906
1.94407,-0.275297,-0.183286
2.01759,-0.0866788,0.0469915
2.02518,-0.0870049,-0.141745
1.98497,-0.182743,-0.162729
2.0391,0.0121004,0.0593447
1.97534,-0.181856,0.0346256
2.05575,0.0121992,-0.131753
1.94922,-0.276026,-0.11465
2.00675,-0.0862128,0.116976
1.97692,-0.182001,-0.104044
2.05026,0.0121666,-0.0835313
2.01759,-0.0866788,-0.0469915
2.05568,0.00538179,-0.0358821
1.9742,-0.188355,-0.0577156
1.98744,-0.189618,-0.399295
2.01384,-0.0932092,0
2.02149,-0.0935632,-0.314834
1.98292,-0.189187,-0.253547
2.04396,0.0053511,0.0118796
2.01815,-0.0934086,-0.217621
1.94314,-0.281743,-0.183286
1.98039,-0.188946,-0.162403
2.03913,0.00533846,0.0593447
1.97075,-0.188026,0.0345558
2.04779,0.00536114,-0.131241
1.94434,-0.281916,-0.114418
1.99847,-0.0924977,0.116511
1.9763,-0.188556,-0.104044
2.05029,0.00536768,-0.0835313
2.00531,-0.0928142,-0.0467124
2.05169,-0.00179043,-0.0358123
1.96159,-0.194064,-0.0573665
1.98676,-0.196554,-0.399295
2.01351,-0.100238,0
2.01721,-0.100422,-0.314219
1.97435,-0.195327,-0.252536
2.03997,-0.00178021,0.0118563
2.01781,-0.100453,-0.217621
1.94215,-0.288524,-0.183286
1.97575,-0.195465,-0.162078
2.03514,-0.00177599,0.0592283
1.97008,-0.194904,0.0345558
2.0478,-0.00178704,-0.131241
1.94334,-0.288701,-0.114418
1.99415,-0.0992745,0.116278
2.01532,-0.100328,-0.0939929
1.97563,-0.195453,-0.104044
2.0503,-0.00178922,-0.0835313
2.00497,-0.0998135,-0.0467124
2.04367,-0.00891724,-0.0356727
1.95692,-0.200502,-0.0572502
1.98997,-0.203888,-0.400079
2.00915,-0.107053,0
2.01684,-0.107463,-0.314219
1.98155,-0.203026,-0.253547
2.03995,-0.008901,0.0118563
2.01348,-0.107284,-0.217193
1.93326,-0.294103,-0.182542
2.00461,-0.106812,0.0467124
2.01621,-0.107429,-0.141187
1.97506,-0.20236,-0.162078
2.03512,-0.00887993,0.0592283
1.96939,-0.20178,0.0345558
2.04778,-0.00893517,-0.131241
1.93838,-0.294882,-0.114185
1.99778,-0.106447,0.116511
2.01495,-0.107363,-0.0939929
1.97096,-0.201941,-0.103835
2.04628,-0.00892864,-0.0833685
2.00062,-0.106599,-0.0466193
2.04763,-0.0160823,-0.0357425
1.97754,-0.209593,-0.397726
1.99678,-0.113386,0
2.0204,-0.114727,-0.314834
1.98083,-0.209942,-0.253547
2.0359,-0.0159903,0.0118331
2.01309,-0.114312,-0.217193
1.93222,-0.30085,-0.182542
2.00423,-0.113808,0.0467124
2.01184,-0.11424,-0.140908
1.97037,-0.208833,-0.161753
2.03108,-0.0159524,0.059112
1.96867,-0.208653,0.0345558
2.04774,-0.0160832,-0.131241
2.00138,-0.113647,0.116743
2.01457,-0.114395,-0.0939929
1.9623,-0.207978,-0.103416
2.03825,-0.0160087,-0.0830429
2.00024,-0.113582,-0.0466193
2.04756,-0.0232298,-0.0357425
1.95548,-0.214159,-0.0572502
1.9768,-0.216495,-0.397726
2.00037,-0.120596,0
2.0121,-0.121303,-0.313604
1.97614,-0.216423,-0.253042
2.03183,-0.0230514,0.0118098
2.01665,-0.121577,-0.217621
1.93116,-0.307593,-0.182542
1.96567,-0.215276,-0.161427
2.02301,-0.0229514,0.0588792
2.03968,-0.0231405,-0.130729
1.93627,-0.308407,-0.114185
2.01017,-0.121186,-0.0938067
1.96553,-0.215261,-0.103625
2.03418,-0.0230781,-0.08288
1.99983,-0.120563,-0.0466193
1.95074,-0.220535,-0.0571338
1.99994,-0.127578,0
2.01166,-0.128326,-0.313604
1.97143,-0.222874,-0.252536
2.02774,-0.0300844,0.0117866
2.01225,-0.128363,-0.217193
1.934,-0.314972,-0.182914
2.01099,-0.128283,-0.140908
1.96491,-0.222136,-0.161427
2.03959,-0.0302602,-0.130729
1.93124,-0.314523,-0.113952
1.9608,-0.221672,-0.103416
2.04208,-0.0302971,-0.0832057
1.99939,-0.127543,-0.0466193
2.03535,-0.0373039,-0.0355331
1.94599,-0.22688,-0.0570174
1.99549,-0.134289,0
2.00332,-0.134816,-0.312374
1.96276,-0.228835,-0.251526
2.03162,-0.0372356,0.0118098
1.96267,-0.228825,-0.0114843
1.99988,-0.134585,-0.215908
1.9211,-0.319759,-0.181799
2.00655,-0.135034,-0.140629
1.96016,-0.228532,-0.161102
2.01881,-0.0370007,0.0587629
2.03548,-0.0373063,-0.130473
1.93013,-0.321262,-0.113952
2.0013,-0.13468,-0.0934345
1.96398,-0.228978,-0.103625
2.03397,-0.0372786,-0.08288
1.99096,-0.133984,-0.0464332
2.02721,-0.0442339,-0.0353935
1.94519,-0.233671,-0.0570174
1.98304,-0.140406,0
2.00677,-0.142087,-0.312989
1.96195,-0.235685,-0.251526
2.03148,-0.0443271,0.0118098
1.99543,-0.141284,-0.215479
1.99447,-0.141216,0.0465263
2.00209,-0.141755,-0.14035
1.95935,-0.235372,-0.161102
2.02266,-0.0441346,0.0588792
2.03135,-0.0443242,-0.130218
1.92112,-0.326659,-0.113487
1.99683,-0.141383,-0.0932484
1.95127,-0.234403,-0.102997
2.03383,-0.0443783,-0.08288
1.98649,-0.140651,-0.0463402
2.02704,-0.0513099,-0.0353935
1.94436,-0.24046,-0.0570174
1.98253,-0.147328,0
1.99838,-0.148506,-0.311759
1.96505,-0.243019,-0.252031
2.02332,-0.0512156,0.0117633
1.99889,-0.148543,-0.215908
1.91098,-0.331801,-0.181055
1.99362,-0.148152,-0.139792
1.9506,-0.241232,-0.160451
2.0145,-0.0509924,0.0586465
2.03517,-0.0515156,-0.130473
1.91997,-0.333363,-0.113487
1.99234,-0.148056,-0.0930622
2.02567,-0.0512751,-0.0825544
1.98997,-0.147881,-0.0464332
2.02685,-0.0583852,-0.0353935
1.94351,-0.247245,-0.0570174
1.986,-0.154557,0
1.99785,-0.15548,-0.311759
1.95632,-0.248875,-0.251021
2.01513,-0.0580476,0.0117168
1.99836,-0.15552,-0.215908
1.91373,-0.339164,-0.181427
1.98546,-0.154516,0.0463402
1.99309,-0.15511,-0.139792
1.94579,-0.247536,-0.160125
2.02301,-0.0582746,-0.129706
1.92273,-0.340759,-0.11372
1.94563,-0.247515,-0.102788
2.02148,-0.0582306,-0.0823915
1.98147,-0.154205,-0.0462471
2.01866,-0.064497,-0.0352539
1.94669,-0.253867,-0.0571338
1.97753,-0.16015,0
1.99342,-0.161437,-0.311144
1.95553,-0.25502,-0.251021
2.01494,-0.064378,0.0117168
1.95144,-0.254487,-0.0114378
1.98994,-0.161155,-0.215051
1.91265,-0.345175,-0.181427
1.94501,-0.253648,-0.160125
2.00613,-0.0640965,0.0584138
2.02681,-0.0647572,-0.129962
1.91379,-0.34538,-0.113255
1.94484,-0.253626,-0.102788
2.0173,-0.0644534,-0.0822287
1.98496,-0.160752,-0.0463402
2.01842,-0.0715431,-0.0352539
1.93786,-0.259599,-0.0569011
1.98493,-0.167726,0
1.99284,-0.168394,-0.311144
1.95463,-0.261845,-0.251021
2.0147,-0.0714111,0.0117168
1.99332,-0.168435,-0.215479
1.90752,-0.351128,-0.181055
1.97642,-0.167007,0.0461541
1.99202,-0.168325,-0.139792
1.94806,-0.260965,-0.160451
2.00989,-0.0712405,0.0585302
2.01859,-0.0715489,-0.12945
1.9165,-0.352781,-0.113487
1.99074,-0.168217,-0.0930622
1.94394,-0.260413,-0.102788
2.01706,-0.0714947,-0.0822287
1.9804,-0.167343,-0.0462471
2.01415,-0.0787842,-0.0351841
1.93294,-0.266154,-0.0567847
1.9843,-0.175,0
2.00008,-0.176392,-0.312374
1.95366,-0.269007,-0.251021
2.01842,-0.0789512,0.0117401
1.98477,-0.175041,-0.214623
1.90622,-0.358117,-0.181055
1.97978,-0.174601,0.0462471
1.98741,-0.175274,-0.139513
1.94314,-0.267559,-0.160125
2.00961,-0.0786066,0.0585302
2.01432,-0.0787909,-0.129194
1.91519,-0.359803,-0.113487
1.93506,-0.266447,-0.102369
2.01678,-0.0788871,-0.0822287
1.97181,-0.173898,-0.046061
2.01388,-0.0854629,-0.0351841
1.936,-0.273121,-0.0569011
1.96777,-0.18012,0
1.99162,-0.182303,-0.311144
1.94882,-0.27493,-0.250516
2.01016,-0.0853049,0.0116936
1.98418,-0.181622,-0.214623
1.90111,-0.363688,-0.180683
1.97919,-0.181165,0.0462471
1.98285,-0.1815,-0.139234
1.9383,-0.273445,-0.1598
2.00135,-0.0849312,0.0582974
2.01804,-0.0856394,-0.12945
1.98156,-0.181382,-0.09269
1.93812,-0.27342,-0.102578
2.00852,-0.0852356,-0.0819031
1.97521,-0.180801,-0.0461541
2.01357,-0.0924922,-0.0351841
1.92712,-0.278733,-0.0566684
1.96713,-0.186988,0
1.9831,-0.188506,-0.309915
1.94392,-0.281163,-0.250011
2.00985,-0.0923212,0.0116936
1.89983,-0.370322,-0.180683
1.97456,-0.187694,0.0461541
1.97823,-0.188043,-0.138955
1.93338,-0.279638,-0.159474
1.99705,-0.0917332,0.0581811
2.01374,-0.0925,-0.129194
1.98091,-0.188298,-0.09269
1.9332,-0.279612,-0.102369
2.00422,-0.0920628,-0.0817402
1.97456,-0.187694,-0.0461541
2.00123,-0.0992772,-0.0349746
1.93004,-0.286381,-0.0567847
1.96245,-0.193804,0
1.98239,-0.195773,-0.309915
1.93503,-0.287121,-0.249001
2.00151,-0.0992906,0.0116471
1.97887,-0.195425,-0.214194
1.89455,-0.376506,-0.180312
1.97753,-0.195292,-0.138955
1.93235,-0.286723,-0.159474
2.00069,-0.0992503,0.0582974
2.00541,-0.0994846,-0.128683
1.97623,-0.195164,-0.0925039
1.93217,-0.286696,-0.102369
2.00387,-0.099408,-0.0817402
1.97386,-0.19493,-0.0461541
1.99688,-0.10605,-0.0349048
1.92508,-0.292516,-0.0566684
1.96972,-0.201467,0
1.9817,-0.202691,-0.309915
1.93402,-0.293874,-0.249001
2.00115,-0.106277,0.0116471
1.97026,-0.201522,-0.213337
1.89323,-0.383117,-0.180312
1.97683,-0.202194,-0.138955
1.93133,-0.293466,-0.159474
2.00505,-0.106484,-0.128683
1.97554,-0.202062,-0.0925039
1.93115,-0.293439,-0.102369
2.00351,-0.106402,-0.0817402
1.96919,-0.201412,-0.046061
1.99652,-0.112671,-0.0349048
1.92805,-0.299512,-0.0567847
1.96109,-0.207157,0
1.98495,-0.209677,-0.310529
1.93695,-0.300895,-0.249506
2.00078,-0.112912,0.0116471
1.96822,-0.20791,-0.138397
1.93035,-0.299869,-0.159474
1.99598,-0.112641,0.0581811
2.00071,-0.112908,-0.128427
1.96691,-0.207772,-0.0921316
1.92622,-0.299228,-0.10216
2.00315,-0.113046,-0.0817402
1.96851,-0.207941,-0.046061
1.99611,-0.11964,-0.0349048
1.96035,-0.214001,0
1.98027,-0.216176,-0.309915
1.93197,-0.307031,-0.249001
2.00038,-0.119895,0.0116471
1.96489,-0.214497,-0.212909
1.96351,-0.214346,-0.138118
1.92535,-0.305979,-0.159149
1.99158,-0.119368,0.0580647
1.99631,-0.119652,-0.128171
1.96617,-0.214637,-0.0921316
1.92517,-0.30595,-0.10216
1.99875,-0.119798,-0.0815774
1.9638,-0.214377,-0.045968
2.00364,-0.127463,-0.0350444
1.95956,-0.221185,0
1.97554,-0.222989,-0.3093
1.923,-0.312836,-0.247991
1.99194,-0.126718,0.0116006
1.96409,-0.221697,-0.212909
1.96271,-0.221541,-0.138118
1.92028,-0.312394,-0.158823
1.98315,-0.126159,0.057832
1.99586,-0.126968,-0.128171
1.9614,-0.221393,-0.0919455
1.92009,-0.312362,-0.10195
1.99431,-0.126869,-0.0814146
1.963,-0.221573,-0.045968
1.99525,-0.133224,-0.0349048
1.95488,-0.226879,0
1.97483,-0.229194,-0.3093
1.92984,-0.320175,-0.249001
1.99153,-0.132976,0.0116006
1.95804,-0.227246,-0.137839
1.91536,-0.317773,-0.158498
1.98274,-0.132389,0.057832
1.96467,-0.228015,-0.0921316
1.9191,-0.318393,-0.10195
1.98991,-0.132868,-0.0812517
1.95832,-0.227278,-0.0458749
1.99079,-0.139908,-0.034835
1.94613,-0.232751,0
1.97402,-0.236086,-0.3093
1.92088,-0.325583,-0.247991
1.98707,-0.139646,0.0115773
1.91817,-0.325123,-0.158823
1.98227,-0.139309,0.057832
1.98701,-0.139642,-0.127659
1.95989,-0.234397,-0.0919455
1.92191,-0.325757,-0.10216
1.98944,-0.139813,-0.0812517
1.95752,-0.234113,-0.0458749
1.98625,-0.147255,-0.0347652
1.94919,-0.240712,0
1.91571,-0.332278,-0.247486
1.99449,-0.147866,0.0116238
1.96166,-0.242252,-0.212909
1.96425,-0.242571,-0.138397
1.92084,-0.333167,-0.159149
1.98172,-0.146919,0.057832
1.99044,-0.147566,-0.127915
1.95501,-0.241431,-0.0917594
1.91671,-0.332452,-0.10195
1.98889,-0.147451,-0.0812517
1.9566,-0.241627,-0.0458749
1.98173,-0.153878,-0.0346954
1.96439,-0.249554,-0.30807
1.95547,-0.24842,-0.137839
1.90788,-0.337785,-0.158173
1.97322,-0.153217,0.0575993
1.98594,-0.154204,-0.127659
1.95019,-0.24775,-0.0915733
1.91161,-0.338444,-0.101741
1.98438,-0.154083,-0.0810889
1.95575,-0.248456,-0.0458749
1.98921,-0.160747,-0.034835
1.96752,-0.256234,-0.308685
1.98549,-0.160447,0.0115773
1.95607,-0.254744,-0.212481
1.95072,-0.254047,-0.13756
1.90681,-0.343777,-0.158173
1.97273,-0.159415,0.0575993
1.98146,-0.160121,-0.127403
1.94941,-0.253876,-0.0915733
1.9066,-0.343739,-0.101532
1.97591,-0.159673,-0.0807633
1.95496,-0.254599,-0.0458749
1.98064,-0.167363,-0.0346954
1.96265,-0.262919,-0.30807
1.98489,-0.167723,0.0115773
1.94582,-0.260665,-0.137281
1.90554,-0.350763,-0.158173
1.97213,-0.166645,0.0575993
1.97688,-0.167046,-0.127148
1.9445,-0.260488,-0.0913871
1.97532,-0.166914,-0.0807633
1.94212,-0.260169,-0.0455958
1.97606,-0.173925,-0.0346256
1.95389,-0.268691,-0.30684
1.98031,-0.1743,0.0115541
1.93844,-0.266567,-0.210767
1.94095,-0.266912,-0.137002
1.9043,-0.357413,-0.158173
1.97552,-0.173878,0.0577156
1.97231,-0.173596,-0.126892
1.93962,-0.26673,-0.091201
1.9787,-0.174158,-0.0809261
1.94912,-0.268037,-0.0457819
1.97149,-0.180113,-0.0345558
1.95298,-0.275169,-0.30684
1.97574,-0.180502,0.0115308
1.94401,-0.273904,-0.137281
1.89919,-0.362977,-0.157847
1.97173,-0.180135,-0.126892
1.93873,-0.273161,-0.091201
1.97811,-0.180719,-0.0809261
1.94426,-0.273941,-0.0456888
1.97483,-0.187372,-0.0346256
1.94419,-0.280855,-0.30561
1.93658,-0.279755,-0.210767
1.93909,-0.280118,-0.137002
1.894,-0.368843,-0.157522
1.97109,-0.187017,-0.126892
1.94172,-0.280498,-0.0913871
1.97349,-0.187245,-0.0807633
1.93934,-0.280154,-0.0455958
1.97018,-0.193872,-0.0345558
1.97045,-0.193899,0.0115076
1.93415,-0.2863,-0.136723
1.96645,-0.193505,-0.126636
1.93677,-0.286689,-0.091201
1.96487,-0.19335,-0.0804376
1.93439,-0.286336,-0.0455027
1.96548,-0.200686,-0.034486
1.96973,-0.201119,0.0115076
1.92914,-0.292789,-0.136444
1.96175,-0.200306,-0.12638
1.93571,-0.293785,-0.091201
1.96813,-0.200956,-0.0806004
1.95685,-0.206364,-0.0343463
1.96507,-0.207231,0.0114843
1.93354,-0.300019,-0.210767
1.92422,-0.298573,-0.136165
1.88613,-0.387853,-0.157196
1.92288,-0.298365,-0.0906426
1.96347,-0.207062,-0.0804376
1.95608,-0.213535,-0.0343463
1.9643,-0.214432,0.0114843
1.93099,-0.306876,-0.136723
1.8925,-0.396398,-0.157847
1.95634,-0.213563,-0.126124
1.92177,-0.305411,-0.0906426
1.9627,-0.214258,-0.0804376
1.94737,-0.219466,-0.0342067
1.91957,-0.311934,-0.209482
1.91809,-0.311694,-0.135886
1.95558,-0.220391,-0.126124
1.91675,-0.311476,-0.0904565
1.954,-0.220212,-0.0801119
1.95065,-0.226043,-0.0342765
1.95489,-0.226534,0.0114378
1.91858,-0.317963,-0.209482
1.92104,-0.318371,-0.136165
1.91971,-0.318149,-0.0906426
1.9533,-0.22635,-0.0801119
1.94588,-0.232376,-0.0342067
1.91992,-0.325075,-0.136165
1.91858,-0.324849,-0.0906426
1.94853,-0.232693,-0.0799491
1.94505,-0.239167,-0.0342067
1.9227,-0.332454,-0.136444
1.94533,-0.239201,-0.125613
1.91744,-0.331544,-0.0906426
1.94374,-0.239005,-0.0797863
1.9402,-0.245792,-0.0341369
1.91361,-0.338111,-0.135886
1.9484,-0.246831,-0.125868
1.94681,-0.24663,-0.0799491
1.93933,-0.252563,-0.0341369
1.90457,-0.343372,-0.135328
1.94357,-0.253115,-0.125613
1.94198,-0.252908,-0.0797863
1.9424,-0.259861,-0.0342067
1.90877,-0.351013,-0.209053
1.91121,-0.351462,-0.135886
1.93712,-0.259155,-0.0796234
1.94152,-0.266301,-0.0342067
1.90368,-0.356609,-0.208625
1.89827,-0.355594,-0.135049
1.93229,-0.265034,-0.0794606
1.94058,-0.273076,-0.0342067
1.90485,-0.363714,-0.135607
1.93295,-0.272003,-0.125101
1.93135,-0.271778,-0.0794606
1.89959,-0.369931,-0.135328
1.93589,-0.279656,-0.125357
1.9343,-0.279426,-0.0796234
1.89052,-0.374677,-0.134769
1.92706,-0.284907,-0.124845
1.926,-0.291968,-0.124845
1.9244,-0.291725,-0.0792978
1.92102,-0.298077,-0.124589
1.91942,-0.297828,-0.079135
1.92237,-0.304817,-0.0792978
1.91895,-0.311146,-0.124589
1.92524,-0.312165,-0.0794606
1.91791,-0.317508,-0.124589
1.9128,-0.323869,-0.124333
1.90656,-0.33652,-0.124078
1.90543,-0.342841,-0.124078
1.9003,-0.34877,-0.123822
1.899,-0.355732,-0.123822
