2.45952,0.246361,-0.0287768
2.46037,0.237774,-0.0287768
2.46911,0.230356,-0.0288699
2.46994,0.221305,-0.0288699
2.47069,0.212681,-0.0288699
2.47139,0.204488,-0.0288699
2.4674,0.204158,0.0288233
2.47607,0.196176,-0.0289165
2.47208,0.19586,0.0288699
2.47674,0.187531,-0.0289165
2.46877,0.186927,0.0288233
2.48137,0.179173,-0.028963
2.47799,0.170236,-0.0289165
2.474,0.169962,0.0288699
2.48655,0.162106,-0.0290096
2.47857,0.161585,0.0289165
2.49509,0.153918,-0.0291027
2.45291,0.272105,-0.0143438
2.47912,0.152933,0.0289165
2.49561,0.145207,-0.0291027
2.48762,0.144742,0.0290096
2.4961,0.136495,-0.0291027
2.48811,0.136059,0.0290096
2.49604,0.136492,-0.14558
2.50455,0.12819,-0.0291958
2.50048,0.127982,-0.145813
2.49699,0.119065,-0.0291027
2.489,0.118684,0.0290096
2.45614,0.237797,0.0430725
2.5049,0.119442,-0.146045
2.50938,0.110879,-0.0292424
2.45729,0.229254,-0.0143438
2.4934,0.110173,0.0290561
2.45695,0.229223,0.0430725
2.50132,0.110523,-0.145813
2.50974,0.102557,-0.0292424
2.50174,0.10223,0.0291493
2.46567,0.22179,0.0432122
2.50167,0.102227,-0.145813
2.46278,0.212866,-0.0143671
2.50208,0.093496,0.0291493
2.47041,0.213526,0.043282
2.506,0.0936424,-0.146045
2.47047,0.204846,-0.0721445
2.51439,0.0851683,-0.029289
2.46749,0.204599,-0.0143903
2.46716,0.204571,0.0432122
2.5143,0.0851652,-0.14651
2.47114,0.196653,-0.0721445
2.51865,0.0769524,-0.0293355
2.47613,0.197051,-0.0144368
2.50666,0.076586,0.0291958
2.47978,0.197341,0.0434216
2.51856,0.0769494,-0.146743
2.47184,0.187595,-0.0721445
2.52292,0.0678287,-0.0293821
2.47285,0.187672,-0.0144135
2.51092,0.0675062,0.0292424
2.48049,0.188252,0.0434216
2.51882,0.0677185,-0.146743
2.52314,0.0590209,-0.0293821
2.48147,0.179616,-0.01446
2.51514,0.0588339,0.029289
2.48512,0.17988,0.0434914
2.51505,0.0588317,-0.14651
2.48104,0.171315,-0.0723772
2.52332,0.0506529,-0.0293821
2.47806,0.17111,-0.0144368
2.51932,0.0505726,0.0293355
2.48969,0.171913,0.0435612
2.51922,0.0505706,-0.146743
2.48165,0.162221,-0.0723772
2.45591,0.281553,0
2.52749,0.0414703,-0.0294287
2.48665,0.162548,-0.0144833
2.5207,0.0413589,-0.235334
2.51549,0.0412734,0.029289
2.49031,0.162787,0.0435612
2.51939,0.0413374,-0.146743
2.48328,0.162328,-0.130421
2.4822,0.153557,-0.0723772
2.44893,0.272095,0
2.53162,0.0326984,-0.0294752
2.4912,0.154113,-0.0145065
2.52481,0.0326105,-0.235706
2.51962,0.0325435,0.0293355
2.49485,0.15434,0.043631
2.52351,0.0325938,-0.146975
2.48782,0.153905,-0.130631
2.48671,0.145126,-0.0724936
2.53572,0.0239007,-0.0295218
2.49571,0.145651,-0.0145298
2.53686,0.0239114,-0.236822
2.51972,0.0237499,0.0293355
2.49537,0.145632,0.043631
2.5276,0.0238242,-0.147208
2.49233,0.145454,-0.13084
2.48718,0.136879,-0.0724936
2.45073,0.25542,0
2.49219,0.137154,-0.0145065
2.52896,0.0154494,-0.236078
2.52778,0.0154422,0.0294287
2.49584,0.137355,0.043631
2.52767,0.0154416,-0.147208
2.48617,0.136823,0.101443
2.50078,0.137627,-0.131259
2.45558,0.247264,0
2.49265,0.128453,-0.0145065
2.53298,0.00663138,-0.23645
2.5043,0.129053,0.0437706
2.5317,0.00662804,-0.147441
2.49725,0.12869,-0.131049
2.45643,0.23869,0
2.54383,-0.00222055,-0.0296149
2.49708,0.119943,-0.0145298
2.54095,-0.00221804,-0.237193
2.52783,-0.00220659,0.0294287
2.5397,-0.00221695,-0.147906
2.50567,0.120355,-0.131468
2.49647,0.111182,-0.0727263
2.46123,0.230489,0
2.5478,-0.0111158,-0.0296615
2.50148,0.111405,-0.014553
2.54889,-0.0111206,-0.237937
2.46853,0.231172,0.0576926
2.5278,-0.0110286,0.0294287
2.50913,0.111746,0.0438404
2.53967,-0.0110804,-0.147906
2.49146,0.110959,0.101605
2.50208,0.111432,-0.131259
2.49684,0.102466,-0.0727263
2.54775,-0.02001,-0.0296615
2.50985,0.103,-0.0145995
2.54486,-0.0199872,-0.237565
2.46932,0.222554,0.0576926
2.53175,-0.0198843,0.0294752
2.50951,0.102986,0.0438404
2.53962,-0.0199461,-0.147906
2.51044,0.103024,-0.131677
2.50118,0.0939007,-0.0728427
2.46278,0.213301,0
2.54766,-0.0289026,-0.0296615
2.50619,0.0940889,-0.0145763
2.54477,-0.0288698,-0.237565
2.47008,0.213933,0.0576926
2.54366,-0.0288572,0.0296149
2.50985,0.0942262,0.0438404
2.54353,-0.0288557,-0.148138
2.51478,0.0944111,-0.131887
2.50148,0.0856053,-0.0728427
2.51449,0.0860505,-0.0146228
2.54466,-0.0373091,-0.237565
2.47476,0.206072,0.0577856
2.53956,-0.0372342,0.0295684
2.51814,0.0861756,0.0439801
2.5514,-0.0374079,-0.148603
2.51108,0.085934,-0.131677
2.49822,0.0854939,0.204062
2.46679,0.205408,-0.0575995
2.46813,0.197281,0
2.51076,0.0775886,-0.0145995
2.54851,-0.0458184,-0.237937
2.47543,0.197865,0.0577856
2.54342,-0.0457269,0.0296149
2.51443,0.0777021,-0.205364
2.54727,-0.0457962,-0.148371
2.51535,0.0777304,-0.131887
2.46746,0.197228,-0.0575995
2.50601,0.0682496,-0.0729591
2.46883,0.188234,0
2.51503,0.0684952,-0.0146228
2.5523,-0.0552445,-0.238309
2.48013,0.189095,0.0578787
2.54723,-0.0551347,0.0296615
2.52267,0.0687034,-0.206015
2.51868,0.0685948,0.0439801
2.55108,-0.0552179,-0.148603
2.51561,0.0685112,-0.131887
2.48013,0.189095,-0.0578787
2.51423,0.0596908,-0.0731918
2.47347,0.179905,0
2.55902,-0.064328,-0.0298012
2.51525,0.059715,-0.0146228
2.56006,-0.0643542,-0.239052
2.48875,0.181016,0.0580648
2.55902,-0.064328,0.0298012
2.53087,0.0600858,-0.206666
2.5229,0.0598968,0.0440499
2.54688,-0.0640229,-0.148371
2.50522,0.0594768,0.102094
2.51983,0.0598238,-0.132096
2.47679,0.180146,-0.0577856
2.47804,0.171978,0
2.56279,-0.0729282,-0.0298477
2.52343,0.0515365,-0.0146693
2.55983,-0.072844,-0.239052
2.48934,0.172762,0.0580648
2.55479,-0.0727006,0.0297546
2.52706,0.0516107,-0.20634
2.52709,0.0516112,0.0441197
2.55464,-0.0726961,-0.148836
2.52401,0.0515483,-0.132305
2.47737,0.171931,-0.0577856
2.47863,0.163326,0
2.56652,-0.0820019,-0.0298943
2.5236,0.0427271,-0.0146693
2.55558,-0.0816525,-0.23868
2.48992,0.164071,0.0580648
2.55852,-0.0817465,0.0298012
2.53122,0.0428561,-0.206666
2.52325,0.0427213,0.0440499
2.56235,-0.0818688,-0.149301
2.50956,0.0424894,0.102257
2.49189,0.1642,-0.116328
2.52417,0.0427369,-0.132305
2.5073,0.0424511,0.204713
2.47795,0.163282,-0.0577856
2.52271,0.0334643,-0.0734245
2.4832,0.154489,0
2.5622,-0.0912652,-0.0298477
2.52773,0.033531,-0.0146925
2.5672,-0.0914434,-0.239796
2.4945,0.155192,0.0581579
2.5582,-0.0911228,0.0298012
2.53136,0.033579,-0.206666
2.56602,-0.0914013,-0.149534
2.48298,0.154476,0.144882
2.51369,0.0333447,0.10242
2.49646,0.155314,-0.116514
2.52431,0.0334856,-0.132305
2.49051,0.154944,-0.0580648
2.45333,0.265218,-0.0430725
2.51881,0.0250592,-0.0733081
2.4837,0.146254,0
2.57387,-0.100228,-0.0299874
2.52783,0.025149,-0.0146925
2.57087,-0.10011,-0.240167
2.49899,0.147155,0.0582509
2.56188,-0.0997607,0.0298477
2.53145,0.025185,-0.206666
2.52749,0.0251456,0.0441197
2.5697,-0.100065,-0.149766
2.49146,0.146711,0.145348
2.51779,0.0250491,0.102582
2.49696,0.147035,-0.116514
2.52441,0.025115,-0.132305
2.48702,0.14645,-0.0579717
2.52288,0.0162931,-0.0734245
2.49218,0.138026,0
2.57351,-0.109211,-0.0299874
2.5279,0.0163256,-0.0146925
2.57846,-0.109421,-0.240911
2.56951,-0.109041,0.0299409
2.5395,0.0164005,-0.207317
2.52756,0.0163234,0.0441197
2.56534,-0.108864,-0.149534
2.48797,0.137793,0.145115
2.51786,0.0162607,0.102582
2.49746,0.138319,-0.116514
2.53247,0.0163551,-0.132724
2.51957,0.0162717,0.205689
2.48751,0.137768,-0.0579717
2.49267,0.128891,0
2.57309,-0.118643,-0.0299874
2.53195,0.00707077,-0.0147158
2.57406,-0.118688,-0.240539
2.49998,0.129269,0.0582509
2.5691,-0.118459,0.0299409
2.53954,0.00709198,-0.207317
2.5316,0.00706982,0.0441895
2.48447,0.128466,0.144882
2.50593,0.129576,-0.116886
2.53251,0.00707236,-0.132724
2.49599,0.129062,-0.0581579
2.46389,0.240719,-0.0432122
2.49306,0.121059,0
2.5767,-0.126923,-0.030034
2.53996,-0.000885906,-0.0147623
2.57765,-0.12697,-0.240911
2.50437,0.121609,0.058344
2.56871,-0.126529,0.0299409
2.53955,-0.000885765,-0.207317
2.53961,-0.000885786,0.0443291
2.56853,-0.12652,-0.149766
2.48885,0.120855,0.145115
2.5259,-0.000881005,0.102908
2.50234,0.12151,-0.1167
2.53652,-0.000884707,-0.132933
2.5236,-0.000880203,0.206015
2.50038,0.121415,-0.0582509
2.4687,0.232493,-0.043282
2.58024,-0.136126,-0.0300806
2.46505,0.232149,0.0143903
2.53994,-0.00975147,-0.0147623
2.5772,-0.135966,-0.240911
2.50877,0.113047,0.058437
2.57624,-0.135916,0.030034
2.53953,-0.00974991,-0.207317
2.54359,-0.0097655,0.0443989
2.56807,-0.135485,-0.149766
2.48925,0.112167,0.145115
2.52988,-0.00971286,0.103071
2.49875,0.112595,-0.116514
2.54049,-0.0097536,-0.133143
2.52359,-0.00968869,0.206015
2.50478,0.112866,-0.058344
2.46957,0.223011,-0.043282
2.57969,-0.146033,-0.0300806
2.54388,-0.0195354,-0.0147855
2.58461,-0.146311,-0.241655
2.57171,-0.145581,0.0299874
2.50376,0.103188,-0.175228
2.53948,-0.0195015,-0.207317
2.54754,-0.0195634,0.0444687
2.57949,-0.146022,-0.150464
2.50562,0.103265,0.146045
2.52983,-0.0194274,0.103071
2.50316,0.103163,-0.1167
2.54443,-0.0195396,-0.133352
2.5012,0.103083,-0.0582509
2.47831,0.21508,-0.0434216
2.50222,0.0943762,0
2.58316,-0.155278,-0.0301271
2.5398,-0.0283711,-0.0147623
2.59203,-0.155811,-0.242398
2.58316,-0.155278,0.0301271
2.50809,0.0945975,-0.175507
2.55135,-0.0285001,-0.208293
2.4617,0.213639,0.0719118
2.54345,-0.0284119,0.0443989
2.58295,-0.155265,-0.150696
2.50198,0.094367,0.145813
2.53374,-0.0283034,0.103234
2.51149,0.0947257,-0.117072
2.54435,-0.0284219,-0.133352
2.53142,-0.0282775,0.206666
2.50954,0.0946521,-0.058437
2.47498,0.206961,-0.0433518
2.53867,-0.0363347,-0.07389
2.5065,0.0866534,0
2.58266,-0.163392,-0.0301271
2.46735,0.206322,0.0143903
2.5397,-0.0363494,-0.0147623
2.5955,-0.164204,-0.24277
2.51781,0.0870445,0.0586231
2.57867,-0.163139,0.0300806
2.50837,0.0867181,-0.175507
2.54726,-0.0364578,-0.207968
2.46236,0.205905,0.0719118
2.55135,-0.0365162,0.0445385
2.57847,-0.163127,-0.150464
2.50226,0.0865069,0.145813
2.50778,0.0866976,-0.116886
2.55623,-0.0365861,-0.13398
2.53531,-0.0362866,0.206991
2.54183,-0.03638,0.463489
2.50982,0.0867682,-0.058437
2.47569,0.198319,-0.0433518
2.50679,0.0779029,0
2.58607,-0.172673,-0.0301737
2.55894,-0.0455603,-0.325772
2.46805,0.197707,0.0143903
2.55155,-0.0454287,-0.014832
2.59094,-0.172999,-0.242398
2.51411,0.0781303,0.0585301
2.57808,-0.17214,0.0300806
2.50866,0.077961,-0.175507
2.55509,-0.0454918,-0.208619
2.46705,0.197627,0.0720282
2.58585,-0.172659,-0.150929
2.50654,0.0778952,0.146045
2.53749,-0.0451784,0.103397
2.51206,0.0780668,-0.117072
2.5441,-0.0452961,-0.133352
2.53915,-0.0452079,0.207317
2.53382,-0.045113,0.462054
2.50611,0.0778818,-0.058344
2.48042,0.189117,-0.0434216
2.54233,-0.0550295,-0.0740063
2.58937,-0.182883,-0.0302203
2.56272,-0.0554709,-0.326277
2.47677,0.188838,0.0144368
2.55936,-0.0553981,-0.0148785
2.59423,-0.183226,-0.24277
2.52238,0.0686946,0.0587162
2.58538,-0.182601,0.0301737
2.51293,0.0684371,-0.175786
2.5549,-0.0553017,-0.208619
2.55901,-0.0553906,0.0446782
2.58915,-0.182867,-0.151161
2.5188,0.0685969,0.146743
2.5413,-0.0550072,0.103559
2.51234,0.0684212,-0.117072
2.5519,-0.0552367,-0.133771
2.53896,-0.0549566,0.207317
2.47874,0.188989,-0.10128
2.51439,0.0684768,-0.0585301
2.48904,0.181037,-0.0435612
2.54612,-0.0640044,-0.0741227
2.51129,0.0596204,0
2.59271,-0.192217,-0.0302668
2.56251,-0.0644164,-0.326277
2.47342,0.179901,0.0144135
2.55915,-0.064332,-0.0148785
2.59755,-0.192575,-0.243142
2.52261,0.059889,0.0587162
2.51315,0.0596646,-0.175786
2.56266,-0.0644203,-0.209269
2.5588,-0.0643233,0.0446782
2.59646,-0.192495,-0.151627
2.51902,0.0598039,0.146743
2.54109,-0.063878,0.103559
2.52455,0.0599352,-0.117631
2.55568,-0.0642449,-0.13398
2.53875,-0.0638192,0.207317
2.48337,0.180625,-0.101443
2.5266,0.059984,-0.0588092
2.48966,0.172348,-0.0435612
2.54988,-0.073006,-0.074239
2.51548,0.050935,0
2.59601,-0.201575,-0.0303134
2.56623,-0.0734744,-0.326782
2.47803,0.171542,0.0144368
2.55491,-0.0731502,-0.0148553
2.60877,-0.202566,-0.244257
2.58803,-0.200956,0.0302203
2.51335,0.0508917,-0.175786
2.56641,-0.0734794,-0.209595
2.47702,0.171473,0.0722609
2.55057,-0.0730258,0.0445385
2.59577,-0.201557,-0.151627
2.51921,0.0510105,0.146743
2.55284,-0.0730908,0.104048
2.52874,0.0512034,-0.117817
2.55944,-0.0732798,-0.134189
2.48798,0.172231,-0.101605
2.54105,-0.0727534,0.463489
2.5268,0.0511641,-0.0588092
2.49019,0.164525,-0.0435612
2.51963,0.0431006,0
2.59536,-0.20973,-0.0303134
2.56202,-0.0814101,-0.326277
2.56266,-0.0814304,-0.0149017
2.60812,-0.210761,-0.244257
2.58739,-0.209085,0.0302203
2.52147,0.0431321,-0.176344
2.56616,-0.0815416,-0.209595
2.48553,0.164217,0.0724936
2.56232,-0.0814193,0.044748
2.59115,-0.209389,-0.151394
2.51537,0.0430276,0.14651
2.5486,-0.0809834,0.103885
2.52489,0.0431905,-0.117631
2.56718,-0.0815739,-0.134608
2.55023,-0.0810351,0.208293
2.48452,0.16415,-0.101443
2.52295,0.0431573,-0.0587162
2.49474,0.156082,-0.043631
2.51577,0.0342507,0
2.60259,-0.21946,-0.0304065
2.56966,-0.0906325,-0.327287
2.4871,0.155603,0.0144833
2.56236,-0.0903752,-0.0149017
2.6034,-0.219529,-0.243885
2.53108,0.0344592,0.0589023
2.59063,-0.218452,0.0302668
2.52161,0.0343302,-0.176344
2.5579,-0.0902176,-0.208944
2.48209,0.15529,0.0723772
2.57001,-0.0906449,0.0448876
2.59836,-0.219104,-0.151859
2.5195,0.0343015,0.146743
2.5483,-0.0898792,0.103885
2.52503,0.0343768,-0.117631
2.56289,-0.0903937,-0.134399
2.55391,-0.0900771,0.208619
2.49704,0.156226,-0.101931
2.52308,0.0343503,-0.0587162
2.52388,0.0251093,0
2.59778,-0.228647,-0.0303599
2.57724,-0.100359,-0.328297
2.49164,0.146722,0.0145065
2.56202,-0.0997662,-0.0149017
2.61052,-0.229768,-0.244629
2.53119,0.0251821,0.0589023
2.52571,0.0251275,-0.176623
2.5695,-0.100058,-0.20992
2.48265,0.146192,0.0723772
2.56167,-0.0997527,0.044748
2.60152,-0.228976,-0.152092
2.52759,0.0251463,0.147208
2.55195,-0.0993741,0.104048
2.52913,0.0251616,-0.117817
2.56254,-0.0997865,-0.134399
2.49361,0.146837,-0.101768
2.5441,-0.0990685,0.464207
2.53119,0.0251821,-0.0589023
2.52794,0.0167662,0
2.60497,-0.237988,-0.0304531
2.57293,-0.108737,-0.327792
2.48812,0.138236,0.0144833
2.56966,-0.108599,-0.0149482
2.6137,-0.238786,-0.245001
2.53526,0.0168147,0.0589953
2.59701,-0.23726,0.0303599
2.52578,0.0167518,-0.176623
2.56517,-0.108409,-0.209595
2.48711,0.13818,0.0724936
2.56931,-0.108585,0.0448876
2.503,0.139063,-0.160661
2.60472,-0.237965,-0.152324
2.52367,0.0167379,0.146975
2.55959,-0.108174,0.104373
2.5292,0.0167746,-0.117817
2.57018,-0.108621,-0.134817
2.55322,-0.107904,0.208619
2.49408,0.138568,-0.101768
2.53126,0.0167882,-0.0589023
2.50423,0.130364,-0.0437706
2.52399,0.00792937,0
2.60811,-0.247457,-0.0304996
2.57253,-0.117718,-0.327792
2.48859,0.12955,0.0144833
2.56927,-0.117569,-0.0149482
2.61682,-0.248284,-0.245372
2.5393,0.00797747,0.0590884
2.60015,-0.246702,0.0304065
2.52981,0.00794766,-0.176902
2.57274,-0.117727,-0.210246
2.49556,0.129913,0.0727263
2.56892,-0.117553,0.0448876
2.49948,0.130117,-0.160406
2.6158,-0.248187,-0.153022
2.5277,0.00794104,0.147208
2.56319,-0.11729,0.104536
2.53324,0.00795844,-0.118003
2.57776,-0.117957,-0.135236
2.56079,-0.117181,0.209269
2.49854,0.130068,-0.101931
2.5353,0.00796491,-0.0589953
2.50469,0.121185,-0.0437706
2.56378,-0.126736,-0.0747045
2.532,-0.00132575,0
2.60718,-0.257015,-0.0304996
2.57604,-0.127342,-0.328297
2.49304,0.120622,0.0145065
2.57282,-0.127182,-0.0149715
2.61193,-0.257483,-0.245001
2.54331,-0.00133168,0.0591814
2.6032,-0.256623,0.0304531
2.53381,-0.0013267,-0.177181
2.57229,-0.127156,-0.210246
2.49203,0.120573,0.07261
2.56847,-0.126967,0.0448876
2.50393,0.121148,-0.160661
2.6109,-0.257381,-0.152789
2.52772,-0.00132351,0.147208
2.56274,-0.126684,0.104536
2.53325,-0.00132641,-0.118003
2.57731,-0.127404,-0.135236
2.52504,-0.00132211,0.310036
2.56035,-0.126566,0.209269
2.50299,0.121103,-0.102094
2.53931,-0.00132958,-0.0590884
2.50905,0.113497,-0.0438404
2.52798,-0.00926558,0
2.61432,-0.266014,-0.0305928
2.57959,-0.135642,-0.328802
2.5014,0.11315,0.014553
2.58039,-0.135684,-0.015018
2.53731,-0.00929975,-0.273312
2.61507,-0.26609,-0.245372
2.5393,-0.00930705,0.0590884
2.5338,-0.00928689,-0.177181
2.57984,-0.135655,-0.210897
2.50038,0.113104,0.0728427
2.57605,-0.135456,0.0450272
2.5043,0.113281,-0.160661
2.61405,-0.265987,-0.153022
2.53169,-0.00927918,0.147441
2.56632,-0.134944,0.104699
2.53723,-0.00929948,-0.118189
2.57291,-0.135291,-0.135027
2.5679,-0.135027,0.20992
2.49937,0.113059,-0.101931
2.5393,-0.00930705,-0.0590884
2.61338,-0.275138,-0.0305928
2.59099,-0.145312,-0.330318
2.50578,0.104585,0.0145763
2.5839,-0.144915,-0.0150412
2.53726,-0.0181565,-0.273312
2.62601,-0.276468,-0.246488
2.54725,-0.018228,0.0592745
2.6094,-0.27472,0.0305462
2.53774,-0.01816,-0.17746
2.58333,-0.144883,-0.211222
2.50076,0.104376,0.0728427
2.57556,-0.144447,0.0450272
2.50866,0.104706,-0.160917
2.61708,-0.275528,-0.153254
2.53165,-0.0181164,0.147441
2.56584,-0.143902,0.104699
2.53319,-0.0181274,-0.118003
2.57641,-0.144495,-0.135236
2.56343,-0.143767,0.209595
2.50374,0.1045,-0.102094
2.53925,-0.0181708,-0.0590884
2.53586,-0.026999,0
2.6124,-0.284259,-0.0305928
2.58651,-0.15412,-0.329813
2.50213,0.0956848,0.014553
2.58337,-0.153933,-0.0150412
2.54513,-0.0270978,-0.274168
2.62503,-0.285633,-0.246488
2.54717,-0.0271195,0.0592745
2.54165,-0.0270607,-0.17774
2.58679,-0.154137,-0.211548
2.50111,0.0956459,0.0728427
2.57504,-0.153437,0.0450272
2.513,0.0961006,-0.161173
2.6161,-0.284661,-0.153254
2.53556,-0.0269959,0.147673
2.53711,-0.0270123,-0.118189
2.57988,-0.153725,-0.135445
2.52489,-0.0268823,0.310036
2.56689,-0.152951,0.20992
2.50808,0.0959125,-0.102257
2.54717,-0.0271195,-0.0592745
2.5181,0.0874938,-0.0439801
2.53975,-0.0359072,0
2.61537,-0.293823,-0.0306393
2.58595,-0.163147,-0.329813
2.49845,0.0868112,0.0145298
2.58681,-0.163202,-0.0150645
2.54502,-0.0359818,-0.274168
2.54553,-0.035989,-0.178019
2.59817,-0.163919,-0.212524
2.50543,0.0870536,0.0729591
2.57449,-0.162424,0.0450272
2.50933,0.0871894,-0.160917
2.63096,-0.295575,-0.154185
2.54344,-0.0359594,0.148138
2.57674,-0.162566,0.105188
2.54898,-0.0360378,-0.118747
2.58331,-0.162981,-0.135655
2.5743,-0.162412,0.210571
2.5124,0.0872958,-0.10242
2.54306,-0.035954,-0.0591814
2.5436,-0.0452868,0
2.62619,-0.30479,-0.030779
2.5893,-0.172889,-0.330318
2.50675,0.0779018,0.0145763
2.59019,-0.172948,-0.0150877
2.54885,-0.0453803,-0.274597
2.5549,-0.0454881,0.0594606
2.61427,-0.303407,0.0306393
2.55336,-0.0454606,-0.178577
2.59358,-0.173175,-0.212199
2.50573,0.0778702,0.0729591
2.58186,-0.172392,0.0451668
2.51363,0.0781156,-0.161173
2.62193,-0.304295,-0.15372
2.54329,-0.0452813,0.148138
2.57612,-0.172009,0.105188
2.55283,-0.0454511,-0.118934
2.58668,-0.172714,-0.135864
2.53258,-0.0450906,0.311011
2.57767,-0.172112,0.210897
2.52069,0.0783352,-0.102745
2.54691,-0.0453457,-0.0592745
2.54342,-0.0541653,0
2.62114,-0.31348,-0.0307325
2.59264,-0.182204,-0.330823
2.511,0.0692615,0.0145995
2.59356,-0.182269,-0.015111
2.5606,-0.0545312,-0.275882
2.55473,-0.0544061,0.0594606
2.5492,-0.0542883,-0.178298
2.59693,-0.182506,-0.212524
2.50998,0.0692333,0.0730754
2.58523,-0.181684,0.0452366
2.52186,0.0695611,-0.161685
2.62878,-0.314394,-0.154185
2.54311,-0.0541587,0.148138
2.57551,-0.181,0.105188
2.54466,-0.0541917,-0.118561
2.59005,-0.182022,-0.136073
2.57705,-0.181109,0.210897
2.52095,0.0695358,-0.102745
2.55473,-0.0544061,-0.0594606
2.52688,0.0608731,-0.0441197
2.54722,-0.0631423,0
2.63194,-0.324094,-0.0308722
2.5999,-0.191837,-0.331833
2.51523,0.0605923,0.0146228
2.59291,-0.191321,-0.015111
2.55642,-0.0633705,-0.275454
2.55852,-0.0634225,0.0595536
2.55298,-0.0632852,-0.178577
2.59628,-0.19157,-0.212524
2.51021,0.0604714,0.0730754
2.59256,-0.191295,0.0453763
2.52209,0.0607577,-0.161685
2.62767,-0.323568,-0.154185
2.54291,-0.0630355,0.148138
2.57884,-0.190284,0.10535
2.55245,-0.063272,-0.118934
2.58541,-0.190768,-0.135864
2.5764,-0.190103,0.210897
2.52118,0.0607357,-0.102745
2.55852,-0.0634225,-0.0595536
2.54699,-0.0715889,0
2.63482,-0.333322,-0.0309187
2.59529,-0.200152,-0.331328
2.51941,0.0523343,0.014646
2.59625,-0.200226,-0.0151342
2.56017,-0.0719593,-0.275882
2.5583,-0.0719066,0.0595536
2.55674,-0.0718629,-0.178856
2.59961,-0.200485,-0.212849
2.51439,0.05223,0.0731918
2.59191,-0.199891,0.0453763
2.52228,0.0523938,-0.161685
2.6345,-0.333282,-0.15465
2.55067,-0.0716922,0.148603
2.58617,-0.199449,0.105676
2.56021,-0.0719604,-0.119306
2.59273,-0.199955,-0.136283
2.53992,-0.0713899,0.311986
2.57973,-0.198953,0.211222
2.52136,0.0523748,-0.102745
2.56229,-0.0720189,-0.0596467
2.53124,0.043741,-0.0441895
2.59049,-0.208881,-0.0756354
2.55473,-0.0807318,0
2.63364,-0.342518,-0.0309187
2.59458,-0.20921,-0.331328
2.51958,0.0435396,0.014646
2.59553,-0.209288,-0.0151342
2.55991,-0.0808955,-0.275882
2.56203,-0.0809626,0.0596467
2.56445,-0.0810393,-0.179414
2.60684,-0.210199,-0.2135
2.51856,0.0435219,0.0733081
2.58721,-0.208616,0.0453064
2.51846,0.0435201,-0.161429
2.63332,-0.342476,-0.15465
2.5504,-0.0805952,0.148603
2.58944,-0.208796,0.105839
2.56394,-0.081023,-0.119492
2.54362,-0.0803808,0.312473
2.52553,0.0436423,-0.102908
2.55803,-0.0808363,-0.0595536
2.53138,0.0344632,-0.0441895
2.56241,-0.0903768,0
2.6403,-0.353229,-0.0310118
2.52772,0.0344135,0.0146925
2.60272,-0.219471,-0.0151807
2.56357,-0.0904177,-0.27631
2.56971,-0.0906342,0.0598328
2.6284,-0.351638,0.0308722
2.57212,-0.0907192,-0.179972
2.61002,-0.220087,-0.213826
2.5227,0.034345,0.0734245
2.59838,-0.219106,0.0455159
2.52658,0.0343979,-0.161941
2.63997,-0.353185,-0.155115
2.55408,-0.0900831,0.148836
2.59264,-0.218622,0.106002
2.56762,-0.0905605,-0.119678
2.61114,-0.220181,-0.13733
2.54727,-0.089843,0.312961
2.52967,0.0344399,-0.103071
2.56571,-0.0904933,-0.0597397
2.53148,0.0256269,-0.0441895
2.56208,-0.0993207,0
2.64301,-0.362987,-0.0310584
2.53583,0.0256708,0.014739
2.60592,-0.228905,-0.015204
2.56324,-0.0993657,-0.27631
2.56138,-0.0992938,0.0596467
2.57178,-0.099697,-0.179972
2.61321,-0.229546,-0.214151
2.5268,0.0255795,0.0735409
2.5976,-0.228174,0.0455159
2.53068,0.0256187,-0.162196
2.64267,-0.362941,-0.155347
2.55774,-0.0991527,0.149068
2.59584,-0.22802,0.106165
2.56729,-0.0995226,-0.119678
2.61035,-0.229294,-0.13733
2.54695,-0.0987341,0.312961
2.59335,-0.227801,0.212524
2.53377,0.02565,-0.103234
2.56538,-0.0994487,-0.0597397
2.53556,0.0168167,-0.0442593
2.63777,-0.371653,-0.0310118
2.5319,0.0167925,0.0147158
2.60909,-0.238364,-0.0152272
2.56287,-0.108312,-0.27631
2.56502,-0.108403,0.0597397
2.57142,-0.108674,-0.179972
2.61636,-0.239029,-0.214477
2.52687,0.0167591,0.0735409
2.60475,-0.237968,0.0456555
2.53474,0.0168113,-0.162452
2.55738,-0.10808,0.149068
2.59503,-0.23708,0.106165
2.57491,-0.108821,-0.12005
2.60556,-0.238041,-0.13712
2.52985,0.0167788,-0.103071
2.56901,-0.108572,-0.0598328
2.5396,0.00842166,-0.0443291
2.59926,-0.246161,-0.0759845
2.56134,-0.116758,0
2.64444,-0.38154,-0.031105
2.53594,0.00840954,0.014739
2.6043,-0.246638,-0.015204
2.57045,-0.117173,-0.277167
2.57263,-0.117272,0.0599259
2.57503,-0.117382,-0.180251
2.61556,-0.247704,-0.214477
2.53491,0.00840612,0.0737736
2.59997,-0.246227,0.0455857
2.53479,0.0084057,-0.162452
2.561,-0.116742,0.149301
2.60219,-0.246437,0.10649
2.57054,-0.117177,-0.119864
2.60475,-0.24668,-0.13712
2.59174,-0.245448,0.212524
2.53788,0.00841596,-0.103397
2.57663,-0.117455,-0.0600189
2.53961,-0,-0.0443291
2.60241,-0.255169,-0.0761008
2.56893,-0.125642,0
2.64711,-0.390892,-0.0311515
2.58182,-0.126272,-0.402151
2.53996,-0,0.0147623
2.61541,-0.256444,-0.0152737
2.57402,-0.12589,-0.277596
2.57622,-0.125998,0.0600189
2.57861,-0.126115,-0.18053
2.61869,-0.256765,-0.214802
2.53093,-0,0.0736572
2.61108,-0.256019,0.0457951
2.54278,-0,-0.162964
2.56857,-0.125624,0.149766
2.59738,-0.254675,0.106327
2.57812,-0.126091,-0.120236
2.61187,-0.256096,-0.137539
2.53789,-0,-0.103397
2.57622,-0.125998,-0.0600189
2.5476,-0.00889284,-0.0444687
2.60548,-0.264655,-0.0762172
2.57247,-0.134817,0
2.6576,-0.401924,-0.0312912
2.58531,-0.13549,-0.402766
2.54394,-0.00888008,0.0147855
2.61052,-0.265167,-0.0152505
2.57356,-0.134875,-0.277596
2.57976,-0.1352,0.060112
2.64573,-0.400129,0.0311515
2.62571,-0.26671,-0.215453
2.53491,-0.00884856,0.0737736
2.61017,-0.265131,0.0457951
2.54277,-0.00887598,-0.162964
2.56812,-0.134589,0.149766
2.60045,-0.264144,0.10649
2.58165,-0.135299,-0.120423
2.61891,-0.266019,-0.137958
2.56122,-0.134228,0.31491
2.59795,-0.26389,0.213175
2.54188,-0.00887287,-0.103559
2.57177,-0.134781,-0.0599259
2.54355,-0.0177576,-0.0443989
2.57198,-0.143796,0
2.66013,-0.41181,-0.0313378
2.58087,-0.144293,-0.402151
2.54789,-0.017788,0.0148088
2.61356,-0.274696,-0.0152737
2.58102,-0.144301,-0.278452
2.57927,-0.144204,0.060112
2.64432,-0.409362,0.0311515
2.58564,-0.14456,-0.181088
2.62873,-0.27629,-0.215779
2.54686,-0.0177807,0.0741227
2.61321,-0.274659,0.0458649
2.54671,-0.0177797,-0.16322
2.57162,-0.143776,0.149999
2.60349,-0.273638,0.106653
2.58516,-0.144533,-0.120609
2.62194,-0.275577,-0.138167
2.56074,-0.143168,0.31491
2.60494,-0.27379,0.213826
2.54982,-0.0178014,-0.103885
2.57129,-0.143757,-0.0599259
2.54347,-0.0270801,-0.0443989
2.61147,-0.284158,-0.0764499
2.57543,-0.15346,0
2.65465,-0.420931,-0.0312912
2.54781,-0.0271263,0.0148088
2.61651,-0.284706,-0.015297
2.58047,-0.15376,-0.278452
2.57474,-0.153418,0.0600189
2.58509,-0.154036,-0.181088
2.62373,-0.285492,-0.215453
2.54678,-0.0271153,0.0741227
2.61616,-0.284668,0.0459347
2.54663,-0.0271137,-0.16322
2.57108,-0.1532,0.149999
2.60644,-0.28361,0.106816
2.58461,-0.154007,-0.120609
2.61297,-0.284321,-0.137748
2.54974,-0.0271469,-0.103885
2.57873,-0.153656,-0.060112
2.54736,-0.0360148,-0.0444687
2.61444,-0.293718,-0.0765663
2.57887,-0.162701,0
2.66501,-0.432115,-0.0314309
2.62345,-0.294731,-0.0153435
2.58786,-0.163267,-0.279309
2.58616,-0.16316,0.0602981
2.58852,-0.163309,-0.181367
2.62668,-0.295094,-0.215779
2.54267,-0.0359485,0.0740063
2.61912,-0.294244,0.0460045
2.54652,-0.036003,-0.16322
2.57451,-0.162426,0.150231
2.59602,-0.163782,-0.121167
2.62784,-0.295224,-0.138586
2.54563,-0.0359904,-0.103722
2.58616,-0.16316,-0.0602981
2.55122,-0.0445318,-0.0445385
2.61742,-0.302846,-0.0766826
2.58231,-0.171517,0
2.66356,-0.44095,-0.0314309
2.55557,-0.0446076,0.0148553
2.62246,-0.303429,-0.0153435
2.59524,-0.172375,-0.280166
2.59358,-0.172266,0.0604842
2.59195,-0.172157,-0.181646
2.63361,-0.304719,-0.21643
2.55453,-0.0445895,0.0743554
2.61416,-0.302469,0.0459347
2.55038,-0.044517,-0.163475
2.57396,-0.170962,0.150231
2.61239,-0.302264,0.107142
2.59546,-0.17239,-0.121167
2.62685,-0.303936,-0.138586
2.57099,-0.170765,0.316373
2.55349,-0.0445714,-0.104048
2.5856,-0.171735,-0.0602981
2.54704,-0.0537977,-0.0444687
2.58166,-0.18098,0
2.66193,-0.45071,-0.0314309
2.55539,-0.0539739,0.0148553
2.6253,-0.313513,-0.0153667
2.59062,-0.181608,-0.279738
2.58894,-0.181491,0.0603911
2.59528,-0.181935,-0.181925
2.54635,-0.0537831,0.0741227
2.62495,-0.313471,0.0461442
2.5502,-0.0538643,-0.163475
2.5988,-0.182181,-0.121353
2.62968,-0.314036,-0.138795
2.57034,-0.180187,0.316373
2.55731,-0.0540145,-0.104211
2.58495,-0.181211,-0.0602981
2.55485,-0.0624391,-0.0446084
2.59302,-0.190419,0
2.67225,-0.461577,-0.0315706
2.55519,-0.0624476,0.0148553
2.62822,-0.322705,-0.0153899
2.59794,-0.19078,-0.280594
2.5963,-0.190661,0.0605772
2.59466,-0.19054,-0.181925
2.55416,-0.0624222,0.0743554
2.63183,-0.323148,0.0462838
2.55799,-0.0625158,-0.163987
2.57668,-0.18922,0.150464
2.61815,-0.321468,0.107467
2.60216,-0.191091,-0.121539
2.64052,-0.324215,-0.139423
2.57765,-0.189291,0.317348
2.61559,-0.321154,0.215128
2.56111,-0.0625922,-0.104373
2.59232,-0.190368,-0.0604842
2.55062,-0.0712452,-0.0445385
2.67456,-0.471596,-0.0316172
2.63104,-0.332378,-0.0154132
2.59329,-0.199543,-0.280166
2.59961,-0.200029,0.0606703
2.60194,-0.200208,-0.182483
2.55792,-0.0714491,0.0744718
2.63466,-0.332834,0.0463536
2.56174,-0.0715559,-0.164243
2.57999,-0.198519,0.150696
2.62098,-0.331106,0.10763
2.59351,-0.19956,-0.121167
2.63541,-0.33293,-0.139214
2.57697,-0.198287,0.317348
2.56088,-0.0715317,-0.104373
2.58765,-0.199109,-0.0603911
2.56234,-0.0805249,-0.044748
2.6288,-0.341421,-0.0771481
2.59561,-0.208838,0
2.56269,-0.0805358,0.0149017
2.6378,-0.342591,-0.0154597
2.6005,-0.209232,-0.281023
2.5989,-0.209102,0.0606703
2.66896,-0.480221,0.0315706
2.60918,-0.209929,-0.183041
2.55366,-0.0802519,0.0743554
2.62951,-0.341514,0.0462838
2.56148,-0.0804977,-0.164243
2.59122,-0.208485,0.151394
2.60077,-0.209253,-0.121539
2.63819,-0.342641,-0.139423
2.58022,-0.2076,0.317835
2.55662,-0.0803449,-0.104211
2.5989,-0.209102,-0.0606703
2.56205,-0.0894687,-0.044748
2.63552,-0.351653,-0.0773808
2.59487,-0.217897,0
2.56239,-0.0894808,0.0149017
2.63659,-0.351796,-0.0154597
2.60372,-0.218641,-0.281451
2.60213,-0.218507,0.0607633
2.60843,-0.219036,-0.183041
2.56535,-0.089584,0.0747045
2.63623,-0.351748,0.0464234
2.56118,-0.0894384,-0.164243
2.62652,-0.350453,0.107956
2.60798,-0.218998,-0.121912
2.63698,-0.351848,-0.139423
2.58344,-0.216937,0.318323
2.55632,-0.0892686,-0.104211
2.59417,-0.217838,-0.0605772
2.55772,-0.0982578,-0.0446782
2.63824,-0.361393,-0.0774972
2.59808,-0.227302,0
2.64327,-0.362083,-0.0155062
2.60294,-0.227728,-0.281451
2.60534,-0.227938,0.0608564
2.56502,-0.0985382,0.0747045
2.63895,-0.361491,0.0464932
2.56484,-0.0985313,-0.164499
2.60322,-0.227752,-0.121725
2.64365,-0.362135,-0.139842
2.59058,-0.226646,0.319298
2.56797,-0.0986516,-0.104699
2.59737,-0.227241,-0.0606703
2.56935,-0.107688,-0.0448876
2.60125,-0.236732,0
2.5737,-0.10787,0.0149715
2.64199,-0.371308,-0.0155062
2.60213,-0.236813,-0.281451
2.60453,-0.237031,0.0608564
2.61081,-0.237602,-0.18332
2.56866,-0.107659,0.0748209
2.63767,-0.370701,0.0464932
2.57246,-0.107818,-0.16501
2.61037,-0.237562,-0.122098
2.65028,-0.372473,-0.14026
2.5756,-0.10795,-0.105025
2.60055,-0.236668,-0.0607633
2.573,-0.115939,-0.0449574
2.60049,-0.244903,0
2.57734,-0.116135,0.0149947
2.64873,-0.380744,-0.0155527
2.61325,-0.246105,-0.282736
2.61572,-0.246337,0.0611355
2.61005,-0.245803,-0.18332
2.56831,-0.115728,0.0748209
2.64837,-0.380692,0.0467026
2.5761,-0.116079,-0.165266
2.5961,-0.244489,0.151859
2.63471,-0.378729,0.108444
2.61359,-0.246136,-0.122284
2.64514,-0.380229,-0.140051
2.57525,-0.116041,-0.105025
2.60377,-0.245212,-0.0608564
2.56459,-0.124532,-0.0448178
2.6036,-0.254368,0
2.57692,-0.125131,0.0149947
2.64738,-0.389988,-0.0155527
2.61634,-0.255612,-0.283165
2.61484,-0.255466,0.0611355
2.62109,-0.256076,-0.184157
2.57188,-0.124886,0.0749372
2.64703,-0.389935,0.0467026
2.57568,-0.12507,-0.165266
2.5992,-0.253938,0.152092
2.61669,-0.255647,-0.12247
2.57084,-0.124835,-0.104862
2.61086,-0.255077,-0.0610425
2.57607,-0.135006,-0.0450272
2.64479,-0.399987,-0.0778463
2.61057,-0.265172,0
2.58042,-0.135234,0.015018
2.65773,-0.401944,-0.0156224
2.6218,-0.266312,0.0613216
2.62009,-0.266139,-0.184157
2.57537,-0.13497,0.0750536
2.64551,-0.400096,0.0467026
2.57119,-0.13475,-0.16501
2.63977,-0.399227,0.10877
2.61569,-0.265692,-0.12247
2.57433,-0.134915,-0.105025
2.60986,-0.2651,-0.0610425
2.57558,-0.143998,-0.0450272
2.64733,-0.409829,-0.0779626
2.61758,-0.275119,0
2.65236,-0.410607,-0.0155992
2.62085,-0.275462,0.0613216
2.62708,-0.276117,-0.184715
2.57489,-0.143959,0.0750536
2.65595,-0.411163,0.0469121
2.57867,-0.14417,-0.165522
2.64231,-0.409051,0.108933
2.61872,-0.275239,-0.122656
2.57783,-0.144123,-0.105188
2.60892,-0.274208,-0.0610425
2.5831,-0.15256,-0.0451668
2.6167,-0.283341,0
2.65896,-0.420186,-0.0156457
2.62395,-0.284125,0.0614147
2.63017,-0.284799,-0.184994
2.5824,-0.152519,0.0752863
2.6507,-0.418881,0.0468423
2.57821,-0.152271,-0.165522
2.60831,-0.282432,0.152789
2.64496,-0.417974,0.109096
2.62579,-0.284324,-0.123028
2.58934,-0.152928,-0.105676
2.616,-0.283264,-0.0612286
2.59051,-0.162527,-0.0453064
2.61962,-0.293375,0
2.6653,-0.431207,-0.0156922
2.62686,-0.294186,0.0615077
2.6291,-0.294437,-0.184994
2.58183,-0.161982,0.0752863
2.65704,-0.429871,0.0469819
2.58959,-0.162469,-0.16629
2.61122,-0.292434,0.153022
2.63267,-0.294836,-0.123401
2.58078,-0.161917,-0.10535
2.61494,-0.29285,-0.0612286
2.58597,-0.170853,-0.0452366
2.61466,-0.301602,0
2.5943,-0.171404,0.015111
2.67175,-0.441347,-0.0157387
2.62985,-0.303353,0.0616008
2.63208,-0.303611,-0.185273
2.57729,-0.17028,0.0751699
2.65955,-0.439331,0.0470517
2.58903,-0.171056,-0.16629
2.61421,-0.301549,0.153254
2.62771,-0.303107,-0.123214
2.58821,-0.171001,-0.105676
2.61793,-0.301979,-0.0613216
2.59333,-0.180434,-0.0453763
2.62154,-0.311671,0
2.59369,-0.180458,0.015111
2.67019,-0.45067,-0.0157387
2.63496,-0.313268,-0.185552
2.58067,-0.179552,0.0752863
2.58842,-0.180092,-0.16629
2.6171,-0.311144,0.153487
2.63457,-0.313221,-0.123587
2.59557,-0.180589,-0.106002
2.62083,-0.311587,-0.0614147
2.5887,-0.189194,-0.0453064
2.62837,-0.321793,0
2.59703,-0.189803,0.0151342
2.6686,-0.459988,-0.0157387
2.63781,-0.322948,-0.185831
2.588,-0.189143,0.075519
2.66036,-0.458567,0.0471215
2.59574,-0.189708,-0.166801
2.62393,-0.321248,0.153952
2.63346,-0.322415,-0.123587
2.59093,-0.189357,-0.105839
2.62766,-0.321706,-0.0616008
2.596,-0.19884,-0.0454461
2.6312,-0.331465,0
2.60034,-0.199172,0.0151575
2.67486,-0.470687,-0.0157852
2.63271,-0.331655,-0.185552
2.59131,-0.198481,0.0756354
2.66268,-0.468544,0.0471913
2.59506,-0.198768,-0.166801
2.62279,-0.330406,0.153952
2.64025,-0.332604,-0.123959
2.59823,-0.19901,-0.106165
2.63049,-0.331376,-0.0616939
2.60326,-0.208539,-0.0455857
2.63003,-0.340648,0
2.60362,-0.208567,0.0151807
2.6732,-0.480021,-0.0157852
2.63725,-0.341583,0.06188
2.5906,-0.207525,0.0756354
2.68071,-0.48137,0.0475404
2.60629,-0.208781,-0.167569
2.6335,-0.341098,0.15465
2.63511,-0.341305,-0.123773
2.60549,-0.208717,-0.10649
2.63329,-0.341069,-0.0617869
2.60647,-0.218413,-0.0456555
2.63273,-0.350814,0
2.60682,-0.218443,0.015204
2.68322,-0.49198,-0.0158549
2.64391,-0.352303,0.0620661
2.59381,-0.217352,0.0757518
2.67499,-0.49047,0.0474705
2.60948,-0.218666,-0.167825
2.62432,-0.349693,0.154185
2.6378,-0.351489,-0.123959
2.60072,-0.217931,-0.106327
2.63598,-0.351247,-0.06188
2.60178,-0.226254,-0.0455857
2.6435,-0.360705,0
2.60612,-0.226631,0.015204
2.5971,-0.225846,0.0758681
2.60481,-0.226517,-0.167569
2.63112,-0.359015,0.15465
2.6446,-0.360855,-0.124331
2.60799,-0.226793,-0.106653
2.63883,-0.360067,-0.061973
2.60098,-0.235334,-0.0455857
2.64223,-0.36993,0
2.60531,-0.235727,0.015204
2.59629,-0.23491,0.0758681
2.67561,-0.508948,0.0475404
2.61195,-0.236327,-0.16808
2.63381,-0.368751,0.154882
2.64332,-0.370084,-0.124331
2.60718,-0.235895,-0.106653
2.63755,-0.369276,-0.061973
2.6081,-0.245161,-0.0457253
2.64092,-0.379151,0
2.61244,-0.245568,0.0152505
2.64812,-0.380185,0.0622522
2.60342,-0.24472,0.0761008
2.61111,-0.245443,-0.16808
2.63646,-0.37851,0.155115
2.64597,-0.379876,-0.124517
2.60634,-0.244995,-0.106653
2.64021,-0.379049,-0.0620661
2.61515,-0.255496,-0.0458649
2.63951,-0.388828,0
2.6155,-0.255531,0.0152737
2.60648,-0.254649,0.0762172
2.61019,-0.255012,-0.16808
2.64295,-0.389334,0.15558
2.64456,-0.389572,-0.124517
2.61736,-0.255712,-0.107142
2.64276,-0.389306,-0.0621591
2.61827,-0.264569,-0.0459347
2.65008,-0.399367,0
2.61862,-0.264605,0.015297
2.65727,-0.400451,0.0625313
2.6096,-0.263693,0.0763336
2.6133,-0.264067,-0.168336
2.61649,-0.26439,-0.107142
2.64936,-0.399259,-0.0623452
2.61733,-0.273707,-0.0459347
2.64471,-0.408005,0
2.61768,-0.273744,0.015297
2.66376,-0.410944,0.0627174
2.61264,-0.273217,0.0764499
2.61634,-0.273603,-0.168592
2.62351,-0.274353,-0.107467
2.6519,-0.409114,-0.0624383
2.61636,-0.282841,-0.0459347
2.65513,-0.419106,0
2.62069,-0.283309,0.0153202
2.61565,-0.282764,0.0765663
2.6233,-0.283592,-0.169104
2.62253,-0.283509,-0.107467
2.61933,-0.292416,-0.0460045
2.65365,-0.428371,0
2.61968,-0.292455,0.0153202
2.66872,-0.430804,0.0629035
2.61862,-0.292337,0.0766826
2.62626,-0.29319,-0.16936
2.62153,-0.292661,-0.107467
2.65293,-0.428255,-0.0625313
2.62624,-0.302472,-0.0461442
2.62659,-0.302513,0.0153667
2.6672,-0.440117,0.0629035
2.62155,-0.301933,0.076799
2.63316,-0.303269,-0.169871
2.63637,-0.30364,-0.108119
2.65931,-0.438815,-0.0627174
2.63708,-0.313052,-0.0463536
2.65848,-0.448217,0
2.63346,-0.312623,0.0154132
2.66959,-0.45009,0.0629966
2.61651,-0.310611,0.0766826
2.63208,-0.312459,-0.169871
2.63529,-0.31284,-0.108119
2.63994,-0.322741,-0.0464234
2.62839,-0.321328,0.0153899
2.67589,-0.460763,0.0631827
2.62335,-0.320713,0.0769154
2.63494,-0.322129,-0.170127
2.63815,-0.322522,-0.108281
2.63086,-0.330956,-0.0462838
2.66711,-0.468843,0
2.63122,-0.331001,0.0154132
2.67032,-0.469408,0.0630896
2.62618,-0.330367,0.0770317
2.64172,-0.332321,-0.170639
2.64098,-0.332228,-0.108444
2.63366,-0.34065,-0.0463536
2.66545,-0.47815,0
2.63401,-0.340696,0.0154364
2.67654,-0.480139,0.0632757
2.62898,-0.340045,0.0771481
2.63658,-0.341028,-0.170383
2.64377,-0.341958,-0.108607
2.64434,-0.351422,-0.046563
2.64074,-0.350942,0.0154829
2.67485,-0.489479,0.0632757
2.63174,-0.349746,0.0772645
2.64652,-0.35171,-0.10877
2.65103,-0.361732,-0.0467026
2.64742,-0.36124,0.0155294
2.63842,-0.360012,0.0774972
2.64527,-0.360946,-0.10877
2.64579,-0.370429,-0.0466328
2.63822,-0.36937,0.0154829
2.64111,-0.369774,0.0776135
2.65191,-0.371286,-0.109096
2.64448,-0.379662,-0.0466328
2.64484,-0.379713,0.0155294
2.64376,-0.379559,0.0777299
2.65456,-0.381109,-0.109258
2.65501,-0.390637,-0.0468423
2.65141,-0.390108,0.0155759
2.65033,-0.389949,0.0779626
2.6537,-0.399439,-0.0468423
2.65406,-0.399493,0.0155992
2.64902,-0.398736,0.0779626
2.66019,-0.409918,-0.0469819
2.65265,-0.408755,0.0155992
2.65157,-0.408589,0.078079
2.65875,-0.419201,-0.0469819
2.64725,-0.417389,0.0155759
2.65408,-0.418465,0.0781954
2.66121,-0.429116,-0.0470517
2.65763,-0.428538,0.0156457
2.65655,-0.428364,0.0783117
2.66365,-0.439053,-0.0471215
2.66401,-0.439113,0.0156922
2.66687,-0.439585,0.0786608
2.66202,-0.448813,-0.0471215
2.66238,-0.448874,0.0156922
2.66918,-0.450021,0.0787772
2.67234,-0.459672,-0.0473309
2.66482,-0.458378,0.0157154
2.66374,-0.458192,0.0786608
2.66714,-0.468369,0.0157387
2.66943,-0.478382,0.0157619
2.67955,-0.489855,0.0158317
2.67782,-0.499206,0.0158317
2.67999,-0.509297,0.0158549
