2.4334,0.00934466,-0.227155
2.42944,0.000848399,-0.226784
2.40791,-0.00756382,-0.140231
2.4094,-0.0243914,-0.224925
2.38783,-0.024173,-0.139069
2.40134,-0.0326927,-0.224181
2.38374,-0.0324531,-0.138836
2.38926,-0.0408699,-0.223066
2.37163,-0.0405683,-0.138138
2.38512,-0.0491272,-0.222694
2.37946,-0.0490106,-0.138603
2.3633,-0.0573457,-0.137673
2.3688,-0.0653391,-0.221207
2.3591,-0.0650718,-0.137441
2.35661,-0.0732358,-0.220092
2.35487,-0.0731817,-0.137208
2.35633,-0.0818722,-0.220092
2.34661,-0.0815344,-0.136743
2.34216,-0.0887484,-0.0272867
2.35033,-0.0890579,-0.136976
2.43982,0.0183116,-0.19918
2.34202,-0.0969308,-0.13651
2.33946,-0.105007,-0.218604
2.4279,0.00974633,-0.198204
2.33768,-0.104927,-0.136278
2.32512,-0.112497,-0.0271004
2.32715,-0.112595,-0.217489
2.41995,0.00126763,-0.197553
2.32534,-0.112507,-0.13558
2.31879,-0.120305,-0.216746
2.41197,-0.00715656,-0.196902
2.31695,-0.12021,-0.135115
2.40794,-0.0155496,-0.196577
2.31391,-0.136255,-0.216374
2.3999,-0.023875,-0.195926
2.30808,-0.135912,-0.13465
2.39581,-0.0321991,-0.1956
2.29962,-0.143471,-0.134185
2.29304,-0.151097,-0.214515
2.28289,-0.150428,0.0266348
2.38771,-0.0404263,-0.194949
2.29513,-0.151234,-0.133952
2.38039,-0.0403024,-0.124769
2.38822,-0.0491919,-0.304054
2.29247,-0.159501,-0.214515
2.27435,-0.15824,0.0265417
2.37559,-0.0489318,-0.193973
2.29057,-0.159369,-0.13372
2.37623,-0.048945,-0.12456
2.27777,-0.166469,-0.0265882
2.3801,-0.0573364,-0.303044
2.28792,-0.167211,-0.214143
2.26979,-0.165886,0.0264951
2.36744,-0.0570313,-0.193322
2.36806,-0.0570464,-0.124141
2.37196,-0.065012,-0.302034
2.26524,-0.173108,0.0264485
2.36325,-0.0647732,-0.192997
2.27749,-0.174044,-0.133022
2.35987,-0.0646807,-0.123722
2.36776,-0.0731688,-0.301529
2.27085,-0.181512,-0.212656
2.26462,-0.181014,0.0264485
2.35504,-0.0727758,-0.192346
2.26891,-0.181356,-0.132557
2.35165,-0.072671,-0.123304
2.25999,-0.188585,-0.026402
2.26624,-0.189106,-0.212284
2.24803,-0.187587,0.0262623
2.35477,-0.0809959,-0.192346
2.26428,-0.188943,-0.132324
2.35138,-0.0808794,-0.123304
2.33332,-0.0888215,-0.0679555
2.26156,-0.197066,-0.211912
2.23936,-0.195131,0.0261692
2.34251,-0.0891711,-0.191369
2.34309,-0.0891932,-0.122885
2.32904,-0.0959867,-0.0678391
2.35102,-0.0968927,-0.299508
2.25696,-0.203811,-0.211541
2.23874,-0.202165,0.0261692
2.33823,-0.0963657,-0.191044
2.25101,-0.203274,-0.131627
2.3388,-0.0963892,-0.122675
2.32469,-0.103937,-0.0677228
2.23404,-0.209605,-0.0261226
2.33877,-0.104567,-0.297993
2.23802,-0.209979,0.0261692
2.32991,-0.104171,-0.190393
2.33446,-0.104374,-0.122466
2.31633,-0.111666,-0.06749
2.23329,-0.217402,-0.0261226
2.3384,-0.11273,-0.297993
2.24359,-0.218405,-0.210425
2.22533,-0.216627,0.0260295
2.42608,0.00169372,-0.169648
2.32157,-0.111919,-0.189742
2.24159,-0.21821,-0.131162
2.31193,-0.119545,-0.0673737
2.22456,-0.224394,-0.0260295
2.33006,-0.120482,-0.296983
2.42596,-0.00677456,-0.261317
2.23489,-0.225436,-0.209682
2.2166,-0.223591,0.0259363
2.4141,-0.00674144,-0.168811
2.32515,-0.120228,-0.190067
2.23287,-0.225232,-0.130697
2.30751,-0.127394,-0.0672573
2.21978,-0.231742,-0.0259829
2.20785,-0.230496,0.0258432
2.40209,-0.015093,-0.167974
2.31277,-0.127684,-0.189091
2.2281,-0.23261,-0.130464
2.3133,-0.127713,-0.121419
2.29907,-0.134979,-0.0670246
2.21101,-0.238631,-0.0258898
2.40199,-0.0234774,-0.258747
2.20703,-0.238202,0.0258432
2.40202,-0.0234777,-0.167974
2.30833,-0.135523,-0.188766
2.29969,-0.135016,0.0402103
2.21933,-0.239529,-0.129999
2.30885,-0.135553,-0.12121
2.20221,-0.245461,-0.0257966
2.31283,-0.14389,-0.294963
2.40189,-0.0318618,-0.258747
2.22054,-0.247503,-0.208567
2.20619,-0.245904,0.0258432
2.38995,-0.0317034,-0.167137
2.30387,-0.143332,-0.18844
2.21451,-0.246832,-0.129766
2.30438,-0.143364,-0.121001
2.29009,-0.150502,-0.0667919
2.30919,-0.151757,-0.462837
2.18942,-0.251776,-0.0256569
2.3044,-0.151442,-0.293952
2.28703,-0.150301,-0.0133209
2.38586,-0.0399792,-0.257033
2.20134,-0.253147,0.0257966
2.38185,-0.039912,-0.166578
2.29937,-0.151112,-0.188115
2.20967,-0.254104,-0.129534
2.27359,-0.15739,-0.0663264
2.18456,-0.258946,-0.0256104
2.2825,-0.158007,-0.0132977
2.38968,-0.0483877,-0.257461
2.20689,-0.261593,-0.207451
2.1925,-0.259888,0.0257035
2.3817,-0.048226,-0.166578
2.29088,-0.158587,-0.187464
2.2782,-0.157709,0.0398613
2.20084,-0.260876,-0.129069
2.37694,-0.0481296,-0.110744
2.28738,-0.158345,-0.120163
2.28101,-0.165906,-0.0665591
2.30025,-0.167305,-0.461268
2.17967,-0.266085,-0.0255638
2.27794,-0.165683,-0.0132744
2.37757,-0.0564458,-0.256176
2.20201,-0.268812,-0.207079
2.18761,-0.267055,0.0256569
2.37752,-0.0564446,-0.166299
2.28236,-0.166004,-0.186813
2.19199,-0.267589,-0.128604
2.36876,-0.0562367,-0.110372
2.27884,-0.165748,-0.119745
2.1827,-0.274191,-0.0256104
2.26938,-0.173025,-0.0132279
2.37339,-0.0646365,-0.255748
2.35737,-0.0642002,-0.164904
2.27381,-0.173364,-0.186162
2.26907,-0.173002,0.0397217
2.36456,-0.0643961,-0.110186
2.17379,-0.280783,-0.0255173
2.27832,-0.181709,-0.290922
2.26078,-0.18031,-0.0131814
2.3652,-0.0726764,-0.254891
2.17776,-0.281296,0.0255638
2.35314,-0.072306,-0.164625
2.2732,-0.1813,-0.186162
2.2525,-0.179649,0.0394424
2.17818,-0.28135,-0.127906
2.35234,-0.0722814,-0.109627
2.25922,-0.188124,-0.0659773
2.28274,-0.190082,-0.45813
2.25217,-0.187536,-0.0131349
2.35698,-0.08066,-0.254034
2.18328,-0.289761,-0.205592
2.16883,-0.287843,0.0254707
2.34889,-0.0803831,-0.164346
2.25585,-0.187843,0.0395123
2.16927,-0.287901,-0.127441
2.34408,-0.0802188,-0.109255
2.25457,-0.195663,-0.065861
2.24751,-0.195051,-0.0131117
2.34476,-0.0884373,-0.252749
2.17831,-0.296842,-0.205221
2.16782,-0.295412,0.0254707
2.34859,-0.0885818,-0.164346
2.25996,-0.196131,-0.185186
2.24721,-0.195025,0.0393726
2.16825,-0.295472,-0.127441
2.23374,-0.193856,0.0913472
2.3398,-0.0882501,-0.109069
2.25641,-0.195823,-0.118698
2.3377,-0.0881712,-0.0544357
2.24989,-0.203172,-0.0657446
2.16281,-0.302424,-0.0254241
2.24284,-0.202535,-0.0130884
2.34841,-0.0967852,-0.253177
2.16937,-0.303341,-0.204477
2.33631,-0.0962864,-0.163509
2.25529,-0.20366,-0.18486
2.16325,-0.302486,-0.127208
2.22509,-0.200933,0.0910215
2.33548,-0.0962524,-0.108883
2.24378,-0.20262,-0.11807
2.32939,-0.0960014,-0.0542496
2.24124,-0.209886,-0.0655119
2.15388,-0.30846,-0.025331
2.34148,-0.104279,-0.364642
2.24215,-0.209972,-0.0130884
2.3441,-0.104395,-0.252749
2.16441,-0.309969,-0.204105
2.14992,-0.307893,0.0252844
2.33199,-0.103856,-0.16323
2.24666,-0.210394,-0.184209
2.23388,-0.209198,0.0391632
2.15829,-0.309091,-0.126976
2.22441,-0.208311,0.0910215
2.32318,-0.103463,-0.108324
2.24309,-0.21006,-0.11807
2.33306,-0.103903,-0.0543427
2.22856,-0.216548,-0.0651628
2.14883,-0.315396,-0.0252844
2.33716,-0.112262,-0.364027
2.24325,-0.217976,-0.286881
2.32783,-0.111814,-0.251036
2.15938,-0.316944,-0.203733
2.14883,-0.315396,0.0252844
2.31965,-0.111421,-0.162393
2.23401,-0.217079,-0.183233
2.21722,-0.215447,0.038884
2.14929,-0.315463,-0.126511
2.21572,-0.215301,0.0906958
2.31881,-0.11138,-0.108138
2.2344,-0.217116,-0.117651
2.31271,-0.111087,-0.0538774
2.22381,-0.223926,-0.0650464
2.3328,-0.120216,-0.363412
2.23853,-0.225408,-0.286376
2.22073,-0.223616,-0.0129722
2.31949,-0.11953,-0.250179
2.1425,-0.322111,-0.202246
2.14376,-0.3223,0.0252379
2.31925,-0.119517,-0.162393
2.23324,-0.224875,-0.183233
2.21645,-0.223185,0.038884
2.39907,-0.00628075,-0.153754
2.14028,-0.321777,-0.126045
2.21495,-0.223034,0.0906958
2.31841,-0.119474,-0.108138
2.23362,-0.224914,-0.117651
2.31231,-0.119159,-0.0538774
2.20711,-0.230029,-0.064581
2.30851,-0.127045,0
2.32448,-0.127924,-0.362182
2.23378,-0.232809,-0.285871
2.21198,-0.230537,-0.0129257
2.31111,-0.127188,-0.249322
2.14137,-0.329588,-0.202246
2.13472,-0.328564,0.0251447
2.31484,-0.127393,-0.162114
2.22848,-0.232256,-0.182907
2.2077,-0.230091,0.0387443
2.39105,-0.0146063,-0.153242
2.1352,-0.328638,-0.125813
2.19826,-0.229107,0.0900445
2.31,-0.127127,-0.107766
2.22488,-0.231881,-0.117233
2.30389,-0.126791,-0.0536913
2.21424,-0.238589,-0.0648137
2.30006,-0.134635,0
2.31218,-0.135344,-0.360337
2.21514,-0.238686,-0.0129489
2.31463,-0.135487,-0.24975
2.1402,-0.33706,-0.202246
2.12961,-0.335392,0.0250982
2.30641,-0.135006,-0.161556
2.21972,-0.239179,-0.182256
2.20689,-0.237796,0.0387443
2.39098,-0.0229525,-0.153242
2.13009,-0.335468,-0.12558
2.19347,-0.236351,0.0898817
2.30555,-0.134956,-0.10758
2.21611,-0.23879,-0.116814
2.29545,-0.134365,-0.0535052
2.2054,-0.245817,-0.064581
2.12836,-0.343195,-0.0250982
2.30378,-0.143327,-0.359107
2.22417,-0.247908,-0.284861
2.2063,-0.245917,-0.0129024
2.31014,-0.143723,-0.249322
2.13109,-0.343634,-0.201503
2.12441,-0.342558,0.0250516
2.3059,-0.143459,-0.161556
2.21487,-0.246872,-0.181931
2.19408,-0.244554,0.0385349
2.37492,-0.031504,-0.152219
2.13279,-0.343909,-0.125813
2.19656,-0.244832,0.0900445
2.29308,-0.142661,-0.107022
2.20331,-0.245584,-0.116186
2.37782,-0.0315424,-0.0968833
2.19663,-0.252217,-0.0643483
2.29108,-0.150166,0
2.30329,-0.150966,-0.359107
2.21545,-0.254377,-0.283851
2.19752,-0.252319,-0.012856
2.29775,-0.150602,-0.248037
2.12208,-0.349405,-0.200759
2.11932,-0.348951,0.025005
2.29347,-0.150322,-0.160719
2.21008,-0.253761,-0.181606
2.18928,-0.251373,0.0384651
2.37081,-0.0393131,-0.151963
2.11588,-0.348384,-0.124883
2.1878,-0.251202,0.0897188
2.29259,-0.150264,-0.107022
2.20249,-0.252889,-0.116186
2.17443,-0.249668,0.178676
2.28647,-0.149863,-0.0533191
2.1878,-0.258943,-0.0641155
2.27857,-0.157335,0
2.11809,-0.356347,-0.025005
2.29092,-0.158188,-0.357263
2.20273,-0.26071,-0.282336
2.19266,-0.259518,-0.0128327
2.28927,-0.158074,-0.24718
2.11692,-0.35615,-0.200387
2.1973,-0.260068,-0.180629
2.18839,-0.259013,0.0384651
2.37066,-0.0475885,-0.151963
2.11465,-0.355768,-0.124883
2.17897,-0.257898,0.0893932
2.28408,-0.157715,-0.106649
2.19762,-0.260106,-0.115976
2.16959,-0.256788,0.178351
2.36156,-0.047406,-0.096232
2.28195,-0.157568,-0.0532261
2.17894,-0.26561,-0.0638828
2.27402,-0.164999,0
2.28247,-0.165612,-0.356033
2.2018,-0.268397,-0.282336
2.17983,-0.265718,-0.012763
2.28474,-0.165777,-0.246752
2.10781,-0.362188,-0.199644
2.10895,-0.362383,0.0249119
2.19242,-0.267254,-0.180304
2.1835,-0.266166,0.0383953
2.36649,-0.0557694,-0.151707
2.10946,-0.362471,-0.12465
2.17806,-0.265503,0.0893932
2.27953,-0.165398,-0.106463
2.18481,-0.266325,-0.115348
2.16868,-0.264359,0.178351
2.35339,-0.0554608,-0.0959064
2.2774,-0.165243,-0.053133
2.17403,-0.272717,-0.0637664
2.26944,-0.172632,0
2.10767,-0.369743,-0.0249119
2.27794,-0.173278,-0.355418
2.17889,-0.273326,-0.012763
2.28018,-0.173449,-0.246323
2.09869,-0.368167,-0.1989
2.09585,-0.367669,0.0247722
2.27983,-0.173422,-0.159882
2.17961,-0.273417,-0.179327
2.17462,-0.272791,0.0382557
2.3583,-0.0638136,-0.151196
2.10425,-0.369142,-0.124418
2.16522,-0.271611,0.0889047
2.1799,-0.273453,-0.115139
2.15588,-0.270439,0.177375
2.3452,-0.0634591,-0.0955807
2.27282,-0.172889,-0.05304
2.16117,-0.27877,-0.0634174
2.20179,-0.284009,-0.44401
2.26085,-0.179918,0
2.10243,-0.376393,-0.0248654
2.2655,-0.180288,-0.353573
2.18807,-0.282239,-0.280821
2.17792,-0.28093,-0.012763
2.2756,-0.181092,-0.245895
2.09347,-0.374789,-0.198529
2.09062,-0.374278,0.0247257
2.26728,-0.18043,-0.159045
2.17469,-0.280513,-0.179002
2.16969,-0.279869,0.0381859
2.35008,-0.0718014,-0.150684
2.10295,-0.376485,-0.124418
2.16426,-0.279168,0.0889047
2.17497,-0.28055,-0.11493
2.26423,-0.180187,-0.0528539
2.16425,-0.286082,-0.0635337
2.26028,-0.18702,0
2.26492,-0.187404,-0.353573
2.18324,-0.288592,-0.280315
2.1691,-0.286722,-0.0127165
2.26313,-0.187256,-0.24461
2.0962,-0.382078,-0.1989
2.08156,-0.37941,0.0246325
2.26272,-0.187223,-0.158766
2.1738,-0.287344,-0.179002
2.16087,-0.285635,0.0380462
2.33787,-0.0787807,-0.149916
2.08997,-0.380942,-0.12372
2.16733,-0.286489,0.0890675
2.26579,-0.187476,-0.105905
2.16616,-0.286334,-0.114511
2.14613,-0.283687,0.176724
2.33274,-0.0786077,-0.0950922
2.25568,-0.18664,-0.0526678
2.25161,-0.194614,0
2.26816,-0.196045,-0.354188
2.1743,-0.295523,-0.279305
2.16407,-0.294132,-0.0126932
2.2545,-0.194865,-0.243753
2.08695,-0.388301,-0.198157
2.07229,-0.385573,0.0245394
2.25805,-0.195171,-0.158487
2.16088,-0.293698,-0.178025
2.15981,-0.293553,0.0380462
2.33757,-0.0873489,-0.149916
2.08856,-0.388599,-0.12372
2.15439,-0.292816,0.0885791
2.25315,-0.194748,-0.105346
2.16905,-0.29481,-0.11472
2.14113,-0.291014,0.176398
2.24701,-0.194217,-0.0524816
2.33768,-0.0959341,-0.0408386
2.14626,-0.299727,-0.0630683
2.17927,-0.304338,-0.440087
2.24689,-0.202506,0
2.08265,-0.395404,-0.0246791
2.25168,-0.202938,-0.351728
2.16535,-0.302393,-0.278295
2.15901,-0.301508,-0.01267
2.24981,-0.20277,-0.243325
2.07769,-0.394462,-0.197413
2.23832,-0.201734,0.0522955
2.06694,-0.39242,0.0244928
2.24937,-0.202729,-0.157929
2.15979,-0.301617,-0.178025
2.15476,-0.300914,0.0379764
2.32527,-0.095425,-0.149149
2.07927,-0.394762,-0.123255
2.14538,-0.299605,0.0882534
2.24844,-0.202646,-0.10516
2.15609,-0.3011,-0.114092
2.14004,-0.29886,0.176398
2.32411,-0.0953776,-0.0947666
2.23434,-0.201375,-0.0522025
2.16666,-0.309519,-0.437734
2.2343,-0.20845,0
2.24709,-0.209643,-0.351113
2.16831,-0.309755,-0.2788
2.15013,-0.307158,-0.0126235
2.24521,-0.209467,-0.242896
2.07253,-0.400232,-0.197041
2.22971,-0.208022,0.0521094
2.06177,-0.398153,0.0244463
2.24077,-0.209054,-0.157371
2.15094,-0.307273,-0.177375
2.14984,-0.307117,0.0379066
2.32894,-0.102906,-0.149405
2.07802,-0.401292,-0.123255
2.14048,-0.305778,0.0880906
2.14722,-0.306742,-0.113674
2.1312,-0.304454,0.175747
2.31582,-0.102326,-0.0944409
2.23369,-0.208393,-0.0522025
2.17327,-0.318596,-0.439303
2.07207,-0.408026,-0.024586
2.23844,-0.217115,-0.349884
2.15539,-0.315974,-0.277285
2.30532,-0.110329,0.0134139
2.15295,-0.315617,-0.0126467
2.24442,-0.217695,-0.242896
2.06714,-0.407056,-0.19667
2.05244,-0.404162,0.0243531
2.14585,-0.314576,-0.177049
2.14475,-0.314414,0.0378368
2.32058,-0.111059,-0.148893
2.07262,-0.408135,-0.123022
2.21782,-0.215114,0.129766
2.13539,-0.313042,0.0879277
2.14213,-0.314031,-0.113464
2.30744,-0.110431,-0.0941152
2.23689,-0.216965,-0.0522955
2.31659,-0.118975,-0.0404896
2.13515,-0.320624,-0.0628356
2.16051,-0.324433,-0.436949
2.22877,-0.224032,0
2.23374,-0.224532,-0.349269
2.1425,-0.321728,-0.27577
2.06571,-0.41427,-0.19667
2.05494,-0.41211,0.0243997
2.23525,-0.224684,-0.157092
2.13685,-0.32088,-0.176398
2.13968,-0.321305,0.037767
2.3122,-0.11875,-0.148382
2.06727,-0.414582,-0.12279
2.20513,-0.221656,0.129069
2.13428,-0.320494,0.0879277
2.14102,-0.321506,-0.113464
2.29906,-0.118075,-0.0937896
2.22021,-0.223172,-0.0519233
2.30818,-0.126623,-0.04035
2.12611,-0.32686,-0.0626028
2.15936,-0.331972,-0.436949
2.22002,-0.230983,0
2.06133,-0.420881,-0.0244928
2.22115,-0.2311,-0.347424
2.14136,-0.329205,-0.27577
2.29251,-0.125763,0.0133442
2.13488,-0.328208,-0.0125537
2.22703,-0.231712,-0.241183
2.06035,-0.420681,-0.196298
2.21942,-0.23092,0.0519233
2.05349,-0.419281,0.0243997
2.23048,-0.232072,-0.156813
2.12784,-0.327126,-0.175747
2.13459,-0.328164,0.0376972
2.30779,-0.126601,-0.148126
2.06581,-0.421795,-0.12279
2.11735,-0.325513,0.0872764
2.22556,-0.23156,-0.10423
2.13989,-0.328978,-0.113464
2.29464,-0.12588,-0.0936268
2.21146,-0.230093,-0.0517372
2.30774,-0.134276,-0.04035
2.14663,-0.337304,-0.434596
2.20731,-0.237062,0
2.22037,-0.238465,-0.347424
2.13634,-0.335688,-0.275265
2.29208,-0.133365,0.0133442
2.12983,-0.334665,-0.0125305
2.21834,-0.238247,-0.240326
2.04724,-0.425082,-0.195183
2.20671,-0.236998,0.0516442
2.03642,-0.422835,0.0242135
2.22177,-0.238615,-0.156255
2.13068,-0.334799,-0.176073
2.12954,-0.33462,0.0376274
2.30337,-0.134022,-0.14787
2.04876,-0.425396,-0.121859
2.11231,-0.331912,0.0871136
2.21683,-0.238085,-0.103857
2.13484,-0.335452,-0.113255
2.29421,-0.133489,-0.0936268
2.20671,-0.236998,-0.0516442
2.29526,-0.141993,-0.0401405
2.11193,-0.339789,-0.0622537
2.13376,-0.343301,-0.432243
2.20245,-0.244709,0
2.0466,-0.432779,-0.0243531
2.21162,-0.245728,-0.346194
2.13118,-0.342885,-0.27476
2.2836,-0.141271,0.0132977
2.12464,-0.341834,-0.0125072
2.20954,-0.245497,-0.239469
2.04567,-0.432583,-0.195183
2.20185,-0.244643,0.0515511
2.03095,-0.429469,0.0241669
2.21691,-0.246316,-0.155975
2.12157,-0.341339,-0.175422
2.29888,-0.142217,-0.147614
2.05109,-0.433728,-0.122092
2.19475,-0.243854,0.128604
2.11108,-0.339652,0.0871136
2.21595,-0.246209,-0.103857
2.12176,-0.341371,-0.112627
2.28573,-0.141403,-0.0933011
2.20185,-0.244643,-0.0515511
2.11074,-0.347159,-0.0622537
2.12868,-0.35011,-0.431458
2.19363,-0.251484,0
2.04508,-0.43992,-0.0243531
2.20682,-0.252997,-0.345579
2.12214,-0.349035,-0.27375
2.27511,-0.14872,0.0132512
2.11949,-0.348599,-0.012484
2.20077,-0.252303,-0.238612
2.04415,-0.439721,-0.195183
2.19701,-0.251872,0.0514581
2.03335,-0.437397,0.0242135
2.21207,-0.253598,-0.155696
2.11525,-0.347903,0.037418
2.28642,-0.149459,-0.146847
2.04176,-0.439206,-0.121627
2.18199,-0.250149,0.127906
2.10199,-0.345721,0.0867879
2.11662,-0.348127,-0.112418
2.27725,-0.14886,-0.0929754
2.20098,-0.252327,-0.0515511
2.28227,-0.15679,-0.0399311
2.12364,-0.356518,-0.430674
2.19279,-0.258757,0
2.03188,-0.444137,-0.0242135
2.20205,-0.25985,-0.344964
2.11705,-0.355413,-0.273244
2.26662,-0.155715,0.0132047
2.11438,-0.354963,-0.0124607
2.19992,-0.259599,-0.238612
2.04268,-0.446497,-0.195183
2.18822,-0.258218,0.051272
2.2033,-0.259997,-0.155138
2.1074,-0.353792,-0.174445
2.11014,-0.354253,0.0373482
2.28193,-0.156767,-0.146591
2.03639,-0.445121,-0.121394
2.17718,-0.256916,0.127673
2.10872,-0.354013,0.0871136
2.20232,-0.259882,-0.103299
2.11151,-0.354483,-0.112208
2.16461,-0.255433,0.267625
2.27674,-0.15641,-0.0929754
2.19219,-0.258687,-0.051365
2.26974,-0.163892,-0.0397217
2.0965,-0.359491,-0.0619047
2.11851,-0.363266,-0.429889
2.1879,-0.265927,0
2.02642,-0.450359,-0.0241669
2.20113,-0.267535,-0.344964
2.1158,-0.362801,-0.273244
2.25808,-0.16305,0.0131582
2.10524,-0.36099,-0.0124142
2.19111,-0.266317,-0.237755
2.02945,-0.451032,-0.194067
2.18334,-0.265373,0.0511789
2.19841,-0.267205,-0.154859
2.25318,-0.162696,0.0657446
2.10101,-0.360265,0.0372085
2.27341,-0.164156,-0.146079
2.03092,-0.451361,-0.121162
2.17231,-0.264032,0.127441
2.09565,-0.359346,0.0866251
2.19346,-0.266603,-0.102927
2.10633,-0.361176,-0.111999
2.26422,-0.163493,-0.0924869
2.17937,-0.26489,-0.0510859
2.27312,-0.172512,-0.0397915
2.10944,-0.369674,-0.42832
2.175,-0.272453,0
2.02085,-0.456901,-0.0241203
2.19229,-0.274618,-0.343735
2.11446,-0.370553,-0.273244
2.25747,-0.171325,0.0131582
2.09602,-0.367322,-0.0123678
2.19406,-0.274841,-0.238184
2.02389,-0.457589,-0.193695
2.17441,-0.272379,0.0509928
2.18554,-0.273773,-0.154022
2.10089,-0.368175,-0.17412
2.09968,-0.367963,0.0372085
2.26483,-0.171883,-0.145567
2.02536,-0.457921,-0.120929
2.1634,-0.270999,0.126976
2.08251,-0.364954,0.0861366
2.18454,-0.273648,-0.102555
2.10105,-0.368204,-0.11179
2.16273,-0.270916,0.267625
2.26759,-0.172093,-0.0926498
2.18235,-0.273373,-0.0511789
2.2606,-0.178707,-0.0395821
2.09401,-0.373753,-0.0619047
2.10441,-0.37561,-0.427536
2.17017,-0.278775,0
2.01551,-0.462353,-0.0240738
2.18357,-0.280497,-0.342505
2.10547,-0.375799,-0.272234
2.26091,-0.178731,0.0131814
2.09879,-0.374608,-0.012391
2.17741,-0.279705,-0.23647
2.01857,-0.463055,-0.193324
2.17355,-0.279209,0.0509928
2.17675,-0.279621,-0.153464
2.09187,-0.373372,-0.173469
2.24006,-0.177083,0.0653955
2.09851,-0.374557,0.0372085
2.26428,-0.178998,-0.145567
2.02391,-0.464281,-0.120929
2.1665,-0.278303,0.127208
2.17971,-0.28,-0.102368
2.09595,-0.374101,-0.11158
2.25509,-0.178271,-0.0921613
2.17355,-0.279209,-0.0509928
2.25591,-0.187055,-0.0395123
2.08076,-0.379638,-0.0615556
2.09909,-0.382984,-0.426751
2.15719,-0.285531,0
2.00982,-0.46918,-0.0240272
2.17073,-0.287323,-0.34066
2.10011,-0.383169,-0.271729
2.24426,-0.186089,0.0130884
2.18026,-0.288586,-0.236899
2.01289,-0.469897,-0.192952
2.16849,-0.287028,0.0508998
2.17171,-0.287454,-0.153185
2.0865,-0.380686,-0.173144
2.23538,-0.185353,0.0652792
2.08919,-0.381177,0.0370689
2.25562,-0.187031,-0.145056
2.02211,-0.472049,-0.120929
2.15354,-0.285048,0.126511
2.07598,-0.378767,0.0859738
2.17069,-0.287319,-0.101996
2.08664,-0.380712,-0.111162
2.24244,-0.185938,-0.0916728
2.17246,-0.287553,-0.0509928
2.23931,-0.193551,-0.039233
2.07942,-0.386899,-0.0615556
2.09003,-0.388873,-0.425182
2.15221,-0.292521,0
2.00428,-0.47527,-0.0239806
2.16579,-0.294367,-0.340045
2.08705,-0.38832,-0.270214
2.23961,-0.193578,0.0130652
2.08026,-0.387056,-0.012298
2.16742,-0.294587,-0.235614
2.01124,-0.47692,-0.192952
2.16352,-0.294057,0.0508067
2.16674,-0.294495,-0.152906
2.08516,-0.387967,-0.173144
2.08391,-0.387735,0.0369991
2.24302,-0.193872,-0.144288
2.00491,-0.475419,-0.119999
2.14857,-0.292026,0.126278
2.16968,-0.294894,-0.101996
2.0853,-0.387994,-0.111162
2.24576,-0.194109,-0.0918356
2.16352,-0.294057,-0.0508067
2.23464,-0.201009,-0.0391632
2.07413,-0.39341,-0.0614392
2.08866,-0.396167,-0.425182
2.14325,-0.298926,0
2.16475,-0.301925,-0.340045
2.08569,-0.395603,-0.270214
2.22697,-0.200319,0.0129954
2.07497,-0.39357,-0.0122748
2.15456,-0.300503,-0.234328
2.00569,-0.483005,-0.19258
2.15852,-0.301055,0.0507136
2.15779,-0.300954,-0.152348
2.07596,-0.393758,-0.172493
2.07862,-0.394262,0.0369293
2.23438,-0.200985,-0.143777
1.99548,-0.480545,-0.119534
2.14358,-0.298972,0.126045
2.15676,-0.30081,-0.101438
2.07609,-0.393782,-0.110743
2.22914,-0.200514,-0.0911843
2.15456,-0.300503,-0.0506206
2.22603,-0.207286,-0.0390236
2.0611,-0.397652,-0.0610901
2.0797,-0.40124,-0.423613
2.13834,-0.305093,0
2.15988,-0.308166,-0.33943
2.08443,-0.402153,-0.270214
2.21837,-0.206573,0.0129489
2.06587,-0.398571,-0.0122283
2.15361,-0.307271,-0.234328
1.99256,-0.48647,-0.191465
2.14964,-0.306705,0.0505275
2.15289,-0.307168,-0.152069
2.07471,-0.400277,-0.172493
2.06951,-0.399275,0.0367897
2.22578,-0.207263,-0.143265
1.99008,-0.485864,-0.119301
2.13077,-0.304013,0.125348
2.1479,-0.306456,-0.101066
2.06699,-0.398788,-0.110324
2.2285,-0.207516,-0.0911843
2.15756,-0.307835,-0.0507136
2.22529,-0.215055,-0.0390236
2.05578,-0.404073,-0.0609738
2.07444,-0.407741,-0.422829
2.14706,-0.313988,-0.337585
2.07912,-0.408661,-0.269709
2.22559,-0.215084,0.0129954
2.05661,-0.404237,-0.0121818
2.14859,-0.314211,-0.2339
1.99471,-0.494381,-0.191837
2.14065,-0.31305,0.0503414
2.13996,-0.312949,-0.151232
2.06548,-0.405979,-0.171842
2.06418,-0.405725,0.0367199
2.22107,-0.214648,-0.143009
1.98449,-0.491848,-0.119069
2.13365,-0.312027,0.12558
2.14681,-0.313951,-0.101066
2.06167,-0.405231,-0.110115
2.21981,-0.214525,-0.0908587
2.14065,-0.31305,-0.0503414
2.21251,-0.222398,-0.0388142
2.05421,-0.411964,-0.0609738
2.06901,-0.414932,-0.422044
2.12418,-0.318978,0
2.06976,-0.415081,-0.268699
2.21281,-0.222428,0.0129257
2.05897,-0.412917,-0.012205
2.14736,-0.322458,-0.2339
2.13943,-0.321267,0.0503414
2.13085,-0.319978,-0.150674
2.05477,-0.412075,0.0365802
2.21626,-0.222775,-0.142753
1.98259,-0.499464,-0.119069
2.12849,-0.319624,0.125348
2.13374,-0.320412,-0.100507
2.0601,-0.413144,-0.110115
2.13943,-0.321267,-0.0503414
2.20385,-0.228523,-0.0386745
2.04899,-0.417616,-0.0608574
2.06386,-0.420646,-0.42126
2.11922,-0.325043,0
2.137,-0.327771,-0.336356
2.06067,-0.419996,-0.267689
2.20017,-0.228141,0.012856
2.04982,-0.417786,-0.0121585
2.13455,-0.327394,-0.232615
1.9835,-0.506324,-0.191093
2.13445,-0.32738,0.0502484
2.12983,-0.326671,-0.150674
2.05478,-0.418797,-0.171191
2.05346,-0.418528,0.0365802
2.20761,-0.228913,-0.142242
1.98101,-0.50569,-0.119069
2.11563,-0.324493,0.12465
2.13667,-0.32772,-0.100693
2.05488,-0.418816,-0.109906
2.20633,-0.22878,-0.0903702
2.13445,-0.32738,-0.0502484
2.19906,-0.235788,-0.0386047
2.03969,-0.423142,-0.0606247
2.06237,-0.427848,-0.42126
2.11412,-0.331818,0
2.13194,-0.334615,-0.335741
2.05919,-0.427187,-0.267689
2.19936,-0.23582,0.012856
2.04443,-0.424126,-0.0121353
1.97786,-0.512246,-0.190721
2.1254,-0.333589,0.0500623
2.12868,-0.334103,-0.150674
2.05721,-0.426776,-0.171516
2.04416,-0.424069,0.0364406
1.9715,-0.510599,-0.118604
2.11449,-0.331876,0.12465
2.12367,-0.333317,-0.100135
2.0534,-0.425987,-0.109906
2.20154,-0.236055,-0.0902073
2.1175,-0.332348,-0.0498762
2.19818,-0.243846,-0.0386047
2.05312,-0.433783,-0.419691
2.1307,-0.342427,-0.335741
2.04984,-0.433091,-0.266678
2.19053,-0.242997,0.0128095
2.03504,-0.429963,-0.0120888
2.12037,-0.340767,-0.23133
2.11232,-0.339473,0.0497831
2.11956,-0.340637,-0.150116
2.04393,-0.431841,-0.17054
2.18566,-0.242458,0.0639992
2.11326,-0.339624,0.12465
2.11849,-0.340465,-0.0999489
2.04401,-0.431858,-0.109487
2.20066,-0.244122,-0.0902073
2.12416,-0.341376,-0.0500623
2.19339,-0.25068,-0.0385349
2.02887,-0.435692,-0.060392
2.04783,-0.439765,-0.418907
2.12565,-0.348851,-0.335126
2.0484,-0.439886,-0.266678
2.19368,-0.250714,0.0128327
2.0336,-0.436709,-0.0120888
2.11118,-0.346476,0.0497831
2.11054,-0.346371,-0.149558
2.03859,-0.43778,-0.170214
2.18923,-0.250205,-0.141218
1.96017,-0.522294,-0.118138
2.1003,-0.34469,0.123952
2.10946,-0.346194,-0.0995766
2.03476,-0.436957,-0.109068
2.18793,-0.250057,-0.0897188
2.11513,-0.347123,-0.0498762
2.18852,-0.257867,-0.0384651
2.02343,-0.441918,-0.0602756
2.04629,-0.446911,-0.418907
2.11273,-0.354307,-0.333281
2.03522,-0.444494,-0.265163
2.18088,-0.256966,0.012763
2.02816,-0.442952,-0.0120655
1.96085,-0.529813,-0.189606
2.10996,-0.353843,0.0497831
2.03315,-0.444042,-0.169889
2.18834,-0.257845,-0.141218
1.96219,-0.530175,-0.118371
2.10302,-0.352679,0.124185
2.1043,-0.352894,-0.0993905
2.02932,-0.443204,-0.108859
2.1139,-0.354504,-0.0498762
2.02187,-0.448979,-0.0602756
2.03706,-0.45235,-0.417338
2.11148,-0.36168,-0.333281
2.03365,-0.451595,-0.265163
2.176,-0.264095,0.0127397
2.10871,-0.361206,0.0497831
2.10414,-0.360423,-0.149279
2.02381,-0.449408,-0.169238
2.1795,-0.264521,-0.140707
1.94878,-0.533856,-0.117673
2.09912,-0.359563,-0.0992044
2.02386,-0.449419,-0.108649
2.10083,-0.359856,-0.049597
2.16678,-0.271039,-0.0381161
2.01631,-0.455505,-0.0601592
2.03921,-0.460678,-0.418122
2.09218,-0.366273,0
2.10235,-0.368053,-0.332051
2.03199,-0.459046,-0.265163
2.17104,-0.271572,0.0127165
2.01323,-0.454809,-0.0119958
2.09949,-0.367553,0.049597
2.09888,-0.367445,-0.149
2.02603,-0.457701,-0.169564
2.16223,-0.270469,0.0634174
2.17852,-0.272507,-0.140707
2.09779,-0.367254,-0.0992044
2.0222,-0.456834,-0.108649
2.17325,-0.271848,-0.0892304
2.09949,-0.367553,-0.049597
2.16582,-0.278601,-0.0381161
2.02612,-0.46516,-0.415769
2.10105,-0.37539,-0.332051
2.02264,-0.46436,-0.264153
2.16612,-0.278639,0.0126932
2.01553,-0.462729,-0.012019
2.09032,-0.373473,0.0494109
2.08972,-0.373366,-0.148442
2.02054,-0.463879,-0.169238
2.1573,-0.277505,0.063301
2.16568,-0.278582,-0.139939
2.08862,-0.373169,-0.0988321
2.0128,-0.462103,-0.108231
2.16832,-0.278922,-0.0890675
2.09426,-0.374176,-0.049504
2.16484,-0.286159,-0.0381161
2.0053,-0.467754,-0.0599265
2.07383,-0.378001,0
2.021,-0.471418,-0.264153
2.1691,-0.286722,0.0127165
2.0932,-0.381532,-0.229188
2.08901,-0.380767,0.0494109
2.08841,-0.380658,-0.148442
2.15632,-0.285034,0.063301
2.16469,-0.28614,-0.139939
2.07945,-0.379025,-0.0984599
2.08507,-0.38005,-0.0493179
2.15595,-0.292262,-0.0379764
2.07257,-0.384876,0
2.14831,-0.291227,0.0126002
2.0802,-0.386293,-0.227903
2.08773,-0.387692,0.0494109
2.08321,-0.386853,-0.148163
2.00182,-0.473947,-0.167936
2.07818,-0.385918,-0.0984599
2.00184,-0.473952,-0.107812
2.07987,-0.386232,-0.0492248
2.14699,-0.298684,-0.0378368
2.06335,-0.39062,0
2.15125,-0.299275,0.0126235
2.07851,-0.39349,0.0492248
2.07401,-0.392638,-0.147605
2.13849,-0.297501,0.0628356
2.07289,-0.392427,-0.0982737
2.06672,-0.391258,-0.0489456
2.13797,-0.30542,-0.0376972
2.05798,-0.397422,0
1.99668,-0.487846,-0.261628
2.13826,-0.305461,0.0125537
2.0692,-0.399589,0.0490387
2.07255,-0.400237,-0.147605
1.9945,-0.487313,-0.167611
2.14134,-0.305902,0.0629519
2.0636,-0.398506,-0.0979015
1.99063,-0.486368,-0.107393
2.06527,-0.398831,-0.0489456
2.13304,-0.311557,-0.0376274
1.99129,-0.493163,-0.261123
2.13333,-0.311599,0.0125305
2.06401,-0.405317,0.0489456
2.06346,-0.405208,-0.147047
1.98909,-0.492618,-0.167285
2.1285,-0.310895,0.0626028
2.06233,-0.404987,-0.0979015
1.98522,-0.491659,-0.107184
2.06009,-0.404546,-0.0488526
1.98537,-0.499059,-0.0595774
1.98955,-0.500111,-0.261123
2.13618,-0.319636,0.0125537
2.05907,-0.411817,-0.226189
2.06258,-0.412519,0.0489456
2.0542,-0.410843,-0.146489
2.13579,-0.319577,-0.138404
2.05699,-0.4114,-0.0977154
2.05474,-0.410951,-0.0487595
2.1268,-0.326206,-0.0375576
2.04594,-0.416994,0
1.98002,-0.505437,-0.260113
2.12709,-0.32625,0.0125072
2.05268,-0.418369,-0.146489
2.05155,-0.418139,-0.0975292
1.97778,-0.504865,-0.106975
2.0493,-0.41768,-0.0486665
2.03671,-0.422153,0
2.11414,-0.331444,0.0124375
2.05128,-0.425174,-0.146489
2.05015,-0.42494,-0.0975292
2.04399,-0.423662,-0.0485734
2.03522,-0.42926,0
2.11297,-0.338821,0.0124375
2.04588,-0.431508,-0.14621
2.03693,-0.42962,-0.0969709
2.0298,-0.435522,0
2.10783,-0.345548,0.0124142
2.03757,-0.437189,-0.224475
2.03656,-0.436973,-0.145652
1.96093,-0.522129,-0.165658
2.03151,-0.435889,-0.0967847
2.03707,-0.437082,-0.0484804
2.09843,-0.351534,-0.0371387
2.02436,-0.441752,0
1.96137,-0.529585,-0.258597
2.09872,-0.351582,0.0123678
2.03113,-0.443228,-0.145372
2.02607,-0.442126,-0.0965986
2.10096,-0.351957,-0.0867879
2.02381,-0.441633,-0.0482012
2.10114,-0.359531,-0.0372085
2.02281,-0.448816,0
2.09748,-0.358905,0.0123678
2.0267,-0.44968,-0.223619
2.02957,-0.450316,-0.145372
2.02452,-0.449195,-0.0965986
2.01836,-0.447828,-0.0481082
2.09193,-0.365852,-0.0370689
2.08827,-0.365213,0.0123213
2.02012,-0.455994,-0.144814
2.01506,-0.454853,-0.0962264
2.0867,-0.372449,-0.0369991
2.07911,-0.371094,0.0122748
2.01462,-0.462151,-0.144535
2.0822,-0.371646,0.0615556
2.08667,-0.372445,-0.135846
2.01346,-0.461884,-0.0962264
2.07758,-0.377935,-0.0368595
2.07786,-0.377987,0.0122748
2.01308,-0.468829,-0.144535
2.07702,-0.377833,0.0614392
2.0815,-0.378648,-0.13559
2.00803,-0.467652,-0.0960402
2.07232,-0.384456,-0.0367897
2.0726,-0.384508,0.0122515
2.00249,-0.473739,-0.0958541
2.07096,-0.391687,-0.0367897
2.06338,-0.390253,0.012205
2.07096,-0.391687,-0.135078
1.99694,-0.479792,-0.095668
2.06573,-0.397796,-0.0367199
2.05815,-0.396337,0.0121818
1.99264,-0.485753,-0.143419
1.99922,-0.487358,-0.0958541
2.05641,-0.403823,-0.0365802
2.05276,-0.403107,0.0121585
1.99085,-0.493053,-0.143419
2.06426,-0.405366,-0.134823
1.98967,-0.492761,-0.0954819
2.05113,-0.409857,-0.0365104
2.04749,-0.409129,0.0121353
2.05507,-0.410645,-0.134311
1.98027,-0.49741,-0.0951096
2.04969,-0.417014,-0.0365104
2.04213,-0.415476,0.012112
1.97584,-0.503636,-0.142582
2.04972,-0.41702,-0.134055
1.97852,-0.504319,-0.0951096
2.05214,-0.424977,-0.0365802
2.03675,-0.42179,0.0120888
2.04825,-0.424172,-0.134055
1.97288,-0.510222,-0.0949235
2.0389,-0.429664,-0.0363708
1.96842,-0.516405,-0.142303
1.97109,-0.517106,-0.0949235
1.96541,-0.522955,-0.0947374
2.02413,-0.441332,-0.0361614
2.02667,-0.441885,-0.0845083
2.01867,-0.447529,-0.0360916
2.02264,-0.448409,-0.132776
2.02121,-0.448091,-0.0843455
2.0171,-0.454573,-0.0360916
2.0077,-0.459825,-0.035952
2.00608,-0.466831,-0.035952
