2.5555,0.0410364,-0.0297546
2.59751,0.168883,-0.331328
2.6355,0.301208,-0.285735
2.55655,0.0410534,-0.23868
2.62619,0.300144,0.0615077
2.5555,0.0410364,0.0297546
2.59785,0.168906,-0.212524
2.59237,0.168549,0.105839
2.63596,0.301261,-0.123587
2.59097,0.168458,-0.136073
2.63413,0.301052,-0.0616939
2.55163,0.0316208,-0.029708
2.59415,0.15912,-0.330823
2.62473,0.290236,-0.28445
2.56067,0.0317328,-0.239052
2.63125,0.290957,0.0616008
2.55163,0.0316208,0.029708
2.59448,0.159139,-0.212199
2.60271,0.159644,0.0455159
2.59297,0.159047,0.105839
2.63308,0.29116,-0.123401
2.59157,0.158961,-0.136073
2.63919,0.291836,-0.0617869
2.55573,0.0227511,-0.0297546
2.58677,0.149607,-0.329813
2.62968,0.281497,-0.284878
2.62827,0.281346,0.0615077
2.55173,0.0227155,0.029708
2.58706,0.149623,-0.211548
2.62453,0.280947,0.15372
2.58952,0.149766,0.105676
2.63011,0.281543,-0.123214
2.59211,0.149915,-0.136073
2.63622,0.282198,-0.0616939
2.61801,0.271008,0
2.55179,0.0138075,-0.029708
2.59124,0.140791,-0.330318
2.62669,0.271906,-0.28445
2.55286,0.0138133,-0.238309
2.62128,0.271346,0.0613216
2.54779,0.0137858,0.0296615
2.6156,0.270758,-0.183878
2.58756,0.140591,-0.211548
2.59402,0.140942,0.105839
2.62312,0.271537,-0.122842
2.59261,0.140866,-0.136073
2.62924,0.27217,-0.0615077
2.6189,0.262324,0
2.54782,0.00533629,-0.0296615
2.58377,0.131792,-0.329308
2.61966,0.262401,-0.283593
2.54891,0.00533858,-0.237937
2.62217,0.262651,0.0613216
2.55182,0.00534467,0.029708
2.61252,0.261685,-0.183599
2.592,0.132212,-0.211873
2.59223,0.132224,0.0453064
2.57851,0.131524,0.105188
2.61606,0.26204,-0.12247
2.59307,0.132267,-0.136073
2.62614,0.26305,-0.0614147
2.54782,-0.00400144,-0.0296615
2.58423,0.122322,-0.329308
2.62061,0.252798,-0.283593
2.54892,-0.00400315,-0.237937
2.62311,0.25304,0.0613216
2.54382,-0.00399516,0.0296149
2.58848,0.122523,-0.211548
2.58871,0.122534,0.0452366
2.65038,0.387122,-0.171662
2.54768,-0.00400121,-0.148371
2.57498,0.121884,0.105025
2.61302,0.252067,-0.122284
2.58555,0.122385,-0.135655
2.62709,0.253424,-0.0614147
2.64883,0.377457,-0.0467026
2.60876,0.242466,0
2.5438,-0.0128754,-0.0296149
2.58068,0.113126,-0.328802
2.61355,0.242912,-0.282736
2.54889,-0.0129012,-0.237937
2.61601,0.243141,0.0611355
2.5358,-0.0128349,0.0295218
2.57694,0.112962,-0.210571
2.64777,0.377304,-0.171406
2.60832,0.242426,0.152557
2.5714,0.112719,0.104862
2.62398,0.243881,-0.0613216
2.56879,0.104521,-0.0748209
2.60552,0.233912,0
2.53974,-0.0208336,-0.0295684
2.60211,0.233606,-0.406455
2.62222,0.235412,-0.283593
2.62075,0.235279,0.0612286
2.53574,-0.0208008,0.0295218
2.60712,0.234056,-0.183041
2.58127,0.105029,-0.210897
2.60907,0.234231,0.152557
2.57573,0.104803,0.105025
2.61066,0.234373,-0.122098
2.58232,0.105071,-0.135445
2.62075,0.235279,-0.0612286
2.57316,0.0948032,-0.0749372
2.60242,0.223563,0
2.53564,-0.0305378,-0.0295218
2.60692,0.22395,-0.40707
2.61122,0.22432,-0.282308
2.62163,0.225214,0.0612286
2.53164,-0.0304896,0.0294752
2.60403,0.223702,-0.182762
2.57767,0.0949692,-0.210571
2.57786,0.0949762,0.0450272
2.54351,-0.0306325,-0.148138
2.57611,0.0949119,0.105025
2.60756,0.224005,-0.121912
2.60968,0.224187,-0.0609494
2.60318,0.214478,0
2.53152,-0.039326,-0.0294752
2.59981,0.214201,-0.40584
2.60406,0.214551,-0.281451
2.53666,-0.0394059,-0.236822
2.60646,0.214748,0.0608564
2.53152,-0.039326,0.0294752
2.56445,0.0855199,0.104536
2.60434,0.214574,-0.121725
2.63896,0.347895,-0.108444
2.61842,0.215734,-0.0611355
2.56175,0.0773731,-0.0745881
2.59587,0.205666,0
2.53139,-0.0472795,-0.0294752
2.59653,0.205719,-0.405226
2.57405,0.0777446,-0.327792
2.60472,0.206368,-0.281451
2.53255,-0.0473012,-0.23645
2.60712,0.206558,0.0608564
2.52739,-0.0472048,0.0294287
2.57426,0.077751,-0.210246
2.59944,0.205949,0.151859
2.56071,0.0773417,0.104373
2.59704,0.205759,-0.121353
2.6151,0.20719,-0.0610425
2.55403,0.067326,-0.0743554
2.59265,0.195397,0
2.51919,-0.0567283,-0.0293355
2.59336,0.195451,-0.404611
2.57036,0.0677565,-0.327287
2.63553,0.32874,0.0154364
2.60153,0.196067,-0.281023
2.53235,-0.0570245,-0.23645
2.6079,0.196547,0.0608564
2.52719,-0.0569084,0.0294287
2.57055,0.0677615,-0.20992
2.57471,0.0678712,0.0449574
2.63414,0.328567,-0.170127
2.60021,0.195967,0.151859
2.56498,0.0676146,0.104536
2.59781,0.195786,-0.121353
2.63339,0.328473,-0.108119
2.61188,0.196847,-0.0609494
2.51898,-0.065521,-0.0293355
2.59008,0.186115,-0.403996
2.59823,0.1867,-0.280594
2.53213,-0.0658632,-0.23645
2.60458,0.187156,0.0607633
2.52298,-0.065625,0.0293821
2.56679,0.0586976,-0.209595
2.57094,0.0587924,0.0448876
2.59689,0.186604,0.151627
2.56121,0.0585699,0.104373
2.59848,0.186718,-0.121353
2.63055,0.318799,-0.107956
2.55444,0.0494938,-0.0743554
2.58996,0.17702,0
2.52273,-0.0744321,-0.0293821
2.59072,0.177072,-0.403996
2.62982,0.309398,0.0153899
2.56747,0.0497464,-0.014925
2.5949,0.177358,-0.280166
2.52791,-0.0745848,-0.236078
2.60522,0.178063,0.0607633
2.52273,-0.0744321,0.0293821
2.56698,0.0497368,-0.209595
2.56713,0.0497397,0.0448178
2.58956,0.176993,0.151161
2.56139,0.0496286,0.104373
2.6031,0.177918,-0.121539
2.55059,0.0409591,-0.074239
2.59053,0.168431,0
2.51847,-0.0826657,-0.0293355
2.58735,0.168224,-0.403381
2.62685,0.300222,0.0153667
2.58754,0.168236,-0.279309
2.52764,-0.0829667,-0.236078
2.59781,0.168904,0.0605772
2.52247,-0.0827969,0.0293821
2.58422,0.168021,-0.181088
2.59013,0.168405,0.151161
2.54956,0.0409424,0.103885
2.58772,0.168248,-0.120795
2.6018,0.169164,-0.0606703
2.51417,-0.0913118,-0.029289
2.58792,0.159191,-0.403381
2.62789,0.29105,0.0153667
2.59605,0.159691,-0.280166
2.60238,0.16008,0.0606703
2.51417,-0.0913118,0.029289
2.59071,0.159362,0.151161
2.54968,0.0320419,0.103885
2.5883,0.159214,-0.120795
2.62575,0.290814,-0.10763
2.60238,0.16008,-0.0606703
2.62053,0.281442,-0.0460045
2.54681,0.0235598,-0.0741227
2.58363,0.150329,0
2.50586,-0.0993312,-0.0291958
2.62486,0.281907,0.0153435
2.59259,0.15085,-0.279738
2.5989,0.151217,0.0605772
2.51386,-0.0996481,0.029289
2.55938,0.023676,-0.208944
2.61953,0.281335,-0.168848
2.52174,-0.0999608,-0.146975
2.58723,0.150539,0.150929
2.54178,0.0235132,0.103559
2.58482,0.150398,-0.120609
2.54688,0.0142244,-0.0741227
2.58416,0.140858,0
2.50149,-0.108343,-0.0291493
2.57713,0.140474,-0.401536
2.55534,0.0142717,-0.325267
2.58916,0.14113,-0.279309
2.59145,0.141255,0.0603911
2.50548,-0.108516,0.0291958
2.55147,0.0142501,-0.208293
2.55557,0.014273,0.0446084
2.58777,0.141054,0.150929
2.54585,0.0142187,0.103722
2.58137,0.140705,-0.120423
2.54292,0.00532622,-0.0740063
2.57665,0.13143,0
2.50509,-0.11726,-0.0291958
2.57365,0.131277,-0.400921
2.55141,0.00534401,-0.324762
2.61487,0.261921,0.0152737
2.55195,0.00534514,-0.014832
2.58169,0.131687,-0.278452
2.50908,-0.117447,0.0292424
2.57436,0.131313,-0.180251
2.55151,0.00534421,-0.208293
2.55561,0.0053528,0.0446084
2.51299,-0.11763,-0.14651
2.58426,0.131818,0.150696
2.53789,0.00531569,0.103397
2.58184,0.131694,-0.120423
2.61275,0.261708,-0.106979
2.53493,-0.00265496,-0.0737736
2.57705,0.123333,0
2.50471,-0.12513,-0.0291958
2.57011,0.123001,-0.400306
2.6117,0.253318,0.0152505
2.57812,0.123385,-0.278024
2.58834,0.123874,0.0602981
2.5087,-0.12533,0.0292424
2.57476,0.123224,-0.180251
2.55151,-0.00267233,-0.208293
2.61064,0.253215,0.0763336
2.61037,0.253189,-0.16808
2.5126,-0.125525,-0.14651
2.58067,0.123507,0.150464
2.5339,-0.00265388,0.103234
2.57426,0.1232,-0.12005
2.60958,0.253112,-0.106816
2.5349,-0.0119453,-0.0737736
2.56949,0.113535,0
2.50024,-0.134095,-0.0291493
2.57449,0.113755,-0.400921
2.54742,-0.0120043,-0.324257
2.61261,0.243744,0.0152505
2.57855,0.113935,-0.278024
2.58877,0.114387,0.0602981
2.50024,-0.134095,0.0291493
2.56722,0.113434,-0.179693
2.61155,0.243645,0.0763336
2.51213,-0.134733,-0.14651
2.57711,0.113871,0.150231
2.53387,-0.0119405,0.103234
2.57869,0.113941,-0.120236
2.58078,0.114033,-0.060112
2.53484,-0.0207932,-0.0737736
2.56588,0.104403,0
2.61345,0.234624,0.0152505
2.54787,-0.0209001,-0.0148088
2.57099,0.104611,-0.277167
2.58516,0.105187,0.060205
2.49177,-0.142365,0.0290561
2.54345,-0.0208638,-0.207642
2.60814,0.234147,-0.167825
2.50765,-0.143272,-0.146278
2.56952,0.104551,0.149766
2.53381,-0.0207848,0.103234
2.57907,0.104939,-0.120236
2.53076,-0.0295952,-0.0736572
2.56623,0.0954448,0
2.49525,-0.151304,-0.0291027
2.5433,-0.029742,-0.323752
2.60229,0.224468,0.0151807
2.57134,0.0956349,-0.277167
2.49525,-0.151304,0.0291027
2.57194,0.0956572,-0.179972
2.60522,0.22472,0.0761008
2.54344,-0.0297436,0.0443989
2.50714,-0.152026,-0.146278
2.57785,0.095877,0.150231
2.53372,-0.02963,0.103234
2.56744,0.0954899,-0.119678
2.58152,0.0960134,-0.060112
2.53464,-0.0380469,-0.0737736
2.56653,0.0869348,0
2.49074,-0.159322,-0.0290561
2.53922,-0.0381157,-0.323247
2.60302,0.215838,0.0151807
2.53967,-0.0381224,-0.0147623
2.56369,0.0868387,-0.27631
2.57782,0.0873174,0.0600189
2.49074,-0.159322,0.0290561
2.56825,0.0869932,-0.179693
2.60197,0.21575,0.0759845
2.59774,0.215399,-0.167057
2.49865,-0.159828,-0.145813
2.56618,0.086923,0.149534
2.52962,-0.0379714,0.103071
2.57573,0.0872465,-0.12005
2.57782,0.0873174,-0.0600189
2.52249,-0.047112,-0.0734245
2.56683,0.077528,0
2.49014,-0.16845,-0.0290561
2.56397,0.0774418,-0.399076
2.59981,0.20598,0.0151575
2.53951,-0.0474299,-0.0147623
2.56399,0.0774423,-0.27631
2.57413,0.0777485,0.0599259
2.49014,-0.16845,0.0290561
2.56457,0.0774596,-0.179414
2.53917,-0.0474235,0.0443291
2.49805,-0.168985,-0.145813
2.56648,0.0775174,0.149534
2.52546,-0.0471675,0.102908
2.56804,0.0775647,-0.119678
2.60168,0.206129,-0.106327
2.52631,-0.0560061,-0.0735409
2.56708,0.068567,0
2.48555,-0.176858,-0.0290096
2.56423,0.0684907,-0.399076
2.56027,0.068385,-0.275882
2.55684,0.0682934,-0.178856
2.59946,0.196823,0.0758681
2.53499,-0.0561986,0.0442593
2.59523,0.196503,-0.166801
2.56274,0.068451,0.149301
2.52129,-0.0558948,0.102745
2.5643,0.0684927,-0.119492
2.5984,0.196743,-0.106165
2.51411,-0.064517,-0.0731918
2.55931,0.0594196,0
2.59719,0.187536,0.0151342
2.52713,-0.064851,-0.0146925
2.56049,0.0594471,-0.275882
2.57061,0.059682,0.0598328
2.55308,0.0592749,-0.178577
2.59614,0.18746,0.0757518
2.59988,0.18773,-0.167057
2.48486,-0.185529,-0.145115
2.56297,0.0595045,0.149301
2.52108,-0.0646958,0.102745
2.56053,0.059448,-0.119306
2.5895,0.177897,-0.0453064
2.52186,-0.0735255,-0.0734245
2.5515,0.0503278,0
2.48026,-0.193894,-0.028963
2.55674,0.0504311,-0.397847
2.56069,0.050509,-0.275882
2.54928,0.0502839,-0.178298
2.5305,-0.0737775,-0.206666
2.53054,-0.0737785,0.0441895
2.58858,0.177833,-0.16629
2.56316,0.0505577,0.149301
2.52084,-0.0734956,0.102745
2.56072,0.0505097,-0.119306
2.5216,-0.0818879,-0.0734245
2.55566,0.0419321,0
2.47562,-0.201793,-0.0289165
2.54899,0.0418227,-0.396617
2.58644,0.169071,0.0150645
2.51463,-0.0816615,-0.0146228
2.55289,0.0418867,-0.275025
2.56696,0.0421176,0.0597397
2.55741,0.0419609,-0.178856
2.58938,0.169263,0.075519
2.52229,-0.0819101,0.0440499
2.58517,0.168988,-0.166034
2.55533,0.0419267,0.148836
2.51259,-0.0815952,0.10242
2.56088,0.0420178,-0.119306
2.56296,0.042052,-0.0596467
2.5827,0.159322,-0.0451668
2.5093,-0.0906962,-0.0730754
2.55579,0.0325649,0
2.47486,-0.210865,-0.0289165
2.58305,0.159343,0.0150412
2.51432,-0.0908775,-0.0146228
2.55302,0.0325296,-0.275025
2.5631,0.032658,0.0596467
2.54957,0.0324855,-0.178298
2.58998,0.159771,0.075519
2.52197,-0.0911542,0.0440499
2.58179,0.159266,-0.165778
2.55147,0.0325098,0.148603
2.55702,0.0325805,-0.11912
2.58494,0.15946,-0.105513
2.58324,0.150306,-0.0451668
2.50897,-0.0994547,-0.0730754
2.54389,0.0235323,0
2.4781,-0.219857,-0.028963
2.58758,0.150558,0.0150645
2.52198,-0.0999704,-0.0146693
2.54914,0.0235809,-0.274597
2.54168,0.0235119,-0.17774
2.59052,0.150729,0.075519
2.51364,-0.0996401,0.0439103
2.58631,0.150484,-0.166034
2.55157,0.0236033,0.148603
2.55712,0.0236546,-0.11912
2.52255,-0.0999933,-0.132305
2.58947,0.150668,-0.105676
2.57975,0.141069,-0.045097
2.5086,-0.108212,-0.0730754
2.54396,0.0146523,0
2.46537,-0.227403,-0.0288233
2.5841,0.141307,0.0150412
2.54921,0.0146826,-0.274597
2.55527,0.0147174,0.0594606
2.53776,0.0146166,-0.17746
2.51728,-0.108586,-0.205689
2.51728,-0.108586,0.0439801
2.57885,0.14102,-0.165522
2.54764,0.0146735,0.148371
2.5452,0.0146595,-0.118561
2.57801,0.140974,-0.105188
2.5842,0.132719,-0.0451668
2.50424,-0.116345,-0.0729591
2.54399,0.00621616,0
2.54925,0.006229,-0.274597
2.5553,0.00624379,0.0594606
2.5169,-0.116933,-0.205689
2.50891,-0.116562,0.0438404
2.5793,0.132467,-0.165522
2.55167,0.00623492,0.148603
2.55322,0.00623872,-0.118934
2.57846,0.132424,-0.105188
2.57666,0.123315,-0.0450272
2.50382,-0.125085,-0.0729591
2.544,-0.00266407,0
2.57301,0.123141,0.0149715
2.50483,-0.125136,-0.0145763
2.5413,-0.00266124,-0.27374
2.54179,-0.00266176,-0.17774
2.57995,0.123473,0.0751699
2.51248,-0.125518,0.0439103
2.57576,0.123272,-0.165266
2.5397,-0.00265956,0.147906
2.54524,-0.00266537,-0.118561
2.57491,0.123232,-0.105025
2.54731,-0.00266754,-0.0592745
2.57308,0.114143,-0.0449574
2.49937,-0.133611,-0.0728427
2.53997,-0.0115261,0
2.56943,0.113981,0.0149482
2.49639,-0.133452,-0.0145298
2.5373,-0.011514,-0.273312
2.54329,-0.0115411,0.0591814
2.54177,-0.0115343,-0.17774
2.57238,0.114112,0.0749372
2.50404,-0.133861,0.0437706
2.57618,0.11428,-0.165266
2.53568,-0.0115066,0.147673
2.53722,-0.0115136,-0.118189
2.51296,-0.134337,-0.131887
2.57932,0.11442,-0.105188
2.57346,0.10516,-0.0449574
2.53192,-0.020328,0
2.56981,0.105011,0.0149482
2.49991,-0.142393,-0.014553
2.52929,-0.0203068,-0.272455
2.56877,0.104969,0.0748209
2.49957,-0.142373,0.0437008
2.57656,0.105287,-0.165266
2.53562,-0.0203577,0.147673
2.53717,-0.0203701,-0.118189
2.50849,-0.142881,-0.131677
2.57971,0.105416,-0.105188
2.54723,-0.0204509,-0.0592745
2.57381,0.0961767,-0.0449574
2.49439,-0.150815,-0.0727263
2.53583,-0.029212,0
2.56617,0.095891,0.014925
2.50339,-0.15136,-0.0145763
2.54113,-0.029273,-0.27374
2.53914,-0.0292501,0.0590884
2.53364,-0.0291868,-0.177181
2.50704,-0.15158,0.0438404
2.57292,0.0961435,-0.16501
2.53554,-0.0292086,0.147673
2.54108,-0.0292724,-0.118375
2.50398,-0.151396,-0.131468
2.57207,0.0961116,-0.104862
2.54314,-0.0292962,-0.0591814
2.56612,0.0873689,-0.0448178
2.48988,-0.158832,-0.07261
2.53572,-0.0376209,0
2.49489,-0.159151,-0.0145298
2.52909,-0.0375226,-0.272455
2.54303,-0.0377294,0.0591814
2.52555,-0.0374701,-0.176623
2.56143,0.0872092,0.0745881
2.49056,-0.158875,0.0435612
2.56525,0.0873391,-0.164499
2.52744,-0.0374981,0.147208
2.53697,-0.0376395,-0.118189
2.56439,0.0873098,-0.104536
2.55843,0.0777202,-0.0446782
2.4853,-0.167687,-0.0724936
2.53557,-0.0469146,0
2.55878,0.0777307,0.0148785
2.49429,-0.168294,-0.0145298
2.53291,-0.0468655,-0.272883
2.53888,-0.0469759,0.0590884
2.52939,-0.0468003,-0.176902
2.56173,0.0778205,0.0745881
2.56555,0.0779365,-0.164499
2.52329,-0.0466875,0.146975
2.53282,-0.0468637,-0.118003
2.56868,0.0780316,-0.104699
2.53088,-0.0468279,-0.0589023
2.55869,0.0687891,-0.0446782
2.53139,-0.0556771,0
2.55503,0.0686909,0.0148553
2.48969,-0.176717,-0.0145065
2.5307,-0.055662,0.0589023
2.52522,-0.0555415,-0.176623
2.56581,0.0689806,-0.164499
2.52865,-0.0556168,-0.117817
2.49828,-0.177326,-0.131259
2.56494,0.0689574,-0.104536
2.52671,-0.0555741,-0.0588092
2.55891,0.0598572,-0.0446782
2.52318,-0.0643091,0
2.55526,0.0597718,0.0148553
2.48906,-0.185406,-0.0145065
2.53252,-0.0645472,-0.272883
2.53449,-0.0645974,0.0589953
2.52102,-0.0642541,-0.176344
2.55422,0.0597475,0.0743554
2.55805,0.0598371,-0.163987
2.52444,-0.0643413,-0.117631
2.56517,0.0600036,-0.104536
2.53049,-0.0644955,-0.0589023
2.5591,0.0509246,-0.0446782
2.4834,-0.193704,-0.0724936
2.52294,-0.0731163,0
2.55145,0.0507723,0.014832
2.4884,-0.194093,-0.0145065
2.53025,-0.0733282,0.0589023
2.5168,-0.0729382,-0.176065
2.55042,0.0507517,0.074239
2.56224,0.0509869,-0.164243
2.5282,-0.0732686,-0.117817
2.493,-0.194452,-0.131049
2.55338,0.0508106,-0.104048
2.53025,-0.0733282,-0.0589023
2.55926,0.042438,-0.0446782
2.47478,-0.20129,-0.0722609
2.51869,-0.0813531,0
2.55161,0.0423111,0.014832
2.48376,-0.20202,-0.0144833
2.53,-0.0817184,0.0589023
2.51255,-0.0811549,-0.175786
2.55441,0.0423576,-0.163731
2.52794,-0.081652,-0.117817
2.49234,-0.202718,-0.131049
2.55753,0.0424093,-0.104211
2.522,-0.0814602,-0.0587162
2.55139,0.0333996,-0.0445385
2.47406,-0.209927,-0.0722609
2.51839,-0.0901445,0
2.54374,0.0332994,0.0147855
2.47905,-0.21035,-0.01446
2.5257,-0.0904062,0.0588092
2.51624,-0.0900676,-0.176065
2.55454,0.0334408,-0.163731
2.52365,-0.0903327,-0.117631
2.48763,-0.211079,-0.13084
2.55366,0.0334293,-0.104048
2.5217,-0.0902631,-0.0587162
2.55149,0.0244933,-0.0445385
2.51806,-0.0989347,0
2.54384,0.0244199,0.0147855
2.51738,-0.0989079,0.0586231
2.51591,-0.0988504,-0.176065
2.54281,0.0244099,0.0740063
2.55065,0.0244852,-0.163475
2.52331,-0.0991413,-0.117631
2.48688,-0.219761,-0.13084
2.55376,0.0245151,-0.104048
2.51738,-0.0989079,-0.0586231
2.54357,0.0155379,-0.0443989
2.5097,-0.107382,0
2.54391,0.01554,0.0147855
2.51302,-0.107524,0.0585301
2.51555,-0.107632,-0.176065
2.54288,0.0155337,0.0740063
2.55471,0.015606,-0.163731
2.51098,-0.107436,-0.117072
2.54984,0.0155762,-0.103885
2.50902,-0.107353,-0.058437
2.5476,0.00666965,-0.0444687
2.46376,-0.235064,-0.0720282
2.50931,-0.116142,0
2.53995,0.00664961,0.0147623
2.51662,-0.11648,0.0586231
2.50719,-0.116043,-0.175507
2.53892,0.00664691,0.07389
2.54277,0.00665701,-0.162964
2.54588,0.00666514,-0.103722
2.50863,-0.11611,-0.058437
2.54361,-0.00221972,-0.0443989
2.50889,-0.1249,0
2.53596,-0.00221304,0.014739
2.51221,-0.125065,0.0585301
2.51075,-0.124993,-0.175786
2.53493,-0.00221214,0.0737736
2.54278,-0.002219,-0.162964
2.51416,-0.125162,-0.117258
2.54189,-0.00221822,-0.103559
2.51221,-0.125065,-0.0585301
2.53959,-0.0110811,-0.0443291
2.50844,-0.133657,0
2.51176,-0.133834,0.0585301
2.5103,-0.133756,-0.175786
2.5349,-0.0110607,0.0737736
2.53478,-0.0110601,-0.162452
2.54586,-0.0111085,-0.103722
2.50377,-0.133408,-0.058344
2.53954,-0.0199459,-0.0443291
2.45719,-0.260429,-0.0719118
2.50397,-0.142186,0
2.4993,-0.14192,0.0582509
2.50982,-0.142518,-0.175786
2.53085,-0.0198777,0.0736572
2.53871,-0.0199394,-0.162708
2.50524,-0.142258,-0.116886
2.54181,-0.0199638,-0.103559
2.4953,-0.141694,-0.0581579
2.53945,-0.0288104,-0.0443291
2.46024,-0.26944,-0.0720282
2.49547,-0.150444,0
2.53179,-0.0287235,0.0147158
2.50532,-0.151038,-0.175507
2.52677,-0.0286665,0.0735409
2.53863,-0.0288011,-0.162708
2.50473,-0.151002,-0.116886
2.53773,-0.0287909,-0.103397
2.49879,-0.150644,-0.0582509
2.53933,-0.0376745,-0.0443291
2.49493,-0.159154,0
2.52768,-0.0375016,0.0146925
2.5008,-0.159528,-0.175228
2.53452,-0.0376031,-0.162452
2.49621,-0.159236,-0.116514
2.52962,-0.0375305,-0.103071
2.49824,-0.159365,-0.0582509
2.5272,-0.0458773,-0.0441197
2.50237,-0.167962,0
2.53039,-0.0459352,-0.162196
2.49966,-0.16778,-0.1167
2.52948,-0.0459188,-0.103071
2.50169,-0.167917,-0.058344
2.52303,-0.0541717,-0.0440499
2.49382,-0.175697,0
2.52338,-0.054179,0.0146693
2.52235,-0.054157,0.0734245
2.52623,-0.0542404,-0.161941
2.49112,-0.175507,-0.116328
2.52932,-0.0543066,-0.103071
2.49314,-0.175649,-0.0581579
2.52283,-0.0629784,-0.0440499
2.49319,-0.184401,0
2.51815,-0.0628615,0.0733081
2.52204,-0.0629586,-0.161685
2.49447,-0.184496,-0.116514
2.52512,-0.0630355,-0.102908
2.4965,-0.184646,-0.0582509
2.53059,-0.0720118,-0.0441895
2.48057,-0.192176,0
2.5218,-0.0717618,-0.161685
2.48983,-0.192894,-0.116328
2.52488,-0.0718494,-0.102908
2.48787,-0.192742,-0.0580648
2.47988,-0.200833,0
2.51068,-0.0802171,0.0145995
2.50966,-0.0801845,0.0730754
2.51755,-0.0804366,-0.161429
2.48914,-0.201583,-0.116328
2.51663,-0.0804072,-0.102582
2.48718,-0.201425,-0.0580648
2.52603,-0.0895351,-0.0441197
2.50936,-0.0889443,0.0730754
2.51326,-0.0890826,-0.161173
2.48046,-0.209598,-0.115956
2.51234,-0.0890498,-0.10242
2.49045,-0.210442,-0.0581579
2.51769,-0.0984803,-0.0439801
2.50902,-0.098141,0.0730754
2.51691,-0.0984496,-0.161429
2.51199,-0.0982574,-0.10242
2.47771,-0.218515,-0.0578787
2.50938,-0.106052,-0.0438404
2.50172,-0.105728,0.014553
2.5047,-0.105854,0.0729591
2.50861,-0.106019,-0.160917
2.475,-0.226114,-0.115769
2.50768,-0.10598,-0.102257
2.46905,-0.22557,-0.0576926
2.50096,-0.115318,-0.0437008
2.5053,-0.115518,0.0145763
2.50028,-0.115286,0.0728427
2.5042,-0.115467,-0.160661
2.50725,-0.115608,-0.102257
2.46816,-0.235049,-0.0576926
2.50853,-0.124443,-0.0438404
2.49689,-0.123866,0.0145298
2.50776,-0.124405,-0.160917
2.49885,-0.123963,-0.101931
2.47131,-0.244056,-0.0577856
2.51212,-0.132534,-0.0439103
2.49939,-0.131862,-0.160406
2.50244,-0.132023,-0.102094
2.46257,-0.251007,-0.0575995
2.49567,-0.140404,-0.043631
2.49202,-0.140198,0.0145065
2.5029,-0.14081,-0.160661
2.49797,-0.140533,-0.101931
2.5031,-0.150465,-0.0437706
2.50234,-0.15042,-0.160661
2.49742,-0.150124,-0.101931
2.49857,-0.158948,-0.0437008
2.48693,-0.158208,0.0144833
2.49383,-0.158647,-0.16015
2.50087,-0.159094,-0.102094
2.49407,-0.16653,-0.043631
2.48642,-0.16602,0.0144833
2.49332,-0.16648,-0.16015
2.49238,-0.166417,-0.101768
2.49743,-0.175951,-0.0437008
2.48181,-0.174851,0.01446
2.48871,-0.175337,-0.159894
2.49175,-0.175551,-0.101768
2.48882,-0.184078,-0.0435612
2.49511,-0.184543,-0.101931
2.47624,-0.191405,-0.0433518
2.4905,-0.192508,-0.101768
2.47954,-0.20037,-0.0434216
2.48981,-0.2012,-0.101768
2.48277,-0.209793,-0.0434914
2.47711,-0.209315,-0.10128
2.4821,-0.217592,-0.0434914
2.47246,-0.216747,-0.101117
2.47961,-0.226535,-0.101443
2.47252,-0.234593,-0.0433518
2.70995,0.542978,-0.032176
2.70015,0.530727,-0.0320363
2.6902,0.519026,-0.0318966
2.69584,0.510846,-0.0319431
2.69367,0.500702,-0.0318966
2.69323,0.500619,-0.159533
2.68762,0.489393,-0.0318034
2.69504,0.490745,-0.159533
2.68538,0.479305,-0.0317569
2.68538,0.479305,0.0317569
2.69674,0.481334,-0.159533
2.68301,0.469709,-0.0317103
2.67907,0.469019,0.0316637
2.67865,0.468946,-0.158371
2.67289,0.457846,-0.0315706
2.67683,0.458522,0.0316172
2.68035,0.459126,-0.158371
2.68236,0.449836,-0.0316637
2.67052,0.447851,0.0315241
2.678,0.449105,-0.158138
2.66797,0.438811,0.0314775
2.68334,0.441339,-0.158371
2.67785,0.43036,-0.25318
2.66956,0.429029,0.0314775
2.67705,0.430233,-0.157906
2.66709,0.419087,-0.0314309
2.67104,0.419708,0.0314775
2.66671,0.419026,-0.157208
2.66847,0.41024,-0.0314309
2.67284,0.410912,-0.252436
2.67242,0.410847,0.0314775
2.66413,0.409574,-0.156975
2.65809,0.398677,-0.0312912
2.65809,0.398677,0.0312912
2.66562,0.399807,-0.156975
2.65155,0.388237,-0.0311981
2.65155,0.388237,0.0311981
2.66305,0.38992,-0.156743
2.66517,0.381208,-0.251321
2.65678,0.380007,0.0312447
2.66432,0.381087,-0.156743
2.70613,0.523077,-0.144447
2.68702,0.509176,-0.0795917
2.65419,0.369716,-0.0311981
2.68812,0.509383,-0.0159014
2.65815,0.370268,0.0312447
2.65779,0.370218,-0.156278
2.70803,0.513155,-0.144447
2.64358,0.358834,-0.0310584
2.65547,0.360448,0.0311981
2.65511,0.3604,-0.156045
2.6865,0.490158,-0.0794753
2.64475,0.350068,-0.0310584
2.68759,0.490357,-0.0158782
2.65268,0.351117,0.0311515
2.65233,0.351071,-0.155813
2.69967,0.492561,-0.143819
2.68425,0.480072,-0.079359
2.63802,0.339811,-0.0309653
2.68534,0.480267,-0.0158549
2.64596,0.340833,0.0310584
2.64958,0.3413,-0.15558
2.68957,0.481024,-0.143191
2.68198,0.470009,-0.0792426
2.63523,0.330103,-0.0309187
2.68307,0.4702,-0.0158317
2.64713,0.331594,0.0310584
2.6468,0.331552,-0.155347
2.67966,0.459968,-0.0791263
2.64033,0.321386,-0.0309653
2.68075,0.460155,-0.0158084
2.64827,0.322352,0.0310584
2.68827,0.461446,0.0476102
2.64397,0.321829,-0.155115
2.69287,0.462235,-0.143191
2.66934,0.44909,-0.0787772
2.63344,0.311689,-0.0308722
2.67831,0.4506,-0.0157852
2.64535,0.313099,0.0310118
2.6819,0.451202,0.0474705
2.63313,0.311652,-0.154417
2.66702,0.438655,-0.0786608
2.63456,0.302035,-0.0308722
2.67205,0.439483,-0.0157387
2.63854,0.302491,0.0309187
2.67958,0.440721,0.0474007
2.63425,0.301999,-0.154417
2.68026,0.440832,-0.142354
2.66459,0.428707,-0.0785444
2.62765,0.291953,-0.030779
2.66962,0.429517,-0.0157154
2.6356,0.292836,0.0308722
2.6805,0.431266,-0.221637
2.68111,0.431364,0.0474007
2.63132,0.292361,-0.154185
2.666,0.419868,-0.0785444
2.62463,0.282808,-0.0307325
2.67103,0.420661,-0.0157154
2.63656,0.284094,0.0308722
2.67797,0.421754,-0.221311
2.67462,0.421226,0.0472611
2.62831,0.283205,-0.153952
2.67925,0.421956,-0.142144
2.6635,0.409951,-0.0784281
2.62162,0.273231,-0.0306859
2.66062,0.40951,-0.0156457
2.6256,0.273646,0.0307325
2.67549,0.411798,-0.220986
2.66422,0.410062,0.0470517
2.62531,0.273615,-0.15372
2.67676,0.411994,-0.141935
2.66096,0.400058,-0.0783117
2.62654,0.264479,-0.0307325
2.65808,0.399626,-0.0156224
2.62723,0.264549,-0.246488
2.62654,0.264479,0.0307325
2.66959,0.401355,0.0471215
2.62227,0.26405,-0.153487
2.65988,0.399895,0.109584
2.70398,0.532951,0
2.62347,0.254922,-0.0306859
2.66342,0.390925,-0.0156457
2.63143,0.255696,0.030779
2.67041,0.391951,-0.220335
2.67097,0.392034,0.0471215
2.6192,0.254508,-0.153254
2.6573,0.390027,0.109421
2.70105,0.532373,-0.12824
2.66377,0.390976,-0.141098
2.69932,0.532033,-0.0640202
2.64785,0.379204,-0.0778463
2.61637,0.245017,-0.0305928
2.66477,0.381626,-0.0156457
2.62832,0.246136,0.0307325
2.66387,0.381498,-0.219684
2.66836,0.382141,0.0470517
2.6161,0.244992,-0.153022
2.65865,0.38075,0.109421
2.69897,0.522183,-0.128054
2.66116,0.38111,-0.140888
2.70116,0.522608,-0.0640202
2.61323,0.235523,-0.0305462
2.65816,0.371215,-0.0155992
2.6212,0.236241,0.0306393
2.66124,0.371644,-0.219359
2.6578,0.371165,0.0468423
2.60899,0.235141,-0.152557
2.656,0.370913,0.109258
2.69685,0.512013,-0.127868
2.66247,0.371817,-0.140888
2.69511,0.511684,-0.0638341
2.64647,0.360169,-0.0777299
2.69761,0.502408,0
2.61802,0.226745,-0.0305928
2.65151,0.360854,-0.0155527
2.61802,0.226745,0.0305928
2.65857,0.361814,-0.219033
2.65512,0.361345,0.0467725
2.60979,0.226032,-0.152557
2.64936,0.360561,0.108933
2.69076,0.501132,-0.127495
2.69295,0.50154,-0.063741
2.63979,0.34988,-0.0774972
2.68755,0.490834,0
2.61082,0.216944,-0.0304996
2.64483,0.350547,-0.0155062
2.6188,0.217606,0.0305928
2.64843,0.351025,0.0466328
2.61056,0.216922,-0.152557
2.64664,0.350788,0.10877
2.68464,0.490303,-0.127123
2.68682,0.490701,-0.0635549
2.63703,0.340151,-0.0773808
2.68137,0.48004,0
2.60758,0.207511,-0.0304531
2.64603,0.341312,-0.0155062
2.61555,0.208146,0.0305462
2.64964,0.341778,0.0466328
2.60733,0.207491,-0.152324
2.64388,0.341035,0.108607
2.68633,0.480928,-0.127123
2.65434,0.342383,-0.14026
2.68458,0.480614,-0.0634618
2.67909,0.469986,0
2.60031,0.197802,-0.0303599
2.64181,0.331398,-0.338904
2.64721,0.332074,-0.0155062
2.61306,0.198771,-0.244629
2.61228,0.198712,0.0304996
2.68042,0.47022,-0.190296
2.65082,0.332527,0.0466328
2.60405,0.198086,-0.152092
2.64109,0.331307,0.108444
2.68406,0.470858,-0.126937
2.64759,0.332122,-0.139842
2.67836,0.469859,-0.0632757
2.67677,0.459954,0
2.60099,0.188723,-0.0303599
2.63901,0.321693,-0.338399
2.64835,0.322831,-0.0155062
2.60976,0.18936,-0.244257
2.60497,0.189012,0.0304065
2.67418,0.459509,-0.189738
2.64005,0.32182,0.0464234
2.59676,0.188416,-0.151627
2.6462,0.322569,0.108607
2.68175,0.460809,-0.126751
2.64873,0.322878,-0.139842
2.68393,0.461183,-0.0633688
2.62848,0.311567,-0.0770317
2.68617,0.452404,0
2.59761,0.179821,-0.0303134
2.64007,0.312941,-0.338399
2.63749,0.312635,-0.0154364
2.67176,0.449976,-0.189459
2.64463,0.313481,-0.217406
2.63713,0.312593,0.0463536
2.59339,0.179529,-0.151394
2.64329,0.313322,0.108444
2.6872,0.452577,-0.126937
2.64582,0.313623,-0.139632
2.68544,0.452281,-0.0633688
2.67976,0.44219,0
2.59819,0.171205,-0.0303134
2.64109,0.304183,-0.338399
2.63454,0.303429,-0.0154132
2.60301,0.171523,-0.243513
2.68298,0.442722,0.0632757
2.63418,0.303388,0.0462838
2.59397,0.170927,-0.151394
2.64034,0.304097,0.108281
2.67292,0.441061,-0.126192
2.64288,0.304389,-0.139423
2.67115,0.440769,-0.0629966
2.67347,0.431093,0
2.59082,0.161185,-0.0302203
2.6343,0.293623,-0.337389
2.63563,0.293771,-0.0154132
2.59965,0.161735,-0.243142
2.68064,0.432249,0.0631827
2.59481,0.161433,0.0302668
2.66695,0.430042,-0.188901
2.63528,0.293732,0.0462838
2.59458,0.161419,-0.151394
2.62952,0.29309,0.107793
2.67452,0.431262,-0.126192
2.64001,0.294259,-0.139214
2.68459,0.432886,-0.0632757
2.62365,0.283166,-0.076799
2.671,0.421134,0
2.59535,0.152374,-0.0302668
2.63136,0.283999,-0.336884
2.62869,0.28371,-0.0153667
2.67423,0.421643,0.0629966
2.59535,0.152374,0.0302668
2.6645,0.420108,-0.188622
2.63231,0.284101,0.046214
2.59114,0.152127,-0.151161
2.6345,0.284338,0.107956
2.676,0.421923,-0.126192
2.63307,0.284184,-0.138795
2.67423,0.421643,-0.0629966
2.66448,0.411054,0
2.58786,0.143324,-0.0301737
2.6244,0.274445,-0.335873
2.62962,0.274991,-0.0153667
2.67561,0.412772,0.0629966
2.59185,0.143545,0.0302203
2.66193,0.410661,-0.188342
2.63284,0.275328,-0.216104
2.62926,0.274954,0.0461442
2.59163,0.143533,-0.151161
2.62748,0.274768,0.10763
2.66949,0.411827,-0.12582
2.63003,0.275034,-0.138586
2.67561,0.412772,-0.0629966
2.61358,0.264096,-0.0764499
2.65799,0.40056,0
2.62534,0.265285,-0.335873
2.6226,0.265008,-0.0153202
2.59322,0.134545,-0.242398
2.66913,0.40224,0.0628105
2.59234,0.134499,0.0302203
2.65546,0.400179,-0.187784
2.62225,0.264972,0.0460045
2.58813,0.13428,-0.150929
2.6324,0.265998,0.107793
2.67091,0.402508,-0.12582
2.63097,0.265854,-0.138586
2.66913,0.40224,-0.0628105
2.69563,0.531795,-0.0479592
2.66339,0.391398,0
2.6184,0.254892,-0.334863
2.61957,0.255007,-0.015297
2.58972,0.124848,-0.242026
2.67059,0.392455,0.0628105
2.65296,0.389864,-0.187505
2.6268,0.255711,-0.215453
2.62718,0.255747,0.0460744
2.58461,0.124602,-0.150696
2.6254,0.255574,0.107467
2.66842,0.392136,-0.125634
2.62795,0.255823,-0.138376
2.6938,0.531435,-0.111864
2.66267,0.391292,-0.0626244
2.69747,0.522381,-0.0479592
2.65683,0.380962,0
2.58524,0.115588,-0.0301271
2.61532,0.245379,-0.334358
2.61646,0.245487,-0.0152737
2.58218,0.115451,-0.241283
2.65611,0.380859,0.0624383
2.58125,0.115409,0.0300806
2.62768,0.246539,-0.215453
2.62009,0.245827,0.0459347
2.69235,0.521391,-0.175755
2.58503,0.115578,-0.150696
2.62628,0.246407,0.107467
2.66186,0.381684,-0.125262
2.65611,0.380859,-0.0624383
2.69525,0.512685,-0.0478894
2.65411,0.371594,0
2.58161,0.106848,-0.0300806
2.61612,0.236705,-0.334358
2.62125,0.237169,-0.015297
2.65736,0.372048,0.0624383
2.58561,0.107013,0.0301271
2.64765,0.370689,-0.186947
2.62054,0.237105,-0.214802
2.62488,0.237497,0.0460045
2.58141,0.106839,-0.150464
2.6231,0.237336,0.107304
2.6177,0.236848,-0.137748
2.6895,0.511591,-0.111538
2.66528,0.373157,-0.0626244
2.68523,0.501072,-0.04768
2.65539,0.362327,0
2.57798,0.0976835,-0.030034
2.61298,0.227227,-0.333853
2.62206,0.228017,-0.015297
2.65864,0.362769,0.0624383
2.64497,0.360905,-0.186668
2.61738,0.22761,-0.214477
2.61772,0.227639,0.0458649
2.68407,0.500855,-0.174988
2.58177,0.0978273,-0.150464
2.65486,0.362254,0.156045
2.61595,0.227485,0.106979
2.66044,0.363015,-0.125076
2.61851,0.227708,-0.137748
2.65468,0.362229,-0.0623452
2.65664,0.353056,0
2.5743,0.0885471,-0.0299874
2.6098,0.217775,-0.333348
2.61885,0.21853,-0.0152737
2.65319,0.352597,-0.288305
2.57925,0.0887175,-0.240911
2.65196,0.352434,0.0622522
2.5783,0.0886846,0.030034
2.64622,0.351671,-0.186668
2.61816,0.218473,-0.214477
2.6185,0.218501,0.0458649
2.57411,0.0885406,-0.149999
2.64819,0.351933,0.15558
2.62071,0.218685,0.107142
2.61531,0.218235,-0.137539
2.68515,0.491364,-0.111212
2.65196,0.352434,-0.0622522
2.68464,0.482077,-0.0476102
2.6459,0.342704,0
2.60655,0.208803,-0.332843
2.61159,0.209207,-0.0152272
2.64646,0.342776,-0.287448
2.57555,0.0800407,-0.240539
2.64915,0.343125,0.0621591
2.57858,0.0801347,0.030034
2.64341,0.342381,-0.186389
2.61522,0.209498,0.0457951
2.57439,0.0800046,-0.149999
2.60947,0.209037,0.106653
2.647,0.342846,-0.124331
2.61602,0.209561,-0.137539
2.599,0.208198,0.212849
2.67889,0.481045,-0.110887
2.64518,0.342611,-0.0620661
2.67843,0.471316,-0.0474705
2.5953,0.198786,-0.0757518
2.64311,0.332965,0
2.57085,0.0709121,-0.0299409
2.60726,0.199702,-0.332843
2.60832,0.199783,-0.015204
2.65158,0.334032,-0.287877
2.57184,0.0709393,-0.240167
2.64239,0.332875,0.061973
2.57485,0.0710224,0.0299874
2.63667,0.332154,-0.185831
2.60369,0.199428,-0.213175
2.67771,0.471188,0.0791263
2.68122,0.471806,-0.174476
2.57466,0.0710171,-0.149999
2.63468,0.331903,0.15465
2.60221,0.199316,0.106327
2.65214,0.334103,-0.124517
2.60877,0.199818,-0.13712
2.59971,0.199124,0.212849
2.68843,0.473075,-0.111212
2.64239,0.332875,-0.061973
2.68022,0.461029,-0.0474705
2.59205,0.18853,-0.0756354
2.6404,0.32233,0
2.5711,0.0610408,-0.0299409
2.6001,0.189115,-0.331833
2.60906,0.189767,-0.015204
2.6489,0.323367,-0.287448
2.64762,0.323212,0.0620661
2.5631,0.0608509,0.0298477
2.63397,0.321544,-0.185552
2.60046,0.189141,-0.212849
2.60871,0.189741,0.0456555
2.67514,0.460155,-0.173965
2.63197,0.321301,0.154417
2.59897,0.189033,0.106165
2.64547,0.322949,-0.124145
2.60155,0.18922,-0.136702
2.67841,0.460717,-0.110724
2.64365,0.322727,-0.061973
2.67772,0.45194,-0.0474007
2.58864,0.180107,-0.075519
2.63345,0.313088,0
2.56728,0.0528801,-0.0298943
2.59672,0.180669,-0.331328
2.60167,0.181013,-0.0151575
2.64595,0.314574,-0.28702
2.64465,0.314419,0.061973
2.56728,0.0528801,0.0298943
2.631,0.312796,-0.185273
2.6053,0.181266,0.0455857
2.63693,0.313501,0.15465
2.59557,0.180589,0.106002
2.6425,0.314164,-0.123959
2.64068,0.313947,-0.06188
2.66744,0.440635,-0.0471913
2.58527,0.170807,-0.0754027
2.63453,0.303894,0
2.59338,0.171343,-0.330823
2.59829,0.171668,-0.0151342
2.64308,0.30488,-0.286592
2.64176,0.304728,0.06188
2.56345,0.0438504,0.0298477
2.63208,0.303611,-0.185273
2.60165,0.17189,-0.212849
2.60592,0.172172,0.0455857
2.67026,0.441101,-0.173453
2.63007,0.30338,0.154185
2.59618,0.171528,0.106002
2.63962,0.304481,-0.123773
2.60275,0.171962,-0.136702
2.66958,0.440989,-0.110235
2.63779,0.30427,-0.0617869
2.66509,0.430218,-0.0471215
2.58188,0.161081,-0.0752863
2.63563,0.294235,0
2.5596,0.0344002,-0.0298012
2.59795,0.162083,-0.331328
2.66545,0.430276,0.0156922
2.6029,0.162392,-0.0151575
2.64023,0.294749,-0.286163
2.56064,0.0344141,-0.239052
2.63889,0.294599,0.0617869
2.5596,0.0344002,0.0298012
2.62524,0.293076,-0.184715
2.66437,0.430101,0.0785444
2.66792,0.430675,-0.173197
2.55943,0.034398,-0.149068
2.5928,0.161762,0.105839
2.63277,0.293917,-0.123401
2.66328,0.429927,-0.10991
2.63889,0.294599,-0.0617869
2.62078,0.282857,0
2.5906,0.152095,-0.330318
2.66306,0.419881,0.0156689
2.59549,0.152382,-0.015111
2.63734,0.284644,-0.285735
2.55676,0.0249903,-0.23868
2.63597,0.284497,0.0616939
2.54771,0.0249018,0.0296615
2.61836,0.282596,-0.184157
2.66554,0.420272,-0.172941
2.55954,0.0250175,-0.149068
2.62032,0.282807,0.153487
2.5854,0.15179,0.105513
2.63383,0.284266,-0.123401
2.66484,0.420163,-0.10991
2.63995,0.284926,-0.0617869
2.6681,0.411136,-0.0471215
2.57898,0.142381,-0.0751699
2.62573,0.274122,0
2.55178,0.016033,-0.029708
2.59508,0.14327,-0.330823
2.66055,0.409973,0.0156457
2.55683,0.0160647,-0.23868
2.629,0.274463,0.0615077
2.55178,0.016033,0.029708
2.59142,0.143068,-0.211873
2.6591,0.409749,-0.17243
2.62129,0.273658,0.153487
2.5899,0.142984,0.105676
2.62289,0.273825,-0.122842
2.59648,0.143347,-0.136283
2.63297,0.274878,-0.0616008
