2.31147,0.0415576,-0.0269142
2.2996,0.0333144,-0.0267745
2.2916,0.0331985,0.0266814
2.3037,0.0253326,-0.0268211
2.29171,0.0252007,0.0266814
2.29978,0.0172604,-0.0267745
2.28378,0.0171404,0.0265882
2.29582,0.00961661,-0.0267279
2.27983,0.00954959,0.0265417
2.28784,0.00159753,-0.0266348
2.27585,0.00158915,0.0264951
2.29184,-0.00639926,-0.0266814
2.27984,-0.00636576,0.0265417
2.2878,-0.0143747,-0.0266348
2.2678,-0.014249,0.026402
2.28374,-0.0223209,-0.0265882
2.27574,-0.0222427,0.0264951
2.27565,-0.030187,-0.0264951
2.26365,-0.0300279,0.0263554
2.26353,-0.0379288,-0.0263554
2.31477,0.0743627,-0.0134604
2.26738,-0.0459114,-0.026402
2.25139,-0.0455875,0.0262157
2.26321,-0.0537303,-0.0263554
2.31123,0.0581002,-0.0134371
2.25121,-0.0534455,0.0262157
2.26353,-0.0537378,-0.131859
2.255,-0.0618064,-0.0262623
2.30743,0.0495423,-0.0134139
2.247,-0.0615872,0.0261692
2.25533,-0.0618155,-0.131394
2.25478,-0.0692835,-0.0262623
2.31158,0.0419634,-0.0134371
2.24279,-0.068915,0.0261226
2.25511,-0.0692936,-0.131394
2.24653,-0.0768797,-0.0261692
2.30371,0.0337774,-0.0133907
2.24653,-0.0768797,0.0261692
2.25885,-0.0773011,-0.131627
2.24627,-0.0843286,-0.0261692
2.29981,0.0260929,-0.0133674
2.24227,-0.0841785,0.0261226
2.25459,-0.084641,-0.131394
2.23796,-0.0918416,-0.026076
2.29589,0.0180329,-0.0133442
2.23796,-0.0918416,0.026076
2.28758,0.0179676,0.0399311
2.25029,-0.0923474,-0.131162
2.28301,0.00996157,-0.0664428
2.23363,-0.0994756,-0.0260295
2.28394,0.00996562,-0.0132744
2.23763,-0.0996535,0.026076
2.28763,0.00998172,0.0399311
2.23799,-0.0996694,-0.130464
2.28303,0.00199279,-0.0664428
2.24126,-0.107655,-0.0261226
2.28796,0.0019971,-0.0132977
2.23727,-0.107463,0.026076
2.27965,0.00198984,0.0397915
2.23762,-0.10748,-0.130464
2.27903,-0.00596663,-0.0663264
2.22889,-0.114861,-0.0259829
2.28395,-0.00597953,-0.0132744
2.2249,-0.114655,0.0259363
2.28364,-0.00597872,0.0398613
2.23325,-0.115086,-0.130231
2.28299,-0.0139458,-0.0664428
2.22448,-0.12242,-0.0259363
2.28392,-0.0139515,-0.0132744
2.22448,-0.12242,0.0259363
2.27561,-0.0139008,0.0397217
2.27683,-0.0139082,-0.119326
2.27093,-0.0218003,-0.0660937
2.22404,-0.130185,-0.0259363
2.27986,-0.021886,-0.0132512
2.22404,-0.130185,0.0259363
2.26755,-0.0217679,0.0395821
2.23239,-0.130674,-0.130231
2.26685,-0.0296744,-0.0659773
2.22357,-0.137947,-0.0259363
2.27177,-0.0297388,-0.0132047
2.21958,-0.1377,0.0258898
2.26346,-0.0296301,0.0395123
2.28067,-0.0298555,-0.119535
2.26673,-0.0375865,-0.0659773
2.21909,-0.145446,-0.0258898
2.26765,-0.0376018,-0.0131814
2.21909,-0.145446,0.0258898
2.26734,-0.0375967,0.0395821
2.21548,-0.14521,-0.129301
2.25382,-0.0373725,0.0918356
2.27656,-0.0377496,-0.119326
2.26658,-0.0454993,-0.0659773
2.21059,-0.152641,-0.0257966
2.26751,-0.0455178,-0.0131814
2.21458,-0.152916,0.0258432
2.2672,-0.0455116,0.0395821
2.21496,-0.152943,-0.129301
2.26444,-0.0454562,-0.118698
2.30326,0.0583023,0
2.21004,-0.160356,-0.0257966
2.26733,-0.0534321,-0.0131814
2.21403,-0.160645,0.0258432
2.25503,-0.0531422,0.0393726
2.21442,-0.160673,-0.129301
2.24551,-0.0529179,0.09151
2.26426,-0.0533598,-0.118698
2.30745,0.0503488,0
2.20947,-0.16807,-0.0257966
2.25914,-0.0611304,-0.0131349
2.20947,-0.16807,0.0257966
2.25483,-0.0610139,0.0393726
2.20986,-0.1681,-0.129069
2.24931,-0.0608645,0.0916728
2.26007,-0.0611557,-0.118489
2.246,-0.0686215,-0.0653955
2.29561,0.042074,0
2.20488,-0.175464,-0.0257501
2.25091,-0.0687716,-0.0130884
2.20488,-0.175464,0.0257501
2.25061,-0.0687623,0.0393028
2.20528,-0.175496,-0.128836
2.24109,-0.0684716,0.0913472
2.25984,-0.0690444,-0.118489
2.24575,-0.0764611,-0.0653955
2.20027,-0.182828,-0.0257035
2.24666,-0.0764922,-0.0130652
2.29113,0.0339921,0.0533191
2.24236,-0.0763458,0.0391632
2.19669,-0.182531,-0.128371
2.23285,-0.0760221,0.0910215
2.2516,-0.0766605,-0.11807
2.24547,-0.0842998,-0.0653955
2.28785,0.025956,0
2.25038,-0.0844841,-0.0130884
2.19165,-0.189817,0.0256104
2.24608,-0.0843226,0.039233
2.19604,-0.190198,-0.128371
2.22858,-0.0836658,0.0908587
2.25132,-0.0845196,-0.11807
2.29523,0.0260397,-0.0534122
2.24516,-0.0921374,-0.0653955
2.28793,0.0179697,0
2.19495,-0.197825,0.0256569
2.2546,-0.0925247,-0.184209
2.24177,-0.0919984,0.0391632
2.22827,-0.0914445,0.0908587
2.25101,-0.0923777,-0.11807
2.29531,0.0180277,-0.0534122
2.24482,-0.0999739,-0.0653955
2.28798,0.00998325,0
2.19425,-0.205486,-0.0256569
2.24174,-0.0998366,-0.0130419
2.29536,0.0100154,0.0534122
2.25028,-0.100217,-0.183884
2.23744,-0.0996451,0.0390934
2.19466,-0.205525,-0.128371
2.22395,-0.0990443,0.0906958
2.24669,-0.100057,-0.117861
2.22638,-0.0991525,0.181931
2.29136,0.009998,-0.0533191
2.23647,-0.107426,-0.0651628
2.284,0.00199317,0
2.23738,-0.107469,-0.0130187
2.28338,0.00199263,0.053133
2.24195,-0.107689,-0.183233
2.23708,-0.107455,0.0390934
2.19393,-0.213184,-0.128371
2.22359,-0.106807,0.0906958
2.22602,-0.106923,0.181931
2.27938,0.00198914,-0.05304
2.22411,-0.114614,-0.0648137
2.27199,-0.00594807,0
2.233,-0.115073,-0.0129954
2.18738,-0.220258,-0.205221
2.28337,-0.00597787,0.053133
2.2327,-0.115057,0.0390236
2.18523,-0.220041,-0.127906
2.21921,-0.114362,0.090533
2.23796,-0.115328,-0.117442
2.21767,-0.114283,0.18128
2.27938,-0.0059674,-0.05304
2.22773,-0.121819,-0.0649301
2.26796,-0.0130627,0
2.22863,-0.121869,-0.0129722
2.27935,-0.0131282,0.05304
2.2372,-0.122338,-0.182907
2.22833,-0.121852,0.0389538
2.18453,-0.226905,-0.127906
2.21485,-0.121115,0.0903702
2.2296,-0.121922,-0.117023
2.2173,-0.121249,0.18128
2.27935,-0.0131282,-0.05304
2.23128,-0.129827,-0.0650464
2.2679,-0.0209792,0
2.17932,-0.234056,-0.0255173
2.23278,-0.129914,-0.182582
2.22789,-0.12963,0.0389538
2.2184,-0.129078,0.090533
2.23315,-0.129936,-0.117233
2.2089,-0.128525,0.180629
2.27529,-0.0210476,-0.0529469
2.22682,-0.137369,-0.0649301
2.26782,-0.0288956,0
2.17451,-0.241221,-0.0254707
2.2672,-0.0288878,0.0527608
2.22834,-0.137462,-0.182256
2.21944,-0.136913,0.0388142
2.21395,-0.136575,0.0903702
2.27735,-0.029017,-0.106091
2.22471,-0.137238,-0.116814
2.20844,-0.136235,0.180629
2.2752,-0.0289897,-0.0529469
2.22234,-0.144881,-0.0648137
2.2717,-0.0368765,0
2.16968,-0.248355,-0.0254241
2.31073,0.0754436,0.0134371
2.21925,-0.144679,-0.0129257
2.22784,-0.14524,-0.182256
2.21496,-0.1444,0.0387443
2.17013,-0.248406,-0.127208
2.20947,-0.144042,0.0902073
2.27324,-0.0369014,-0.105905
2.21625,-0.144484,-0.116395
2.20795,-0.143943,0.180629
2.26309,-0.0367367,-0.0526678
2.20983,-0.152201,-0.0644646
2.26355,-0.0450433,0
2.21472,-0.152538,-0.0129024
2.21442,-0.152517,0.0387443
2.20893,-0.152139,0.0902073
2.26909,-0.0451535,-0.105719
2.2157,-0.152606,-0.116395
2.20741,-0.152034,0.180629
2.26294,-0.0450311,-0.0526678
2.20928,-0.159914,-0.0644646
2.25938,-0.0528507,0
2.15991,-0.262908,-0.025331
2.22023,-0.160706,-0.283346
2.31121,0.0589066,0.0134371
2.21018,-0.159979,-0.0128792
2.26677,-0.0530235,0.0527608
2.16388,-0.263391,0.0253776
2.21482,-0.160314,-0.18128
2.21387,-0.160246,0.0387443
2.1683,-0.263929,-0.127208
2.25157,-0.052668,0.131162
2.20041,-0.159272,0.0898817
2.26093,-0.0528869,-0.105346
2.20719,-0.159762,-0.115976
2.19891,-0.159163,0.179978
2.25078,-0.0526494,-0.0523886
2.20874,-0.167239,-0.0644646
2.25919,-0.0603428,0
2.2994,0.050976,0.0133674
2.20964,-0.167307,-0.0128792
2.16563,-0.270896,-0.203733
2.21427,-0.167658,-0.18128
2.20535,-0.166982,0.0386047
2.25537,-0.0602407,0.131394
2.19589,-0.166266,0.0897188
2.26074,-0.0603841,-0.105346
2.20665,-0.167081,-0.115976
2.19042,-0.165852,0.179327
2.25059,-0.0601129,-0.0523886
2.25097,-0.067987,0
2.15807,-0.277604,-0.025331
2.21513,-0.175502,-0.282841
2.29556,0.0428746,0.0133442
2.20904,-0.175019,-0.0128792
2.25746,-0.0681828,-0.157929
2.21368,-0.175386,-0.18128
2.20077,-0.174364,0.0385349
2.15853,-0.277663,-0.126743
2.24317,-0.0677514,0.130697
2.19928,-0.174246,0.0898817
2.26052,-0.0682753,-0.105346
2.21003,-0.175098,-0.116186
2.18983,-0.173497,0.179327
2.25036,-0.0679686,-0.0523886
2.29139,0.034396,-0.0400009
2.2035,-0.18271,-0.0643483
2.25471,-0.0763722,0
2.21052,-0.183291,-0.282336
2.2917,0.0344007,0.0133209
2.2044,-0.182784,-0.012856
2.15969,-0.285863,-0.203362
2.2501,-0.0762161,0.0523886
2.25719,-0.0764563,-0.157929
2.20905,-0.183169,-0.180955
2.19613,-0.182098,0.0384651
2.1575,-0.285572,-0.126743
2.24291,-0.0759726,0.130697
2.19464,-0.181975,0.0897188
2.25626,-0.0764247,-0.10516
2.20141,-0.182537,-0.115767
2.18918,-0.181522,0.179327
2.23811,-0.07581,-0.0521094
2.2995,0.0264895,-0.0401405
2.20285,-0.1904,-0.0643483
2.23844,-0.0836446,0
2.29181,0.0264009,0.0133209
2.19976,-0.190133,-0.0128327
2.15079,-0.292327,-0.202618
2.24982,-0.08407,0.0523886
2.24893,-0.0840369,-0.157371
2.20045,-0.190193,-0.180304
2.19548,-0.189763,0.0384651
2.15253,-0.292564,-0.126511
2.23066,-0.083354,0.129999
2.19001,-0.18929,0.089556
2.244,-0.0838525,-0.104602
2.18853,-0.189163,0.179327
2.23783,-0.083622,-0.0521094
2.29158,0.0183984,-0.0400009
2.19421,-0.197372,-0.0641155
2.24213,-0.0916211,0
2.14707,-0.299459,-0.0252379
2.28389,0.0183366,0.0132744
2.24464,-0.0917237,-0.157092
2.19977,-0.197872,-0.180304
2.1948,-0.197426,0.0384651
2.23036,-0.09114,0.129999
2.18934,-0.196934,0.089556
2.24769,-0.0918481,-0.104788
2.19611,-0.197543,-0.115558
2.18786,-0.196801,0.179327
2.23753,-0.091433,-0.0521094
2.29562,0.0108179,-0.0400707
2.18558,-0.203904,-0.0638828
2.24181,-0.0990557,0
2.19666,-0.204938,-0.280821
2.27994,0.010744,0.0132512
2.24034,-0.0989906,-0.156813
2.19116,-0.204425,-0.179653
2.19015,-0.204331,0.0383953
2.14653,-0.306644,-0.126278
2.23004,-0.0985356,0.129999
2.18071,-0.20345,0.0892304
2.24737,-0.0993012,-0.104788
2.19544,-0.204824,-0.115558
2.17926,-0.203314,0.178676
2.23721,-0.0988524,-0.0521094
2.28765,0.00239562,-0.0399311
2.1888,-0.2123,-0.0639992
2.23344,-0.106889,0
2.18969,-0.212386,-0.0127862
2.1904,-0.212455,-0.179653
2.18143,-0.211585,0.0382557
2.14144,-0.31393,-0.126045
2.22967,-0.106708,0.129999
2.1907,-0.212484,-0.115348
2.1785,-0.2113,0.178676
2.22885,-0.106669,-0.0519233
2.27965,-0.0047745,-0.0397915
2.18414,-0.218776,-0.0638828
2.2331,-0.113905,0
2.19521,-0.219885,-0.280821
2.27196,-0.00475839,0.0132047
2.14267,-0.320989,-0.202246
2.23649,-0.114078,0.0521094
2.18075,-0.218437,0.0382557
2.1365,-0.320064,-0.125813
2.22134,-0.113306,0.129534
2.1753,-0.217891,0.0890675
2.23866,-0.114189,-0.104416
2.19002,-0.219365,-0.115348
2.17385,-0.217746,0.178351
2.27411,-0.00476289,-0.0926498
2.2285,-0.113671,-0.0519233
2.28362,-0.0127542,-0.0398613
2.17143,-0.225162,-0.0635337
2.22869,-0.121482,0
2.18259,-0.226319,-0.279305
2.27193,-0.012689,0.0132047
2.13366,-0.327259,-0.201503
2.23208,-0.121667,0.0520164
2.18498,-0.226566,-0.179327
2.13537,-0.32752,-0.125813
2.22492,-0.121276,0.129766
2.17055,-0.225071,0.0889047
2.1813,-0.226185,-0.11493
2.17308,-0.225333,0.178351
2.27408,-0.012701,-0.0926498
2.2201,-0.121014,-0.0517372
2.27155,-0.0214095,-0.0396519
2.17055,-0.233498,-0.0635337
2.22022,-0.129572,0
2.18565,-0.235122,-0.27981
2.23075,-0.130187,-0.156255
2.18409,-0.234954,-0.179327
2.26294,-0.0213284,0.065861
2.21248,-0.129121,0.129069
2.16967,-0.233403,0.0889047
2.22978,-0.13013,-0.104044
2.17247,-0.233704,-0.114511
2.16824,-0.233249,0.178025
2.27002,-0.021395,-0.0924869
2.21962,-0.129537,-0.0517372
2.27546,-0.0293903,-0.0397217
2.16575,-0.240632,-0.0634174
2.21576,-0.137075,0
2.18088,-0.242312,-0.279305
2.26377,-0.0292393,0.0131582
2.13121,-0.34289,-0.201503
2.23028,-0.137973,-0.156255
2.17533,-0.241696,-0.178676
2.17031,-0.241138,0.0381161
2.12897,-0.34253,-0.12558
2.216,-0.137089,0.129301
2.16884,-0.240975,0.0889047
2.22932,-0.137913,-0.104044
2.17164,-0.241286,-0.114511
2.15948,-0.239935,0.177375
2.26193,-0.0292155,-0.0921613
2.21916,-0.137285,-0.0517372
2.26736,-0.0364102,-0.0395821
2.16896,-0.247888,-0.0635337
2.21532,-0.144035,0
2.17222,-0.248261,-0.278295
2.25967,-0.0362867,0.0131349
2.17456,-0.248529,-0.178676
2.16954,-0.247956,0.0381161
2.12,-0.347923,-0.125115
2.20361,-0.143273,0.128604
2.16411,-0.247334,0.0887419
2.22488,-0.144657,-0.103857
2.1669,-0.247653,-0.114302
2.16268,-0.247171,0.1777
2.26183,-0.0363214,-0.0921613
2.21871,-0.144256,-0.0517372
2.25922,-0.0445625,-0.0394424
2.15612,-0.254431,-0.0631846
2.21478,-0.152154,0
2.17524,-0.256686,-0.2788
2.25552,-0.0444897,0.0131117
2.21791,-0.152369,-0.239469
2.12097,-0.35607,-0.200759
2.16968,-0.25603,-0.178351
2.16465,-0.255437,0.0380462
2.11871,-0.355691,-0.125115
2.20307,-0.151349,0.128604
2.16318,-0.255264,0.0887419
2.16995,-0.256062,-0.114511
2.1578,-0.254629,0.177375
2.26168,-0.0446112,-0.0921613
2.20221,-0.15129,-0.051365
2.25505,-0.0523556,-0.0393726
2.14728,-0.26099,-0.0629519
2.20626,-0.159308,0
2.17039,-0.263799,-0.278295
2.25136,-0.0522698,0.0130884
2.21737,-0.16011,-0.239469
2.11971,-0.363472,-0.200759
2.21364,-0.15984,0.0516442
2.2168,-0.160069,-0.155417
2.25044,-0.0522486,0.0655119
2.15977,-0.262509,0.0379764
2.26275,-0.0525343,-0.145056
2.11746,-0.363085,-0.125115
2.20252,-0.159038,0.128604
2.15831,-0.262331,0.0885791
2.16111,-0.262671,-0.114092
2.1569,-0.262159,0.177375
2.25752,-0.0524129,-0.0919985
2.20965,-0.159552,-0.0515511
2.25086,-0.0597272,-0.0393028
2.1464,-0.26811,-0.0629519
2.19774,-0.16602,0
2.16556,-0.270503,-0.27779
2.25117,-0.0597353,0.0130884
2.21682,-0.167462,-0.239469
2.11457,-0.369813,-0.200387
2.20911,-0.166879,0.0515511
2.10786,-0.368639,0.0249119
2.21626,-0.167419,-0.155417
2.15997,-0.269805,-0.1777
2.24226,-0.0594989,0.0652792
2.25857,-0.0599317,-0.1448
2.10837,-0.368728,-0.12465
2.20597,-0.166642,0.128836
2.15347,-0.268992,0.0884162
2.1523,-0.268846,-0.113674
2.14811,-0.268322,0.176724
2.25733,-0.0598988,-0.0919985
2.20911,-0.166879,-0.0515511
2.25463,-0.0680974,-0.0393726
2.14937,-0.276485,-0.0630683
2.19712,-0.174074,0
2.15669,-0.277426,-0.27678
2.24694,-0.0678651,0.0130652
2.10536,-0.37616,-0.199644
2.20051,-0.174343,0.051365
2.20767,-0.174911,-0.154859
2.15502,-0.277211,-0.177375
2.25434,-0.0680888,-0.144544
2.1934,-0.17378,0.128138
2.1513,-0.276733,-0.113674
2.15106,-0.276702,0.177049
2.24911,-0.0679306,-0.0916728
2.20449,-0.174659,-0.0514581
2.25039,-0.0754396,-0.0393028
2.14448,-0.283088,-0.0629519
2.19653,-0.181359,0
2.15575,-0.284576,-0.27678
2.2427,-0.0751818,0.0130419
2.20767,-0.18228,-0.238612
2.11194,-0.384566,-0.200387
2.20708,-0.182231,-0.154859
2.15408,-0.284356,-0.177375
2.24613,-0.0752966,-0.144032
2.10575,-0.383439,-0.12465
2.19281,-0.181052,0.128138
2.14757,-0.283496,0.0882534
2.15037,-0.283865,-0.113674
2.14223,-0.28279,0.176398
2.24488,-0.0752547,-0.09151
2.2039,-0.181968,-0.0514581
2.24612,-0.0831465,-0.039233
2.14348,-0.290572,-0.0629519
2.19588,-0.189025,0
2.15082,-0.291566,-0.276275
2.23843,-0.0828619,0.0130187
2.20702,-0.189985,-0.238612
2.10275,-0.390481,-0.199644
2.09995,-0.389962,0.0248654
2.15308,-0.291873,-0.177375
2.23352,-0.0826803,0.0650464
2.24585,-0.0831366,-0.144032
2.1044,-0.390787,-0.12465
2.19614,-0.189048,0.128371
2.14657,-0.290991,0.0882534
2.14936,-0.291369,-0.113674
2.19138,-0.188638,0.270062
2.14123,-0.290266,0.176398
2.2446,-0.0830903,-0.09151
2.1913,-0.188631,-0.0511789
2.2418,-0.0912159,-0.0391632
2.13052,-0.296771,-0.0626028
2.14973,-0.299447,-0.276275
2.23411,-0.090903,0.0129954
2.19839,-0.197361,-0.237755
2.09739,-0.397444,-0.199272
2.20175,-0.197663,-0.15458
2.22921,-0.0907035,0.0649301
2.24553,-0.0913675,-0.144032
2.10295,-0.398497,-0.12465
2.18748,-0.196382,0.127906
2.14153,-0.298305,0.0880906
2.14828,-0.299245,-0.113674
2.1362,-0.297562,0.176073
2.24029,-0.0911541,-0.0913472
2.19059,-0.196662,-0.0511789
2.23751,-0.0980831,-0.0390934
2.13353,-0.304027,-0.0627192
2.13959,-0.304889,-0.432243
2.17861,-0.202487,0
2.15271,-0.306759,-0.27678
2.23781,-0.0980964,0.0130187
2.1938,-0.203899,-0.237327
2.09614,-0.404032,-0.199272
2.18997,-0.203543,0.0511789
2.19714,-0.20421,-0.154301
2.14315,-0.305397,-0.176724
2.24922,-0.0985964,-0.144288
2.18288,-0.202884,0.127673
2.13663,-0.304467,0.0879277
2.14338,-0.305429,-0.113464
2.18609,-0.203182,0.269575
2.13525,-0.304272,0.176073
2.23999,-0.0981918,-0.0913472
2.19395,-0.203913,-0.051272
2.23316,-0.105704,-0.0390236
2.1285,-0.310895,-0.0626028
2.13851,-0.312356,-0.432243
2.18187,-0.210475,0
2.23346,-0.105718,0.0129954
2.09862,-0.412113,-0.199644
2.0919,-0.410794,0.0248188
2.19244,-0.211495,-0.154022
2.13812,-0.3123,-0.176398
2.22057,-0.105108,0.0646974
2.22893,-0.105503,-0.143009
2.13834,-0.312332,-0.113255
2.13023,-0.311147,0.175747
2.22766,-0.105443,-0.0908587
2.18924,-0.211186,-0.0511789
2.22477,-0.113481,-0.038884
2.12735,-0.318694,-0.0626028
2.13347,-0.319611,-0.431458
2.17313,-0.217673,0
2.13476,-0.319804,-0.27476
2.22108,-0.113292,0.0129257
2.13302,-0.319544,-0.176073
2.21618,-0.113042,0.064581
2.23251,-0.113875,-0.143265
2.1774,-0.218101,0.127441
2.13439,-0.319749,0.0879277
2.13719,-0.320167,-0.113255
2.17273,-0.217633,0.268113
2.12514,-0.318362,0.175422
2.22725,-0.113607,-0.0908587
2.1805,-0.218411,-0.0509928
2.22436,-0.121246,-0.038884
2.12622,-0.326118,-0.0626028
2.13234,-0.327056,-0.431458
2.17235,-0.225257,0
2.13363,-0.327254,-0.27476
2.22067,-0.121044,0.0129257
2.08391,-0.424734,-0.198529
2.13584,-0.327592,-0.176398
2.21976,-0.120995,0.0646974
2.22413,-0.121233,-0.142753
2.08552,-0.425061,-0.123952
2.16868,-0.224876,0.126976
2.13211,-0.32702,-0.113046
2.12795,-0.326383,0.175747
2.23084,-0.121599,-0.0910215
2.17972,-0.226021,-0.0509928
2.21995,-0.12839,-0.0388142
2.11723,-0.331928,-0.0623701
2.13512,-0.334733,-0.432243
2.16762,-0.232034,0
2.18901,-0.234324,-0.342505
2.13646,-0.334942,-0.275265
2.22425,-0.128639,0.0129489
2.18283,-0.233663,-0.23647
2.07859,-0.430834,-0.198157
2.18217,-0.233592,-0.153464
2.13474,-0.334673,-0.176398
2.21935,-0.128356,0.0646974
2.22371,-0.128608,-0.142753
2.17189,-0.232492,0.127208
2.12427,-0.333032,0.0876021
2.18116,-0.233484,-0.102182
2.12312,-0.332851,-0.112627
2.16725,-0.231995,0.267625
2.22643,-0.128765,-0.0908587
2.17498,-0.232822,-0.0508998
2.22348,-0.136384,-0.038884
2.12001,-0.33995,-0.0624865
2.17077,-0.240039,0
2.18032,-0.241095,-0.341275
2.13527,-0.342398,-0.275265
2.22378,-0.136402,0.0129489
2.17805,-0.240844,-0.236042
2.08097,-0.438909,-0.198529
2.12962,-0.341491,-0.176073
2.21091,-0.135612,0.0644646
2.21927,-0.136125,-0.142497
2.07476,-0.437599,-0.123487
2.1671,-0.239633,0.126976
2.17636,-0.240657,-0.101996
2.118,-0.339628,-0.112418
2.16248,-0.239122,0.267138
2.11781,-0.339597,0.175096
2.22198,-0.136291,-0.0906958
2.17416,-0.240413,-0.0508998
2.22297,-0.144532,-0.038884
2.11875,-0.347718,-0.0624865
2.16193,-0.247085,0
2.1755,-0.248636,-0.34066
2.12617,-0.348936,-0.274255
2.21928,-0.144292,0.0129257
2.17648,-0.248748,-0.153185
2.11655,-0.347357,-0.175096
2.21875,-0.144258,-0.142497
2.11394,-0.346929,0.0872764
2.17546,-0.248632,-0.101996
2.11674,-0.347388,-0.112418
2.16159,-0.247046,0.267138
2.11262,-0.346712,0.174771
2.2095,-0.143656,-0.0902073
2.16929,-0.247926,-0.0508067
2.21051,-0.151085,-0.0386745
2.1097,-0.353421,-0.0622537
2.1611,-0.254253,0
2.17074,-0.255387,-0.340045
2.11718,-0.354674,-0.273244
2.2108,-0.151105,0.0128792
2.17631,-0.256043,-0.236042
2.07786,-0.453426,-0.198529
2.07112,-0.451955,0.0246791
2.17168,-0.255498,-0.152906
2.11932,-0.355033,-0.175422
2.19794,-0.150226,0.0641155
2.2103,-0.151071,-0.141986
2.07166,-0.452073,-0.123487
2.15744,-0.253823,0.126511
2.11672,-0.354598,0.0874392
2.11164,-0.353746,-0.112208
2.16076,-0.254213,0.267138
2.11146,-0.353715,0.174771
2.20901,-0.150982,-0.0902073
2.16845,-0.255118,-0.0508067
2.20598,-0.158513,-0.0386047
2.10451,-0.360108,-0.0621374
2.16019,-0.261795,0
2.16983,-0.262963,-0.340045
2.11593,-0.362062,-0.273244
2.20627,-0.158535,0.012856
2.11719,-0.362279,-0.012484
2.16751,-0.262681,-0.235185
2.0646,-0.458088,-0.197413
2.11807,-0.362428,-0.175422
2.1974,-0.157897,0.0641155
2.20578,-0.158499,-0.14173
2.06617,-0.458436,-0.123255
2.15258,-0.260872,0.126278
2.11433,-0.361788,-0.112418
2.15592,-0.261276,0.26665
2.10628,-0.360411,0.174445
2.21246,-0.158979,-0.0903702
2.20538,-0.166597,-0.0386047
2.15525,-0.269215,0
2.16885,-0.270914,-0.340045
2.11459,-0.369815,-0.273244
2.20169,-0.166319,0.0128327
2.15864,-0.269638,-0.234328
2.0629,-0.465652,-0.197413
2.06393,-0.465884,0.0246325
2.16188,-0.270043,-0.152348
2.1128,-0.369502,-0.175096
2.2008,-0.166251,0.0642319
2.20518,-0.166582,-0.14173
2.15557,-0.269254,0.126511
2.11019,-0.369047,0.0872764
2.16085,-0.269914,-0.101438
2.10512,-0.368159,-0.111999
2.151,-0.268684,0.266163
2.10494,-0.368129,0.174445
2.20787,-0.166786,-0.0902073
2.15864,-0.269638,-0.0506206
2.20482,-0.17391,-0.0386047
2.09407,-0.373388,-0.0619047
2.15435,-0.27636,0
2.16402,-0.277601,-0.33943
2.11725,-0.377522,-0.27375
2.14985,-0.275783,-0.233472
2.05747,-0.471601,-0.197041
2.16097,-0.27721,-0.152348
2.10371,-0.375107,-0.174445
2.20859,-0.174208,-0.141986
2.1507,-0.275893,0.126278
2.15598,-0.276569,-0.101252
2.10388,-0.375138,-0.111999
2.14616,-0.275311,0.265675
2.09979,-0.374407,0.17412
2.19535,-0.173164,-0.0897188
2.19622,-0.180948,-0.0384651
2.09669,-0.381411,-0.062021
2.14147,-0.28231,0
2.1552,-0.28412,-0.3382
2.10811,-0.383489,-0.272739
2.20051,-0.181301,0.0128327
2.15281,-0.283805,-0.2339
2.05581,-0.47878,-0.197041
2.05681,-0.479014,0.024586
2.15604,-0.28423,-0.152069
2.09847,-0.381734,-0.17412
2.18367,-0.179914,0.0637664
2.19604,-0.180933,-0.141218
2.14973,-0.283399,0.126278
2.1037,-0.382687,0.0871136
2.10649,-0.383194,-0.112208
2.0867,-0.379594,0.173144
2.19075,-0.180498,-0.089556
2.19159,-0.188271,-0.0383953
2.09141,-0.387998,-0.0619047
2.14444,-0.29032,0
2.1542,-0.291642,-0.3382
2.10286,-0.390122,-0.272234
2.19587,-0.188639,0.0128095
2.15575,-0.291852,-0.234328
2.05513,-0.486191,0.024586
2.15108,-0.291219,-0.15179
2.10104,-0.389784,-0.174445
2.18303,-0.187536,0.0637664
2.19142,-0.188256,-0.140962
2.14081,-0.289829,0.125813
2.15003,-0.291078,-0.101066
2.09729,-0.389088,-0.11179
2.13632,-0.289222,0.2647
2.09712,-0.389057,0.17412
2.19409,-0.188486,-0.0897188
2.18296,-0.195208,-0.0382557
2.08612,-0.394553,-0.0617883
2.14737,-0.298355,0
2.14925,-0.298616,-0.337585
2.10539,-0.398197,-0.272739
2.19122,-0.195947,0.0127862
2.14684,-0.29828,-0.233472
2.04854,-0.49219,-0.19667
2.09967,-0.397116,-0.174445
2.18236,-0.195155,0.0637664
2.19075,-0.195904,-0.140962
2.13979,-0.2973,0.125813
2.0892,-0.395136,0.0866251
2.14505,-0.298031,-0.100879
2.09592,-0.396406,-0.11179
2.08792,-0.394893,0.173469
2.18944,-0.195787,-0.089556
2.14679,-0.298274,-0.0504345
2.18628,-0.202815,-0.0383255
2.0848,-0.401469,-0.0617883
2.13449,-0.303783,0
2.14042,-0.304627,-0.336356
2.10016,-0.404427,-0.272234
2.1419,-0.304838,-0.233043
2.03916,-0.497094,-0.195926
2.04789,-0.499221,0.0245394
2.14114,-0.30473,-0.151232
2.09442,-0.403323,-0.17412
2.1817,-0.202391,0.0637664
2.18213,-0.20243,-0.140451
2.04844,-0.499356,-0.12279
2.13879,-0.304395,0.125813
2.14009,-0.30458,-0.100693
2.09067,-0.402599,-0.11158
2.1343,-0.303756,0.2647
2.18878,-0.203047,-0.089556
2.14579,-0.305391,-0.0504345
2.18556,-0.210445,-0.0383255
2.07946,-0.407974,-0.0616719
2.13738,-0.311809,0
2.13935,-0.312097,-0.336356
2.18585,-0.210474,0.012763
2.13689,-0.311738,-0.232615
2.04514,-0.506122,-0.19667
2.03448,-0.503484,0.0243997
2.13612,-0.311626,-0.150953
2.08909,-0.409864,-0.173795
2.17303,-0.209239,0.0635337
2.18539,-0.210429,-0.140707
2.04669,-0.506503,-0.12279
2.08646,-0.409347,0.0866251
2.13901,-0.312048,-0.100693
2.08925,-0.409894,-0.11158
2.1293,-0.310631,0.264213
2.07736,-0.407561,0.172818
2.1801,-0.20992,-0.0892304
2.18079,-0.218056,-0.0382557
2.07795,-0.415593,-0.0616719
2.13226,-0.319049,0
2.13819,-0.319936,-0.336356
2.09721,-0.419445,-0.272234
2.18507,-0.218484,0.012763
2.1436,-0.320745,-0.233472
2.03941,-0.512644,-0.196298
2.04038,-0.512887,0.0244928
2.13496,-0.319453,-0.150953
2.08758,-0.417518,-0.173795
2.17224,-0.217202,0.0635337
2.18063,-0.21804,-0.140451
2.08103,-0.416208,0.0864623
2.08773,-0.417549,-0.11158
2.12422,-0.317846,0.263725
2.07976,-0.415954,0.173144
2.17932,-0.217909,-0.0892304
2.17206,-0.224844,-0.0381161
2.08041,-0.423641,-0.0617883
2.12323,-0.325279,0
2.13706,-0.327398,-0.336356
2.09185,-0.425971,-0.271729
2.18031,-0.225698,0.0127397
2.13067,-0.326419,-0.232186
2.03375,-0.518775,-0.195926
2.0347,-0.519018,0.0244463
2.12989,-0.326299,-0.150674
2.07829,-0.423211,-0.173144
2.1675,-0.224371,0.0634174
2.17589,-0.22524,-0.140195
2.08626,-0.424834,-0.11158
2.1231,-0.325259,0.263725
2.07829,-0.423211,0.173144
2.17059,-0.224692,-0.0889047
2.16733,-0.23162,-0.0380462
2.07116,-0.428916,-0.0615556
2.12214,-0.332318,0
2.13596,-0.334483,-0.336356
2.09042,-0.432905,-0.271729
2.17557,-0.232502,0.0127165
2.07983,-0.430713,-0.0123445
2.12565,-0.332868,-0.231758
2.03202,-0.525516,-0.195926
2.03297,-0.525762,0.0244463
2.13274,-0.333978,-0.150953
2.07688,-0.430101,-0.173144
2.16276,-0.231133,0.063301
2.1791,-0.232878,-0.140451
2.03354,-0.525908,-0.122325
2.12644,-0.332991,0.125348
2.07815,-0.430363,0.0864623
2.11984,-0.331958,-0.0999489
2.07702,-0.43013,-0.111162
2.11809,-0.331684,0.263238
2.07297,-0.429292,0.172818
2.17381,-0.232313,-0.0890675
2.16651,-0.239184,-0.0380462
2.06182,-0.434494,-0.0613228
2.11702,-0.339091,0
2.13478,-0.341936,-0.336356
2.17475,-0.240095,0.0127165
2.1284,-0.340915,-0.232186
2.02632,-0.531596,-0.195554
2.03112,-0.532856,0.0244463
2.12368,-0.340158,-0.150395
2.08317,-0.438992,-0.173795
2.16592,-0.23912,0.0634174
2.1743,-0.240045,-0.140195
2.12132,-0.33978,0.125115
2.07663,-0.437615,0.0864623
2.12656,-0.340619,-0.100321
2.07941,-0.438201,-0.111371
2.113,-0.338447,0.26275
2.07146,-0.436526,0.172818
2.16901,-0.239461,-0.0889047
2.16566,-0.246745,-0.0380462
2.0642,-0.442527,-0.0614392
2.11977,-0.347125,0
2.12577,-0.348109,-0.335126
2.08347,-0.446657,-0.271224
2.16992,-0.247232,0.0126932
2.11935,-0.347057,-0.23133
2.0283,-0.53969,-0.195926
2.02539,-0.538914,0.0243997
2.11854,-0.346924,-0.150116
2.07382,-0.444589,-0.173144
2.1611,-0.246226,0.063301
2.16948,-0.247182,-0.139939
2.07118,-0.444023,0.0862994
2.11747,-0.346749,-0.0999489
2.07397,-0.44462,-0.111162
2.11572,-0.346462,0.263238
2.06603,-0.442918,0.172493
2.16816,-0.247031,-0.0889047
2.16875,-0.25477,-0.0381161
2.06265,-0.44973,-0.0614392
2.11065,-0.353202,0
2.12065,-0.354875,-0.334511
2.12205,-0.355109,-0.231758
2.02349,-0.54598,0.0243997
2.11732,-0.354317,-0.150116
2.07226,-0.451826,-0.173144
2.16022,-0.253768,0.063301
2.16464,-0.254287,-0.139683
2.06181,-0.449547,0.0859738
2.11625,-0.354138,-0.0999489
2.0724,-0.451856,-0.111162
2.11058,-0.35319,0.26275
2.06057,-0.449278,0.172167
2.15538,-0.253199,-0.0884162
2.15991,-0.261378,-0.0379764
2.06497,-0.457792,-0.0615556
2.10546,-0.359893,0
2.02158,-0.55304,-0.0243997
2.10771,-0.360277,-0.332666
2.07255,-0.459474,-0.270214
2.1602,-0.261413,0.0126467
2.06971,-0.458844,-0.0123213
2.11295,-0.361174,-0.230901
2.01772,-0.551985,0.0243531
2.11213,-0.361034,-0.149837
2.06289,-0.457331,-0.172493
2.15933,-0.261307,0.063301
2.15978,-0.261362,-0.139427
2.026,-0.55425,-0.122325
2.06023,-0.456742,0.0859738
2.11894,-0.362196,-0.100135
2.06691,-0.458223,-0.110952
2.0551,-0.455605,0.171842
2.15845,-0.261201,-0.0885791
2.15502,-0.268422,-0.0379066
2.05946,-0.464119,-0.0614392
2.10419,-0.367241,0
2.11812,-0.369671,-0.334511
2.06706,-0.465833,-0.269709
2.15928,-0.268952,0.0126467
2.0642,-0.465187,-0.012298
2.10384,-0.36718,-0.230044
2.06517,-0.465405,-0.172818
2.15443,-0.268349,0.0631846
2.15489,-0.268406,-0.139172
2.05472,-0.463052,0.085811
2.10979,-0.368217,-0.0997627
2.0692,-0.466313,-0.111162
2.05739,-0.463652,0.172167
2.15356,-0.26824,-0.0884162
2.1501,-0.275434,-0.0378368
2.05393,-0.470412,-0.0613228
2.09896,-0.373882,0
2.11681,-0.377062,-0.334511
2.06929,-0.473931,-0.270214
2.15436,-0.27598,0.0126235
2.06256,-0.472389,-0.012298
2.10255,-0.374521,-0.230044
2.00996,-0.564975,0.0243066
2.10563,-0.37507,-0.149558
2.06353,-0.472611,-0.172818
2.15394,-0.275927,-0.139172
2.05699,-0.471113,0.0859738
2.10062,-0.374178,-0.0993905
2.05977,-0.47175,-0.110743
2.09895,-0.37388,0.261775
2.05576,-0.470831,0.172167
2.15261,-0.275756,-0.0884162
2.14913,-0.282938,-0.0378368
2.06006,-0.479391,-0.0615556
2.09371,-0.380491,0
2.10382,-0.382329,-0.332666
2.09732,-0.381147,-0.229616
2.00798,-0.571988,0.0243066
2.10039,-0.381705,-0.149279
2.06187,-0.479811,-0.172818
2.14458,-0.282339,0.0629519
2.14901,-0.282922,-0.138916
2.01624,-0.574341,-0.122092
2.10195,-0.38199,0.124418
2.05533,-0.478291,0.0859738
2.10323,-0.382222,-0.0995766
2.05422,-0.478032,-0.110534
2.04633,-0.476197,0.171516
2.14767,-0.282746,-0.0882534
2.15209,-0.290974,-0.0379066
2.05059,-0.48474,-0.0613228
2.0963,-0.388526,0
2.09859,-0.38895,-0.332051
2.14842,-0.290477,0.0126002
2.10771,-0.39064,-0.230901
1.99829,-0.576775,0.0242135
2.09119,-0.38758,-0.148721
2.0563,-0.486088,-0.172493
2.13962,-0.289288,0.0628356
2.14801,-0.290422,-0.138916
2.04976,-0.484543,0.085811
2.10189,-0.389562,-0.0995766
2.05254,-0.485199,-0.110534
2.04078,-0.48242,0.171191
2.14271,-0.289706,-0.0880906
2.13917,-0.296835,-0.0376972
2.05278,-0.492828,-0.0614392
2.091,-0.395099,0
2.10498,-0.397741,-0.333281
2.13946,-0.296875,0.0125537
2.04972,-0.492095,-0.0122515
2.0907,-0.395041,-0.229188
2.0001,-0.58487,0.02426
2.09767,-0.396359,-0.149279
2.05071,-0.492333,-0.172167
2.13463,-0.296205,0.0627192
2.13907,-0.296821,-0.138404
2.09531,-0.395913,0.124185
2.09659,-0.396154,-0.0993905
2.05083,-0.492361,-0.110534
2.04296,-0.490471,0.171516
2.14564,-0.297733,-0.0882534
2.13417,-0.303737,-0.0376274
2.04327,-0.498097,-0.0612065
2.08961,-0.402395,0
2.00188,-0.592984,-0.0243066
2.0997,-0.404339,-0.332666
2.09712,-0.403841,-0.230044
1.99421,-0.590712,0.0242135
2.09235,-0.402924,-0.149
2.04898,-0.499488,-0.172167
2.13755,-0.304218,0.0628356
2.14198,-0.304848,-0.13866
2.00629,-0.594289,-0.121859
2.04245,-0.497894,0.0856481
2.09127,-0.402715,-0.0992044
2.0491,-0.499517,-0.110534
2.03736,-0.496655,0.171191
2.14064,-0.304658,-0.0880906
2.13315,-0.310812,-0.0376274
2.04161,-0.50487,-0.0612065
2.07649,-0.407014,0
2.08671,-0.409018,-0.330821
2.04244,-0.505075,-0.0122283
2.08406,-0.408498,-0.228759
1.99224,-0.597322,0.0242135
2.08318,-0.408325,-0.148442
2.04731,-0.50628,-0.172167
2.13257,-0.310728,0.0627192
2.13305,-0.310799,-0.138148
2.00048,-0.599792,-0.121627
2.0369,-0.503705,0.0854853
2.086,-0.408879,-0.0990182
2.04355,-0.50535,-0.110324
2.0357,-0.503409,0.171191
2.1317,-0.310602,-0.0877649
2.13205,-0.318256,-0.0376274
2.04371,-0.512966,-0.0613228
2.07898,-0.415043,0
1.9978,-0.606596,-0.0243066
2.08527,-0.4163,-0.330821
2.08262,-0.41577,-0.228759
1.98632,-0.60311,0.0241669
2.07782,-0.414813,-0.148163
2.0378,-0.511482,-0.171516
2.12356,-0.31699,0.0624865
2.13196,-0.318243,-0.138148
2.03513,-0.510812,0.0854853
2.08064,-0.415376,-0.0988321
2.03403,-0.510535,-0.109906
2.02233,-0.5076,0.170214
2.13061,-0.318041,-0.0877649
2.12302,-0.324488,-0.0374878
2.03416,-0.518123,-0.0610901
2.06967,-0.420704,0
2.12726,-0.325137,0.0125072
2.08115,-0.423037,-0.228759
1.9842,-0.61004,0.0241669
2.08027,-0.422858,-0.148442
2.036,-0.518592,-0.171516
2.12244,-0.3244,0.0624865
2.13083,-0.325683,-0.138148
2.02946,-0.516927,0.0853225
2.0831,-0.423432,-0.0990182
2.02836,-0.516646,-0.109696
2.07759,-0.422313,0.260313
2.02055,-0.514656,0.170214
2.12553,-0.324873,-0.0876021
2.12582,-0.332515,-0.0375576
2.03234,-0.525221,-0.0610901
2.07603,-0.429547,0
2.12611,-0.33256,0.0125072
2.03317,-0.525434,-0.012205
2.08356,-0.431105,-0.229188
1.98206,-0.616963,0.0241669
2.07879,-0.430117,-0.148442
2.03418,-0.525696,-0.171516
2.1213,-0.331807,0.0624865
2.12574,-0.332502,-0.137892
2.03152,-0.525008,0.0854853
2.0816,-0.430701,-0.0990182
2.03042,-0.524723,-0.109906
2.01488,-0.520708,0.169889
2.12044,-0.331672,-0.0874392
2.1207,-0.339302,-0.0374878
2.0305,-0.532312,-0.0610901
2.0706,-0.435967,0
2.03132,-0.532528,-0.012205
2.07426,-0.436737,-0.228331
1.98371,-0.62508,0.0242135
2.07337,-0.436549,-0.148163
2.03233,-0.532793,-0.171516
2.12407,-0.339841,0.0626028
2.11668,-0.338659,-0.137381
2.02581,-0.531082,0.0853225
2.06836,-0.435495,-0.0984599
2.01691,-0.52875,0.170214
2.12321,-0.339704,-0.0876021
2.1195,-0.346702,-0.0374878
2.0209,-0.537341,-0.0608574
2.06907,-0.443192,0
2.02558,-0.538588,-0.0121818
2.07272,-0.443975,-0.228331
1.97389,-0.629569,0.0241203
2.07183,-0.443784,-0.148163
2.02661,-0.53886,-0.171191
2.11549,-0.346045,-0.137381
2.02008,-0.537123,0.0851596
2.07073,-0.443549,-0.098646
2.0267,-0.538885,-0.109906
2.12201,-0.347113,-0.0876021
2.11039,-0.35278,-0.0373482
2.02287,-0.545433,-0.0609738
2.0636,-0.44956,0
1.97929,-0.638913,-0.0242135
2.06727,-0.450361,-0.227903
1.96787,-0.635227,0.0240738
2.06247,-0.449314,-0.147605
2.02471,-0.545931,-0.171191
2.11376,-0.353343,0.0623701
2.1182,-0.354086,-0.137637
2.01819,-0.544171,0.0851596
2.06527,-0.449924,-0.0984599
2.02095,-0.544916,-0.109696
2.10896,-0.352541,-0.0871136
2.11315,-0.360449,-0.037418
2.01719,-0.551085,-0.0608574
2.0621,-0.456401,0
1.96956,-0.64299,-0.0241203
2.11344,-0.360497,0.0124607
2.06965,-0.458073,-0.228331
1.96576,-0.641749,0.0240738
2.05707,-0.455289,-0.147326
2.01905,-0.551591,-0.170865
2.11308,-0.360437,-0.137381
2.01637,-0.550861,0.0851596
2.06767,-0.457633,-0.098646
2.01913,-0.551615,-0.109696
2.10778,-0.359533,-0.0871136
2.11188,-0.367823,-0.037418
2.01526,-0.558123,-0.0608574
2.05659,-0.462718,0
1.9711,-0.651116,-0.0241669
2.01993,-0.559417,-0.0121818
2.06028,-0.463549,-0.227474
1.9673,-0.649862,0.0241203
2.06326,-0.464218,-0.147884
2.02479,-0.560764,-0.171516
2.10737,-0.367037,0.0622537
2.10395,-0.366441,-0.136869
2.01059,-0.556829,0.0849968
2.06606,-0.464848,-0.098646
2.02105,-0.559726,-0.109906
2.10258,-0.366202,-0.0869508
2.10271,-0.373792,-0.0372783
2.0133,-0.565154,-0.0608574
2.05496,-0.469894,0
2.01411,-0.565384,-0.0121585
2.05477,-0.469851,-0.227046
1.96502,-0.656725,0.0241203
2.05773,-0.470528,-0.147605
2.10608,-0.374391,0.0622537
2.09872,-0.373084,-0.136613
2.00094,-0.561684,0.0846712
2.05663,-0.470276,-0.0982737
2.01908,-0.566777,-0.109906
2.10522,-0.374239,-0.0871136
2.10133,-0.381497,-0.0372783
2.00352,-0.57034,-0.0606247
2.05322,-0.477423,0
2.10555,-0.382263,0.0124375
2.00433,-0.570572,-0.012112
2.05304,-0.477379,-0.227046
1.95881,-0.662641,0.0240738
2.05211,-0.477163,-0.147326
2.10076,-0.381393,0.0621374
2.10127,-0.381487,-0.136869
1.99886,-0.569014,0.0846712
2.05489,-0.47781,-0.0982737
2.00931,-0.571987,-0.109487
2.10384,-0.381952,-0.0871136
2.09618,-0.387369,-0.0372085
2.00172,-0.576631,-0.0606247
2.04782,-0.482952,0
1.96051,-0.670085,-0.0241203
2.00253,-0.576866,-0.012112
2.04766,-0.482913,-0.226617
2.04283,-0.481776,-0.146768
2.09562,-0.387265,0.062021
2.10006,-0.388086,-0.136869
1.99707,-0.575291,0.0846712
2.0456,-0.482429,-0.0979015
2.00366,-0.57719,-0.109277
2.09083,-0.386381,-0.0866251
2.09861,-0.396157,-0.0372783
1.99949,-0.584313,-0.0606247
2.04984,-0.491745,0
1.95792,-0.677608,-0.0241203
2.09496,-0.395469,0.012391
2.00414,-0.585672,-0.0121353
2.04965,-0.4917,-0.227046
1.94658,-0.673683,0.0239806
2.04485,-0.490547,-0.147047
2.09804,-0.39605,0.0621374
2.09071,-0.394666,-0.136357
1.99484,-0.582955,0.0846712
2.04762,-0.491212,-0.0980876
2.00526,-0.586,-0.109487
2.08541,-0.393665,-0.0864623
2.09329,-0.402725,-0.0372085
1.99744,-0.591289,-0.0606247
2.04423,-0.497951,0
2.08964,-0.402024,0.0123678
1.99825,-0.591529,-0.012112
2.0402,-0.496969,-0.226189
2.03925,-0.496738,-0.146768
2.00181,-0.592584,0.0364406
2.0854,-0.401207,-0.136102
2.00046,-0.592183,0.0849968
2.04978,-0.499303,-0.0982737
1.99555,-0.590729,-0.109068
2.08795,-0.401697,-0.0866251
2.08416,-0.407763,-0.0370689
1.99557,-0.597561,-0.0606247
2.03877,-0.503411,0
1.94584,-0.687912,-0.0240272
2.0923,-0.409354,0.012391
1.99255,-0.596657,-0.0120888
2.04635,-0.505283,-0.227046
2.03768,-0.503142,-0.146768
2.09145,-0.409188,0.062021
2.08413,-0.407757,-0.136102
1.99093,-0.596172,0.0846712
2.04044,-0.503824,-0.0979015
1.99751,-0.598141,-0.109277
2.08667,-0.408255,-0.0866251
2.08658,-0.416182,-0.0371387
1.98954,-0.60371,-0.0605083
2.03303,-0.509907,0
2.08686,-0.416238,0.0123678
1.99035,-0.603956,-0.0120888
2.04448,-0.51278,-0.227046
2.03582,-0.510607,-0.146768
2.08262,-0.415393,-0.136102
1.97726,-0.599984,0.0841827
2.03858,-0.511299,-0.0979015
1.98766,-0.603138,-0.108859
2.08124,-0.415118,-0.0864623
1.98742,-0.610651,-0.0605083
2.03124,-0.517001,0
2.08147,-0.422724,0.0123445
1.98823,-0.6109,-0.0120888
2.07671,-0.421756,0.0616719
2.08507,-0.423454,-0.136357
1.97897,-0.608056,0.0843455
2.03678,-0.518412,-0.0979015
1.98936,-0.611246,-0.109068
2.07587,-0.421585,-0.0862994
2.07978,-0.429566,-0.0370689
1.9892,-0.618426,-0.0606247
2.02951,-0.523734,0
1.98237,-0.616302,-0.0120655
2.07138,-0.427832,0.0615556
2.07584,-0.428751,-0.135846
2.03505,-0.525163,-0.0979015
1.97969,-0.615468,-0.108649
2.07054,-0.427658,-0.0861366
2.07428,-0.436362,-0.0369991
1.98311,-0.624511,-0.0605083
2.02758,-0.531169,0
2.07456,-0.436421,0.0123213
1.97247,-0.621161,-0.012019
2.01878,-0.528864,-0.145931
2.0698,-0.435421,0.0615556
1.98365,-0.624681,0.036301
2.07425,-0.436357,-0.135846
2.02925,-0.531606,-0.0977154
2.06896,-0.435244,-0.0861366
2.07673,-0.444075,-0.0370689
1.97341,-0.628657,-0.0602756
2.02581,-0.53789,0
2.0731,-0.443298,0.0123213
1.97802,-0.630126,-0.0120655
2.01701,-0.535555,-0.145931
2.06835,-0.442282,0.0615556
1.98157,-0.631255,0.036301
2.07279,-0.443233,-0.135846
2.02624,-0.538005,0.122092
2.01975,-0.536282,-0.0973431
2.06751,-0.442103,-0.0861366
2.02912,-0.53877,-0.0488526
2.06727,-0.449982,-0.0369293
1.96729,-0.634658,-0.0601592
2.01996,-0.54427,0
2.06755,-0.450043,0.012298
1.97189,-0.636144,-0.0120423
2.01119,-0.541907,-0.145652
2.06671,-0.44986,0.0615556
2.06725,-0.449978,-0.13559
2.02163,-0.544721,-0.0975292
2.06587,-0.449678,-0.0861366
2.02713,-0.546204,-0.0488526
2.06959,-0.45806,-0.0369991
1.97266,-0.644003,-0.060392
2.01805,-0.551318,0
2.06597,-0.457257,0.012298
1.96966,-0.643023,-0.0120423
2.00928,-0.548923,-0.145652
2.06957,-0.458054,-0.135846
2.01586,-0.550721,-0.0973431
2.06039,-0.456022,-0.0859738
1.96303,-0.647691,-0.0601592
2.01245,-0.556589,0
2.06452,-0.463745,0.012298
1.96383,-0.647955,-0.012019
2.01139,-0.556297,-0.145931
2.05978,-0.462681,0.0614392
2.06422,-0.463679,-0.13559
2.02182,-0.559181,-0.0977154
2.05894,-0.462493,-0.0859738
2.06253,-0.471245,-0.0369293
1.96444,-0.656149,-0.0602756
2.00654,-0.562881,0
2.05891,-0.470418,0.0122748
1.96524,-0.656415,-0.0120423
2.0055,-0.562587,-0.145652
2.05807,-0.470227,0.0614392
1.95738,-0.653792,0.0360218
2.05473,-0.469463,-0.135078
2.01084,-0.564086,0.121627
2.01207,-0.56443,-0.0973431
2.05334,-0.469146,-0.085811
2.06087,-0.478442,-0.0369293
1.96214,-0.663002,-0.0602756
2.00842,-0.570975,0
2.05725,-0.477602,0.0122748
1.95157,-0.65943,-0.0119725
2.00736,-0.570676,-0.145931
2.05642,-0.477408,0.0614392
2.05696,-0.477535,-0.135334
2.01008,-0.57145,-0.0973431
2.05558,-0.477215,-0.0859738
2.01172,-0.571914,-0.0486665
2.05529,-0.484715,-0.0368595
2.00257,-0.576875,0
2.05168,-0.483862,0.0122515
1.95682,-0.668826,-0.012019
2.01303,-0.579888,-0.146489
2.05474,-0.484584,0.0614392
2.04751,-0.48288,-0.134823
2.00424,-0.577356,-0.097157
2.0539,-0.484387,-0.0859738
2.05359,-0.491886,-0.0368595
1.9967,-0.582741,0
1.9507,-0.674345,-0.0119958
2.04137,-0.488959,0.0610901
2.04582,-0.490024,-0.134823
1.99454,-0.58211,-0.0967847
2.04831,-0.490623,-0.085811
2.00768,-0.585945,-0.0486665
1.99465,-0.589708,0
2.04825,-0.498174,0.0122515
1.94833,-0.68115,-0.0119958
2.03576,-0.495137,0.0609738
2.04409,-0.497162,-0.134823
1.99249,-0.589069,-0.0967847
2.04271,-0.496825,-0.0856481
2.04234,-0.504294,-0.0367199
1.99642,-0.597814,0
2.03873,-0.503403,0.012205
2.03402,-0.50224,0.0609738
2.04235,-0.504295,-0.134823
1.99425,-0.597167,-0.0969709
2.03708,-0.502994,-0.0854853
2.03678,-0.510092,-0.0366501
1.99059,-0.603271,0
2.03317,-0.509189,0.0121818
2.03235,-0.508982,0.0609738
2.03679,-0.510095,-0.134567
1.98844,-0.602618,-0.0967847
2.03928,-0.510718,-0.0856481
1.99006,-0.603108,-0.0483873
2.03877,-0.518539,-0.0367199
1.98455,-0.609389,0
2.03905,-0.51861,0.0122283
2.03822,-0.518399,0.0612065
2.03491,-0.517557,-0.134567
1.98622,-0.609902,-0.0967847
2.03739,-0.518188,-0.0856481
1.98783,-0.610398,-0.0483873
1.98241,-0.616312,0
2.03252,-0.524511,0.0610901
2.03695,-0.525654,-0.134823
1.98789,-0.618017,-0.0969709
2.0317,-0.524298,-0.0854853
1.98951,-0.61852,-0.0484804
1.97654,-0.621683,0
2.02773,-0.530452,0.0121818
2.02304,-0.529225,0.0608574
2.02361,-0.529375,-0.134055
2.02608,-0.530021,-0.0853225
1.98745,-0.625114,-0.0484804
1.97817,-0.629792,0
2.022,-0.536501,0.0121585
2.01731,-0.535258,0.060741
2.02561,-0.537459,-0.134311
2.02036,-0.536066,-0.0851596
1.98144,-0.630834,-0.0483873
2.02757,-0.545561,-0.0366501
1.97976,-0.63792,0
2.01625,-0.542517,0.0121353
1.97923,-0.637747,0.0483873
2.01543,-0.542296,0.060741
2.01987,-0.54349,-0.134055
2.01847,-0.543115,-0.0851596
1.97923,-0.637747,-0.0483873
2.02179,-0.551582,-0.0365802
1.96992,-0.642346,0
2.0182,-0.550604,0.0121585
1.97319,-0.643412,0.0482943
2.01353,-0.549328,0.060741
2.01796,-0.550537,-0.134055
2.02042,-0.551209,-0.0853225
1.96938,-0.642173,-0.0482012
2.01995,-0.558284,-0.0365802
1.96398,-0.647623,0
2.01637,-0.557294,0.0121585
2.01555,-0.557067,0.0608574
2.01612,-0.557226,-0.134055
2.01858,-0.557906,-0.0853225
1.96724,-0.6487,-0.0482012
1.9578,-0.65355,0
2.00661,-0.562521,0.012112
1.99809,-0.560134,0.060392
2.01022,-0.563534,-0.133799
2.00883,-0.563143,-0.0849968
1.96106,-0.65464,-0.0481082
1.9555,-0.66038,0
2.00079,-0.568429,0.0120888
2.00382,-0.569291,0.0606247
2.00824,-0.570547,-0.133799
2.00301,-0.56906,-0.084834
2.01005,-0.578651,-0.0365104
1.9494,-0.665909,0
2.00263,-0.576516,0.012112
2.00182,-0.576282,0.0606247
2.00624,-0.577554,-0.133799
2.00101,-0.576048,-0.084834
2.00034,-0.583424,-0.0363708
1.94328,-0.671403,0
2.00061,-0.583503,0.012112
1.9998,-0.583266,0.0606247
1.99655,-0.582318,-0.133288
2.00666,-0.585267,-0.0851596
1.99839,-0.590054,-0.0363708
1.94105,-0.677844,0
1.99866,-0.590134,0.012112
1.98635,-0.586497,0.0602756
1.99704,-0.589655,-0.084834
1.99632,-0.597026,-0.0363708
1.94621,-0.687279,0
1.99276,-0.595961,0.0120888
1.98812,-0.594573,0.060392
1.99114,-0.595477,-0.0846712
1.99795,-0.605499,-0.0364406
1.98673,-0.602101,0.0120655
1.98593,-0.601856,0.060392
1.98894,-0.602771,-0.0846712
1.992,-0.611296,-0.0363708
1.98079,-0.607859,0.0120423
1.98381,-0.608785,0.060392
1.99065,-0.610883,-0.084834
1.98996,-0.617899,-0.0363708
1.97877,-0.614424,0.0120423
1.97796,-0.614174,0.0602756
1.9848,-0.616295,-0.0846712
1.98043,-0.622527,0.0120655
1.96818,-0.618677,0.0600429
1.97882,-0.622021,-0.0845083
1.97443,-0.628223,0.0120423
1.97577,-0.636251,-0.0362312
1.96461,-0.632659,0.0119958
1.97,-0.641992,0.0120423
1.97128,-0.650029,-0.0362312
1.96394,-0.647612,0.012019
1.96899,-0.656906,-0.0362312
1.96167,-0.654463,0.012019
1.96302,-0.662154,-0.0361614
1.9557,-0.659686,0.0119958
1.95702,-0.667369,-0.0360916
1.94712,-0.671588,-0.035952
