2.25621,0.3808,-0.133255
2.24971,0.371228,-0.13279
2.24281,0.362051,-0.0264485
2.24705,0.362736,-0.132557
2.24795,0.355236,-0.0264951
2.24824,0.355282,-0.132557
2.24528,0.346385,-0.0264485
2.24164,0.345822,-0.132092
2.23054,0.33694,-0.0262623
2.2486,0.339668,-0.212284
2.23877,0.338182,-0.131859
2.23572,0.329346,-0.0263088
2.23209,0.328811,-0.131394
2.2329,0.32097,-0.0262623
2.23915,0.321869,-0.211169
2.23322,0.321017,-0.131394
2.22999,0.313007,-0.0262157
2.23626,0.313888,-0.210797
2.22637,0.312499,-0.130929
2.26409,0.431488,-0.120791
2.22314,0.304138,-0.0261226
2.2334,0.305541,-0.210425
2.22744,0.304727,-0.130929
2.25773,0.422116,-0.120373
2.25354,0.412788,-0.0666755
2.22424,0.295986,-0.0261226
2.2345,0.297352,-0.210425
2.21631,0.294931,0.0260295
2.2325,0.297086,-0.131162
2.26319,0.414556,-0.120582
2.22521,0.288609,-0.0261226
2.23943,0.290453,-0.210797
2.22124,0.288095,0.026076
2.22952,0.289168,-0.130929
2.25276,0.404929,-0.119954
2.24842,0.396053,-0.0664428
2.21827,0.279839,-0.0260295
2.22857,0.281139,-0.209682
2.21827,0.279839,0.0260295
2.22259,0.280385,-0.130464
2.26202,0.398449,-0.120373
2.21129,0.271121,-0.0259363
2.22163,0.272389,-0.208938
2.21526,0.271607,0.0259829
2.21166,0.271166,-0.129766
2.25159,0.388513,-0.119745
2.21624,0.263487,-0.0259829
2.21866,0.263774,-0.208567
2.20433,0.26207,0.0258432
2.21661,0.26353,-0.129999
2.253,0.380258,-0.119745
2.24061,0.370528,-0.0660937
2.20518,0.254758,-0.0258432
2.22348,0.256872,-0.208938
2.20916,0.255217,0.0258898
2.22144,0.256636,-0.130231
2.25031,0.372132,-0.119535
2.24189,0.362705,-0.0660937
2.20606,0.247059,-0.0258432
2.20208,0.246614,0.0257966
2.21438,0.247992,-0.129766
2.25159,0.364276,-0.119535
2.23524,0.353628,-0.065861
2.20293,0.238927,-0.0257966
2.2401,0.354397,-0.0131814
2.2173,0.240485,-0.208195
2.20293,0.238927,0.0257966
2.24846,0.35572,-0.185836
2.20729,0.2394,-0.129301
2.25285,0.356414,-0.119535
2.21167,0.232456,-0.0258898
2.24126,0.346966,-0.0131814
2.21413,0.232714,-0.207823
2.20371,0.231619,0.0257966
2.24569,0.347651,-0.185511
2.21205,0.232496,-0.129534
2.23823,0.346496,-0.118698
2.2337,0.337418,-0.0657446
2.19659,0.222734,-0.0257035
2.21496,0.224598,-0.207823
2.20057,0.223138,0.0257501
2.23907,0.338228,-0.18486
2.20097,0.223178,-0.128836
2.23949,0.338291,-0.118698
2.23578,0.329752,-0.0131349
2.20781,0.216088,-0.207079
2.19337,0.214675,0.0256569
2.24023,0.330409,-0.18486
2.20571,0.215883,-0.129069
2.27343,0.449739,-0.107952
2.2446,0.331054,-0.118907
2.23991,0.322776,-0.065861
2.19407,0.207401,-0.0256569
2.22894,0.321195,-0.0130884
2.19407,0.207401,0.0256569
2.23737,0.32241,-0.184535
2.20243,0.208192,-0.128836
2.23383,0.3219,-0.118279
2.19478,0.199741,-0.0256569
2.22609,0.312856,-0.0130652
2.20923,0.201055,-0.207079
2.19876,0.200103,0.0257035
2.23453,0.314043,-0.184209
2.19519,0.199778,-0.128371
2.23889,0.314656,-0.118489
2.2223,0.304417,-0.0652792
2.19945,0.192427,-0.0257035
2.2232,0.304541,-0.0130419
2.20595,0.192996,-0.206708
2.19148,0.19173,0.0256104
2.23562,0.306242,-0.184209
2.22686,0.305043,0.039233
2.1919,0.191767,-0.128138
2.22811,0.305213,-0.117861
2.22731,0.297186,-0.0653955
2.22029,0.296249,-0.0130187
2.20264,0.18496,-0.206336
2.18416,0.183409,0.0255173
2.22877,0.297381,-0.183558
2.22791,0.297267,0.039233
2.19653,0.184448,-0.128371
2.2252,0.296905,-0.117651
2.22437,0.288895,-0.0652792
2.1808,0.175464,-0.0254707
2.22527,0.289013,-0.0130419
2.19533,0.176632,-0.205592
2.19276,0.176426,0.0256104
2.22584,0.289086,-0.183233
2.21704,0.287943,0.0390236
2.19717,0.17678,-0.128371
2.25333,0.405439,-0.106649
2.22622,0.289136,-0.117651
2.22536,0.281129,-0.0652792
2.18539,0.168157,-0.0255173
2.21833,0.280241,-0.0129954
2.1999,0.169274,-0.205964
2.1814,0.167851,0.0254707
2.22683,0.281315,-0.183233
2.21406,0.279702,0.0389538
2.18981,0.168497,-0.127906
2.2508,0.396877,-0.106463
2.22325,0.280863,-0.117442
2.21046,0.27141,-0.0648137
2.18597,0.160527,-0.0255173
2.21136,0.27152,-0.0129489
2.19254,0.16101,-0.205221
2.18995,0.16082,0.0255638
2.2278,0.27354,-0.183233
2.21503,0.271971,0.0389538
2.18242,0.160267,-0.127441
2.21749,0.272274,0.0910215
2.24823,0.388338,-0.106277
2.21629,0.272127,-0.117023
2.25006,0.388653,-0.053133
2.18252,0.152617,-0.0254707
2.22614,0.265452,-0.285366
2.21626,0.264274,-0.0129722
2.18514,0.152801,-0.204477
2.1905,0.153175,0.0255638
2.25046,0.380638,-0.159603
2.22874,0.265762,-0.183233
2.21199,0.263764,0.038884
2.18296,0.152648,-0.127441
2.24564,0.379822,-0.106091
2.21723,0.264389,-0.117023
2.24352,0.379464,-0.0529469
2.20435,0.255052,-0.064581
2.17905,0.144732,-0.0254241
2.22705,0.257679,-0.285366
2.2132,0.256076,-0.0129489
2.19361,0.145699,-0.205221
2.18304,0.144997,0.0254707
2.24391,0.371476,-0.159045
2.22174,0.257064,-0.182582
2.2129,0.256041,0.038884
2.17551,0.144497,-0.126976
2.24301,0.371327,-0.105905
2.2102,0.255729,-0.116605
2.24483,0.371629,-0.0529469
2.20523,0.247357,-0.064581
2.17555,0.136874,-0.0253776
2.224,0.249462,-0.284861
2.21408,0.248349,-0.0129489
2.17555,0.136874,0.0253776
2.24519,0.363642,-0.159045
2.2147,0.248419,-0.181931
2.2098,0.24787,0.0388142
2.18796,0.137655,-0.127673
2.24429,0.363496,-0.105905
2.20711,0.247568,-0.116395
2.24611,0.363792,-0.0529469
2.20608,0.239657,-0.064581
2.17602,0.129279,-0.0253776
2.21302,0.240411,-0.283346
2.21095,0.240186,-0.0129257
2.18662,0.129909,-0.204477
2.18001,0.129516,0.0254241
2.2425,0.355177,-0.158766
2.21555,0.240686,-0.181931
2.20668,0.239722,0.0387443
2.18045,0.129543,-0.127208
2.19724,0.238696,0.0900445
2.2416,0.355034,-0.105719
2.20796,0.239861,-0.116395
2.23947,0.354697,-0.0527608
2.17242,0.122218,-0.025331
2.21771,0.233874,-0.283851
2.20374,0.232401,-0.0128792
2.18304,0.122816,-0.204105
2.17641,0.122443,0.0253776
2.23966,0.347519,-0.158487
2.20837,0.232888,-0.18128
2.2114,0.233208,0.0388142
2.17288,0.122244,-0.126743
2.194,0.231374,0.0898817
2.23481,0.346765,-0.105346
2.2087,0.232924,-0.116395
2.23267,0.346434,-0.0525747
2.23052,0.33813,0
2.17283,0.114633,-0.025331
2.21457,0.225728,-0.283346
2.20454,0.224706,-0.0128792
2.17948,0.114984,-0.203733
2.17682,0.114844,0.0253776
2.23692,0.339101,-0.158208
2.21313,0.225582,-0.181606
2.20822,0.225081,0.0387443
2.1693,0.114447,-0.126511
2.236,0.338962,-0.105346
2.20156,0.224402,-0.115976
2.19248,0.215748,-0.0641155
2.22773,0.329758,0
2.17322,0.10705,-0.025331
2.21139,0.217609,-0.282841
2.20531,0.217011,-0.0128792
2.17589,0.107181,-0.203362
2.17721,0.107246,0.0253776
2.23809,0.331292,-0.158208
2.202,0.216686,-0.180629
2.20501,0.216982,0.0386745
2.1657,0.106679,-0.126278
2.19159,0.215661,0.0897188
2.23322,0.330571,-0.10516
2.19835,0.216326,-0.115767
2.22712,0.329669,-0.0523886
2.22886,0.321979,0
2.16159,0.098914,-0.0251913
2.20819,0.209513,-0.282336
2.20207,0.208933,-0.012856
2.17227,0.0994028,-0.20299
2.17358,0.0994625,0.025331
2.23923,0.323477,-0.158208
2.19481,0.208244,-0.179978
2.19779,0.208527,0.0385349
2.16606,0.0991184,-0.126278
2.18835,0.207631,0.089556
2.2304,0.322202,-0.104974
2.19909,0.208651,-0.115767
2.22826,0.321892,-0.0523886
2.18995,0.200072,-0.0639992
2.22601,0.313638,0
2.16592,0.0915364,-0.0252379
2.20495,0.201443,-0.281831
2.19881,0.200881,-0.0128327
2.16863,0.0916508,-0.202618
2.16592,0.0915364,0.0252379
2.23244,0.314544,-0.15765
2.20346,0.201306,-0.180629
2.18656,0.199762,0.0383255
2.16639,0.0915563,-0.126278
2.18906,0.199991,0.089556
2.23943,0.315528,-0.105346
2.19981,0.200972,-0.115767
2.19063,0.192427,-0.0639992
2.22313,0.305322,0
2.16623,0.0839758,-0.0252379
2.2096,0.194092,-0.282336
2.19551,0.192855,-0.0128095
2.17291,0.084235,-0.20299
2.16623,0.0839758,0.0252379
2.23748,0.307293,-0.157929
2.20018,0.193265,-0.180304
2.19123,0.192479,0.0383953
2.15872,0.0836847,-0.125813
2.18974,0.192349,0.089556
2.2326,0.306623,-0.104974
2.19652,0.192943,-0.115558
2.18332,0.184106,-0.0637664
2.22022,0.297029,0
2.16651,0.0764131,-0.0252379
2.20631,0.186044,-0.281831
2.19617,0.185189,-0.0128095
2.16523,0.0763683,-0.202246
2.23547,0.29907,0.0524816
2.16651,0.0764131,0.0252379
2.23063,0.298422,-0.157371
2.20481,0.185918,-0.180629
2.19189,0.184828,0.0383953
2.26922,0.417298,-0.14787
2.16299,0.0762891,-0.126045
2.18244,0.184032,0.0892304
2.2297,0.298297,-0.104788
2.1932,0.184939,-0.115348
2.21962,0.296949,-0.0521094
2.21331,0.288245,0
2.15876,0.0685966,-0.0251447
2.19903,0.177703,-0.280821
2.19281,0.1772,-0.0127862
2.22424,0.289669,-0.241611
2.16151,0.0686837,-0.201875
2.22461,0.289716,0.0522025
2.16276,0.0687236,0.0251913
2.2277,0.290119,-0.157092
2.1975,0.177579,-0.179978
2.18853,0.176854,0.0383255
2.16324,0.0687388,-0.126045
2.17908,0.176091,0.0890675
2.23072,0.290513,-0.104788
2.18587,0.176639,-0.11493
2.18161,0.176295,0.178676
2.21668,0.288683,-0.0520164
2.18057,0.168551,-0.0636501
2.2143,0.280517,0
2.16299,0.0611731,-0.0251913
2.19964,0.170025,-0.280821
2.19342,0.169544,-0.0127862
2.23313,0.282902,-0.242468
2.16173,0.0611377,-0.201875
2.22164,0.281446,0.0521094
2.15899,0.0610601,0.0251447
2.21683,0.280836,-0.156255
2.19016,0.169292,-0.179327
2.18515,0.168905,0.0382557
2.15948,0.0610738,-0.125813
2.17968,0.168483,0.0890675
2.2238,0.281719,-0.104416
2.18249,0.168699,-0.11472
2.17426,0.168063,0.178025
2.2137,0.280441,-0.0519233
2.26208,0.391137,-0.0400707
2.18516,0.160852,-0.0637664
2.21929,0.272887,0
2.1592,0.053147,-0.0251447
2.18837,0.161088,-0.279305
2.19403,0.161504,-0.0127862
2.22231,0.273259,-0.241183
2.21869,0.272814,0.0520164
2.1592,0.053147,0.0251447
2.21784,0.27271,-0.156255
2.18679,0.160972,-0.179002
2.18575,0.160895,0.0382557
2.15569,0.0530607,-0.12558
2.18029,0.160493,0.0890675
2.22878,0.274055,-0.104602
2.18707,0.160993,-0.11493
2.17486,0.160094,0.178025
2.24874,0.388829,-0.0929754
2.21472,0.272326,-0.0519233
2.2476,0.38096,-0.0397915
2.17372,0.152764,-0.0634174
2.22018,0.265527,0
2.15936,0.045987,-0.0251447
2.19285,0.154109,-0.27981
2.19056,0.153948,-0.012763
2.21926,0.265417,-0.240754
2.16211,0.0460455,-0.201875
2.21561,0.26498,0.0519233
2.23062,0.266776,-0.157092
2.18333,0.15344,-0.178676
2.18627,0.153647,0.0382557
2.24727,0.380905,-0.146079
2.14787,0.0457423,-0.125115
2.17682,0.152982,0.0889047
2.22571,0.266188,-0.104416
2.18759,0.15374,-0.11493
2.1714,0.152602,0.1777
2.24102,0.371802,-0.0396519
2.2052,0.25593,0
2.18546,0.145925,-0.2788
2.18709,0.146034,-0.0127397
2.21622,0.257209,-0.240326
2.15031,0.0382847,-0.200759
2.20857,0.256322,0.0517372
2.15151,0.0383062,0.0250516
2.22361,0.258067,-0.156534
2.19181,0.146349,-0.179327
2.18281,0.145747,0.0381859
2.24465,0.372404,-0.145823
2.15201,0.038315,-0.125348
2.16937,0.14485,0.0885791
2.22662,0.258417,-0.104416
2.18015,0.14557,-0.114511
2.17192,0.145021,0.1777
2.24345,0.372205,-0.0926498
2.2046,0.255861,-0.0516442
2.23829,0.363727,-0.0395821
2.17072,0.13771,-0.063301
2.20206,0.248168,0
2.15163,0.0311707,-0.0250516
2.19385,0.139178,-0.27981
2.18757,0.138779,-0.0127397
2.21311,0.249413,-0.239897
2.14644,0.0310956,-0.200387
2.20544,0.248548,0.0516442
2.14763,0.0311127,0.025005
2.21256,0.249351,-0.155696
2.18433,0.138574,-0.178676
2.17929,0.138254,0.0381161
2.24193,0.364318,-0.145567
2.14414,0.0310622,-0.124883
2.21556,0.249689,-0.103857
2.17264,0.137833,-0.114092
2.16841,0.137564,0.177375
2.20544,0.248548,-0.0516442
2.23955,0.355913,-0.0395821
2.16719,0.129895,-0.0631846
2.19894,0.240047,0
2.14772,0.0236174,-0.025005
2.18244,0.130809,-0.278295
2.18404,0.130905,-0.0127165
2.22187,0.242551,-0.240754
2.15052,0.0236481,-0.200759
2.21424,0.241718,0.0518303
2.15172,0.0236614,0.0250516
2.21738,0.24206,-0.155975
2.17684,0.130473,-0.178025
2.17976,0.130648,0.0381161
2.23925,0.355865,-0.145312
2.14823,0.023623,-0.125115
2.16631,0.129842,0.0884162
2.21244,0.241521,-0.103671
2.16913,0.130011,-0.113883
2.1649,0.129757,0.177049
2.20629,0.24085,-0.0516442
2.24078,0.348093,-0.0395821
2.17162,0.122554,-0.063301
2.20374,0.232789,0
2.14379,0.0160897,-0.0249585
2.17892,0.122966,-0.27779
2.18049,0.123054,-0.0126932
2.21084,0.233539,-0.239469
2.15059,0.0161407,-0.200759
2.2111,0.233567,0.0517372
2.13979,0.0160597,0.0249119
2.21424,0.233899,-0.155696
2.17728,0.122873,-0.178025
2.17221,0.122587,0.0379764
2.14031,0.0160636,-0.12465
2.17074,0.122504,0.0885791
2.21725,0.234216,-0.103857
2.16957,0.122438,-0.113883
2.23531,0.347244,-0.0921613
2.19917,0.232306,-0.0514581
2.24198,0.340269,-0.0395821
2.20454,0.225096,0
2.14384,0.00860682,-0.0249585
2.17934,0.11536,-0.27779
2.17692,0.115231,-0.01267
2.21164,0.225821,-0.239469
2.14665,0.00861812,-0.200387
2.20394,0.225035,0.0515511
2.14384,0.00860682,0.0249585
2.21505,0.226169,-0.155696
2.17372,0.115062,-0.1777
2.17263,0.115004,0.0379764
2.13636,0.00857682,-0.124418
2.16717,0.114715,0.0884162
2.2101,0.225664,-0.103485
2.17397,0.115075,-0.114092
2.15779,0.114219,0.176398
2.19996,0.224629,-0.0514581
2.23524,0.331268,-0.0394424
2.16045,0.106798,-0.0629519
2.18207,0.107867,-0.436949
2.19735,0.216614,0
2.17577,0.107555,-0.277285
2.1773,0.107631,-0.01267
2.20054,0.216929,-0.238184
2.1387,0.0011201,-0.199644
2.20471,0.21734,0.0515511
2.14385,0.0011228,0.0249585
2.21185,0.218044,-0.155417
2.1741,0.107473,-0.1777
2.17302,0.107419,0.0379764
2.14037,0.00112098,-0.12465
2.16356,0.106952,0.0882534
2.21087,0.217947,-0.103485
2.16239,0.106894,-0.113464
2.16216,0.106882,0.176724
2.23373,0.331044,-0.0919985
2.20471,0.21734,-0.0515511
2.23243,0.322891,-0.0393726
2.1746,0.0998885,-0.43538
2.19411,0.208563,0
2.14385,-0.00636122,-0.0249585
2.17613,0.099959,-0.277285
2.22877,0.322362,0.0130884
2.17367,0.0998461,-0.0126467
2.2092,0.209998,-0.239041
2.14268,-0.00635775,-0.200016
2.20148,0.209264,0.0514581
2.13985,-0.00634935,0.0249119
2.20465,0.209566,-0.154859
2.17048,0.0996996,-0.177375
2.23215,0.32285,-0.144544
2.14036,-0.00635089,-0.12465
2.16392,0.0993982,0.0882534
2.20764,0.20985,-0.103299
2.15876,0.099161,-0.113255
2.15854,0.0991508,0.176398
2.19352,0.208507,-0.051272
2.22958,0.314538,-0.0393028
2.16114,0.0917123,-0.0629519
2.17101,0.0921313,-0.434596
2.18686,0.200174,0
2.13581,-0.0137925,-0.0248654
2.16854,0.0920262,-0.276275
2.20596,0.201923,-0.238612
2.13467,-0.0137851,-0.199272
2.19821,0.201214,0.051365
2.13981,-0.0138183,0.0249119
2.20935,0.202233,-0.155138
2.16285,0.091785,-0.176724
2.16572,0.0919068,0.0378368
2.22535,0.313942,-0.144032
2.14432,-0.0138474,-0.124883
2.19111,0.200564,0.128138
2.16026,0.0916751,0.0880906
2.20836,0.202143,-0.103299
2.16308,0.0917948,-0.113464
2.15489,0.0914469,0.176073
2.22411,0.313767,-0.09151
2.14665,0.0910973,0.391742
2.19025,0.200485,-0.0511789
2.22285,0.304888,-0.0391632
2.16148,0.083414,-0.0629519
2.17135,0.0837951,-0.434596
2.18761,0.191777,0
2.13574,-0.0219928,-0.0248654
2.20492,0.193294,-0.344349
2.16887,0.0836995,-0.276275
2.21918,0.304386,0.0130187
2.16635,0.0836021,-0.0126002
2.1988,0.192757,-0.237755
2.13461,-0.0219811,-0.199272
2.19897,0.192772,0.051365
2.20216,0.193052,-0.15458
2.16319,0.0834801,-0.176724
2.15806,0.0832824,0.0376972
2.13227,-0.0219571,-0.124185
2.1606,0.0833801,0.0880906
2.20116,0.192965,-0.102927
2.15943,0.0833349,-0.113255
2.15522,0.0831726,0.176073
2.22134,0.304682,-0.0913472
2.191,0.192074,-0.0511789
2.21983,0.297373,-0.0390934
2.16768,0.0768346,-0.433811
2.1882,0.184903,0
2.13166,-0.0286481,-0.0248188
2.1937,0.185368,-0.342505
2.16516,0.0767452,-0.27577
2.1666,0.0767964,-0.0126002
2.19543,0.185514,-0.237327
2.13054,-0.0286331,-0.1989
2.19558,0.185527,0.051272
2.13166,-0.0286481,0.0248188
2.1948,0.185461,-0.154022
2.16344,0.0766843,-0.176724
2.16231,0.0766443,0.037767
2.21958,0.297339,-0.143521
2.1282,-0.0286016,-0.123952
2.15686,0.0764509,0.0879277
2.19778,0.185712,-0.102741
2.15968,0.0765509,-0.113255
2.1475,0.0761194,0.175422
2.22229,0.297702,-0.0913472
2.13937,0.0758309,0.390307
2.18761,0.184853,-0.0510859
2.14999,0.0686936,-0.0626028
2.17186,0.0693922,-0.434596
2.18086,0.176618,0
2.19827,0.178028,-0.34312
2.16541,0.0691864,-0.27577
2.16286,0.0691047,-0.012577
2.1921,0.177528,-0.236899
2.12645,-0.0360031,-0.198529
2.18824,0.177216,0.0510859
2.13155,-0.0360894,0.0248188
2.19543,0.177798,-0.154022
2.15971,0.0690041,-0.176398
2.21232,0.288509,0.0649301
2.16257,0.0690954,0.037767
2.21664,0.289073,-0.143265
2.13208,-0.0360984,-0.124185
2.17717,0.176319,0.127208
2.14912,0.0686657,0.0876021
2.19045,0.177394,-0.102368
2.15594,0.0688836,-0.113046
2.15174,0.0687495,0.175747
2.21539,0.288909,-0.0910215
2.18824,0.177216,-0.0510859
2.17063,0.0617687,-1.01259
2.14622,0.061074,-0.0624865
2.16425,0.0615869,-0.433027
2.17748,0.168694,0
2.12741,-0.0434486,-0.0247722
2.19888,0.170353,-0.34312
2.16564,0.0616267,-0.27577
2.21422,0.280898,0.0129722
2.19667,0.170182,-0.237327
2.12233,-0.0433448,-0.198157
2.19283,0.169884,0.0511789
2.12741,-0.0434486,0.0247722
2.19206,0.169825,-0.153743
2.16392,0.0615777,-0.176724
2.21764,0.281333,-0.143265
2.13194,-0.0435411,-0.124185
2.17777,0.168718,0.127208
2.15334,0.0612766,0.0877649
2.19902,0.170364,-0.102741
2.14818,0.0611298,-0.112627
2.15197,0.0612375,0.175747
2.21638,0.281173,-0.0910215
2.13984,0.0608925,0.390307
2.18486,0.169267,-0.0509928
2.17084,0.0541919,-1.01259
2.21488,0.273131,-0.0389538
2.16053,0.0539345,-0.432243
2.18204,0.161388,0
2.12325,-0.0507783,-0.0247257
2.19552,0.162385,-0.342505
2.16188,0.0539682,-0.275265
2.21121,0.272679,0.0129489
2.19329,0.16222,-0.236899
2.12216,-0.0507524,-0.198157
2.18943,0.161934,0.0510859
2.18866,0.161878,-0.153464
2.15217,0.0537258,-0.175747
2.159,0.0538963,0.0376972
2.13178,-0.0509823,-0.124185
2.18233,0.16141,0.127441
2.14555,0.0535606,0.0874392
2.19163,0.162097,-0.102368
2.15237,0.053731,-0.112836
2.1442,0.0535268,0.175096
2.21735,0.273435,-0.0910215
2.14791,0.0536195,0.391742
2.18544,0.161639,-0.0509928
2.21185,0.264922,-0.038884
2.1466,0.0460891,-0.0624865
2.1607,0.0463919,-0.432243
2.17461,0.153208,0
2.19213,0.154442,-0.34189
2.15809,0.0463358,-0.27476
2.20818,0.264482,0.0129257
2.15947,0.0463654,-0.0125537
2.19384,0.154562,-0.236899
2.12197,-0.0581604,-0.198157
2.18998,0.15429,0.0510859
2.11906,-0.0580805,0.0246791
2.18125,0.153676,-0.152906
2.15234,0.0462124,-0.175747
2.15518,0.0462733,0.0376274
2.11961,-0.0580956,-0.123487
2.14972,0.0461562,0.0876021
2.19218,0.154446,-0.102368
2.14456,0.0460454,-0.112418
2.1364,0.0458701,0.174445
2.14022,0.0459521,0.390307
2.182,0.153728,-0.0508998
2.20482,0.256277,-0.0387443
2.13875,0.0384535,-0.0622537
2.16085,0.0388509,-0.432243
2.18311,0.146152,0
2.12284,-0.0655991,-0.0247257
2.18871,0.146527,-0.341275
2.15427,0.0387325,-0.274255
2.20512,0.256312,0.0129024
2.15562,0.0387567,-0.0125305
2.18643,0.146374,-0.236042
2.11778,-0.0654426,-0.197785
2.18252,0.146112,0.0508998
2.18576,0.146329,-0.153185
2.1485,0.0386289,-0.175422
2.20857,0.256713,-0.142497
2.1194,-0.0654926,-0.123487
2.16747,0.145104,0.126511
2.14188,0.0385097,0.0872764
2.18075,0.145993,-0.10181
2.14471,0.0385607,-0.112418
2.14053,0.0384856,0.174771
2.14823,0.038624,0.391742
2.17853,0.145845,-0.0508067
2.16766,0.0317825,-1.0109
2.20963,0.249413,-0.0388142
2.13886,0.0313603,-0.0622537
2.15705,0.0316269,-0.431458
2.17161,0.138149,0
2.11862,-0.0725022,-0.0246791
2.18524,0.139016,-0.34066
2.15835,0.0316461,-0.27476
2.20198,0.248549,0.0128792
2.18293,0.138869,-0.235614
2.10959,-0.0721932,-0.197041
2.179,0.138619,0.0508067
2.12261,-0.072639,0.0247257
2.18225,0.138826,-0.152906
2.14862,0.0315034,-0.175422
2.20941,0.249388,-0.142497
2.12715,-0.0727942,-0.123952
2.17192,0.138169,0.126743
2.14199,0.0314062,0.0872764
2.18122,0.13876,-0.10181
2.14483,0.0314477,-0.112418
2.14065,0.0313865,0.174771
2.21211,0.249692,-0.0906958
2.179,0.138619,-0.0508067
2.16775,0.0242152,-1.0109
2.20254,0.240828,-0.0386745
2.14296,0.0239382,-0.0623701
2.1493,0.024009,-0.429889
2.16809,0.130327,0
2.11435,-0.0797469,-0.0246325
2.18571,0.131387,-0.34066
2.15448,0.0240669,-0.274255
2.20681,0.241295,0.0129024
2.17944,0.131009,-0.235185
2.10932,-0.0795572,-0.197041
2.17548,0.130772,0.0507136
2.11835,-0.0798976,0.0246791
2.17874,0.130967,-0.152627
2.14473,0.023958,-0.175096
2.20233,0.240805,-0.141986
2.1189,-0.0799184,-0.123487
2.16442,0.130107,0.126278
2.14209,0.0239285,0.0872764
2.1777,0.130905,-0.101624
2.13693,0.0238709,-0.111999
2.13676,0.0238689,0.174445
2.20105,0.240665,-0.0902073
2.17548,0.130772,-0.0507136
2.1642,0.0166197,-1.00921
2.20336,0.233138,-0.0386745
2.13903,0.0164265,-0.0622537
2.14937,0.0165058,-0.429889
2.16853,0.122758,0
2.11406,-0.0871275,-0.0246325
2.17827,0.123309,-0.33943
2.15455,0.0165457,-0.274255
2.19968,0.232748,0.012856
2.18385,0.123625,-0.235614
2.11301,-0.0870842,-0.197413
2.17992,0.123403,0.0508067
2.11007,-0.0869627,0.024586
2.17918,0.123361,-0.152627
2.14082,0.0164402,-0.174771
2.19481,0.232233,0.0642319
2.20316,0.233116,-0.141986
2.11861,-0.0873148,-0.123487
2.17283,0.123002,0.126743
2.13417,0.0163891,0.0869508
2.17416,0.123077,-0.101438
2.137,0.0164109,-0.111999
2.20187,0.23298,-0.0902073
2.17593,0.123177,-0.0507136
2.16787,0.00908185,-1.0109
2.19621,0.224633,-0.0385349
2.14307,0.00897798,-0.0623701
2.14549,0.0089881,-0.429105
2.16495,0.114977,0
2.10975,-0.0943263,-0.024586
2.17868,0.115706,-0.33943
2.14666,0.008993,-0.273244
2.1965,0.224663,0.0128327
2.1803,0.115792,-0.235185
2.10872,-0.0942801,-0.197041
2.17634,0.115582,0.0507136
2.10975,-0.0943263,0.024586
2.17163,0.115332,-0.152069
2.14086,0.0089687,-0.174771
2.14765,0.00899716,0.0374878
2.1143,-0.0945298,-0.123255
2.1573,0.114571,0.125813
2.13821,0.00895759,0.0871136
2.17856,0.1157,-0.101624
2.13705,0.00895273,-0.111999
2.1289,0.0089186,0.173795
2.17634,0.115582,-0.0507136
2.15701,0.00150635,-1.00583
2.1351,0.00149105,-0.0621374
2.14551,0.00149832,-0.429105
2.16534,0.107418,0
2.10541,-0.101498,-0.0245394
2.17907,0.1081,-0.33943
2.14668,0.00149913,-0.273244
2.19727,0.216994,0.0128327
2.17274,0.107786,-0.234328
2.1044,-0.101449,-0.19667
2.1134,-0.101883,0.0246325
2.17202,0.10775,-0.152069
2.13689,0.0014923,-0.174445
2.20076,0.217338,-0.14173
2.11396,-0.10191,-0.123255
2.16566,0.107435,0.126278
2.13423,0.00149044,0.0869508
2.17496,0.107896,-0.101438
2.14106,0.00149521,-0.112208
2.16506,0.107405,0.266163
2.12892,0.00148673,0.173795
2.19947,0.217211,-0.0900445
2.17274,0.107786,-0.0506206
2.16788,-0.00643233,-1.0109
2.18979,0.208153,-0.0383953
2.14158,-0.00635429,-0.42832
2.16572,0.0994809,0
2.10103,-0.109007,-0.0244928
2.17551,0.0999306,-0.338815
2.1427,-0.00635763,-0.272739
2.19407,0.20856,0.0128095
2.14395,-0.00636134,-0.0124607
2.17312,0.0998211,-0.234328
2.10401,-0.109162,-0.19667
2.17312,0.0998209,0.0506206
2.10503,-0.109215,0.0245394
2.16443,0.0994216,-0.151511
2.13688,-0.00634036,-0.174445
2.19318,0.208475,0.0641155
2.19359,0.208514,-0.141218
2.10958,-0.109451,-0.123022
2.16205,0.0993126,0.126045
2.13022,-0.0063206,0.0867879
2.16736,0.0995565,-0.101066
2.13306,-0.00632903,-0.11179
2.12492,-0.00630487,0.173469
2.19229,0.208391,-0.0897188
2.17312,0.0998209,-0.0506206
2.16422,-0.013598,-1.00921
2.19047,0.200891,-0.0383953
2.12706,-0.0133645,-0.0619047
2.1337,-0.0134063,-0.426751
2.17188,0.092548,-0.3382
2.14664,-0.0134876,-0.273244
2.19874,0.201649,0.0128327
2.13992,-0.0134454,-0.0124375
2.16947,0.0924454,-0.2339
2.10364,-0.116138,-0.19667
2.10465,-0.116194,0.0245394
2.16076,0.0920741,-0.151232
2.13685,-0.0134261,-0.174445
2.1859,0.200471,0.0638828
2.19825,0.201604,-0.141474
2.1132,-0.116666,-0.123255
2.15838,0.0919728,0.125813
2.13419,-0.0134093,0.0869508
2.16768,0.0923691,-0.101066
2.12904,-0.013377,-0.11158
2.14989,0.091611,0.264213
2.1209,-0.0133259,0.173144
2.16545,0.092274,-0.0504345
2.19913,0.193946,-0.0385349
2.127,-0.0207898,-0.0619047
2.13756,-0.0208931,-0.427536
2.15835,0.0844243,0
2.10423,-0.123541,-0.0245394
2.17219,0.0849656,-0.3382
2.14261,-0.0209424,-0.272739
2.19146,0.193269,0.0127862
2.17375,0.0850268,-0.234328
2.09527,-0.123014,-0.195926
2.16576,0.084714,0.0504345
2.10024,-0.123306,0.0244928
2.16107,0.0845306,-0.151232
2.12882,-0.0208076,-0.173795
2.1826,0.192488,0.0637664
2.10879,-0.123808,-0.123022
2.15869,0.0844375,0.125813
2.12613,-0.0207814,0.0866251
2.16,0.084489,-0.100693
2.12898,-0.0208092,-0.11158
2.14623,0.0839502,0.263725
2.16975,0.0848703,-0.0505275
2.18784,0.185256,-0.0383255
2.12691,-0.0282139,-0.0619047
2.13356,-0.028302,-0.426751
2.15463,0.0767478,0
2.17247,0.0773832,-0.3382
2.13459,-0.0283157,-0.271729
2.18813,0.185281,0.012763
2.13578,-0.0283314,-0.0124142
2.16211,0.0770142,-0.233043
2.10278,-0.130821,-0.19667
2.0998,-0.130636,0.0244928
2.16135,0.076987,-0.151232
2.12873,-0.028238,-0.173795
2.18767,0.185242,-0.140707
2.10834,-0.131168,-0.123022
2.15897,0.0769023,0.125813
2.13005,-0.0282554,0.0867879
2.16428,0.0770914,-0.100879
2.1249,-0.0281871,-0.111371
2.14651,0.0764584,0.263725
2.11279,-0.0280265,0.172493
2.18636,0.185131,-0.0893932
2.16604,0.0771541,-0.0504345
2.1805,0.17697,-0.0381859
2.1228,-0.0355716,-0.0617883
2.13344,-0.0357499,-0.426751
2.15089,0.0690972,0
2.16878,0.0696719,-0.337585
2.13844,-0.0358337,-0.272234
2.18877,0.177642,0.012763
2.13566,-0.0357871,-0.0124142
2.16237,0.069466,-0.233043
2.09436,-0.137639,-0.195926
2.1623,0.0694637,0.0503414
2.09933,-0.137966,0.0244928
2.15762,0.0693133,-0.150953
2.12862,-0.035669,-0.173795
2.18389,0.177246,0.0637664
2.10389,-0.138265,-0.12279
2.15124,0.0691086,0.125348
2.12594,-0.0356241,0.0866251
2.15655,0.069279,-0.100507
2.12479,-0.0356048,-0.111371
2.14279,0.0688371,0.263238
2.11267,-0.0354019,0.172493
2.1663,0.0695921,-0.0504345
2.11867,-0.0428989,-0.0616719
2.12546,-0.0430365,-0.425182
2.14712,0.0614758,0
2.16506,0.0619894,-0.336971
2.13831,-0.0432965,-0.272234
2.18937,0.170002,0.012763
2.13153,-0.0431593,-0.012391
2.15862,0.0618052,-0.232615
2.09386,-0.144947,-0.195926
2.15853,0.0618025,0.0502484
2.08686,-0.144463,0.0243531
2.15386,0.0616687,-0.150674
2.1245,-0.0430169,-0.173469
2.1845,0.169623,0.0637664
2.13124,-0.0431534,0.0372085
2.18095,0.169348,-0.140195
2.15546,0.0617147,0.12558
2.11781,-0.0428815,0.0862994
2.15678,0.0617523,-0.100507
2.12065,-0.0429391,-0.111162
2.13905,0.0612448,0.26275
2.12051,-0.0429362,0.173144
2.18361,0.169554,-0.0892304
2.18168,0.161744,-0.0381859
2.11851,-0.0502948,-0.0616719
2.1253,-0.0504561,-0.425182
2.14732,0.05398,0
2.09831,-0.152617,-0.0244928
2.16131,0.0543316,-0.336356
2.18995,0.162358,0.012763
2.15883,0.0542692,-0.232615
2.08937,-0.151967,-0.195554
2.08635,-0.151747,0.0243531
2.14608,0.0539488,-0.150116
2.12433,-0.0504331,-0.173469
2.1771,0.161405,0.0635337
2.18153,0.161733,-0.140195
2.10287,-0.152949,-0.12279
2.15167,0.0540894,0.125348
2.11765,-0.0502744,0.0862994
2.15298,0.0541224,-0.100321
2.1165,-0.0502471,-0.110952
2.11238,-0.0501492,0.172493
2.16273,0.0543674,-0.0503414
2.17824,0.153846,-0.0381161
2.11832,-0.05769,-0.0616719
2.12511,-0.057875,-0.425182
2.1395,0.0463104,0
2.09777,-0.159941,-0.0244928
2.16149,0.0467864,-0.336356
2.13398,-0.0581167,-0.271729
2.17854,0.153866,0.0126932
2.15503,0.0466465,-0.232186
2.0928,-0.159563,-0.195926
2.0858,-0.159029,0.0243531
2.14626,0.0464567,-0.150116
2.12016,-0.0577401,-0.173144
2.17366,0.153522,0.0634174
2.09038,-0.159378,-0.122092
2.15185,0.0465778,0.125348
2.11746,-0.0576666,0.0862994
2.14917,0.0465197,-0.100135
2.11631,-0.0576353,-0.110952
2.13943,0.0463089,0.26275
2.10422,-0.057306,0.171842
2.17677,0.153742,-0.0889047
2.15891,0.0467306,-0.0502484
2.17477,0.145973,-0.0380462
2.11411,-0.0649611,-0.0615556
2.12098,-0.0651722,-0.424398
2.13965,0.0388419,0
2.15768,0.0391693,-0.335741
2.1298,-0.0654434,-0.271224
2.17906,0.146261,0.0126932
2.15518,0.0391238,-0.232186
2.08826,-0.16655,-0.195554
2.08125,-0.165991,0.0243066
2.14241,0.0388921,-0.149837
2.11994,-0.0651405,-0.173144
2.1702,0.145666,0.063301
2.12267,-0.0652244,0.0370689
2.09379,-0.166991,-0.122325
2.14002,0.0388487,0.12465
2.11724,-0.0650575,0.0862994
2.14932,0.0390174,-0.100135
2.12009,-0.0651449,-0.111162
2.13561,0.0387686,0.262263
2.104,-0.0646507,0.171842
2.1733,0.145875,-0.0887419
2.15906,0.0391943,-0.0502484
2.10987,-0.0722036,-0.0614392
2.12073,-0.0725754,-0.424398
2.14777,0.0314902,0
2.15386,0.0315794,-0.335126
2.12163,-0.072606,-0.270214
2.17157,0.138146,0.0126467
2.11872,-0.0725066,-0.0123213
2.14337,0.0314257,-0.230901
2.07973,-0.173178,-0.194811
2.15119,0.0315403,0.0500623
2.08863,-0.173919,0.0243997
2.14254,0.0314135,-0.149837
2.11572,-0.0724037,-0.172818
2.1667,0.137836,0.0631846
2.12243,-0.0726335,0.0370689
2.17115,0.138119,-0.139427
2.08922,-0.173968,-0.122092
2.14414,0.0314369,0.124883
2.10901,-0.0721743,0.0859738
2.15343,0.0315732,-0.100321
2.11586,-0.0724084,-0.110952
2.1397,0.0313719,0.26275
2.09978,-0.0718583,0.171516
2.1738,0.138288,-0.0887419
2.15518,0.0315989,-0.0501553
2.16773,0.130686,-0.0379066
2.10962,-0.0791998,-0.0614392
2.12048,-0.0796076,-0.424398
2.13586,0.0242316,0
2.1579,0.0244817,-0.335741
2.12534,-0.07979,-0.270719
2.17601,0.131185,0.01267
2.14346,0.0243178,-0.230901
2.07914,-0.180073,-0.194811
2.08406,-0.180499,0.0243531
2.13864,0.0242631,-0.149558
2.11547,-0.0794193,-0.172818
2.16715,0.13065,0.0631846
2.11819,-0.0795213,0.0369991
2.17159,0.130918,-0.139427
2.08863,-0.180895,-0.122092
2.13624,0.0242359,0.124418
2.10876,-0.0791676,0.0859738
2.14154,0.024296,-0.0997627
2.11161,-0.0792746,-0.110743
2.12788,0.0241411,0.261288
2.10352,-0.0789706,0.171842
2.17026,0.130838,-0.0885791
2.16421,0.122514,-0.0378368
2.10532,-0.0867667,-0.0613228
2.13594,0.0164031,0
2.14612,0.0164813,-0.333896
2.12504,-0.0875793,-0.270719
2.17249,0.122982,0.0126467
2.11817,-0.0872962,-0.0123213
2.14751,0.0164921,-0.23133
2.0745,-0.187334,-0.194439
2.14736,0.0164908,0.0499692
2.07541,-0.187417,0.02426
2.13871,0.0164245,-0.149558
2.11118,-0.0870082,-0.172493
2.1716,0.122932,0.063301
2.16807,0.122733,-0.139172
2.08795,-0.188549,-0.122092
2.14031,0.0164367,0.12465
2.10846,-0.0868961,0.0859738
2.14161,0.0164467,-0.0997627
2.10732,-0.086849,-0.110534
2.12796,0.0163419,0.261288
2.09923,-0.0865157,0.171516
2.17261,0.115382,-0.0379764
2.10101,-0.0939366,-0.0612065
2.13198,0.00893048,0
2.08669,-0.195781,-0.0243997
2.14221,0.00897333,-0.333281
2.16891,0.115186,0.0126235
2.11785,-0.0946894,-0.0123213
2.13563,0.00894575,-0.230044
2.07384,-0.194575,-0.194439
2.1434,0.00897831,0.0498762
2.07873,-0.195034,0.0243066
2.14275,0.00897558,-0.149837
2.11086,-0.094377,-0.172493
2.16403,0.114927,0.0630683
2.1645,0.114952,-0.138916
2.14035,0.00896555,0.12465
2.10016,-0.0938985,0.0856481
2.14166,0.00897102,-0.0997627
2.107,-0.0942044,-0.110534
2.128,0.0089138,0.261288
2.16315,0.114881,-0.0882534
2.16099,0.107581,-0.037767
2.10468,-0.101095,-0.0613228
2.136,0.00186401,0
2.08205,-0.202313,-0.0243531
2.14618,0.0018729,-0.333896
2.12043,-0.101851,-0.270214
2.16528,0.107794,0.0126002
2.10953,-0.101328,-0.0122748
2.13167,0.00186023,-0.229616
2.08111,-0.202221,-0.195183
2.07409,-0.201539,0.02426
2.13479,0.00186295,-0.149279
2.10656,-0.101185,-0.172167
2.1644,0.10775,0.0630683
2.08662,-0.202757,-0.122092
2.14037,0.00186783,0.12465
2.10782,-0.101246,0.0859738
2.14168,0.00186897,-0.0997627
2.10668,-0.101191,-0.110534
2.12008,0.00185012,0.260313
2.16352,0.107707,-0.0882534
2.15736,0.0998518,-0.0376972
2.09633,-0.10803,-0.0610901
2.07735,-0.209178,-0.0243066
2.14222,-0.00560834,-0.333281
2.1161,-0.109048,-0.269709
2.16565,0.100235,0.0126002
2.0685,-0.208287,-0.194067
2.06939,-0.208377,0.0242135
2.13478,-0.00558885,-0.149279
2.10619,-0.108538,-0.172167
2.16077,0.10001,0.0629519
2.08193,-0.209639,-0.121859
2.13238,-0.00558257,0.124185
2.10346,-0.108397,0.085811
2.13768,-0.00559643,-0.0995766
2.1103,-0.10875,-0.110743
2.12404,-0.00556074,0.2608
2.09026,-0.107717,0.170865
2.15989,0.099969,-0.0880906
2.14341,-0.00561145,-0.0498762
2.09594,-0.115347,-0.0610901
2.14219,-0.0130861,-0.333281
2.1157,-0.116434,-0.269709
2.16598,0.0926751,0.0126002
2.10478,-0.115833,-0.0122515
2.12765,-0.0129973,-0.229188
2.06776,-0.215506,-0.194067
2.13938,-0.0130689,0.0497831
2.06865,-0.215599,0.0242135
2.1058,-0.115889,-0.172167
2.1651,0.0926374,0.0630683
2.10849,-0.116037,0.0368595
2.1576,0.0923163,-0.138404
2.07324,-0.216077,-0.121394
2.12835,-0.0130015,0.123952
2.09509,-0.1153,0.0854853
2.13365,-0.0130339,-0.0993905
2.10193,-0.115676,-0.110324
2.12004,-0.0129507,0.260313
2.09386,-0.115232,0.171191
2.15624,0.0922581,-0.0879277
2.15402,0.0842553,-0.0376274
2.0955,-0.123028,-0.0610901
2.13818,-0.0208988,-0.332666
2.11526,-0.124188,-0.269709
2.16631,0.0847358,0.0126002
2.10833,-0.123781,-0.0122748
2.06696,-0.223084,-0.194067
2.06387,-0.222751,0.0241669
2.10138,-0.123373,-0.171842
2.15744,0.0843888,0.0628356
2.15792,0.0844077,-0.138404
2.08037,-0.224531,-0.121859
2.12829,-0.0208022,0.123952
2.09066,-0.122744,0.0853225
2.13358,-0.020854,-0.0993905
2.10149,-0.123379,-0.110324
2.11601,-0.0206822,0.259825
2.15656,0.0843545,-0.0879277
2.15429,0.0771119,-0.0376274
2.09109,-0.129728,-0.0609738
2.07505,-0.230921,-0.0243066
2.13019,-0.0278857,-0.331436
2.10692,-0.13071,-0.268699
2.15458,0.0771223,0.0125305
2.13149,-0.0279027,-0.229616
2.07017,-0.230377,-0.194439
2.0671,-0.230036,0.0242135
2.12263,-0.0277868,-0.148442
2.09698,-0.130094,-0.171516
2.15371,0.077091,0.0627192
2.10363,-0.130507,0.0367897
2.1542,0.0771085,-0.138148
2.1322,-0.0279121,0.124185
2.09024,-0.129676,0.0853225
2.12951,-0.0278768,-0.0992044
2.09708,-0.1301,-0.110115
2.11593,-0.027699,0.259825
2.15055,0.0694624,-0.0375576
2.09063,-0.137027,-0.0609738
2.11971,-0.0351493,0
2.07026,-0.237706,-0.02426
2.13403,-0.0353868,-0.332051
2.10645,-0.138064,-0.268699
2.15484,0.0696009,0.0125305
2.10345,-0.137867,-0.0122515
2.06539,-0.237148,-0.194067
2.06628,-0.23725,0.0242135
2.12651,-0.0352622,-0.148721
2.10049,-0.137673,-0.171842
2.15396,0.0695726,0.0627192
2.10317,-0.137849,0.0367897
2.15046,0.0694596,-0.137892
2.07086,-0.237776,-0.121394
2.1281,-0.0352885,0.123952
2.09377,-0.137233,0.0854853
2.1294,-0.03531,-0.0992044
2.09662,-0.13742,-0.110115
2.12376,-0.0352164,0.2608
2.1491,0.0694154,-0.0876021
2.13513,-0.035405,-0.0496901
2.14678,0.06184,-0.0374878
2.08615,-0.144048,-0.0608574
2.12357,-0.0426285,0
2.06544,-0.244461,-0.0242135
2.12994,-0.0427564,-0.331436
2.10199,-0.145143,-0.268194
2.15107,0.0619636,0.0125072
2.09498,-0.144658,-0.012205
2.0606,-0.243888,-0.193695
2.13099,-0.0427775,0.049597
2.0575,-0.243521,0.0241203
2.1184,-0.0425247,-0.148163
2.1,-0.145005,-0.171842
2.15419,0.0620535,0.0627192
2.09868,-0.144914,0.0367199
2.06209,-0.244064,-0.120929
2.12397,-0.0426366,0.12372
2.0853,-0.14399,0.0851596
2.12527,-0.0426626,-0.0990182
2.10011,-0.145012,-0.110324
2.14933,0.0619132,-0.0876021
2.14699,0.0543459,-0.0374878
2.08563,-0.151329,-0.0608574
2.11541,-0.0498525,0
2.06855,-0.252153,-0.02426
2.12978,-0.0501911,-0.331436
2.10148,-0.152479,-0.268194
2.15527,0.0545557,0.0125305
2.09047,-0.15168,-0.0121818
2.11915,-0.0499405,-0.228331
2.05578,-0.250597,-0.193324
2.12683,-0.0501216,0.049504
2.05664,-0.250702,0.0241203
2.0955,-0.152046,-0.171516
2.1504,0.0544324,0.0626028
2.09019,-0.15166,0.0365802
2.12381,-0.0500504,0.12372
2.0808,-0.150979,0.0849968
2.12111,-0.0499867,-0.0988321
2.09561,-0.152053,-0.110115
2.14953,0.0544103,-0.0876021
2.13083,-0.0502158,-0.049597
2.15116,0.0469385,-0.0375576
2.08908,-0.158912,-0.0609738
2.11123,-0.0571281,0
2.06765,-0.259373,-0.02426
2.12169,-0.0574113,-0.330207
2.10093,-0.159814,-0.268194
2.15545,0.0470321,0.0125305
2.0979,-0.159583,-0.0122283
2.05178,-0.257381,0.0240738
2.09098,-0.159057,-0.171191
2.14258,0.0467513,0.0623701
2.14708,0.0468495,-0.137637
2.0643,-0.258951,-0.121162
2.12362,-0.0574635,0.12372
2.08026,-0.158241,0.0849968
2.11293,-0.0571743,-0.0984599
2.0871,-0.158761,-0.109696
2.14331,0.0392827,-0.037418
2.0588,-0.265565,-0.0241669
2.12148,-0.064817,-0.330207
2.10036,-0.167146,-0.268194
2.1476,0.0393613,0.012484
2.11477,-0.0646122,-0.227903
2.05793,-0.265452,-0.193695
2.11385,-0.0645839,-0.147884
2.08644,-0.166039,-0.170865
2.14273,0.039272,0.0623701
2.08908,-0.166248,0.0365802
2.14324,0.0392814,-0.137381
2.06338,-0.266155,-0.121162
2.12341,-0.064876,0.12372
2.11672,-0.0646715,-0.098646
2.08653,-0.166046,-0.109696
2.08399,-0.172434,-0.0608574
2.1068,-0.0709942,0
2.05796,-0.272032,-0.0241669
2.11336,-0.0712153,-0.328977
2.09192,-0.17309,-0.267184
2.14372,0.0325535,0.0124607
2.08883,-0.172834,-0.0121818
2.11456,-0.0712556,-0.227903
2.05314,-0.271394,-0.193324
2.04606,-0.270459,0.0240272
2.10965,-0.0710901,-0.147605
2.08591,-0.172593,-0.170865
2.14285,0.0325402,0.0623701
2.09253,-0.17314,0.0366501
2.13936,0.0324874,-0.137125
2.06253,-0.272636,-0.121162
2.11521,-0.0712776,0.123255
2.07518,-0.171705,0.084834
2.12449,-0.0715902,-0.0990182
2.086,-0.1726,-0.109696
2.13798,0.0324664,-0.0871136
2.13554,0.0242279,-0.0372783
2.07933,-0.18009,-0.060741
2.10652,-0.0790833,0
2.0569,-0.279932,-0.0241669
2.12097,-0.079626,-0.330207
2.09519,-0.181463,-0.267689
2.14383,0.024322,0.0124607
2.08416,-0.180508,-0.0121585
2.05208,-0.279276,-0.193324
2.10936,-0.07919,-0.147605
2.08523,-0.180601,-0.170865
2.14295,0.0243121,0.0623701
2.08786,-0.180829,0.0365802
2.13947,0.0242726,-0.137125
2.05751,-0.280015,-0.120929
2.11093,-0.0792491,0.123022
2.07451,-0.179672,0.084834
2.11621,-0.0794473,-0.098646
2.0893,-0.180953,-0.109906
2.13561,0.0167734,-0.0372783
2.07869,-0.187347,-0.060741
2.10223,-0.0862719,0
2.12068,-0.0870291,-0.330207
2.09454,-0.188775,-0.267689
2.1439,0.0168385,0.0124607
2.0875,-0.188141,-0.0121818
2.11398,-0.0867541,-0.227903
2.05109,-0.286437,-0.193324
2.10508,-0.086389,-0.147326
2.08856,-0.188236,-0.171191
2.14303,0.0168316,0.0623701
2.08722,-0.188116,0.0365802
2.13555,0.0167729,-0.136869
2.05257,-0.286644,-0.120697
2.11463,-0.0867809,0.123255
2.06989,-0.186553,0.0846712
2.10794,-0.0865061,-0.0982737
2.08468,-0.187886,-0.109696
2.14216,0.0168248,-0.0872764
2.11764,-0.0869044,-0.0493179
2.13565,0.0093186,-0.0372783
2.07404,-0.194229,-0.0606247
2.10192,-0.0936095,0
2.05489,-0.294284,-0.0241669
2.11247,-0.0940794,-0.328977
2.14394,0.00935477,0.0124607
2.08683,-0.195427,-0.0121818
2.10572,-0.0937789,-0.227046
2.05008,-0.293595,-0.193324
2.07995,-0.194782,-0.17054
2.13508,0.00931608,0.0621374
2.1356,0.00931836,-0.136869
2.05156,-0.293807,-0.120697
2.11432,-0.0941618,0.123255
2.10762,-0.0938636,-0.0982737
2.08003,-0.19479,-0.109487
2.11733,-0.0942958,-0.0493179
2.13567,0.0026092,-0.0372783
2.07342,-0.200744,-0.0606247
2.10161,-0.100212,0
2.04604,-0.29958,-0.0240738
2.10427,-0.100339,-0.327747
2.08535,-0.201898,-0.266678
2.13596,0.00260956,0.0124142
2.10939,-0.100583,-0.227474
2.10048,-0.100158,-0.147047
2.07933,-0.201315,-0.17054
2.13509,0.0026085,0.0621374
2.08195,-0.201569,0.0365104
2.13163,0.00260426,-0.136613
2.05457,-0.300829,-0.120929
2.06463,-0.199892,0.0845083
2.10333,-0.100294,-0.0980876
2.07543,-0.200938,-0.109277
2.13023,0.00260256,-0.0867879
2.13167,-0.00520865,-0.0372085
2.08063,-0.209142,-0.0608574
2.09724,-0.107709,0
2.04493,-0.307077,-0.0240738
2.10783,-0.108254,-0.328362
2.08064,-0.209143,-0.266173
2.13596,-0.00521913,0.0124142
2.07352,-0.208427,-0.012112
2.07461,-0.208536,-0.170214
2.13909,-0.00522678,0.0622537
2.07721,-0.208798,0.0364406
2.13162,-0.00520854,-0.136613
2.04556,-0.307171,-0.120464
2.10964,-0.108346,0.123022
2.10295,-0.108003,-0.0980876
2.07468,-0.208544,-0.109277
2.12623,-0.00519536,-0.0866251
2.12764,-0.0126258,-0.0371387
2.06796,-0.215162,-0.0605083
2.10084,-0.115249,0
2.11139,-0.115827,-0.328977
2.08385,-0.216815,-0.266678
2.13193,-0.0126513,0.012391
2.07278,-0.215663,-0.012112
2.09572,-0.114968,-0.146768
2.07783,-0.216189,-0.17054
2.13106,-0.0126461,0.062021
2.13159,-0.0126493,-0.136613
2.04842,-0.314916,-0.120697
2.10127,-0.115272,0.122557
2.09458,-0.114905,-0.0977154
2.07394,-0.215785,-0.109277
2.1262,-0.0126173,-0.0866251
2.11225,-0.115874,-0.0492248
2.12758,-0.0196812,-0.0371387
2.06723,-0.222018,-0.0605083
2.09645,-0.121982,0
2.11494,-0.123058,-0.329592
2.07917,-0.2233,-0.266173
2.13187,-0.0197209,0.012391
2.09631,-0.121974,-0.226189
2.10786,-0.122646,0.0491318
2.07314,-0.222653,-0.170214
2.135,-0.0197499,0.0621374
2.07575,-0.222932,0.0364406
2.12754,-0.0196809,-0.136357
2.03948,-0.320468,-0.120232
2.10487,-0.122472,0.12279
2.09418,-0.12185,-0.0977154
2.06924,-0.222234,-0.109068
2.13014,-0.0197049,-0.0867879
2.10786,-0.122646,-0.0491318
2.1275,-0.0271078,-0.0371387
2.06247,-0.228792,-0.060392
2.08803,-0.128807,0
2.09872,-0.129466,-0.327132
2.07049,-0.229682,-0.265163
2.13179,-0.0271624,0.012391
2.07126,-0.229767,-0.012112
2.0919,-0.129046,-0.225761
2.10343,-0.129757,0.0490387
2.09091,-0.128984,-0.146489
2.06839,-0.229449,-0.169889
2.12693,-0.0271004,0.0619047
2.12746,-0.0271073,-0.136357
2.04229,-0.328219,-0.120464
2.09375,-0.129159,-0.0977154
2.06449,-0.229016,-0.108859
2.12207,-0.0270385,-0.0864623
2.10742,-0.130003,-0.0491318
2.12739,-0.0349053,-0.0371387
2.06162,-0.23635,-0.060392
2.08754,-0.136459,0
2.09823,-0.137157,-0.327132
2.12768,-0.03491,0.0123678
2.0704,-0.237357,-0.012112
2.09538,-0.136971,-0.226189
2.09042,-0.136647,-0.146489
2.06357,-0.236574,-0.169564
2.12282,-0.0348302,0.0617883
2.07012,-0.237325,0.0363708
2.12336,-0.0348391,-0.136102
2.04107,-0.335702,-0.120464
2.09326,-0.136832,-0.0977154
2.06363,-0.236581,-0.108859
2.12195,-0.0348161,-0.0864623
2.12326,-0.0418809,-0.0370689
2.06082,-0.243185,-0.060392
2.08708,-0.143381,0
2.09776,-0.144114,-0.327132
2.11955,-0.0418077,0.0123213
2.06166,-0.243284,-0.0120655
2.08598,-0.143305,-0.14621
2.06278,-0.243416,-0.169564
2.12669,-0.0419484,0.0619047
2.06138,-0.243251,0.0362312
2.03995,-0.342468,-0.120464
2.09152,-0.143686,0.122092
2.08881,-0.143499,-0.0975292
2.0668,-0.243891,-0.109068
2.11783,-0.0417737,-0.0862994
2.10247,-0.144438,-0.0490387
2.1231,-0.0492922,-0.0370689
2.05996,-0.250377,-0.060392
2.09056,-0.150953,0
2.12739,-0.0493917,0.0123678
2.05683,-0.249996,-0.0120423
2.09797,-0.151488,0.0489456
2.08944,-0.150873,-0.146489
2.06192,-0.250615,-0.169564
2.12253,-0.0492789,0.0617883
2.05655,-0.249962,0.0361614
2.11509,-0.0491061,-0.13559
2.03874,-0.349587,-0.120464
2.091,-0.150986,0.122092
2.08829,-0.15079,-0.0975292
2.06991,-0.251586,-0.109277
2.11767,-0.0491661,-0.0862994
2.09797,-0.151488,-0.0489456
2.11891,-0.056966,-0.0369991
2.08999,-0.158615,0
2.09273,-0.158823,-0.326517
2.1192,-0.0569737,0.0123213
2.05987,-0.25803,-0.0120655
2.0849,-0.158228,-0.14621
2.06494,-0.258666,-0.169889
2.12233,-0.057058,0.0617883
2.05959,-0.257996,0.0362312
2.1149,-0.056858,-0.13559
2.02958,-0.355678,-0.119999
2.09044,-0.158648,0.122092
2.08374,-0.15814,-0.0973431
2.06104,-0.258178,-0.108859
2.11748,-0.0569274,-0.0862994
2.11871,-0.0639922,-0.0369991
2.05023,-0.263732,-0.0601592
2.07749,-0.164597,0
2.123,-0.0641216,0.0123445
2.08536,-0.16522,-0.225332
2.08038,-0.164826,-0.145931
2.06012,-0.265003,-0.169564
2.11814,-0.0639749,0.0616719
2.11869,-0.0639914,-0.135846
2.08194,-0.164949,0.121627
2.08719,-0.165365,-0.0975292
2.05225,-0.263992,-0.10844
2.11328,-0.0638283,-0.0861366
2.09686,-0.166131,-0.0489456
2.11846,-0.0717572,-0.0369991
2.05322,-0.271769,-0.0602756
2.07687,-0.17221,0
2.11475,-0.0716316,0.012298
2.05802,-0.272405,-0.0120655
2.08078,-0.172534,-0.224904
2.07977,-0.17245,-0.145931
2.05518,-0.272029,-0.169238
2.1099,-0.0714671,0.0614392
2.11445,-0.0716212,-0.13559
2.08259,-0.172684,-0.0973431
2.05523,-0.272036,-0.108649
2.10904,-0.0714381,-0.0859738
2.1142,-0.0790023,-0.0369293
2.05622,-0.279473,-0.060392
2.08024,-0.179803,0
2.10649,-0.0787143,0.0122515
2.05705,-0.279587,-0.0120655
2.08017,-0.179796,-0.224904
2.08313,-0.180052,-0.14621
2.05422,-0.279201,-0.169238
2.10963,-0.0788316,0.0614392
2.10621,-0.0787035,-0.135078
2.08197,-0.179952,-0.0973431
2.05427,-0.279208,-0.108649
2.10878,-0.0787996,-0.0859738
2.09163,-0.180787,-0.0488526
2.11394,-0.0856439,-0.0369293
2.04741,-0.28483,-0.0601592
2.07967,-0.186337,0
2.11023,-0.0854935,0.0122748
2.04428,-0.284394,-0.0119958
2.08707,-0.187001,0.0487595
2.07858,-0.186239,-0.145931
2.05333,-0.285654,-0.169238
2.10538,-0.0852969,0.0613228
2.10994,-0.0854815,-0.135334
2.0814,-0.186492,-0.0973431
2.04942,-0.28511,-0.10844
2.10453,-0.0852623,-0.085811
2.07911,-0.186287,-0.0485734
2.1136,-0.0937602,-0.0369293
2.04234,-0.292123,-0.0600429
2.07097,-0.193577,0
2.11389,-0.0937729,0.012298
2.03921,-0.291675,-0.0119725
2.08182,-0.194591,-0.14621
2.05222,-0.293536,-0.169238
2.10504,-0.0933804,0.0613228
2.10561,-0.0934055,-0.135078
2.04831,-0.292977,-0.10844
2.10818,-0.0935196,-0.0859738
2.08634,-0.195013,-0.0487595
2.11326,-0.101137,-0.0369293
2.04131,-0.29925,-0.0600429
2.07427,-0.201191,0
2.10555,-0.100769,0.0122515
2.07025,-0.200801,-0.224047
2.07318,-0.201086,-0.145652
2.04724,-0.300119,-0.168913
2.09671,-0.100345,0.0610901
2.10925,-0.100946,-0.135334
2.07202,-0.200973,-0.0969709
2.04728,-0.300126,-0.10844
2.10384,-0.100687,-0.085811
2.08565,-0.202294,-0.0487595
2.11293,-0.107776,-0.0369293
2.04036,-0.305662,-0.0600429
2.07362,-0.207706,0
2.10123,-0.107179,0.0122283
2.06961,-0.207304,-0.224047
2.06857,-0.2072,-0.145372
2.04628,-0.306549,-0.168913
2.10038,-0.107136,0.0612065
2.10095,-0.107165,-0.134823
2.07535,-0.207879,-0.097157
2.04238,-0.305964,-0.108231
2.09953,-0.107092,-0.0856481
2.10056,-0.114498,-0.0367199
2.03928,-0.312782,-0.0600429
2.07289,-0.214943,0
2.09685,-0.114296,0.012205
2.06888,-0.214527,-0.224047
2.06784,-0.21442,-0.145372
2.04126,-0.313086,-0.168587
2.09201,-0.114032,0.0609738
2.09658,-0.114281,-0.134567
2.07462,-0.215123,-0.097157
2.03735,-0.312486,-0.108021
2.10313,-0.114638,-0.085811
2.07232,-0.214885,-0.0484804
2.10412,-0.122428,-0.0367897
2.03022,-0.319013,-0.0598101
2.07208,-0.222539,0
2.10041,-0.122212,0.0122283
2.06412,-0.221684,-0.223619
2.06307,-0.221571,-0.145093
2.09158,-0.121698,0.0609738
2.09615,-0.121964,-0.134567
2.06984,-0.222298,-0.0969709
2.03619,-0.319951,-0.108021
2.1027,-0.122345,-0.085811
2.07152,-0.222479,-0.0484804
2.09969,-0.129526,-0.0367199
2.06732,-0.22933,0
2.09997,-0.129544,0.0122283
2.07471,-0.23015,0.0485734
2.06625,-0.229211,-0.145372
2.09513,-0.129245,0.0610901
2.09571,-0.12928,-0.134567
2.06508,-0.229081,-0.0967847
2.09827,-0.129438,-0.0856481
2.07073,-0.229709,-0.0484804
2.06257,-0.23573,0
2.09953,-0.136507,0.0122283
2.06256,-0.235729,-0.223619
2.06599,-0.23612,0.0483873
2.06151,-0.235609,-0.145093
2.0907,-0.135932,0.0609738
2.09925,-0.136488,-0.134823
2.06431,-0.235928,-0.0967847
2.08985,-0.135877,-0.0853225
2.06996,-0.236574,-0.0484804
2.09873,-0.144181,-0.0367199
2.05772,-0.242819,0
2.09104,-0.143653,0.0121818
2.06169,-0.243287,-0.223619
2.05667,-0.242695,-0.144814
2.09019,-0.143594,0.0609738
2.09475,-0.143908,-0.134567
2.0674,-0.243961,-0.0969709
2.02879,-0.340594,-0.107812
2.09333,-0.14381,-0.0854853
2.06908,-0.244159,-0.0484804
2.09423,-0.151218,-0.0366501
2.05686,-0.250001,0
2.08254,-0.150375,0.0121353
2.05581,-0.249873,-0.144814
2.08568,-0.150601,0.0608574
2.09026,-0.150932,-0.134311
2.06257,-0.250694,-0.0967847
2.02365,-0.346999,-0.107603
2.08882,-0.150828,-0.0853225
2.06425,-0.250898,-0.0483873
2.08973,-0.157861,-0.0365802
2.05999,-0.257316,0
2.09001,-0.157882,0.0121818
2.08517,-0.157517,0.0608574
2.08975,-0.157862,-0.134311
2.05776,-0.257037,-0.0965986
2.03036,-0.355084,-0.108021
2.08433,-0.157453,-0.0851596
2.05547,-0.25675,-0.0482012
2.09315,-0.16547,-0.0366501
2.05115,-0.263486,0
2.07748,-0.164231,0.012112
2.07091,-0.266024,-0.224904
2.05407,-0.263861,-0.144814
2.0886,-0.16511,0.0609738
2.0852,-0.164841,-0.134055
2.05685,-0.264218,-0.0965986
2.08775,-0.165043,-0.0853225
2.05852,-0.264433,-0.0482943
2.08854,-0.172811,-0.0365802
2.0462,-0.270477,0
2.08085,-0.172174,0.0121353
2.04913,-0.270864,-0.144535
2.08001,-0.172104,0.060741
2.08856,-0.172812,-0.134311
2.05587,-0.271755,-0.0965986
2.0199,-0.368171,-0.107603
2.08315,-0.172364,-0.0851596
2.06151,-0.2725,-0.0483873
2.04524,-0.277618,0
2.08423,-0.179781,0.0121585
2.04817,-0.278016,-0.144535
2.07541,-0.17902,0.0606247
2.08397,-0.179759,-0.134055
2.05491,-0.27893,-0.0965986
2.01861,-0.37522,-0.107603
2.08253,-0.179635,-0.0851596
2.05658,-0.279157,-0.0482943
2.08735,-0.186658,-0.0365802
2.04436,-0.284042,0
2.07568,-0.185615,0.012112
2.04729,-0.284449,-0.144535
2.07484,-0.185539,0.0606247
2.07942,-0.185949,-0.133799
2.05006,-0.284834,-0.0964125
2.07798,-0.18582,-0.0849968
2.05173,-0.285066,-0.0482012
2.07869,-0.193566,-0.0364406
2.07499,-0.193221,0.012112
2.05018,-0.292514,-0.144814
2.07016,-0.192772,0.0605083
2.07475,-0.193199,-0.133543
2.04109,-0.291218,-0.0960402
2.08126,-0.193806,-0.0851596
2.04275,-0.291454,-0.0480151
2.07402,-0.200436,-0.0363708
2.0743,-0.200463,0.012112
2.06948,-0.199997,0.0605083
2.07804,-0.200824,-0.133799
2.04007,-0.298341,-0.0960402
2.07659,-0.200685,-0.0849968
2.04568,-0.299162,-0.0481082
