2.57834,0.995413,-0.032176
2.57432,0.983553,-0.0320828
2.58148,0.975975,-0.0321294
2.58096,0.966007,-0.0320828
2.58448,0.956542,-0.0320828
2.58405,0.946138,-0.0320363
2.57965,0.934838,-0.0319431
2.54205,0.921211,0.0314775
2.57537,0.92313,-0.03185
2.54148,0.910984,0.0314309
2.5825,0.915021,-0.0318966
2.5448,0.901663,0.0314309
2.58946,0.907323,-0.0319431
2.55171,0.894097,0.0314775
2.64178,0.925657,-0.163022
2.58883,0.896968,-0.0318966
2.54726,0.882565,0.0313844
2.58059,0.884038,-0.0317569
2.54275,0.871076,0.0312912
2.64062,0.904603,-0.162557
2.59124,0.87759,-0.03185
2.55335,0.86476,0.0313844
2.64376,0.895379,-0.162557
2.59049,0.86727,-0.0318034
2.56007,0.998645,-0.0159711
2.54877,0.853303,0.0312912
2.6393,0.88361,-0.162092
2.58211,0.854452,-0.0316637
2.571,0.992583,-0.0160176
2.55174,0.8444,0.0312912
2.64616,0.875646,-0.162324
2.56698,0.980748,-0.0159711
2.54706,0.833001,0.0311981
2.6454,0.865163,-0.162092
2.58802,0.836406,-0.0316637
2.57413,0.973197,-0.0159944
2.55376,0.825336,0.0312447
2.64841,0.855924,-0.162092
2.5911,0.970321,-0.0805226
2.58301,0.825835,-0.0315706
2.56968,0.962299,-0.0159479
2.55253,0.81609,0.0311981
2.64728,0.846383,-0.161859
2.58983,0.817565,-0.0316172
2.56569,0.950095,-0.0159014
2.69274,0.85005,-0.263589
2.55551,0.806729,0.0311981
2.64275,0.834269,-0.161394
2.58871,0.807782,-0.0315706
2.56507,0.940206,-0.0158782
2.55817,0.79825,0.0311981
2.6455,0.825502,-0.161394
2.59152,0.798741,-0.0315706
2.57586,0.933974,-0.0159246
2.69846,0.831703,-0.263589
2.54947,0.785782,0.0310584
2.656,0.818615,-0.161859
2.59327,0.929547,-0.0801735
2.58677,0.786909,-0.0314775
2.5755,0.923176,-0.0159014
2.69387,0.819488,-0.262846
2.54851,0.775268,0.0310118
2.5488,0.913605,0.0472611
2.64752,0.805388,-0.161161
2.6397,0.946188,-0.146959
2.5965,0.920489,-0.0801735
2.59334,0.779025,-0.0315241
2.57493,0.912844,-0.0158782
2.70053,0.811226,-0.263218
2.55503,0.767518,0.0310584
2.54066,0.900694,0.0470517
2.65031,0.796142,-0.161161
2.59592,0.910097,-0.0800572
2.58454,0.766556,-0.0313844
2.56678,0.89988,-0.0158084
2.69953,0.800661,-0.262846
2.56153,0.759732,0.031105
2.54756,0.893142,0.0471215
2.65308,0.786885,-0.161161
2.5872,0.75753,-0.0313844
2.57369,0.892225,-0.0158317
2.69466,0.788995,-0.262102
2.56033,0.749662,0.0310584
2.54689,0.882935,0.0470517
2.65198,0.776498,-0.160929
2.59449,0.889813,-0.0798244
2.58969,0.748947,-0.0313844
2.57663,0.883686,-0.0158317
2.68961,0.777843,-0.261359
2.55127,0.737835,0.0309187
2.5498,0.874484,0.0470517
2.6507,0.76659,-0.160696
2.64493,0.907112,-0.146541
2.59774,0.880297,-0.0798244
2.58473,0.737255,-0.0312912
2.57606,0.872952,-0.0158084
2.69627,0.769071,-0.261731
2.5578,0.729575,0.0309653
2.5492,0.863849,0.0469819
2.65349,0.756869,-0.160696
2.64067,0.894847,-0.146122
2.597,0.869954,-0.0797081
2.58344,0.727145,-0.0312447
2.5791,0.863955,-0.0158084
2.69127,0.757497,-0.260987
2.56033,0.720643,0.0309653
2.54082,0.851135,0.0467725
2.65227,0.746521,-0.160464
2.64378,0.885624,-0.146122
2.60382,0.86214,-0.0798244
2.58981,0.719192,-0.0312912
2.56691,0.849918,-0.0157154
2.70158,0.750229,-0.261731
2.55898,0.710631,0.0309187
2.54378,0.84226,0.0467725
2.65486,0.737257,-0.160464
2.58883,0.999985,-0.0645785
2.59921,0.850559,-0.0795917
2.57432,0.984069,0
2.59231,0.710148,-0.0312912
2.57366,0.842197,-0.0157387
2.69265,0.737638,-0.260615
2.55759,0.700637,0.0308722
2.55431,0.835863,0.0469121
2.65357,0.726931,-0.160231
2.60202,0.841936,-0.0795917
2.55513,0.967032,0
2.59079,0.700504,-0.0312447
2.57644,0.833658,-0.0157387
2.69509,0.728705,-0.260615
2.5599,0.692153,0.0308722
2.67794,0.866501,-0.229773
2.55326,0.826158,0.0468423
2.65982,0.71917,-0.160464
2.5881,0.97951,-0.0643924
2.59733,0.830412,-0.079359
2.55474,0.956704,0
2.58935,0.690426,-0.0311981
2.57933,0.824659,-0.0157387
2.70146,0.720319,-0.260987
2.56616,0.684243,0.0309187
2.67335,0.854719,-0.229122
2.55232,0.816022,0.0467725
2.65846,0.708852,-0.160231
2.58775,0.969067,-0.0642993
2.60007,0.821793,-0.079359
2.56165,0.949617,0
2.59163,0.681834,-0.0311981
2.57824,0.814895,-0.0157154
2.70769,0.712369,-0.261359
2.56455,0.674711,0.0308722
2.67617,0.845848,-0.229122
2.54738,0.805142,0.0466328
2.51517,0.794961,0.107467
2.64712,0.836664,-0.145494
2.5947,0.96187,-0.0643924
2.59924,0.811068,-0.0792426
2.5576,0.937469,0
2.59411,0.672332,-0.0311981
2.57739,0.804249,-0.0156922
2.70257,0.700442,-0.260615
2.57088,0.666311,0.0309187
2.67925,0.836035,-0.229122
2.54268,0.793418,0.0464932
2.65174,0.68727,-0.159533
2.52188,0.786928,0.10763
2.58695,0.948225,-0.0641132
2.59824,0.800811,-0.0791263
2.5571,0.927171,0
2.59644,0.663272,-0.0311981
2.57636,0.794068,-0.0156689
2.70114,0.690018,-0.260243
2.57319,0.657332,0.0309187
2.67835,0.825502,-0.228797
2.54926,0.785715,0.046563
2.65413,0.678008,-0.159533
2.5208,0.776943,0.107467
2.6257,0.952045,-0.130101
2.6454,0.815348,-0.145075
2.58648,0.937825,-0.0640202
2.60484,0.792902,-0.0792426
2.56032,0.91824,0
2.59486,0.653229,-0.0311515
2.57912,0.785071,-0.0156689
2.69967,0.679613,-0.259872
2.56383,0.645417,0.030779
2.68121,0.816148,-0.228797
2.55581,0.777977,0.0466328
2.66035,0.669715,-0.159766
2.51967,0.766975,0.107304
2.64823,0.806109,-0.145075
2.5935,0.930141,-0.0641132
2.60363,0.783109,-0.0791263
2.55958,0.908407,0
2.58925,0.642694,-0.0310584
2.5817,0.776514,-0.0156689
2.70191,0.670658,-0.259872
2.52874,0.897462,0.0624383
2.57372,0.638839,0.0308722
2.68009,0.806105,-0.228471
2.55455,0.768346,0.046563
2.66256,0.66089,-0.159766
2.51837,0.757465,0.107142
2.62459,0.931479,-0.129729
2.64706,0.796173,-0.144866
2.60034,0.922874,-0.0642063
2.60265,0.772422,-0.0790099
2.56289,0.899019,0
2.5877,0.632249,-0.0310118
2.58453,0.767046,-0.0156689
2.70435,0.660749,-0.259872
2.56439,0.626553,0.0307325
2.67538,0.794007,-0.227821
2.54968,0.756701,0.0464234
2.66108,0.650178,-0.159533
2.52496,0.749366,0.107304
2.62421,0.92053,-0.129543
2.64996,0.786465,-0.144866
2.59616,0.910689,-0.0640202
2.60917,0.764457,-0.0791263
2.56224,0.888757,0
2.58989,0.623213,-0.0310118
2.57952,0.755771,-0.0156224
2.70276,0.650374,-0.2595
2.57045,0.618534,0.030779
2.67813,0.784664,-0.227821
2.55614,0.748921,0.0464932
2.65557,0.639017,-0.159068
2.52756,0.740548,0.107304
2.62364,0.910055,-0.129357
2.58799,0.89769,-0.063741
2.60401,0.753577,-0.0788935
2.56517,0.880255,0
2.59584,0.615543,-0.0310584
2.58201,0.747212,-0.0156224
2.70103,0.640488,-0.259128
2.54178,0.872229,0.0625313
2.68455,0.776886,-0.228146
2.55477,0.739328,0.0464234
2.65379,0.629286,-0.158836
2.52233,0.72994,0.106979
2.62286,0.900052,-0.12917
2.65142,0.767298,-0.144657
2.59474,0.890401,-0.0638341
2.60277,0.743385,-0.0787772
2.56823,0.871296,0
2.59797,0.606479,-0.0310584
2.58845,0.739294,-0.0156457
2.69937,0.630151,-0.258756
2.54102,0.862067,0.0624383
2.56681,0.599205,0.0306859
2.67958,0.765322,-0.227495
2.55349,0.729308,0.0463536
2.65597,0.620019,-0.158836
2.52102,0.720034,0.106816
2.6222,0.889608,-0.128984
2.64256,0.754748,-0.144029
2.59404,0.880054,-0.063741
2.60151,0.733211,-0.0786608
2.56746,0.861055,0
2.58448,0.593825,-0.0308722
2.746,0.773936,-0.363147
2.58716,0.729169,-0.0156224
2.70544,0.621617,-0.259128
2.53264,0.849378,0.0621591
2.56888,0.590242,0.0306859
2.68223,0.755964,-0.227495
2.55217,0.719306,0.0462838
2.66201,0.611639,-0.159068
2.51967,0.710146,0.106653
2.62908,0.88172,-0.12917
2.64902,0.746603,-0.144238
2.5933,0.869722,-0.0636479
2.61175,0.726268,-0.0788935
2.56665,0.850828,0
2.59044,0.585681,-0.0309187
2.73722,0.761156,-0.361632
2.58969,0.720133,-0.0156224
2.70759,0.612169,-0.259128
2.54318,0.843048,0.0623452
2.57093,0.581271,0.0306859
2.68486,0.746596,-0.227495
2.55466,0.710392,0.0462838
2.66413,0.602342,-0.159068
2.52213,0.701346,0.106653
2.62456,0.870023,-0.128798
2.64776,0.736281,-0.144029
2.60392,0.863181,-0.0638341
2.61029,0.716544,-0.0787772
2.56946,0.842311,0
2.59627,0.577956,-0.0309653
2.73207,0.749974,-0.360622
2.5805,0.708364,-0.0155527
2.54217,0.833364,0.0622522
2.57284,0.572741,0.0306859
2.6542,0.870091,-0.195318
2.68347,0.736632,-0.22717
2.55315,0.700857,0.046214
2.65832,0.591768,-0.158603
2.52444,0.692977,0.106653
2.62743,0.861314,-0.128798
2.65019,0.727496,-0.144029
2.60296,0.853295,-0.063741
2.60518,0.704884,-0.0785444
2.56872,0.831657,0
2.59837,0.568437,-0.0309653
2.73863,0.740992,-0.361127
2.58307,0.698902,-0.0155527
2.70791,0.5924,-0.258756
2.53759,0.821578,0.0620661
2.57102,0.562453,0.0306393
2.64978,0.8579,-0.19476
2.68616,0.726793,-0.22717
2.5557,0.691496,0.046214
2.66047,0.582022,-0.158603
2.51925,0.681633,0.106327
2.63057,0.851679,-0.128798
2.59466,0.840054,-0.0634618
2.60376,0.694754,-0.0784281
2.56018,0.819028,0
2.59252,0.55768,-0.0308722
2.7412,0.731427,-0.361127
2.5855,0.68988,-0.0155527
2.70607,0.582106,-0.258385
2.53664,0.811495,0.061973
2.57297,0.553475,0.0306393
2.65276,0.848644,-0.19476
2.68097,0.715356,-0.226519
2.55423,0.681538,0.0461442
2.65858,0.571891,-0.158371
2.52161,0.672834,0.106327
2.62972,0.841273,-0.128612
2.65147,0.707483,-0.143819
2.59758,0.830991,-0.0634618
2.56684,0.811294,0
2.59053,0.547802,-0.0308256
2.7399,0.720846,-0.360622
2.58402,0.679835,-0.0155294
2.70418,0.571834,-0.258013
2.53945,0.802638,0.061973
2.57097,0.543664,0.0305928
2.6519,0.838179,-0.194481
2.6796,0.70498,-0.226193
2.56047,0.673638,0.046214
2.66056,0.562609,-0.158371
2.52008,0.663013,0.106165
2.63645,0.833294,-0.128798
2.60046,0.82192,-0.0634618
2.60855,0.676561,-0.0784281
2.56202,0.799944,0
2.59243,0.538755,-0.0308256
2.73472,0.709285,-0.359612
2.58638,0.67081,-0.0155294
2.70226,0.56158,-0.257641
2.54606,0.79496,0.0620661
2.57285,0.534686,0.0305928
2.65481,0.828916,-0.194481
2.6859,0.696623,-0.226519
2.55506,0.662687,0.0460744
2.66251,0.553318,-0.158371
2.52238,0.654211,0.106165
2.63553,0.822895,-0.128612
2.65248,0.687954,-0.14361
2.60713,0.814029,-0.0635549
2.6109,0.667452,-0.0784281
2.56862,0.792175,0
2.5943,0.529703,-0.0308256
2.73718,0.699735,-0.359612
2.58483,0.660788,-0.0155062
2.70811,0.552942,-0.258013
2.545,0.784889,0.061973
2.5747,0.525702,0.0305928
2.65769,0.819644,-0.194481
2.68832,0.687243,-0.226519
2.55348,0.652774,0.0460045
2.66051,0.543222,-0.158138
2.52852,0.646393,0.106327
2.63456,0.812513,-0.128426
2.65099,0.677702,-0.143401
2.60232,0.802567,-0.0633688
2.57137,0.783203,0
2.58829,0.51907,-0.0307325
2.74345,0.691145,-0.360117
2.58324,0.650784,-0.0154829
2.70612,0.542701,-0.257641
2.5439,0.774835,0.06188
2.5726,0.515924,0.0305462
2.66053,0.810362,-0.194481
2.6907,0.677855,-0.226519
2.55962,0.644833,0.0460744
2.65456,0.532361,-0.157673
2.52689,0.636586,0.106165
2.63356,0.802147,-0.12824
2.60128,0.792313,-0.0632757
2.56246,0.771213,0
2.59392,0.511257,-0.030779
2.74573,0.682043,-0.360117
2.58539,0.642213,-0.0154829
2.71529,0.817208,-0.305441
2.7079,0.533724,-0.257641
2.54262,0.765242,0.0617869
2.56645,0.505843,0.0304531
2.65556,0.799234,-0.193923
2.69293,0.668927,-0.226519
2.56175,0.636341,0.0460744
2.66414,0.525099,-0.158138
2.52123,0.626275,0.105839
2.62856,0.791105,-0.127868
2.65167,0.658677,-0.143191
2.60006,0.782529,-0.0631827
2.58106,0.906403,-0.0477498
2.56897,0.763403,0
2.58783,0.500681,-0.0306859
2.74424,0.671512,-0.359612
2.58761,0.633185,-0.0154829
2.70584,0.523512,-0.257269
2.54528,0.756362,0.0617869
2.5682,0.496882,0.0304531
2.65451,0.788823,-0.193644
2.68751,0.657629,-0.225868
2.56007,0.626445,0.0460045
2.66204,0.515038,-0.157906
2.5234,0.617471,0.105839
2.6313,0.781926,-0.127868
2.65007,0.648468,-0.142982
2.60661,0.774588,-0.0632757
2.60819,0.628579,-0.078079
2.57162,0.754432,0
2.59349,0.492391,-0.0307325
2.74271,0.660999,-0.359107
2.58592,0.623212,-0.0154597
2.70948,0.794875,-0.304156
2.55174,0.748599,0.06188
2.56992,0.487915,0.0304531
2.65342,0.77843,-0.193365
2.68978,0.648244,-0.225868
2.55446,0.615631,0.0458649
2.66382,0.505743,-0.157906
2.50213,0.734046,0.151859
2.52554,0.60866,0.105839
2.63401,0.772736,-0.127868
2.60546,0.764359,-0.0631827
2.60648,0.618547,-0.0779626
2.57424,0.74545,0
2.5952,0.483334,-0.0307325
2.73728,0.649588,-0.358097
2.54984,0.875492,0.0156689
2.58808,0.614181,-0.0154597
2.71224,0.785411,-0.304156
2.70943,0.504609,-0.257269
2.54665,0.737462,0.0616939
2.57947,0.480405,0.0305462
2.66379,0.771382,-0.193923
2.69203,0.63885,-0.225868
2.56438,0.608557,0.0460045
2.65415,0.911308,-0.179849
2.65772,0.494979,-0.15744
2.50084,0.724196,0.151627
2.52376,0.598917,0.105676
2.6367,0.763537,-0.127868
2.65453,0.629951,-0.142982
2.60043,0.753035,-0.0629966
2.56529,0.733163,0
2.59293,0.473554,-0.0306859
2.74339,0.640933,-0.358602
2.55288,0.866587,0.0156689
2.59021,0.605144,-0.0154597
2.70731,0.773754,-0.303299
2.70726,0.494434,-0.256897
2.54921,0.728569,0.0616939
2.57719,0.47068,0.0304996
2.66263,0.760983,-0.193644
2.69424,0.62945,-0.225868
2.56259,0.598693,0.0459347
2.6422,0.896905,-0.178825
2.66336,0.486416,-0.157673
2.50336,0.715463,0.151627
2.52583,0.590104,0.105676
2.63166,0.752133,-0.127495
2.60304,0.743953,-0.0629966
2.58209,0.86646,-0.0475404
2.57168,0.725289,0
2.59063,0.463795,-0.0306393
2.74561,0.631352,-0.358602
2.5521,0.856397,0.0156457
2.58451,0.594305,-0.0154132
2.71,0.764298,-0.303299
2.71289,0.485682,-0.257269
2.54789,0.71858,0.0616008
2.57095,0.460271,0.0304065
2.65759,0.749517,-0.193086
2.68865,0.618254,-0.225217
2.56467,0.589743,0.0459347
2.64531,0.887676,-0.178825
2.66111,0.476412,-0.15744
2.49815,0.704551,0.151161
2.52398,0.580387,0.105513
2.63812,0.744026,-0.127681
2.65497,0.610509,-0.142773
2.60562,0.734862,-0.0629966
2.58509,0.857441,-0.0475404
2.5742,0.716307,0
2.59618,0.455439,-0.0306859
2.74393,0.620888,-0.358097
2.55128,0.846224,0.0156224
2.59437,0.587045,-0.0154597
2.72414,0.758031,-0.304584
2.71064,0.47552,-0.256897
2.54653,0.708609,0.0615077
2.57254,0.451293,0.0304065
2.66403,0.741305,-0.193365
2.6908,0.608864,-0.225217
2.6446,0.87718,-0.178569
2.65882,0.46643,-0.157208
2.50444,0.696897,0.151394
2.52599,0.571573,0.105513
2.633,0.732669,-0.127309
2.65709,0.601237,-0.142773
2.60432,0.724689,-0.0629035
2.56872,0.706096,0
2.59365,0.446603,-0.0306393
2.742,0.611401,-0.357592
2.59229,0.578021,-0.0154364
2.71501,0.746308,-0.303299
2.71605,0.467678,-0.257269
2.54875,0.700606,0.0615077
2.57,0.44253,0.0303599
2.65865,0.730817,-0.192807
2.6927,0.600408,-0.225217
2.56462,0.57185,0.0458649
2.64735,0.868867,-0.178569
2.66815,0.45943,-0.157673
2.51047,0.690084,0.151627
2.63529,0.724395,-0.127309
2.61044,0.717564,-0.0629966
2.57117,0.697126,0
2.5952,0.437547,-0.0306393
2.74024,0.600977,-0.357087
2.59039,0.568113,-0.0154132
2.70992,0.734745,-0.302442
2.71374,0.457533,-0.256897
2.55118,0.691705,0.0615077
2.57942,0.434887,0.0304531
2.66504,0.722577,-0.193086
2.69478,0.591006,-0.225217
2.55879,0.561181,0.0457253
2.64277,0.857159,-0.178058
2.66186,0.448787,-0.157208
2.50516,0.679228,0.151161
2.52973,0.554808,0.105513
2.63394,0.714146,-0.127123
2.60521,0.706356,-0.0628105
2.58236,0.827116,-0.0473309
2.56984,0.686664,0
2.60467,0.429333,-0.0307325
2.74242,0.590928,-0.357087
2.59245,0.558614,-0.0154132
2.70875,0.723781,-0.302014
2.71147,0.446935,-0.256526
2.5421,0.679253,0.0612286
2.5731,0.424129,0.0303599
2.65996,0.710743,-0.192528
2.69692,0.581125,-0.225217
2.55692,0.550956,0.0456555
2.64589,0.847466,-0.178058
2.66743,0.439676,-0.15744
2.50377,0.66901,0.150929
2.63268,0.703456,-0.126937
2.61106,0.83631,-0.111701
2.61551,0.698866,-0.0629966
2.56847,0.676223,0
2.60228,0.419148,-0.0306859
2.74457,0.580874,-0.357087
2.55521,0.808108,0.0155759
2.59057,0.548281,-0.0153899
2.70754,0.712836,-0.301585
2.70915,0.436361,-0.256154
2.54844,0.670949,0.0613216
2.57464,0.414695,0.0303599
2.65869,0.699974,-0.192249
2.56674,0.543238,0.0457951
2.64898,0.837763,-0.178058
2.66508,0.429262,-0.157208
2.50621,0.659829,0.150929
2.63524,0.693802,-0.126937
2.65741,0.562426,-0.142354
2.61032,0.687239,-0.0628105
2.58793,0.809521,-0.0473309
2.57059,0.668151,0
2.60359,0.410971,-0.0306859
2.75026,0.573058,-0.357592
2.55774,0.800077,0.0155759
2.5962,0.540956,-0.0154132
2.71746,0.706328,-0.302442
2.71051,0.427849,-0.256154
2.55054,0.66294,0.0613216
2.57988,0.407229,0.0304065
2.66473,0.692622,-0.192528
2.69301,0.561129,-0.224566
2.56844,0.535172,0.0457951
2.64398,0.827054,-0.177546
2.65852,0.419643,-0.156743
2.50054,0.649944,0.150464
2.52757,0.526657,0.105188
2.63354,0.684515,-0.126751
2.65916,0.554075,-0.142354
2.61246,0.679036,-0.0628105
2.5831,0.79812,-0.0471913
2.5971,0.40066,-0.0305928
2.74447,0.561862,-0.356581
2.59415,0.531087,-0.0153899
2.71606,0.69585,-0.302014
2.71199,0.418384,-0.256154
2.55284,0.654033,0.0613216
2.56943,0.396391,0.0302668
2.65941,0.681335,-0.19197
2.69105,0.550924,-0.22424
2.56637,0.5254,0.0457253
2.64685,0.817819,-0.177546
2.66392,0.410968,-0.156975
2.51053,0.643193,0.150929
2.63979,0.676309,-0.126937
2.65717,0.543988,-0.142144
2.61094,0.66892,-0.0627174
2.59855,0.391139,-0.0305928
2.74262,0.551018,-0.356076
2.55575,0.779421,0.0155294
2.59608,0.521576,-0.0153899
2.70702,0.682972,-0.300729
2.7135,0.408442,-0.256154
2.55522,0.644672,0.0613216
2.57482,0.387567,0.0303134
2.66575,0.67256,-0.192249
2.69696,0.541843,-0.224566
2.56828,0.515991,0.0457253
2.64601,0.806949,-0.17729
2.65751,0.400014,-0.15651
2.50512,0.632033,0.150464
2.52736,0.50777,0.105025
2.64225,0.66663,-0.126937
2.60562,0.65739,-0.0625313
2.58478,0.778914,-0.0471215
2.57744,0.641195,0
2.59983,0.382519,-0.0305928
2.7731,0.68987,-0.44458
2.74833,0.542688,-0.356581
2.55832,0.77094,0.0155294
2.58995,0.511414,-0.0153435
2.72085,0.676871,-0.302014
2.7109,0.398861,-0.255782
2.55346,0.635229,0.0612286
2.57213,0.378443,0.0302668
2.6641,0.662752,-0.19197
2.56605,0.506696,0.0456555
2.6525,0.799321,-0.177546
2.66277,0.391779,-0.156743
2.50333,0.622758,0.150231
2.53295,0.500159,0.105188
2.64057,0.656899,-0.126751
2.61364,0.787612,-0.111212
2.61167,0.64971,-0.0626244
2.58761,0.769435,-0.0471215
2.56812,0.62889,0
2.60518,0.373556,-0.0306393
2.77561,0.679702,-0.44458
2.7503,0.532612,-0.356581
2.56113,0.761559,0.0155294
2.59573,0.502679,-0.0153667
2.71559,0.665003,-0.301157
2.7084,0.388357,-0.25541
2.548,0.623964,0.0610425
2.56954,0.368446,0.0302203
2.66651,0.652984,-0.19197
2.56789,0.497288,0.0456555
2.65541,0.789594,-0.177546
2.66024,0.381451,-0.15651
2.5056,0.613579,0.150231
2.53084,0.490113,0.105025
2.6352,0.645316,-0.126379
2.61651,0.778028,-0.111212
2.61403,0.640134,-0.0626244
2.58645,0.759271,-0.0470517
2.5703,0.619921,0
2.59458,0.362797,-0.0304996
2.74824,0.522267,-0.356076
2.55993,0.751487,0.0155062
2.71016,0.653654,-0.3003
2.71763,0.380003,-0.256154
2.55405,0.616003,0.0611355
2.57081,0.359474,0.0302203
2.66101,0.6418,-0.191412
2.69857,0.512827,-0.22424
2.5282,0.742172,0.0766826
2.56961,0.488321,0.0456555
2.65432,0.779195,-0.17729
2.66946,0.373268,-0.156975
2.5116,0.605765,0.150464
2.52861,0.480529,0.104862
2.64132,0.63705,-0.126565
2.66067,0.505624,-0.141935
2.61538,0.767763,-0.111049
2.61236,0.630067,-0.0625313
2.58882,0.751142,-0.0470517
2.59967,0.355186,-0.0305462
2.74597,0.512903,-0.355571
2.56228,0.743442,0.0155062
2.60294,0.486187,-0.0153899
2.71994,0.646978,-0.301157
2.71092,0.370386,-0.25541
2.55598,0.607977,0.0611355
2.57193,0.351396,0.0302203
2.66302,0.633438,-0.191412
2.69233,0.502883,-0.22359
2.56327,0.478778,0.0455159
2.64909,0.768628,-0.176779
2.67062,0.36488,-0.156975
2.51738,0.598796,0.150696
2.52618,0.471849,0.104699
2.6433,0.628749,-0.126565
2.65831,0.49653,-0.141726
2.61433,0.621858,-0.0625313
2.57067,0.601053,0
2.60498,0.345729,-0.0305928
2.77488,0.6488,-0.44335
2.74792,0.502356,-0.355571
2.55742,0.731399,0.0154597
2.59298,0.474031,-0.0153202
2.71079,0.633814,-0.299872
2.71627,0.360499,-0.255782
2.56219,0.599069,0.0612286
2.5693,0.340993,0.0301737
2.66543,0.623209,-0.191412
2.69816,0.493259,-0.223915
2.56116,0.468213,0.0454461
2.64818,0.757354,-0.176523
2.65617,0.352522,-0.156045
2.51188,0.587308,0.150231
2.5319,0.462865,0.104862
2.6457,0.618596,-0.126565
2.61281,0.610905,-0.0624383
2.58055,0.593869,0
2.6022,0.33612,-0.0305462
2.74966,0.49276,-0.355571
2.56381,0.723553,0.0154829
2.59856,0.465682,-0.0153435
2.71298,0.624347,-0.299872
2.70961,0.349994,-0.255039
2.55257,0.587431,0.0609494
2.5784,0.333046,0.0302668
2.67148,0.614795,-0.191691
2.53199,0.714571,0.0765663
2.56671,0.459975,0.0455159
2.65465,0.749189,-0.176779
2.66134,0.343759,-0.156278
2.51003,0.57764,0.149999
2.64395,0.60846,-0.126379
2.62327,0.740334,-0.111049
2.61103,0.600883,-0.0623452
2.58909,0.72094,-0.0469121
2.60336,0.327035,-0.0305462
2.7832,0.630284,-0.443965
2.75918,0.484532,-0.356581
2.56632,0.7146,0.0154829
2.59623,0.455917,-0.0153202
2.71902,0.615752,-0.3003
2.71082,0.340534,-0.255039
2.5546,0.578517,0.0609494
2.57161,0.323047,0.0301737
2.66582,0.603704,-0.191133
2.65725,0.739918,-0.176779
2.65857,0.33397,-0.156045
2.51203,0.568875,0.149999
2.63826,0.597463,-0.126006
2.65566,0.466354,-0.141307
2.62199,0.730101,-0.110887
2.61701,0.592649,-0.0624383
2.58749,0.711741,-0.0468423
2.57662,0.574999,0
2.60438,0.318854,-0.0305462
2.56855,0.706533,0.0154829
2.60159,0.448437,-0.0153435
2.71706,0.60634,-0.299872
2.71583,0.332499,-0.25541
2.56031,0.571359,0.0610425
2.5885,0.31691,0.0303599
2.6716,0.596194,-0.191412
2.69909,0.465243,-0.22359
2.57365,0.443621,0.0455857
2.65571,0.730507,-0.176523
2.6596,0.325616,-0.156045
2.5138,0.56098,0.149999
2.52858,0.435853,0.104536
2.64403,0.590041,-0.126192
2.65712,0.458008,-0.141307
2.61656,0.719739,-0.110561
2.60715,0.581811,-0.0621591
2.58996,0.702705,-0.0468423
2.5708,0.564287,0
2.6015,0.30929,-0.0304996
2.56714,0.696516,0.0154597
2.72305,0.597705,-0.3003
2.55057,0.559847,0.0607633
2.66977,0.58601,-0.191133
2.53137,0.68681,0.0763336
2.56729,0.433304,0.0454461
2.65824,0.721233,-0.176523
2.67262,0.317745,-0.156743
2.51965,0.553059,0.150231
2.53403,0.42769,0.104699
2.61307,0.573565,-0.0622522
2.60267,0.299298,-0.0304996
2.56207,0.684588,0.0154132
2.59691,0.428054,-0.015297
2.71366,0.584731,-0.299015
2.56052,0.551734,0.0609494
2.6603,0.573233,-0.190296
2.53399,0.677085,0.0763336
2.57289,0.424093,0.0455159
2.65714,0.70999,-0.176267
2.66985,0.307023,-0.15651
2.51785,0.542538,0.149999
2.53171,0.417306,0.104536
2.64828,0.570643,-0.126192
2.62177,0.70054,-0.110561
2.61134,0.562684,-0.0621591
2.57468,0.546325,0
2.59962,0.290676,-0.0304531
2.56808,0.677556,0.0154364
2.71548,0.576203,-0.299015
2.55833,0.542857,0.0608564
2.66989,0.566529,-0.190854
2.53224,0.668101,0.0762172
2.5742,0.416008,0.0455159
2.65935,0.701639,-0.176267
2.6589,0.297304,-0.155813
2.51173,0.532968,0.149534
2.64224,0.560662,-0.12582
2.66177,0.430159,-0.141307
2.62009,0.691281,-0.110398
2.6131,0.554478,-0.0621591
2.58943,0.673531,-0.0467026
2.57657,0.537334,0
2.6046,0.28203,-0.0304996
2.57043,0.668587,0.0154364
2.60365,0.411445,-0.0153202
2.71748,0.56672,-0.299015
2.56021,0.533923,0.0608564
2.66795,0.556391,-0.190575
2.57564,0.40702,0.0455159
2.65792,0.691347,-0.176011
2.66786,0.28888,-0.156278
2.51748,0.525012,0.149766
2.64418,0.551435,-0.12582
2.62636,0.683136,-0.110561
2.61502,0.545353,-0.0621591
2.59177,0.664488,-0.0467026
2.57274,0.659611,0.0154364
2.60507,0.402355,-0.0153202
2.71944,0.557232,-0.299015
2.56206,0.524983,0.0608564
2.66987,0.547075,-0.190575
2.53297,0.649414,0.0761008
2.57705,0.398027,0.0455159
2.66032,0.682065,-0.176011
2.66488,0.27915,-0.156045
2.51539,0.51542,0.149534
2.64609,0.542202,-0.12582
2.66076,0.410956,-0.141098
2.62098,0.671979,-0.110235
2.61299,0.535419,-0.0620661
2.59019,0.654458,-0.0466328
2.56727,0.648668,0.0153899
2.6025,0.392663,-0.015297
2.71747,0.546951,-0.298587
2.55996,0.515248,0.0607633
2.67177,0.537753,-0.190575
2.70035,0.407427,-0.222939
2.57051,0.387836,0.0453763
2.65495,0.670819,-0.1755
2.66584,0.269847,-0.156045
2.51717,0.506637,0.149534
2.5332,0.382207,0.104373
2.64797,0.532963,-0.12582
2.66217,0.401666,-0.141098
2.61944,0.661848,-0.110073
2.61876,0.527084,-0.0621591
2.56963,0.639254,0.0153899
2.71555,0.536218,-0.298158
2.56575,0.506638,0.0608564
2.67763,0.52873,-0.190854
2.70183,0.397527,-0.222939
2.57191,0.378413,0.0453763
2.65739,0.661085,-0.1755
2.65886,0.259299,-0.15558
2.50726,0.495087,0.148836
2.6499,0.523255,-0.12582
2.62185,0.652243,-0.110073
2.61283,0.515934,-0.061973
2.57605,0.499335,0
2.56797,0.629328,0.0153667
2.60524,0.37403,-0.015297
2.7135,0.525978,-0.29773
2.55573,0.495395,0.0605772
2.67554,0.51862,-0.190575
2.7032,0.388093,-0.222939
2.56926,0.368864,0.0453064
2.65968,0.651804,-0.1755
2.66372,0.25039,-0.155813
2.51289,0.487092,0.149068
2.64779,0.513241,-0.125634
2.66103,0.382038,-0.140888
2.62411,0.643087,-0.110073
2.61461,0.506809,-0.061973
2.59291,0.626812,-0.046563
2.57368,0.490491,0
2.56993,0.621258,0.0153667
2.60641,0.365844,-0.015297
2.71514,0.517451,-0.29773
2.5612,0.488112,0.0606703
2.67716,0.510213,-0.190575
2.54168,0.614429,0.0761008
2.57437,0.361347,0.0453763
2.66171,0.643446,-0.1755
2.6645,0.242021,-0.155813
2.51441,0.479195,0.149068
2.64547,0.504172,-0.125448
2.66221,0.373677,-0.140888
2.61619,0.498593,-0.061973
2.57597,0.613209,0.0153899
2.60767,0.356743,-0.015297
2.71693,0.50797,-0.29773
2.55895,0.478434,0.0605772
2.675,0.500131,-0.190296
2.70176,0.369616,-0.222613
2.57165,0.351816,0.0453064
2.66006,0.633226,-0.175244
2.67328,0.233412,-0.156278
2.51999,0.471149,0.149301
2.64721,0.494934,-0.125448
2.62054,0.623818,-0.109747
2.61792,0.489457,-0.061973
2.57042,0.60194,0.0153435
2.60103,0.346128,-0.0152505
2.72269,0.498726,-0.298158
2.56462,0.469772,0.0606703
2.67682,0.490323,-0.190296
2.7031,0.359711,-0.222613
2.53433,0.59349,0.0757518
2.57292,0.342388,0.0453064
2.66625,0.624382,-0.1755
2.67412,0.223613,-0.156278
2.51384,0.460471,0.148836
2.64508,0.484509,-0.125262
2.66482,0.354617,-0.140888
2.62281,0.614209,-0.109747
2.61969,0.479859,-0.061973
2.57474,0.462805,0
2.5685,0.592513,0.0153202
2.60613,0.338015,-0.0152737
2.72041,0.48899,-0.29773
2.56223,0.460557,0.0605772
2.67843,0.481443,-0.190296
2.57801,0.334368,0.0453763
2.66053,0.613742,-0.174988
2.66291,0.213785,-0.15558
2.51536,0.452131,0.148836
2.64274,0.475027,-0.125076
2.66598,0.345778,-0.140888
2.62094,0.604609,-0.109584
2.6134,0.469754,-0.0617869
2.57642,0.453365,0
2.57065,0.583096,0.0153202
2.60735,0.328461,-0.0152737
2.7261,0.479705,-0.298158
2.55603,0.449777,0.0603911
2.67232,0.470241,-0.189738
2.70555,0.340831,-0.222613
2.65886,0.603104,-0.174732
2.66367,0.204024,-0.15558
2.517,0.44291,0.148836
2.64446,0.465339,-0.125076
2.62703,0.595883,-0.109747
2.6151,0.460173,-0.0617869
2.59174,0.578848,-0.0463536
2.57257,0.574567,0.0153202
2.60842,0.319812,-0.0152737
2.71984,0.469309,-0.297301
2.56144,0.441978,0.0604842
2.66993,0.460697,-0.189459
2.53641,0.56649,0.0756354
2.66085,0.594283,-0.174732
2.66832,0.195481,-0.155813
2.51452,0.433881,0.148603
2.64992,0.457245,-0.125262
2.65644,0.325699,-0.14026
2.62899,0.587168,-0.109747
2.61661,0.451498,-0.0617869
2.59375,0.569798,-0.0463536
2.57847,0.566442,0.0153435
2.60555,0.310233,-0.0152505
2.72146,0.459813,-0.297301
2.56691,0.433701,0.0605772
2.67546,0.45204,-0.189738
2.70384,0.321936,-0.222288
2.53837,0.557633,0.0756354
2.66291,0.584992,-0.174732
2.68093,0.187,-0.15651
2.51995,0.425767,0.148836
2.64756,0.447327,-0.125076
2.66152,0.316897,-0.14047
2.62322,0.576273,-0.109421
2.61817,0.442362,-0.0617869
2.59582,0.560287,-0.0463536
2.58102,0.42636,0
2.56489,0.553612,0.0152505
2.61064,0.301138,-0.0152737
2.72313,0.449835,-0.297301
2.67709,0.44223,-0.189738
2.70105,0.311566,-0.221962
2.53649,0.547482,0.075519
2.65723,0.573543,-0.17422
2.5215,0.416527,0.148836
2.64919,0.43762,-0.125076
2.66267,0.307139,-0.14047
2.61978,0.432762,-0.0617869
2.56671,0.545104,0.0152505
2.71675,0.439532,-0.296445
2.56593,0.415131,0.0604842
2.67461,0.432713,-0.189459
2.70603,0.303052,-0.222288
2.66693,0.566387,-0.174732
2.64668,0.428195,-0.12489
2.66764,0.298753,-0.140679
2.63109,0.558776,-0.109584
2.61725,0.423434,-0.0616939
2.57991,0.408156,0
2.57251,0.536957,0.0152737
2.56342,0.405546,0.0603911
2.68004,0.423997,-0.189738
2.66107,0.555442,-0.17422
2.64816,0.418953,-0.12489
2.66469,0.289008,-0.14047
2.63302,0.549587,-0.109584
2.61871,0.414295,-0.0616939
2.57446,0.527526,0.0152737
2.71983,0.42008,-0.296445
2.56489,0.396149,0.0603911
2.67369,0.412954,-0.18918
2.70812,0.28368,-0.222288
2.667,0.546487,-0.174476
2.64968,0.409245,-0.12489
2.65382,0.277991,-0.139842
2.6311,0.539131,-0.109421
2.61626,0.404084,-0.0616008
2.5762,0.518985,0.0152737
2.72121,0.411058,-0.296445
2.56618,0.387641,0.0603911
2.67899,0.404681,-0.189459
2.6688,0.537639,-0.174476
2.65497,0.401052,-0.125076
2.66665,0.270398,-0.14047
2.62504,0.528824,-0.109096
2.61759,0.395405,-0.0616008
2.57407,0.509215,0.0152505
2.7305,0.402719,-0.297301
2.57148,0.379266,0.0604842
2.67644,0.394747,-0.18918
2.54165,0.5028,0.0754027
2.65891,0.525998,-0.173709
2.65635,0.391784,-0.125076
2.6636,0.2607,-0.14026
2.62687,0.51966,-0.109096
2.61895,0.386268,-0.0616008
2.56487,0.369147,0.0602981
2.6699,0.384264,-0.188622
2.54339,0.493924,0.0754027
2.66465,0.517474,-0.173965
2.6577,0.382508,-0.125076
2.66847,0.251776,-0.14047
2.62867,0.510486,-0.109096
2.62424,0.377692,-0.0616939
2.57364,0.490482,0.0152272
2.56614,0.360191,0.0602981
2.68308,0.376605,-0.189459
2.54117,0.484294,0.0752863
2.66252,0.507421,-0.173709
2.64715,0.371562,-0.124517
2.66138,0.241736,-0.140051
2.63044,0.501307,-0.109096
2.62158,0.367973,-0.0616008
2.57533,0.481496,0.0152272
2.55946,0.350148,0.060112
2.67647,0.366156,-0.188901
2.66427,0.498125,-0.173709
2.64447,0.361778,-0.124331
2.65823,0.232098,-0.139842
2.62285,0.358821,-0.0616008
2.57691,0.472952,0.0152272
2.67767,0.357278,-0.188901
2.66591,0.489286,-0.173709
2.65358,0.354063,-0.124703
2.65898,0.223281,-0.139842
2.62593,0.481947,-0.10877
2.62006,0.349591,-0.0615077
2.57469,0.462797,0.015204
2.67501,0.346949,-0.188622
2.66376,0.478806,-0.173453
2.6509,0.343822,-0.124517
2.66376,0.213854,-0.140051
2.62767,0.47232,-0.10877
2.62133,0.339986,-0.0615077
2.58749,0.326417,0
2.57629,0.453806,0.015204
2.68808,0.339107,-0.189459
2.66148,0.468812,-0.173197
2.64812,0.334065,-0.124331
2.63324,0.463838,-0.108933
2.6225,0.330834,-0.0615077
2.57384,0.44458,0.0151807
2.68919,0.330191,-0.189459
2.54128,0.438955,0.0750536
2.66302,0.459984,-0.173197
2.65318,0.325769,-0.124517
2.63083,0.454423,-0.10877
2.62755,0.322623,-0.0616008
2.57932,0.436259,0.015204
2.67448,0.318912,-0.188342
2.66855,0.451351,-0.173453
2.65033,0.316032,-0.124331
2.6324,0.445236,-0.10877
2.62866,0.313449,-0.0616008
2.60028,0.430008,-0.0460045
2.5868,0.298845,0
2.57696,0.426151,0.0151807
2.67563,0.309108,-0.188342
2.66624,0.440916,-0.173197
2.6475,0.305858,-0.124145
2.63401,0.435586,-0.10877
2.62582,0.303354,-0.0615077
2.57836,0.417602,0.0151807
2.67664,0.300232,-0.188342
2.54573,0.412318,0.0750536
2.65981,0.430795,-0.172685
2.65247,0.297522,-0.124331
2.62755,0.42557,-0.108444
2.62284,0.294198,-0.0614147
2.5798,0.408601,0.0151807
2.6856,0.291751,-0.188901
2.66918,0.422759,-0.173197
2.64952,0.287832,-0.124145
2.63297,0.417023,-0.108607
2.62782,0.285474,-0.0615077
2.5733,0.398369,0.0151342
2.68264,0.281957,-0.188622
2.6667,0.412827,-0.172941
2.65051,0.278581,-0.124145
2.63441,0.407829,-0.108607
2.62483,0.275881,-0.0614147
2.58259,0.39058,0.0151807
2.6836,0.272591,-0.188622
2.67207,0.404113,-0.173197
2.65147,0.269326,-0.124145
2.62577,0.266716,-0.0614147
2.57998,0.380979,0.0151575
2.68057,0.262833,-0.188342
2.66952,0.3942,-0.172941
2.64841,0.25968,-0.123959
2.62928,0.388259,-0.108281
2.60074,0.374771,-0.0458649
2.57733,0.371399,0.0151342
2.68544,0.253849,-0.188622
2.66692,0.384309,-0.172685
2.65328,0.250809,-0.124145
2.63062,0.379078,-0.108281
2.58258,0.362958,0.0151575
2.68631,0.244474,-0.188622
2.6643,0.374443,-0.17243
2.6621,0.24227,-0.124517
2.63589,0.37045,-0.108444
2.57974,0.354297,0.0151342
2.68707,0.236033,-0.188622
2.66941,0.366613,-0.172685
2.64693,0.232507,-0.123773
2.63704,0.362167,-0.108444
2.58505,0.344919,0.0151575
2.68,0.225046,-0.188063
2.67476,0.356889,-0.172941
2.6478,0.222342,-0.123773
2.63445,0.351511,-0.108281
2.5902,0.336409,0.0151807
2.68872,0.21633,-0.188622
2.67203,0.347037,-0.172685
2.66051,0.21406,-0.124331
2.6317,0.341798,-0.108119
2.58728,0.327768,0.0151575
2.66915,0.33814,-0.17243
2.66641,0.327865,-0.172174
2.67541,0.31997,-0.172685
2.64296,0.316089,-0.108444
2.67254,0.310169,-0.17243
2.6361,0.305941,-0.108119
2.67366,0.300373,-0.17243
2.67067,0.291073,-0.172174
2.6677,0.281329,-0.171918
2.63916,0.27832,-0.108119
2.66867,0.272015,-0.171918
2.67353,0.263556,-0.172174
2.63702,0.259957,-0.107956
2.67046,0.253843,-0.171918
2.6674,0.243691,-0.171662
2.63483,0.240716,-0.107793
2.66819,0.234845,-0.171662
2.67695,0.226202,-0.172174
2.67772,0.216856,-0.172174
2.67448,0.207199,-0.171918
2.67593,0.187589,-0.171918
