2.47169,0.282488,-0.144882
2.46473,0.27298,-0.144417
2.46165,0.264379,-0.144185
2.4626,0.255354,-0.144185
2.4595,0.246359,-0.143952
2.46428,0.238586,-0.144185
2.46514,0.229553,-0.144185
2.45797,0.220233,-0.14372
2.46263,0.212854,-0.143952
2.45941,0.203497,-0.14372
2.46807,0.195542,-0.144185
2.4568,0.186021,-0.0286836
2.45679,0.186021,-0.143487
2.46142,0.177733,-0.0287302
2.46683,0.178123,-0.230873
2.45743,0.177444,-0.143487
2.462,0.16957,-0.0287302
2.45946,0.169395,-0.23013
2.458,0.169295,-0.143487
2.45462,0.160024,-0.0286371
2.46403,0.160638,-0.230501
2.45063,0.159764,0.0285905
2.45861,0.160284,-0.143487
2.46781,0.273758,-0.0722609
2.45117,0.151209,-0.0285905
2.46458,0.152036,-0.230501
2.45517,0.151455,-0.143255
2.46547,0.273498,-0.130003
2.45965,0.143545,-0.0286836
2.46109,0.14363,-0.23013
2.45166,0.143079,0.0285905
2.45964,0.143545,-0.143487
2.46637,0.26532,-0.130003
2.45773,0.255283,-0.0719118
2.46016,0.13453,-0.0286836
2.46558,0.134826,-0.230501
2.45616,0.134311,0.0286371
2.46015,0.134529,-0.143487
2.46335,0.255866,-0.129793
2.46061,0.125941,-0.0286836
2.46604,0.126218,-0.230501
2.45262,0.125532,0.0285905
2.4606,0.12594,-0.143487
2.46423,0.247266,-0.129793
2.46339,0.238934,-0.0720282
2.44903,0.117207,-0.0285439
2.44903,0.117207,0.0285439
2.46101,0.117781,-0.143487
2.46503,0.239093,-0.129793
2.45342,0.108836,-0.0285905
2.46684,0.109431,-0.230501
2.44942,0.108658,0.0285439
2.45742,0.109013,-0.143255
2.4579,0.229744,-0.129375
2.465,0.22173,-0.0720282
2.45778,0.100434,-0.0286371
2.45925,0.100493,-0.229758
2.45379,0.10027,0.0285905
2.45379,0.100271,-0.143022
2.45869,0.221162,-0.129375
2.45779,0.212435,-0.0717954
2.45812,0.0918531,-0.0286371
2.45958,0.0919078,-0.229758
2.45412,0.0917037,0.0285905
2.4626,0.21285,-0.201784
2.45413,0.0917039,-0.143022
2.46342,0.212922,-0.129584
2.4625,0.204186,-0.0719118
2.45591,0.0831875,-0.229386
2.45043,0.0830018,0.0285439
2.47127,0.204913,-0.202435
2.46415,0.204322,-0.129584
2.45922,0.195273,-0.0717954
2.4547,0.0745697,-0.0285905
2.4522,0.0744938,-0.229014
2.44671,0.0743268,0.0284974
2.468,0.19597,-0.202109
2.45471,0.0745698,-0.143022
2.46883,0.196036,-0.129793
2.45095,0.0658938,-0.0285439
2.44847,0.0658271,-0.228642
2.44295,0.0656788,0.0284508
2.46469,0.187053,-0.201784
2.45495,0.0660014,-0.143022
2.46552,0.187115,-0.129584
2.46451,0.178388,-0.0719118
2.44716,0.0572438,-0.0284974
2.46152,0.178172,-0.0143438
2.45266,0.0573724,-0.229014
2.45116,0.0573373,0.0285439
2.45117,0.0573376,-0.142789
2.46217,0.178219,-0.129375
2.4611,0.169938,-0.0717954
2.45811,0.169732,-0.0143206
2.44886,0.0491581,-0.228642
2.44334,0.0490474,0.0284508
2.46591,0.17027,-0.201784
2.44736,0.049128,-0.142557
2.45478,0.169502,-0.128956
2.45369,0.160824,-0.0715627
2.45469,0.160889,-0.0142973
2.44901,0.0406102,-0.228642
2.4475,0.0405851,0.0284974
2.44752,0.0405854,-0.142557
2.46114,0.282588,-0.115397
2.46333,0.161455,-0.129375
2.45823,0.152506,-0.0716791
2.45524,0.15232,-0.0142973
2.45312,0.032114,-0.229014
2.44762,0.032042,0.0284974
2.46703,0.153052,-0.201784
2.44692,0.151804,0.0427933
2.45164,0.0320945,-0.142789
2.45875,0.143924,-0.0716791
2.45172,0.0235357,-0.0285439
2.45975,0.143982,-0.0143206
2.45322,0.0235501,-0.229014
2.44372,0.0234589,0.0284508
2.46357,0.144206,-0.201458
2.45173,0.0235358,-0.142789
2.471,0.266255,-0.115769
2.46439,0.144254,-0.129375
2.45924,0.135341,-0.0716791
2.44779,0.0149536,-0.0284974
2.45624,0.135176,-0.0142973
2.45329,0.0149872,-0.229014
2.43979,0.0149047,0.0284042
2.46406,0.135606,-0.201458
2.44781,0.0149537,-0.142557
2.46089,0.135432,-0.129165
2.44771,0.126138,-0.07133
2.4527,0.126395,-0.0142741
2.45333,0.00642285,-0.229014
2.44783,0.00640845,0.0284974
2.46945,0.248661,-0.173554
2.46452,0.127004,-0.201458
2.45637,0.126583,0.0429329
2.45184,0.00641895,-0.142789
2.46882,0.248598,-0.115583
2.45213,0.117784,-0.0714464
2.45713,0.118024,-0.0142973
2.44935,-0.00213808,-0.228642
2.43983,-0.00212977,0.0284042
2.4703,0.240039,-0.173554
2.45184,-0.00214026,-0.142789
2.4657,0.239591,-0.115397
2.45577,0.238626,-0.0574134
2.46052,0.109581,-0.0716791
2.44781,-0.0106796,-0.0284974
2.45353,0.10927,-0.0142741
2.45331,-0.0107036,-0.229014
2.44381,-0.0106621,0.0284508
2.46318,0.230672,-0.172996
2.46535,0.109796,-0.201458
2.45182,-0.0106971,-0.142789
2.45819,0.109477,-0.128956
2.45689,0.100827,-0.0715627
2.45326,-0.0192678,-0.229014
2.44376,-0.0191932,0.0284508
2.46795,0.22243,-0.173275
2.44778,-0.0192248,-0.142557
2.44391,0.100294,0.0996514
2.46731,0.222373,-0.115397
2.45855,0.100895,-0.128956
2.45737,0.221477,-0.0574134
2.45322,0.0925277,-0.0714464
2.45421,0.0925653,-0.0142741
2.45318,-0.0274037,-0.229014
2.44368,-0.0272976,0.0284508
2.46469,0.213899,-0.172996
2.45807,0.0927107,-0.200808
2.45388,0.0925527,0.0428631
2.4477,-0.0273425,-0.142557
2.46606,0.214017,-0.0575995
2.45351,0.0843925,-0.0714464
2.46663,0.0848437,-0.314155
2.44651,0.0841518,-0.0142276
2.44511,-0.0354227,-0.228271
2.46937,0.206057,-0.173275
2.45417,0.0844153,0.0428631
2.4436,-0.0354009,-0.142324
2.43654,0.0838087,0.0993258
2.46873,0.206004,-0.115397
2.4548,0.204841,-0.0573204
2.45379,0.0758281,-0.0714464
2.46691,0.0762336,-0.314155
2.45079,0.0757354,-0.0142508
2.44497,-0.043957,-0.228271
2.44344,-0.0439294,0.0284508
2.46212,0.1968,-0.172717
2.46263,0.0761013,-0.201133
2.44746,-0.0440017,-0.142557
2.44081,0.075427,0.0994886
2.46546,0.197067,-0.115211
2.4555,0.196272,-0.0573204
2.45005,0.0667257,-0.07133
2.45288,0.187018,0
2.46717,0.0671919,-0.314155
2.45505,0.0668617,-0.0142741
2.4448,-0.0529175,-0.228271
2.43926,-0.0527977,0.0284042
2.46282,0.187776,-0.172717
2.46289,0.0670753,-0.201133
2.45127,-0.0530576,-0.142789
2.44506,0.0665898,0.0996514
2.46218,0.187726,-0.115025
2.45971,0.0669887,-0.128956
2.46418,0.187879,-0.0575065
2.45426,0.0586956,-0.0714464
2.46341,0.0589146,-0.31365
2.44461,-0.0610251,-0.228271
2.43508,-0.0607872,0.0283577
2.46343,0.179607,-0.172717
2.45911,0.0588117,-0.200808
2.44527,0.0584807,0.0996514
2.46677,0.17985,-0.115211
2.45593,0.0587355,-0.128746
2.4608,0.179415,-0.0574134
2.45045,0.050046,-0.07133
2.44745,0.0499847,-0.0142276
2.44438,-0.0695586,-0.228271
2.43485,-0.0692874,0.0283577
2.46404,0.171006,-0.172717
2.45112,0.0500596,0.0427933
2.44686,-0.0696293,-0.142557
2.44946,0.0500257,0.0998143
2.45612,0.0501617,-0.128746
2.45742,0.170547,-0.0573204
2.44662,0.0409979,-0.0712136
2.44762,0.0410145,-0.0142276
2.44809,-0.0786446,-0.228642
2.43458,-0.0782106,0.0283577
2.46465,0.161974,-0.172717
2.44659,-0.0785965,-0.142557
2.44163,0.0409142,0.0994886
2.46401,0.161932,-0.115025
2.46966,0.284003,-0.10128
2.45803,0.161539,-0.0573204
2.44674,0.0328848,-0.0712136
2.45523,0.15318,0
2.45993,0.033062,-0.313145
2.44774,0.0328982,-0.0142276
2.44383,-0.0866207,-0.228271
2.43431,-0.086283,0.0283577
2.46119,0.153552,-0.172438
2.46361,0.275033,-0.158871
2.43833,-0.0864258,-0.142092
2.43776,0.0327641,0.0993258
2.45641,0.0330147,-0.128746
2.45456,0.153139,-0.0572273
2.45974,0.144843,0
2.464,0.0245139,-0.31365
2.45184,0.0243929,-0.0142508
2.4475,-0.0953064,-0.228642
2.42999,-0.0946248,0.0283111
2.44976,0.144256,-0.171601
2.4597,0.0244711,-0.200808
2.46852,0.26686,-0.159126
2.446,-0.0952481,-0.142557
2.43786,0.0242539,0.0993258
2.45251,0.0243997,-0.128537
2.45508,0.144569,-0.0572273
2.44692,0.0153755,-0.0712136
2.45227,0.135387,0
2.43762,-0.103871,-0.0284042
2.4601,0.0154584,-0.313145
2.44391,0.0153566,-0.0142043
2.43917,-0.103937,-0.227899
2.43363,-0.1037,0.0283577
2.46223,0.135937,-0.172438
2.46154,0.256982,-0.158615
2.44563,-0.104212,-0.142557
2.43793,0.015319,0.0993258
2.45259,0.0154111,-0.128537
2.4566,0.256466,-0.100628
2.45095,0.00684459,-0.07133
2.44873,0.126618,0
2.45617,0.00685916,-0.31264
2.44795,0.0068362,-0.0142276
2.45848,0.127122,-0.265172
2.44277,-0.112634,-0.228271
2.43325,-0.112195,0.0283577
2.45472,0.126928,-0.17188
2.46243,0.248388,-0.158615
2.43728,-0.112381,-0.142092
2.44196,0.00681949,0.0994886
2.45748,0.247889,-0.100628
2.45605,0.126997,-0.0572273
2.44297,-0.000852077,-0.0710973
2.4571,0.119313,0
2.45618,-0.000856686,-0.31264
2.44396,-0.000852423,-0.0142043
2.46283,0.119592,-0.265601
2.43843,-0.120112,-0.227899
2.43289,-0.119839,0.0283577
2.46308,0.119603,-0.172438
2.46319,0.240651,-0.158615
2.43292,-0.11984,-0.141859
2.43398,-0.000848943,0.0991629
2.45843,0.119378,-0.114653
2.42792,-0.00084683,0.198204
2.46222,0.240556,-0.100791
2.45245,0.119087,-0.0571343
2.44694,-0.0102497,-0.0712136
2.45355,0.109699,0
2.46013,-0.0103049,-0.313145
2.45533,0.109778,-0.264744
2.43397,-0.129263,-0.227527
2.44889,0.10949,0.0570412
2.42841,-0.128968,0.0283111
2.46352,0.110144,-0.172438
2.45581,-0.0102868,-0.200482
2.44761,-0.0102525,0.0427235
2.4641,0.231191,-0.158615
2.43244,-0.129182,-0.141859
2.42996,-0.0101786,0.0990001
2.45887,0.109937,-0.114653
2.45261,-0.0102735,-0.128537
2.43189,-0.0101866,0.198529
2.46711,0.231473,-0.100954
2.45289,0.109669,-0.0571343
2.4389,-0.0187291,-0.0709809
2.45392,0.101134,0
2.43993,-0.138121,-0.0284508
2.46364,0.101535,-0.265601
2.43748,-0.137983,-0.227899
2.45325,0.101107,0.0571343
2.42795,-0.137443,0.0283111
2.4599,0.101381,-0.172159
2.45177,-0.018828,-0.200157
2.46489,0.222588,-0.158615
2.43597,-0.137897,-0.142092
2.43391,-0.0186909,0.0991629
2.45256,-0.0188341,-0.128537
2.42785,-0.0186443,0.198204
2.46392,0.222501,-0.100791
2.44926,0.100942,-0.0570412
2.44682,-0.0264783,-0.0712136
2.45023,0.0932715,0
2.43549,-0.145548,-0.0284042
2.44382,-0.0264458,-0.0142043
2.46395,0.093794,-0.265601
2.43704,-0.145641,-0.227899
2.4275,-0.145071,0.0283111
2.45223,0.0933479,-0.171601
2.44771,-0.0264879,-0.199831
2.44348,-0.0264422,0.0426537
2.46558,0.214843,-0.158615
2.44349,-0.146026,-0.142557
2.43384,-0.0263378,0.0991629
2.45156,0.0933225,-0.11428
2.45249,-0.0265396,-0.128537
2.42379,-0.0262291,0.197878
2.45665,0.214064,-0.100466
2.45755,0.0935505,-0.0572273
2.44671,-0.0350186,-0.0712136
2.45453,0.0848568,0
2.45593,-0.0351505,-0.31264
2.44771,-0.0350328,-0.0142276
2.46029,0.0850558,-0.265172
2.44049,-0.154397,-0.228271
2.42698,-0.153543,0.0283111
2.46052,0.0850637,-0.172159
2.46234,0.205903,-0.158359
2.43898,-0.154302,-0.142324
2.42974,-0.0347756,0.0990001
2.44839,-0.0350426,-0.128328
2.45738,0.205488,-0.100466
2.44987,0.0846957,-0.0570412
2.46377,0.196931,-0.0431423
2.43857,-0.0438429,-0.0709809
2.45483,0.0758593,0
2.44356,-0.0439326,-0.0142043
2.45661,0.0759143,-0.264744
2.43991,-0.163342,-0.228271
2.42241,-0.162171,0.0282646
2.45683,0.075921,-0.17188
2.46307,0.196876,-0.158359
2.43442,-0.162974,-0.142092
2.43758,-0.0438251,0.0993258
2.46016,0.0760239,-0.114653
2.42354,-0.0435727,0.197878
2.45811,0.19648,-0.100466
2.45017,0.0757152,-0.0570412
2.46441,0.188762,-0.0431423
2.43841,-0.0519276,-0.0709809
2.45507,0.06772,0
2.42984,-0.170762,-0.0283577
2.45685,0.0677692,-0.264744
2.43538,-0.171151,-0.227899
2.4504,0.0675914,0.0570412
2.42585,-0.170482,0.0283111
2.46105,0.0678851,-0.172159
2.46769,0.189014,-0.158615
2.43386,-0.171045,-0.142092
2.42544,-0.0516513,0.0988373
2.4564,0.0677568,-0.114467
2.42737,-0.0516925,0.198204
2.45875,0.188329,-0.100466
2.4504,0.0675914,-0.0570412
2.46106,0.179865,-0.0430725
2.44222,-0.0605395,-0.0710973
2.43929,0.058763,0
2.43322,-0.179538,-0.0284042
2.46139,0.17989,0.0143438
2.45707,0.0591913,-0.264744
2.43874,-0.179946,-0.228271
2.42524,-0.17895,0.0283111
2.4533,0.0591004,-0.171601
2.45109,-0.0607595,-0.200157
2.46038,0.179815,-0.158103
2.43325,-0.179541,-0.142092
2.43517,0.0586637,0.141859
2.43323,-0.0603168,0.0991629
2.45662,0.0591805,-0.114467
2.44789,-0.0606801,-0.128328
2.45541,0.179452,-0.100303
2.46167,0.171273,-0.0430725
2.434,-0.068838,-0.0708645
2.45148,0.0504951,0
2.43258,-0.188031,-0.0284042
2.45726,0.0506142,-0.264744
2.44207,-0.188764,-0.228642
2.42859,-0.187723,0.0283577
2.45748,0.0506186,-0.17188
2.44688,-0.0692023,-0.199831
2.44265,-0.0690827,0.0426537
2.46099,0.171226,-0.158103
2.43261,-0.188033,-0.142092
2.43301,-0.06881,0.0991629
2.45681,0.050605,-0.114467
2.41898,-0.0684134,0.197553
2.45203,0.170603,-0.10014
2.44172,-0.0780139,-0.0710973
2.45165,0.0415096,0
2.43187,-0.196945,-0.0284042
2.44266,0.160957,0.0142276
2.44271,-0.0780456,-0.0142043
2.45345,0.0415402,-0.264316
2.4239,-0.1963,0.0283111
2.45765,0.0416112,-0.17188
2.44238,-0.078035,0.0426537
2.4616,0.162205,-0.158103
2.4319,-0.196948,-0.142092
2.44351,0.0413718,0.142324
2.43673,-0.0778546,0.0993258
2.45698,0.0416,-0.114467
2.41872,-0.0772789,0.197553
2.45663,0.161877,-0.100303
2.45099,0.0414984,-0.0570412
2.46284,0.153654,-0.0430725
2.44143,-0.0865366,-0.0710973
2.44778,0.0328978,0
2.43516,-0.20577,-0.0284508
2.45464,-0.0870048,-0.31264
2.4472,0.152678,0.0142508
2.43843,-0.0864301,-0.0141811
2.44961,0.0329223,-0.263887
2.43272,-0.205564,-0.227899
2.42719,-0.205096,0.0283577
2.4503,-0.0868511,-0.200157
2.46614,0.15386,-0.158359
2.42324,-0.204763,-0.141627
2.43245,-0.0862183,0.0991629
2.42242,-0.0858626,0.197878
2.46516,0.153799,-0.100628
2.44312,0.0328351,-0.0568551
2.44113,-0.0946322,-0.0710973
2.44787,0.0247805,0
2.45434,-0.0951442,-0.31264
2.44769,0.144562,0.0142508
2.43413,-0.0943608,-0.0141578
2.4497,0.024799,-0.263887
2.43202,-0.21363,-0.227899
2.44721,0.0247738,0.0569482
2.42251,-0.212794,0.0283111
2.44989,0.0248009,-0.171322
2.45,-0.0949761,-0.200157
2.46265,0.145446,-0.158103
2.43449,-0.213846,-0.142324
2.44373,0.0247385,0.142324
2.42816,-0.0941294,0.0990001
2.4468,-0.094852,-0.128328
2.42212,-0.0938951,0.197878
2.45768,0.145152,-0.100303
2.44721,0.0247738,-0.0569482
2.43679,-0.102984,-0.0709809
2.44395,0.0162091,0
2.4337,-0.222341,-0.0284508
2.44818,0.136017,0.0142508
2.44178,-0.103195,-0.0142043
2.4458,0.0162214,-0.263459
2.43523,-0.22248,-0.228271
2.41777,-0.220885,0.0282646
2.44597,0.0162226,-0.171043
2.44966,-0.103528,-0.200157
2.4432,0.13574,0.0712136
2.43346,-0.102843,0.0425141
2.45915,0.136627,-0.157847
2.42975,-0.221979,-0.142092
2.42782,-0.102605,0.0990001
2.45329,0.0162711,-0.11428
2.44247,-0.103224,-0.128118
2.42177,-0.102349,0.197878
2.45418,0.13635,-0.10014
2.45128,0.0162578,-0.0570412
2.44039,-0.112098,-0.0710973
2.44399,0.00725148,0
2.43287,-0.231259,-0.0284508
2.44467,0.126836,0.0142276
2.45379,0.00728057,-0.264316
2.4344,-0.231404,-0.228271
2.4249,-0.230502,0.0283577
2.45001,0.00726933,-0.171322
2.44528,-0.112322,-0.199831
2.43706,-0.111945,0.0425839
2.45964,0.127613,-0.157847
2.43687,-0.231639,-0.142557
2.43986,0.00723921,0.142092
2.42343,-0.111319,0.0988373
2.45333,0.00727919,-0.11428
2.44606,-0.112358,-0.128328
2.4174,-0.111042,0.197553
2.45865,0.127562,-0.100303
2.44733,0.00726138,-0.0569482
2.44459,-0.119988,-0.489509
2.444,-0.000426556,0
2.43213,-0.238901,-0.0284508
2.45447,-0.000428383,-0.381859
2.44927,-0.120218,-0.312135
2.44106,0.118961,0.0142043
2.43703,-0.119617,-0.0141811
2.44983,-0.000427573,-0.263887
2.43762,-0.23944,-0.228642
2.42019,-0.237728,0.0283111
2.45002,-0.000427606,-0.171322
2.44491,-0.120004,-0.199831
2.44806,0.119302,0.07133
2.45604,0.119691,-0.157591
2.43215,-0.238903,-0.142324
2.44386,-0.000426531,0.142324
2.43105,-0.119324,0.0991629
2.45334,-0.000428186,-0.11428
2.44171,-0.119847,-0.128118
2.41704,-0.118636,0.197553
2.45505,0.119642,-0.10014
2.44734,-0.000427138,-0.0569482
2.45312,0.110966,-0.0428631
2.4396,-0.128281,-0.0710973
2.44398,-0.00895771,0
2.45446,-0.00899609,-0.381859
2.44883,-0.128766,-0.312135
2.44546,0.11062,0.0142276
2.43659,-0.128123,-0.0141811
2.44584,-0.00896449,-0.263459
2.43677,-0.247948,-0.228642
2.41934,-0.246175,0.0283111
2.45399,-0.00899439,-0.171601
2.4405,-0.128328,-0.199506
2.44446,0.110575,0.0712136
2.46043,0.111297,-0.157847
2.42733,-0.246987,-0.142092
2.43985,-0.00894255,0.142092
2.42663,-0.127599,0.0990001
2.45332,-0.00899194,-0.11428
2.44526,-0.128579,-0.128328
2.42059,-0.127282,0.197878
2.45146,0.110891,-0.0999771
2.43932,-0.00894063,-0.0567621
2.43112,-0.136772,-0.0708645
2.45541,-0.138139,-0.491862
2.43993,-0.017886,0
2.45836,-0.018021,-0.382474
2.44585,0.101656,0.0142276
2.4401,-0.137277,-0.0142043
2.44579,-0.0179289,-0.263459
2.42792,-0.256042,-0.227899
2.41842,-0.25504,0.0283111
2.44995,-0.0179594,-0.171322
2.44399,-0.137496,-0.199831
2.44885,0.101781,0.07133
2.43578,-0.137034,0.0425839
2.45683,0.102113,-0.157591
2.42641,-0.255882,-0.142092
2.42615,-0.136492,0.0990001
2.44928,-0.0179545,-0.114094
2.42011,-0.136153,0.197878
2.45584,0.102071,-0.10014
2.44327,-0.0179104,-0.0568551
2.43063,-0.145258,-0.0708645
2.45492,-0.146709,-0.491862
2.43986,-0.0264028,0
2.44643,-0.0264739,-0.380629
2.44219,0.0929657,0.0142043
2.43561,-0.145555,-0.0141811
2.44173,-0.0264231,-0.26303
2.42701,-0.264515,-0.227899
2.41752,-0.263481,0.0283111
2.44987,-0.0265112,-0.171322
2.4435,-0.146026,-0.199831
2.44519,0.09308,0.0712136
2.43528,-0.145536,0.0425839
2.45319,0.0933843,-0.157336
2.4255,-0.264351,-0.142092
2.42566,-0.14496,0.0990001
2.4492,-0.0265039,-0.114094
2.41962,-0.1446,0.197878
2.44819,0.0931943,-0.0998143
2.4392,-0.0263957,-0.0567621
2.43014,-0.153317,-0.0708645
2.4505,-0.154602,-0.491078
2.43976,-0.0344935,0
2.42856,-0.272835,-0.0284508
2.44632,-0.0345864,-0.380629
2.44735,-0.154403,-0.312135
2.43849,0.0847277,0.0141811
2.44163,-0.03452,-0.26303
2.42612,-0.272562,-0.227899
2.41266,-0.271049,0.0282646
2.44179,-0.0345223,-0.170764
2.43504,-0.153627,-0.19918
2.44149,0.0848321,0.0710973
2.4308,-0.153359,0.0425141
2.45348,0.0852488,-0.157336
2.42064,-0.271947,-0.141859
2.43164,-0.0343787,0.141627
2.42516,-0.153003,0.0990001
2.43979,-0.153926,-0.128118
2.41117,-0.15212,0.197227
2.44849,0.0850753,-0.0998143
2.44309,-0.0345407,-0.0568551
2.45044,0.0761521,-0.0427933
2.43355,-0.162489,-0.0709809
2.446,-0.163321,-0.490293
2.43961,-0.0434355,0
2.45013,-0.0436227,-0.381244
2.44677,-0.163372,-0.312135
2.43878,0.0757897,0.0141811
2.43055,-0.162289,-0.0141578
2.44149,-0.0434688,-0.26303
2.42906,-0.281912,-0.228271
2.41562,-0.280351,0.0283111
2.44165,-0.0434717,-0.170764
2.44242,-0.163082,-0.199831
2.44578,0.0760073,0.0712136
2.43022,-0.162267,0.0425141
2.44979,0.0761317,-0.15708
2.42756,-0.281738,-0.142324
2.43549,-0.043362,0.141859
2.42459,-0.161891,0.0990001
2.43523,-0.162601,-0.127909
2.41855,-0.161488,0.197878
2.44879,0.0761006,-0.0998143
2.43895,-0.0434237,-0.0567621
2.43297,-0.170983,-0.0709809
2.44542,-0.171858,-0.490293
2.43945,-0.051951,0
2.44997,-0.052175,-0.381244
2.44222,-0.171634,-0.31163
2.43503,0.067166,0.0141578
2.43396,-0.171053,-0.0141811
2.44132,-0.0519909,-0.26303
2.43202,-0.290862,-0.228642
2.4186,-0.289257,0.0283577
2.44547,-0.0520794,-0.171043
2.43786,-0.171327,-0.199506
2.44204,0.0673592,0.0710973
2.42964,-0.170749,0.0425141
2.45004,0.0675799,-0.15708
2.41864,-0.289261,-0.141859
2.43532,-0.0518632,0.141859
2.42401,-0.170353,0.0990001
2.43465,-0.171101,-0.127909
2.41797,-0.169929,0.197878
2.44904,0.0675522,-0.0998143
2.43479,-0.0518518,-0.056669
2.4549,0.0595678,-0.0428631
2.42441,-0.178463,-0.0707482
2.44092,-0.179679,-0.489509
2.43926,-0.0600403,0
2.44583,-0.0602019,-0.380629
2.4456,-0.180023,-0.312135
2.43924,0.0591878,0.0141811
2.42939,-0.178829,-0.0141578
2.44114,-0.0600864,-0.26303
2.43104,-0.298925,-0.228642
2.41763,-0.297276,0.0283577
2.44529,-0.0601886,-0.171043
2.44624,0.0593577,0.0712136
2.43305,-0.179099,0.0425839
2.45424,0.0595518,-0.157336
2.42559,-0.298255,-0.142324
2.41944,-0.178097,0.0988373
2.43406,-0.179174,-0.127909
2.4174,-0.177947,0.197878
2.44925,0.0594306,-0.0998143
2.4346,-0.0599256,-0.056669
2.4511,0.0509152,-0.0427933
2.43175,-0.18754,-0.0709809
2.43637,-0.187896,-0.488724
2.43504,-0.0684421,0
2.42451,-0.306717,-0.0284508
2.4456,-0.068739,-0.380629
2.43943,0.0506729,0.0141811
2.44489,-0.0687189,-0.263459
2.42603,-0.306909,-0.228271
2.40864,-0.304709,0.0282646
2.43664,-0.187917,-0.199506
2.44244,0.0507353,0.0710973
2.42842,-0.187283,0.0425141
2.45443,0.0509845,-0.157336
2.42057,-0.306219,-0.142092
2.43491,-0.0684385,0.141859
2.42279,-0.186849,0.0990001
2.42944,-0.187362,-0.1277
2.41676,-0.186384,0.197878
2.44944,0.0508808,-0.0998143
2.44237,-0.0686483,-0.0568551
2.43104,-0.196451,-0.0709809
2.43958,-0.197141,-0.489509
2.44277,-0.0776206,0
2.42337,-0.315601,-0.0284508
2.44425,-0.197518,-0.312135
2.4436,0.0418,0.0142043
2.44462,-0.0776794,-0.263459
2.42884,-0.316314,-0.228642
2.41147,-0.314051,0.0283111
2.43196,-0.196525,-0.19918
2.43461,0.0416462,0.0708645
2.45061,0.0419199,-0.15708
2.42339,-0.315604,-0.142324
2.43863,-0.0774893,0.142092
2.42209,-0.195728,0.0990001
2.4367,-0.196909,-0.128118
2.4325,-0.0772942,0.298824
2.41209,-0.194919,0.197553
2.44561,0.0418344,-0.0996514
2.44211,-0.0775996,-0.0568551
2.4514,0.0333744,-0.0427933
2.42636,-0.2046,-0.0708645
2.43497,-0.205326,-0.488724
2.43449,-0.085865,0
2.42225,-0.324058,-0.0284508
2.43563,-0.205382,-0.311125
2.43573,0.0331611,0.0141578
2.42734,-0.204683,-0.0141578
2.44433,-0.0862122,-0.263459
2.42772,-0.32479,-0.228642
2.4064,-0.321937,0.0282646
2.4485,-0.0863591,-0.171322
2.44274,0.0332565,0.0710973
2.42702,-0.204655,0.0425141
2.44675,0.0333111,-0.156824
2.42228,-0.324062,-0.142324
2.41741,-0.203845,0.0988373
2.44782,-0.0863353,-0.114094
2.43202,-0.205077,-0.127909
2.42824,-0.0856448,0.298336
2.41536,-0.203673,0.197878
2.44574,0.0332974,-0.0996514
2.43383,-0.0858417,-0.056669
2.4515,0.0248172,-0.0427933
2.42961,-0.213418,-0.0709809
2.44217,-0.0946723,0
2.42111,-0.332512,-0.0284508
2.44078,-0.0946187,-0.380014
2.43886,-0.21423,-0.31163
2.44383,0.0247396,0.0142043
2.4306,-0.213505,-0.0141811
2.44402,-0.094744,-0.263459
2.42657,-0.333262,-0.228642
2.40922,-0.330879,0.0283111
2.44818,-0.0949054,-0.171322
2.43052,-0.213498,-0.19918
2.43884,0.024689,0.0709809
2.42629,-0.213126,0.0425141
2.44685,0.0247701,-0.156824
2.41718,-0.331972,-0.142092
2.42066,-0.212632,0.0990001
2.43129,-0.213565,-0.127909
2.41067,-0.211754,0.197553
2.44585,0.0247599,-0.0996514
2.43351,-0.0943368,-0.056669
2.45157,0.0166876,-0.0427933
2.42491,-0.221111,-0.0708645
2.44184,-0.10277,0
2.43813,-0.222316,-0.31163
2.4399,0.0166081,0.0141811
2.42589,-0.221201,-0.0141578
2.43971,-0.102681,-0.26303
2.41757,-0.340197,-0.227899
2.40811,-0.338866,0.0283111
2.44386,-0.102856,-0.171043
2.43377,-0.221919,-0.199506
2.43491,0.0165742,0.0708645
2.45092,0.0166831,-0.15708
2.41606,-0.339985,-0.142092
2.42175,-0.101925,0.141162
2.41596,-0.220295,0.0988373
2.41789,-0.220471,0.198204
2.44991,0.0166763,-0.0998143
2.42919,-0.102238,-0.056576
2.45161,0.00812989,-0.0427933
2.42412,-0.229574,-0.0708645
2.43347,-0.110929,0
2.42275,-0.349555,-0.0284974
2.44008,-0.11123,-0.380014
2.44129,-0.2312,-0.312135
2.43995,0.00809119,0.0141811
2.42909,-0.230044,-0.0141811
2.43934,-0.111196,-0.26303
2.42031,-0.349203,-0.228271
2.40691,-0.34727,0.0283111
2.44349,-0.111386,-0.171043
2.43298,-0.230413,-0.199506
2.43496,0.00807465,0.0708645
2.45495,0.00814095,-0.157336
2.41486,-0.348417,-0.142092
2.42936,-0.110741,0.141627
2.41916,-0.229104,0.0990001
2.42978,-0.23011,-0.127909
2.42723,-0.110644,0.298336
2.41314,-0.228534,0.197878
2.44995,0.00812439,-0.0998143
2.43681,-0.111081,-0.0567621
2.42335,-0.237611,-0.0708645
2.43709,-0.119193,0
2.41762,-0.357003,-0.0284508
2.43575,-0.119128,-0.379399
2.43261,-0.23852,-0.311125
2.43596,-0,0.0141578
2.42831,-0.238098,-0.0141811
2.43896,-0.119285,-0.26303
2.41914,-0.357227,-0.228271
2.4097,-0.355834,0.0283577
2.44709,-0.119683,-0.171322
2.42824,-0.238091,-0.19918
2.43897,-0,0.0709809
2.42798,-0.238066,0.0425839
2.45097,-0,-0.15708
2.41369,-0.356423,-0.142092
2.42898,-0.118797,0.141627
2.41441,-0.236735,0.0988373
2.429,-0.238166,-0.127909
2.42685,-0.118693,0.298336
2.42427,-0.237702,0.198855
2.44197,-0,-0.0994886
2.42844,-0.118771,-0.056576
2.43042,-0.247301,-0.0710973
2.43264,-0.127915,0
2.41629,-0.365861,-0.0284508
2.43925,-0.128262,-0.380014
2.43172,-0.247434,-0.311125
2.44394,-0.00895756,0.0142043
2.4314,-0.247402,-0.0142043
2.44248,-0.128432,-0.263459
2.41387,-0.365495,-0.227899
2.40443,-0.364065,0.0283111
2.44664,-0.128651,-0.171322
2.42735,-0.246989,-0.19918
2.43495,-0.00892462,0.0708645
2.42312,-0.246559,0.0425141
2.44696,-0.00896864,-0.156824
2.41237,-0.365267,-0.142092
2.42454,-0.127489,0.141394
2.4175,-0.245987,0.0990001
2.43209,-0.247471,-0.128118
2.44196,-0.00895029,-0.0994886
2.42799,-0.12767,-0.056576
2.43957,-0.0174575,-0.0425839
2.42159,-0.254946,-0.0708645
2.4071,-0.373068,-0.0283577
2.43878,-0.136776,-0.380014
2.43479,-0.256336,-0.31163
2.4319,-0.0174026,0.0141346
2.43053,-0.255887,-0.0142043
2.43407,-0.136512,-0.262602
2.42045,-0.375139,-0.228642
2.4071,-0.373068,0.0283577
2.4429,-0.0174814,0.0710973
2.45091,-0.0175387,-0.15708
2.41503,-0.374297,-0.142324
2.42806,-0.136175,0.141627
2.41663,-0.254424,0.0990001
2.43518,-0.256378,-0.128328
2.44591,-0.0175029,-0.0996514
2.42353,-0.135921,-0.0564829
2.44749,-0.025631,-0.0427235
2.43171,-0.14447,0
2.4098,-0.381674,-0.0284042
2.43832,-0.144863,-0.380014
2.42998,-0.263981,-0.311125
2.43983,-0.0255507,0.0141811
2.44155,-0.145055,-0.263459
2.41133,-0.381917,-0.227899
2.40585,-0.381049,0.0283577
2.44283,-0.0255822,0.0710973
2.44685,-0.0256242,-0.156824
2.40983,-0.381679,-0.142092
2.42361,-0.143989,0.141394
2.4118,-0.262005,0.0988373
2.43432,-0.264452,-0.128328
2.43105,-0.144431,-0.056669
2.42774,-0.272315,-0.0710973
2.43119,-0.152958,0
2.4124,-0.390723,-0.0284508
2.4378,-0.153373,-0.380014
2.43693,-0.273346,-0.312135
2.43572,-0.0340113,0.0141578
2.42873,-0.272425,-0.0142043
2.43309,-0.153077,-0.262602
2.41391,-0.390968,-0.228271
2.40055,-0.388805,0.0283111
2.43656,-0.273304,-0.200157
2.43873,-0.0340533,0.0709809
2.44674,-0.0341652,-0.156824
2.40848,-0.390089,-0.142092
2.42708,-0.152699,0.141627
2.41881,-0.271313,0.0991629
2.42941,-0.272502,-0.128118
2.44174,-0.0340953,-0.0994886
2.43453,-0.153167,-0.0567621
2.41481,-0.27983,-0.0707482
2.43062,-0.161867,0
2.407,-0.398908,-0.0284042
2.42803,-0.281362,-0.311125
2.43558,-0.0429384,0.0141578
2.43648,-0.162258,-0.26303
2.42032,-0.401116,-0.229014
2.39911,-0.397601,0.0283111
2.44062,-0.162534,-0.171043
2.43159,-0.281774,-0.199831
2.43459,-0.042921,0.0708645
2.4466,-0.0431327,-0.156824
2.41097,-0.399566,-0.142324
2.43049,-0.161859,0.141859
2.4178,-0.280177,0.0991629
2.42443,-0.280945,-0.127909
2.44559,-0.0431149,-0.0996514
2.43395,-0.162089,-0.0567621
2.43909,-0.0510917,-0.0425839
2.42181,-0.288783,-0.0709809
2.43406,-0.170206,0
2.40172,-0.406221,-0.0283577
2.42708,-0.289412,-0.311125
2.43942,-0.0510986,0.0141811
2.43593,-0.170337,-0.26303
2.41898,-0.409139,-0.229014
2.40172,-0.406221,0.0283577
2.43064,-0.289836,-0.199831
2.43444,-0.0509941,0.0708645
2.42247,-0.288862,0.0425839
2.44245,-0.0511621,-0.156568
2.4057,-0.406893,-0.142092
2.42197,-0.169361,0.141394
2.41289,-0.28772,0.0990001
2.42745,-0.289456,-0.128118
2.44144,-0.0511408,-0.0994886
2.42542,-0.169602,-0.056576
2.4429,-0.0597031,-0.0426537
2.42079,-0.297235,-0.0709809
2.43345,-0.178701,0
2.40423,-0.415283,-0.0284042
2.44,-0.179182,-0.380629
2.43,-0.298366,-0.31163
2.43523,-0.0595158,0.0141578
2.4178,-0.296869,-0.0141578
2.43135,-0.178547,-0.262602
2.41361,-0.416903,-0.228642
2.40423,-0.415283,0.0284042
2.43946,-0.179143,-0.171043
2.43357,-0.298805,-0.200157
2.43824,-0.0595893,0.0709809
2.42144,-0.297316,0.0425839
2.43827,-0.05959,-0.156312
2.40426,-0.415288,-0.142092
2.42535,-0.178106,0.141627
2.41187,-0.296141,0.0990001
2.42642,-0.297927,-0.128118
2.44125,-0.0596627,-0.0994886
2.42481,-0.178067,-0.056576
2.44268,-0.0682301,-0.0426537
2.4118,-0.304681,-0.0707482
2.42882,-0.186888,0
2.40671,-0.424367,-0.0284508
2.43148,-0.187092,-0.379399
2.425,-0.306349,-0.311125
2.43101,-0.0679043,0.0141346
2.42072,-0.305808,-0.0141811
2.43864,-0.187643,-0.263459
2.41214,-0.425325,-0.228642
2.40277,-0.423673,0.0284042
2.42856,-0.306798,-0.199831
2.43802,-0.0681,0.0709809
2.42039,-0.305767,0.0425839
2.44204,-0.0682122,-0.156568
2.40673,-0.424372,-0.142324
2.42471,-0.186571,0.141627
2.41082,-0.304558,0.0990001
2.43814,-0.187605,-0.113908
2.42141,-0.305895,-0.127909
2.44502,-0.0682955,-0.0996514
2.43215,-0.187144,-0.0567621
2.44242,-0.0767562,-0.0426537
2.41469,-0.313613,-0.0708645
2.42815,-0.195365,0
2.43081,-0.195578,-0.379399
2.42786,-0.315323,-0.31163
2.43076,-0.0763897,0.0141346
2.43797,-0.196155,-0.263459
2.43417,-0.195849,-0.170764
2.42352,-0.31476,-0.199506
2.43377,-0.0764842,0.0708645
2.44577,-0.0768615,-0.156824
2.40524,-0.43277,-0.142324
2.41609,-0.194394,0.141162
2.40578,-0.312457,0.0988373
2.42428,-0.31486,-0.128118
2.44077,-0.0767043,-0.0994886
2.4275,-0.195312,-0.056669
2.41358,-0.32204,-0.0708645
2.43144,-0.204174,0
2.40369,-0.441159,-0.0284508
2.43011,-0.204062,-0.379399
2.42674,-0.323796,-0.31163
2.43048,-0.0848741,0.0141346
2.43727,-0.204664,-0.263459
2.39975,-0.440437,0.0284042
2.43347,-0.204344,-0.170764
2.41845,-0.32269,-0.19918
2.42949,-0.0848396,0.0707482
2.44948,-0.0855377,-0.15708
2.40371,-0.441163,-0.142324
2.42335,-0.203494,0.141627
2.40864,-0.321381,0.0990001
2.42317,-0.32332,-0.128118
2.43649,-0.0850842,-0.0993258
2.43078,-0.204119,-0.0567621
2.43783,-0.093652,-0.0425839
2.42036,-0.331549,-0.0710973
2.42673,-0.212311,0
2.40606,-0.450282,-0.0284974
2.42166,-0.331727,-0.311125
2.43017,-0.0933576,0.0141346
2.42135,-0.331683,-0.0142043
2.43258,-0.212823,-0.26303
2.40213,-0.449547,0.0284508
2.43274,-0.212838,-0.170764
2.42521,-0.332212,-0.199831
2.42918,-0.0933196,0.0707482
2.42102,-0.331638,0.0426537
2.4372,-0.0936277,-0.156312
2.40216,-0.449551,-0.142324
2.4266,-0.2123,0.141859
2.41146,-0.330329,0.0991629
2.42203,-0.331776,-0.128118
2.44017,-0.093742,-0.0994886
2.42607,-0.212254,-0.056669
2.41139,-0.33804,-0.0708645
2.40464,-0.457839,-0.0284974
2.43264,-0.220531,-0.380014
2.42454,-0.339884,-0.31163
2.43386,-0.101158,0.0141578
2.41633,-0.338733,-0.0141811
2.43604,-0.220839,-0.171043
2.42415,-0.33983,-0.199831
2.42887,-0.100951,0.0707482
2.41997,-0.339243,0.0426537
2.44088,-0.10145,-0.156568
2.42195,-0.219562,0.141627
2.4025,-0.336794,0.0988373
2.42097,-0.339384,-0.128118
2.43987,-0.101408,-0.0994886
2.4254,-0.219875,-0.056669
2.42129,-0.228026,0
2.43186,-0.229022,-0.380014
2.41941,-0.34778,-0.311125
2.43349,-0.109653,0.0141578
2.41909,-0.347735,-0.0142043
2.43112,-0.228952,-0.26303
2.43525,-0.229341,-0.171043
2.42295,-0.348289,-0.199831
2.42851,-0.109428,0.0707482
2.41877,-0.347688,0.0426537
2.4445,-0.110149,-0.156824
2.41719,-0.227641,0.141394
2.40526,-0.345746,0.0990001
2.43458,-0.229278,-0.113908
2.41582,-0.347264,-0.127909
2.4395,-0.109924,-0.0994886
2.42461,-0.228339,-0.056669
2.44075,-0.118519,-0.0426537
2.40897,-0.354867,-0.0708645
2.42446,-0.236866,0
2.39746,-0.47384,-0.0284508
2.42603,-0.35738,-0.312135
2.43709,-0.118341,0.0141811
2.42182,-0.35676,-0.0142276
2.43822,-0.23821,-0.263887
2.43047,-0.237453,-0.170764
2.42172,-0.356745,-0.199831
2.42811,-0.117905,0.0707482
2.41754,-0.356129,0.0426537
2.4441,-0.118681,-0.156824
2.4014,-0.474619,-0.142557
2.42433,-0.236853,0.141859
2.43376,-0.237775,-0.113908
2.4225,-0.356859,-0.128328
2.43511,-0.118245,-0.0993258
2.4238,-0.236802,-0.056669
2.41563,-0.364467,-0.0710973
2.41964,-0.244924,0
2.40363,-0.483784,-0.0285439
2.4302,-0.245993,-0.380014
2.42867,-0.126431,0.0141346
2.43737,-0.24672,-0.263887
2.42565,-0.245533,-0.170485
2.41258,-0.364007,-0.19918
2.42369,-0.126172,0.0706318
2.41233,-0.363969,0.0425839
2.43968,-0.127005,-0.156568
2.39973,-0.482998,-0.142557
2.42349,-0.245314,0.141859
2.42894,-0.245866,-0.113722
2.42124,-0.365313,-0.128328
2.43867,-0.126952,-0.0994886
2.43092,-0.246066,-0.0568551
2.43587,-0.135333,-0.0425839
2.41039,-0.372286,-0.0709809
2.42274,-0.253786,0
2.39409,-0.490565,-0.0284508
2.42539,-0.254063,-0.379399
2.42821,-0.134908,0.0141346
2.41137,-0.372437,-0.0141811
2.42859,-0.254398,-0.26303
2.43272,-0.25483,-0.171043
2.41523,-0.373034,-0.199506
2.41924,-0.13441,0.0705155
2.41104,-0.372387,0.0425839
2.43126,-0.135077,-0.156056
2.4107,-0.252524,0.141162
2.43204,-0.25476,-0.113908
2.41995,-0.373762,-0.128328
2.43821,-0.135464,-0.0994886
2.42607,-0.254134,-0.0567621
2.43139,-0.1436,-0.0425141
2.41302,-0.381322,-0.0710973
2.42184,-0.262241,0
2.42773,-0.143383,0.0141346
2.41795,-0.382101,-0.0142276
2.42373,-0.262445,-0.262602
2.43578,-0.26375,-0.171322
2.40998,-0.380841,-0.19918
2.42275,-0.143089,0.0706318
2.41763,-0.382049,0.0427235
2.43874,-0.144034,-0.156568
2.40981,-0.260938,0.141162
2.42319,-0.262387,-0.113536
2.42257,-0.382831,-0.128537
2.43773,-0.143974,-0.0994886
2.41324,-0.261309,-0.0564829
2.40378,-0.388467,-0.0708645
2.41694,-0.270249,0
2.39452,-0.508098,-0.0284974
2.42322,-0.151607,0.0141113
2.41661,-0.390539,-0.0142276
2.4307,-0.271788,-0.263459
2.42691,-0.271364,-0.170764
2.4165,-0.390523,-0.199831
2.42224,-0.151545,0.0706318
2.40443,-0.388572,0.0425141
2.43424,-0.152296,-0.156312
2.42079,-0.270679,0.141859
2.41829,-0.2704,-0.11335
2.41728,-0.390648,-0.128328
2.43721,-0.152482,-0.0994886
2.41231,-0.269731,-0.0564829
2.43831,-0.161098,-0.0426537
2.41598,-0.278684,0
2.43066,-0.160592,0.0141578
2.40733,-0.397668,-0.0141811
2.42579,-0.279815,-0.26303
2.42327,-0.279525,0.0567621
2.42991,-0.280291,-0.171043
2.41513,-0.398956,-0.199831
2.42169,-0.16,0.0706318
2.41095,-0.398266,0.0426537
2.43369,-0.160792,-0.156312
2.41586,-0.27867,0.141627
2.42924,-0.280213,-0.113908
2.4159,-0.399083,-0.128328
2.43267,-0.160725,-0.0993258
2.42327,-0.279525,-0.0567621
2.41284,-0.407235,-0.0712136
2.41896,-0.287588,0
2.42609,-0.168798,0.0141346
2.42875,-0.288751,-0.263459
2.43288,-0.289243,-0.171322
2.40979,-0.40672,-0.199506
2.42511,-0.168729,0.0707482
2.40561,-0.406014,0.0425839
2.43311,-0.169286,-0.156312
2.41487,-0.287101,0.141627
2.42825,-0.288691,-0.113908
2.41843,-0.408179,-0.128537
2.42811,-0.168938,-0.0991629
2.43022,-0.288926,-0.0569482
2.40352,-0.414296,-0.0709809
2.41795,-0.29603,0
2.42948,-0.177557,0.0141578
2.41633,-0.416503,-0.0142508
2.42378,-0.296744,-0.26303
2.4279,-0.297248,-0.171043
2.41621,-0.416484,-0.200157
2.42052,-0.176902,0.0706318
2.40417,-0.414409,0.0425839
2.43251,-0.177779,-0.156312
2.40989,-0.295044,0.141394
2.40912,-0.415261,-0.128118
2.43548,-0.177996,-0.0994886
2.41729,-0.29595,-0.056669
2.4325,-0.186317,-0.0425839
2.406,-0.423377,-0.0710973
2.42087,-0.304968,0
2.42087,-0.185426,0.0141113
2.40698,-0.423549,-0.0142043
2.42273,-0.305202,-0.26303
2.42418,-0.305385,0.0568551
2.43081,-0.30622,-0.171322
2.41082,-0.424224,-0.199831
2.42387,-0.185656,0.0707482
2.40271,-0.422798,0.0425839
2.43585,-0.186573,-0.156568
2.42617,-0.305637,-0.113908
2.40765,-0.423668,-0.128118
2.42687,-0.185886,-0.0991629
2.41228,-0.303886,-0.056576
2.43579,-0.195551,-0.0426537
2.4118,-0.31281,0
2.42416,-0.194617,0.0141346
2.40935,-0.433076,-0.0142276
2.42554,-0.314592,-0.263459
2.41908,-0.313754,0.0567621
2.42175,-0.314101,-0.170764
2.41317,-0.433763,-0.200157
2.42317,-0.194538,0.0707482
2.43117,-0.195181,-0.156312
2.42504,-0.314527,-0.113908
2.40608,-0.432489,-0.128118
2.43016,-0.195099,-0.0993258
2.41908,-0.313754,-0.0567621
2.43516,-0.203203,-0.0426537
2.41477,-0.320912,0
2.42752,-0.202565,0.0141578
2.40404,-0.439923,-0.0142043
2.42848,-0.322734,-0.263887
2.41808,-0.321352,0.0567621
2.42075,-0.321708,-0.170764
2.40787,-0.440624,-0.199831
2.41857,-0.201818,0.0706318
2.43453,-0.203149,-0.156568
2.42008,-0.321617,-0.113722
2.40864,-0.440765,-0.128328
2.42953,-0.202733,-0.0993258
2.41015,-0.320299,-0.056576
2.40151,-0.44813,-0.0710973
2.41363,-0.329339,0
2.42282,-0.210691,0.0141346
2.41428,-0.450513,-0.0142741
2.42734,-0.331209,-0.263887
2.42091,-0.330332,0.0568551
2.41962,-0.330156,-0.170764
2.41808,-0.451221,-0.200808
2.42581,-0.210951,0.0708645
2.4338,-0.211646,-0.156568
2.4229,-0.330603,-0.113908
2.41102,-0.449903,-0.128537
2.42881,-0.211212,-0.0993258
2.41694,-0.329791,-0.0567621
2.4297,-0.219838,-0.0425839
2.40386,-0.457257,-0.0712136
2.41643,-0.338317,0
2.42605,-0.219507,0.0141578
2.40484,-0.457443,-0.0142276
2.42223,-0.339129,-0.263459
2.41845,-0.3386,-0.170764
2.42108,-0.219058,0.0707482
2.4251,-0.219421,-0.156056
2.42173,-0.339059,-0.113908
2.40551,-0.45757,-0.128328
2.42806,-0.219689,-0.0993258
2.41182,-0.337671,-0.056669
2.42884,-0.229165,-0.0425839
2.41511,-0.347593,0
2.42121,-0.228445,0.0141346
2.41697,-0.34786,-0.26303
2.42503,-0.34902,-0.171322
2.4242,-0.228728,0.0708645
2.42821,-0.229106,-0.156312
2.41645,-0.347786,-0.113722
2.41158,-0.468326,-0.128746
2.42322,-0.228635,-0.0991629
2.42811,-0.236795,-0.0425839
2.41401,-0.355179,0
2.42446,-0.236439,0.0141578
2.40159,-0.47422,-0.0142276
2.4198,-0.35603,-0.263459
2.41336,-0.355083,0.0567621
2.41603,-0.355475,-0.170764
2.41949,-0.235954,0.0707482
2.42748,-0.236733,-0.156312
2.4193,-0.355957,-0.113908
2.40617,-0.475126,-0.128537
2.43044,-0.237022,-0.0994886
2.4094,-0.3545,-0.056669
2.42727,-0.245269,-0.0425839
2.40286,-0.483193,-0.07133
2.4088,-0.363007,0
2.42362,-0.2449,0.0141578
2.39992,-0.482601,-0.0142276
2.42248,-0.365068,-0.263887
2.42001,-0.364696,0.0569482
2.41872,-0.364501,-0.171043
2.41468,-0.243997,0.0706318
2.42664,-0.245205,-0.156312
2.41805,-0.3644,-0.113908
2.42563,-0.245103,-0.0993258
2.41606,-0.3641,-0.0568551
2.43037,-0.254156,-0.0426537
2.40116,-0.491577,-0.07133
2.40357,-0.370803,0
2.41479,-0.252526,0.0141113
2.41726,-0.372915,-0.263459
2.41477,-0.372532,0.0568551
2.42137,-0.37355,-0.171322
2.40983,-0.252008,0.0705155
2.42577,-0.253674,-0.156312
2.42071,-0.373448,-0.114094
2.4028,-0.491913,-0.128537
2.42078,-0.253153,-0.0991629
2.41872,-0.373142,-0.0569482
2.4255,-0.262208,-0.0425839
2.40334,-0.500771,-0.0714464
2.41016,-0.380438,0
2.41787,-0.261384,0.0141346
2.41594,-0.381351,-0.263459
2.41611,-0.381378,-0.171043
2.40894,-0.260418,0.0705155
2.42487,-0.26214,-0.156312
2.4115,-0.380649,-0.113722
2.40889,-0.501926,-0.128956
2.42783,-0.26246,-0.0994886
2.41741,-0.381582,-0.0569482
2.42854,-0.271117,-0.0426537
2.40882,-0.388849,0
2.41297,-0.269379,0.0141113
2.41459,-0.389781,-0.263459
2.41606,-0.390018,0.0569482
2.41871,-0.390445,-0.171322
2.40802,-0.268826,0.0705155
2.43187,-0.271489,-0.156824
2.41015,-0.389064,-0.113722
2.4269,-0.270934,-0.0994886
2.40422,-0.388106,-0.056669
2.40738,-0.397675,0
2.42389,-0.279596,0.0141811
2.40672,-0.397567,0.0567621
2.41332,-0.398657,-0.171043
2.41496,-0.278566,0.0707482
2.42293,-0.279485,-0.156312
2.41265,-0.398547,-0.113908
2.42589,-0.279827,-0.0994886
2.40672,-0.397567,-0.0567621
2.42262,-0.287593,-0.0425839
2.4021,-0.404991,0
2.41897,-0.287161,0.0141578
2.41592,-0.407321,-0.171322
2.40608,-0.28563,0.0705155
2.42595,-0.287989,-0.156568
2.41526,-0.40721,-0.114094
2.41304,-0.286456,-0.0990001
2.40461,-0.414052,0
2.41796,-0.295603,0.0141578
2.41055,-0.415075,-0.171043
2.42493,-0.296456,-0.156568
2.40988,-0.41496,-0.113908
2.41996,-0.295848,-0.0993258
2.4079,-0.414619,-0.0568551
2.42055,-0.304499,-0.0425839
2.39424,-0.542639,-0.0714464
2.40709,-0.423136,0
2.41294,-0.303542,0.0141346
2.40516,-0.422796,-0.170764
2.41196,-0.303419,0.0707482
2.41596,-0.303922,-0.156056
2.41629,-0.424753,-0.11428
2.42288,-0.304792,-0.0994886
2.40644,-0.423021,-0.0568551
2.41947,-0.312947,-0.0425839
2.40954,-0.432242,0
2.41583,-0.312476,0.0141578
2.41089,-0.311836,0.0707482
2.42281,-0.313378,-0.156568
2.40693,-0.431774,-0.113908
2.4218,-0.313247,-0.0994886
2.42233,-0.321917,-0.0426537
2.40408,-0.43993,0
2.41473,-0.320907,0.0141578
2.40607,-0.440295,-0.171043
2.41771,-0.321303,0.0709809
2.41774,-0.321307,-0.156312
2.40934,-0.440892,-0.114094
2.41673,-0.321173,-0.0993258
2.40343,-0.439811,-0.0568551
2.42113,-0.330793,-0.0426537
2.40245,-0.448739,0
2.41354,-0.329755,0.0141578
2.40444,-0.449111,-0.171043
2.41256,-0.329621,0.0708645
2.4205,-0.330707,-0.156568
2.40378,-0.448986,-0.113908
2.41158,-0.329487,-0.0991629
2.42008,-0.338398,-0.0426537
2.3971,-0.455537,0
2.41249,-0.337336,0.0141578
2.40694,-0.457407,-0.171322
2.40359,-0.336091,0.0706318
2.4234,-0.338862,-0.156824
2.40628,-0.457282,-0.114094
2.41449,-0.337615,-0.0993258
2.40824,-0.457654,-0.0570412
2.40701,-0.34514,-0.0424443
2.39942,-0.464662,0
2.40734,-0.345187,0.0141346
2.40141,-0.465048,-0.171043
2.4024,-0.344479,0.0706318
2.41825,-0.346753,-0.156568
2.40467,-0.465678,-0.114094
2.41725,-0.346609,-0.0994886
2.39877,-0.464536,-0.0568551
2.4137,-0.354703,-0.0425839
2.40171,-0.473809,0
2.41403,-0.354751,0.0141811
2.4091,-0.354026,0.0708645
2.40303,-0.474069,-0.114094
2.41603,-0.355044,-0.0994886
2.39714,-0.472907,-0.0568551
2.41641,-0.363722,-0.0426537
2.41278,-0.363176,0.0141811
2.40389,-0.361838,0.0707482
2.41577,-0.363627,-0.156568
2.40136,-0.482455,-0.114094
2.41477,-0.363476,-0.0994886
2.41512,-0.372154,-0.0426537
2.4115,-0.371596,0.0141811
2.40261,-0.370227,0.0707482
2.41844,-0.372665,-0.156824
2.39966,-0.490834,-0.114094
2.41349,-0.371903,-0.0994886
2.41381,-0.380583,-0.0426537
2.41018,-0.380011,0.0141811
2.40921,-0.379857,0.0709809
2.40923,-0.379861,-0.156312
2.40184,-0.500022,-0.11428
2.4038,-0.500428,-0.0571343
2.41247,-0.389006,-0.0426537
2.40095,-0.387148,0.0141346
2.41183,-0.388904,-0.156568
2.40399,-0.509231,-0.114467
2.41083,-0.388743,-0.0994886
2.40715,-0.396774,-0.0425839
2.40353,-0.396177,0.0141578
2.4144,-0.39797,-0.156824
2.4022,-0.517619,-0.114467
2.40552,-0.396506,-0.0993258
2.41758,-0.407167,-0.0427933
2.41693,-0.407058,-0.15708
2.412,-0.406228,-0.0996514
2.39452,-0.524717,-0.0570412
2.41614,-0.415603,-0.0427933
2.40464,-0.413626,0.0141811
2.4155,-0.415492,-0.15708
2.41057,-0.414645,-0.0996514
2.40319,-0.422017,0.0141811
2.41403,-0.423922,-0.15708
2.41712,-0.433167,-0.0428631
2.4017,-0.430403,0.0141811
2.40468,-0.430937,-0.156568
2.40762,-0.431463,-0.0996514
2.4078,-0.439743,-0.0427235
2.40026,-0.438365,0.0141811
2.40716,-0.439626,-0.156824
2.40224,-0.438727,-0.0994886
2.40625,-0.448145,-0.0427235
2.40264,-0.447473,0.0142043
2.40562,-0.448026,-0.156824
2.40462,-0.447841,-0.0996514
2.40467,-0.456541,-0.0427235
2.40305,-0.456232,-0.0996514
2.40699,-0.465692,-0.0427933
2.40635,-0.465568,-0.15708
2.40927,-0.474865,-0.0428631
2.40079,-0.473193,-0.156824
2.3998,-0.472998,-0.0996514
2.40368,-0.482485,-0.0427933
2.40205,-0.482158,-0.0998143
2.39806,-0.490071,-0.0427235
2.40427,-0.49134,-0.0999771
2.40417,-0.500068,-0.0428631
2.39863,-0.498916,-0.0998143
2.40241,-0.508457,-0.0428631
2.40078,-0.508113,-0.0999771
2.40062,-0.51684,-0.0428631
2.39509,-0.515649,-0.0998143
