1.82388,0.372068,-0.0975542
1.85507,0.278567,-0.0218387
1.82465,0.365927,-0.236879
1.85111,0.277972,-0.174735
1.85112,0.277973,0.0217921
1.82119,0.365232,-0.0973449
1.85999,0.27267,-0.0218852
1.82281,0.358944,-0.151663
1.82245,0.358873,-0.0973449
1.86489,0.266741,-0.0219318
1.85695,0.265605,-0.175107
1.79074,0.437861,-0.12891
1.82797,0.353335,-0.151989
1.83154,0.354024,-0.0977636
1.8345,0.34796,-0.0543411
1.86581,0.260231,-0.0219318
1.82839,0.3468,-0.236879
1.86181,0.259673,-0.175478
1.85789,0.259126,0.0218387
1.83311,0.347696,-0.152314
1.86266,0.253497,-0.175478
1.85874,0.252963,0.0218387
1.83425,0.341615,-0.152314
1.83391,0.34155,-0.0977636
1.82509,0.332991,-0.053992
1.85965,0.24615,-0.0218387
1.83857,0.335451,-0.237889
1.80088,0.420405,-0.199201
1.86357,0.246668,-0.175478
1.85569,0.245625,0.0217921
1.80689,0.421807,-0.129747
1.83549,0.33489,-0.152314
1.83122,0.33411,-0.0975542
1.83017,0.327322,-0.0541084
1.86447,0.240167,-0.0218852
1.86837,0.24067,-0.17585
1.8605,0.239656,0.0218387
1.80835,0.415496,-0.129747
1.84057,0.329182,-0.15264
1.83237,0.327715,-0.0975542
1.83125,0.321252,-0.0541084
1.86525,0.233983,-0.0218852
1.84081,0.322929,-0.237889
1.8037,0.408137,-0.199201
1.86916,0.234474,-0.17585
1.86922,0.234481,0.0219318
1.80583,0.408617,-0.129468
1.84166,0.323077,-0.15264
1.84132,0.323018,-0.0979729
1.83635,0.315213,-0.0542248
1.87404,0.228111,-0.0219784
1.80907,0.402386,-0.199629
1.87001,0.227621,-0.17585
1.87007,0.227628,0.0219318
1.80731,0.401995,-0.129468
1.8389,0.31565,-0.152314
1.83855,0.315591,-0.0977636
1.82956,0.307476,-0.053992
1.87085,0.221099,-0.0219318
1.84699,0.310406,-0.238394
1.83425,0.308264,-0.0108102
1.80269,0.394369,-0.198772
1.87475,0.221559,-0.176222
1.87483,0.221569,0.0219784
1.8165,0.39739,-0.130026
1.83846,0.302706,-0.0542248
1.87952,0.215806,-0.0220249
1.80788,0.389226,-0.199201
1.87547,0.215341,-0.176222
1.87158,0.214894,0.0219318
1.81391,0.390524,-0.129747
1.8446,0.303718,-0.0979729
1.8395,0.296288,-0.0542248
1.88026,0.209244,-0.0220249
1.80923,0.382913,-0.199201
1.87621,0.208793,-0.176222
1.87231,0.20836,0.0219318
1.81526,0.38419,-0.129747
1.84959,0.297912,-0.0981823
1.83658,0.289242,-0.0541084
1.87303,0.201822,-0.0219318
1.84918,0.291227,-0.0108799
1.81444,0.377405,-0.199629
1.87693,0.202242,-0.176222
1.86905,0.201394,0.0218852
1.8205,0.378663,-0.130026
1.81905,0.378363,-0.0865479
1.84273,0.290211,-0.0977636
1.84548,0.284046,-0.0543411
1.85109,0.28491,-0.238394
1.84623,0.284162,-0.0108567
1.80796,0.369477,-0.198772
1.88158,0.196103,-0.176594
1.8777,0.195698,0.0219784
1.82572,0.373106,-0.130305
1.85196,0.285044,-0.152965
1.82428,0.372812,-0.086734
1.85557,0.2856,-0.0983916
1.89031,0.190345,-0.0221181
1.856,0.279037,-0.238899
1.84721,0.277716,-0.0108567
1.81704,0.364729,-0.199629
1.88226,0.189534,-0.176594
1.88235,0.189544,0.0220249
1.82701,0.366731,-0.130305
1.85689,0.279171,-0.153291
1.82165,0.365656,-0.0865479
1.85656,0.279122,-0.0983916
1.84742,0.271156,-0.0543411
1.88698,0.183358,-0.0220715
1.85696,0.272557,-0.238899
1.85212,0.271847,-0.0108799
1.8222,0.359153,-0.200057
1.88291,0.182962,-0.176594
1.87902,0.182584,0.0219784
1.82828,0.360351,-0.130305
1.81899,0.358521,-0.0863618
1.85627,0.265839,-0.0545738
1.89159,0.177144,-0.0221181
1.85702,0.265947,-0.0109032
1.81954,0.352035,-0.199629
1.88353,0.176389,-0.176594
1.87567,0.175652,0.0219318
1.8256,0.353209,-0.130026
1.86274,0.266766,-0.153616
1.832,0.354447,-0.0869201
1.85451,0.265587,-0.0981823
1.85709,0.260006,-0.0545738
1.89613,0.17156,-0.0221646
1.82105,0.346395,-0.288393
1.86181,0.260666,-0.0109264
1.82454,0.34706,-0.200057
1.88408,0.17047,-0.176594
1.88816,0.170839,0.0220715
1.83063,0.348217,-0.130305
1.85962,0.260359,-0.153291
1.86552,0.261185,0.0328803
1.82918,0.347943,-0.086734
1.86325,0.260867,-0.0986009
1.82674,0.347478,-0.0432694
1.85403,0.252982,-0.0544575
1.82225,0.340037,-0.288393
1.86356,0.254282,-0.239405
1.86271,0.254166,-0.0109264
1.82183,0.33996,-0.199629
1.8926,0.164583,-0.177337
1.88874,0.164248,0.0220715
1.83575,0.342557,-0.130584
1.86051,0.253867,-0.153291
1.83431,0.342289,-0.0869201
1.86019,0.253822,-0.0983916
1.85891,0.246711,-0.0545738
1.89332,0.157656,-0.0221181
1.82737,0.334067,-0.289008
1.86448,0.24745,-0.239405
1.86759,0.247864,-0.0109496
1.81915,0.332565,-0.199201
1.89319,0.157645,-0.177337
1.89332,0.157656,0.0221181
1.8713,0.248356,0.0329501
1.83556,0.335564,-0.0869201
1.86506,0.247528,-0.0986009
1.84098,0.336556,-0.0435486
1.85976,0.24022,-0.0545738
1.83241,0.328383,-0.289623
1.82422,0.326914,-0.199629
1.89373,0.151035,-0.177337
1.89386,0.151046,0.0221181
1.83816,0.329412,-0.130584
1.86624,0.241057,-0.153616
1.83672,0.329154,-0.0869201
1.83427,0.328716,-0.0433625
1.86058,0.233727,-0.0545738
1.82576,0.320617,-0.288393
1.87325,0.235317,-0.0109729
1.83318,0.32192,-0.200486
1.89424,0.144424,-0.177337
1.89836,0.144738,0.0221646
1.80256,0.408209,-0.118449
1.84179,0.323431,-0.0871063
1.87071,0.234999,-0.0988103
1.83541,0.322311,-0.0433625
1.86135,0.227556,-0.0545738
1.83071,0.315232,-0.289008
1.87086,0.228719,-0.23991
1.87402,0.229104,-0.0109729
1.83424,0.315839,-0.200486
1.89471,0.138142,-0.177337
1.90282,0.138733,0.0222112
1.84429,0.31757,-0.130863
1.87773,0.229559,0.03302
1.80001,0.401361,-0.118194
1.86456,0.227948,0.0765297
1.83498,0.315966,-0.086734
1.87148,0.228794,-0.0988103
1.84041,0.316902,-0.0434555
1.87007,0.222,-0.0548066
1.8396,0.310154,-0.290237
1.87559,0.222655,-0.240415
1.8748,0.222562,-0.0109729
1.83533,0.309435,-0.200486
1.90313,0.132079,-0.178081
1.90329,0.13209,0.0222112
1.84145,0.310467,-0.130584
1.87258,0.222298,-0.153942
1.8014,0.395076,-0.118194
1.84395,0.310888,-0.0871063
1.87623,0.222731,-0.0990196
1.83756,0.309811,-0.0433625
1.8669,0.214688,-0.0546902
1.85102,0.305108,0
1.83682,0.302767,-0.289623
1.87639,0.21578,-0.240415
1.87958,0.216146,-0.0109961
1.9036,0.125103,-0.178081
1.90376,0.125114,0.0222112
1.84651,0.304365,-0.130863
1.87734,0.215889,-0.154267
1.80674,0.389312,-0.118449
1.87011,0.215058,0.0766925
1.84113,0.303478,-0.0869201
1.84263,0.303725,-0.0434555
1.8676,0.208496,-0.0546902
1.84952,0.298564,-0.291467
1.83352,0.295981,-0.200057
1.904,0.118789,-0.178081
1.90018,0.118551,0.0221646
1.81193,0.384146,-0.118705
1.87082,0.208854,0.0766925
1.84213,0.297371,-0.0869201
1.87774,0.209627,-0.0990196
1.81805,0.385444,-0.0757155
1.84758,0.29825,-0.0435486
1.87229,0.202404,-0.0548066
1.87571,0.202773,-0.37733
1.84274,0.290873,-0.290237
1.83847,0.290198,-0.200486
1.90043,0.111908,-0.177709
1.90058,0.111917,0.0221646
1.85248,0.29241,-0.131142
1.88273,0.203533,-0.154593
1.88473,0.203749,0.0330898
1.81326,0.377818,-0.118705
1.87551,0.202752,0.0768554
1.8471,0.291561,-0.0871063
1.87846,0.203071,-0.0990196
1.84466,0.291175,-0.0434555
1.87302,0.195541,-0.0548066
1.84621,0.284489,0
1.8438,0.284117,-0.290237
1.84345,0.284064,-0.200914
1.90481,0.105162,-0.178081
1.91296,0.105612,0.0223043
1.85354,0.285619,-0.131142
1.81072,0.37037,-0.118449
1.87624,0.195877,0.0768554
1.84816,0.284789,-0.0871063
1.88714,0.197015,-0.0994383
1.80901,0.370022,-0.0752271
1.85361,0.28563,-0.0436417
1.87363,0.189655,-0.0548066
1.88095,0.190396,-0.378114
1.84709,0.278687,0
1.84468,0.278323,-0.290237
1.88705,0.191014,-0.241425
1.89031,0.191344,-0.0110426
1.8404,0.277678,-0.200486
1.9091,0.0993835,-0.178453
1.91727,0.0998088,0.0223509
1.85443,0.279794,-0.131142
1.88407,0.190713,-0.154593
1.88209,0.190512,0.03302
1.81187,0.364679,-0.118449
1.88082,0.190383,0.0770182
1.853,0.279577,-0.0872924
1.8798,0.19028,-0.0990196
1.81017,0.364336,-0.0752271
1.84659,0.278612,-0.0434555
1.87428,0.183114,-0.0548066
1.8855,0.184211,-0.378899
1.85597,0.273404,0
1.84564,0.271882,-0.290237
1.88771,0.184426,-0.241425
1.89096,0.184745,-0.0110426
1.84923,0.272411,-0.201342
1.91342,0.0929124,-0.178824
1.92161,0.09331,0.0223974
1.88869,0.184523,-0.154918
1.88673,0.184331,0.0330898
1.82097,0.359901,-0.118961
1.87352,0.18304,0.0766925
1.85396,0.273108,-0.0872924
1.88443,0.184106,-0.099229
1.81927,0.359565,-0.0755527
1.84756,0.272165,-0.0434555
1.87889,0.176945,-0.0549229
1.84504,0.265216,0
1.8544,0.266562,-0.291467
1.8916,0.178142,-0.0110426
1.84623,0.265388,-0.200914
1.91373,0.0862323,-0.178824
1.91393,0.0862412,0.0223043
1.85634,0.266841,-0.131142
1.88736,0.177743,0.0330898
1.82221,0.353542,-0.118961
1.92279,0.0866404,-0.112092
1.87813,0.176873,0.0768554
1.8549,0.266634,-0.0872924
1.88904,0.177901,-0.0994383
1.82051,0.353212,-0.0755527
1.84849,0.265713,-0.0434555
1.88354,0.170089,-0.0550393
1.89071,0.170737,-0.379683
1.85396,0.259238,0
1.8515,0.258893,-0.290852
1.89625,0.171238,-0.0110659
1.84724,0.258298,-0.200914
1.91803,0.0790479,-0.179196
1.91425,0.0788921,0.0223043
1.8613,0.260264,-0.131421
1.89397,0.171032,-0.155243
1.896,0.171215,0.0332294
1.8314,0.348033,-0.119473
1.87879,0.169661,0.0768554
1.85987,0.260064,-0.0874785
1.88971,0.170647,-0.0994383
1.82186,0.34622,-0.0755527
1.86534,0.260829,-0.0438278
1.8881,0.16386,-0.0551557
1.89129,0.164137,-0.379683
1.85882,0.253305,0
1.9265,0.0726623,-0.022444
1.85601,0.252922,-0.201771
1.91431,0.0722026,-0.178824
1.91451,0.07221,0.0223043
1.86615,0.254305,-0.1317
1.89455,0.16442,-0.155243
1.88861,0.163904,0.0330898
1.82475,0.340176,-0.118961
1.88733,0.163793,0.077181
1.86077,0.25357,-0.0874785
1.89427,0.164395,-0.0996477
1.82698,0.340591,-0.0757155
1.86624,0.254317,-0.0438278
1.89259,0.15826,-0.055272
1.8918,0.158194,-0.379683
1.85564,0.246936,0
1.85709,0.247129,-0.291467
1.89735,0.158658,-0.0110659
1.85285,0.246565,-0.201342
1.92647,0.0666005,-0.17994
1.871,0.248979,0.0439208
1.92672,0.0666091,0.022444
1.86694,0.24844,-0.1317
1.89109,0.158134,-0.154918
1.8931,0.158303,0.0331596
1.88784,0.157863,0.077181
1.86155,0.247723,-0.0874785
1.89478,0.158443,-0.0996477
1.82411,0.334129,-0.0755527
1.8591,0.247397,-0.0436417
1.88915,0.151334,-0.0551557
1.89625,0.151903,-0.380468
1.86046,0.240972,0
1.85794,0.240646,-0.291467
1.8946,0.15177,-0.24193
1.88991,0.151395,-0.0110194
1.8537,0.240096,-0.201342
1.91873,0.0596284,-0.179196
1.87185,0.242447,0.0439208
1.93493,0.0601321,0.0225371
1.89958,0.152169,-0.155569
1.83483,0.329477,-0.119473
1.93179,0.0600344,-0.112557
1.88838,0.151272,0.077181
1.86241,0.241224,-0.0874785
1.8292,0.328467,-0.0757155
1.85996,0.240906,-0.0436417
1.83169,0.321658,-0.0324615
1.8937,0.144382,-0.055272
1.86137,0.233826,0
1.8667,0.234495,-0.292697
1.85856,0.233472,-0.201771
1.92292,0.0523686,-0.179568
1.87277,0.235258,0.0439208
1.92715,0.0524838,0.022444
1.87267,0.235245,-0.131979
1.8982,0.144726,0.0332294
1.83608,0.322429,-0.119473
1.93201,0.052616,-0.112557
1.89293,0.144324,0.0773438
1.86728,0.234568,-0.0876646
1.90385,0.145157,-0.100066
1.83439,0.322131,-0.0758784
1.86483,0.234261,-0.0437347
1.84057,0.317261,-0.0326011
1.89813,0.138724,-0.0553884
1.89727,0.138661,-0.380468
1.8621,0.227977,0
1.86742,0.228629,-0.292697
1.90688,0.139364,-0.0111124
1.86718,0.228599,-0.202628
1.92706,0.0464236,-0.17994
1.87747,0.229859,0.0440139
1.92331,0.0463333,0.0223974
1.8734,0.229362,-0.131979
1.90059,0.138904,-0.155569
1.90263,0.139053,0.0332992
1.83708,0.316659,-0.119473
1.93616,0.0466427,-0.11279
1.89736,0.138668,0.0775067
1.86801,0.228701,-0.0876646
1.89633,0.138593,-0.0996477
1.89662,0.138613,0.155243
1.83539,0.316367,-0.0758784
1.86953,0.228887,-0.0438278
1.84167,0.310834,-0.0326011
1.8986,0.132097,-0.0553884
1.90165,0.132309,-0.381252
1.86685,0.221948,0
1.86821,0.222109,-0.292697
1.90736,0.132706,-0.0111124
1.86796,0.22208,-0.202628
1.93517,0.0398601,-0.180683
1.93946,0.0399483,0.0225837
1.87419,0.22282,-0.131979
1.90504,0.132545,-0.155894
1.83424,0.30958,-0.119217
1.89385,0.131766,0.0773438
1.87277,0.222651,-0.0878508
1.90876,0.132804,-0.100276
1.89311,0.131715,0.154918
1.84042,0.310623,-0.0760412
1.87429,0.222832,-0.0439208
1.8428,0.304082,-0.0326011
1.89908,0.125138,-0.0553884
1.90604,0.125597,-0.382037
1.86765,0.215104,0
1.86901,0.215261,-0.292697
1.90447,0.125493,-0.24294
1.90783,0.125715,-0.0111124
1.86086,0.214322,-0.201771
1.92734,0.0326327,-0.17994
1.93959,0.03284,0.0225837
1.87896,0.216406,-0.132258
1.90949,0.125824,-0.15622
1.90757,0.125698,0.033369
1.83536,0.302856,-0.119217
1.94043,0.0328543,-0.113022
1.90229,0.12535,0.0776695
1.87357,0.215786,-0.0878508
1.90525,0.125545,-0.100066
1.90154,0.1253,0.155569
1.84549,0.304527,-0.076204
1.87112,0.215503,-0.0438278
1.8359,0.296693,-0.0324615
1.89948,0.11884,-0.0553884
1.86836,0.20891,0
1.87364,0.209501,-0.293312
1.90824,0.119388,-0.0111124
1.93142,0.0262958,-0.180312
1.88375,0.210631,0.0441069
1.93969,0.0264083,0.0225837
1.87967,0.210175,-0.132258
1.90592,0.119243,-0.155894
1.91197,0.119622,0.0334388
1.84424,0.298042,-0.119729
1.94053,0.0264198,-0.113022
1.87428,0.209572,-0.0878508
1.90565,0.119226,-0.100066
1.89796,0.118745,0.155243
1.84255,0.297768,-0.0760412
1.8758,0.209742,-0.0439208
1.84877,0.292155,-0.0326709
1.89988,0.112208,-0.0553884
1.90293,0.112389,-0.381252
1.86907,0.202386,0
1.87043,0.202534,-0.292697
1.87019,0.202507,-0.202628
1.9315,0.0195532,-0.180312
1.8805,0.203623,0.0440139
1.93977,0.0196369,0.0225837
1.87642,0.203182,-0.131979
1.91031,0.112824,-0.15622
1.91238,0.112946,0.0334388
1.84921,0.292225,-0.119984
1.94461,0.0196858,-0.113255
1.86705,0.202167,-0.0874785
1.91005,0.112809,-0.100276
1.90235,0.112354,0.155569
1.84357,0.291334,-0.0760412
1.87652,0.203193,-0.0439208
1.84978,0.285701,-0.0326709
1.90426,0.105798,-0.0555047
1.91115,0.106181,-0.382821
1.87773,0.196695,0
1.87506,0.196416,-0.293312
1.85003,0.285739,0.0108799
1.91302,0.106285,-0.0111356
1.87088,0.195978,-0.202628
1.93953,0.0128641,-0.181055
1.87722,0.196642,0.0439208
1.94783,0.0129191,0.0226768
1.88109,0.197047,-0.132258
1.91069,0.106155,-0.15622
1.90877,0.106049,0.033369
1.85022,0.285768,-0.119984
1.94866,0.0129247,-0.113487
1.87569,0.196482,-0.0878508
1.91442,0.106363,-0.100485
1.84853,0.285507,-0.076204
1.8812,0.197058,-0.0440139
1.85873,0.28011,-0.0328105
1.90862,0.0990246,-0.0556211
1.87843,0.189811,0
1.8797,0.189939,-0.293927
1.84711,0.27836,0.0108567
1.92138,0.0996867,-0.0111821
1.8795,0.189919,-0.203484
1.93558,0.00574298,-0.180683
1.88986,0.190965,0.0442
1.94386,0.00576756,0.0226303
1.8818,0.190151,-0.132258
1.91106,0.0991512,-0.15622
1.84731,0.27839,-0.119729
1.88038,0.190007,-0.0880369
1.91479,0.0993447,-0.100485
1.9031,0.0987381,0.155569
1.84561,0.278134,-0.0760412
1.8819,0.190161,-0.0440139
1.85564,0.273686,-0.0327407
1.91292,0.093223,-0.0557375
1.883,0.184299,0
1.95187,-0.00034031,-0.0227234
1.88422,0.184418,-0.294542
1.91823,0.0934818,-0.244455
1.84402,0.271973,0.0108334
1.92169,0.0936503,-0.0111821
1.87217,0.183239,-0.202628
1.94355,-0.00033886,-0.181427
1.95187,-0.00034031,0.0227234
1.88636,0.184627,-0.132537
1.91535,0.0933414,-0.156545
1.91344,0.0932483,0.0334388
1.84817,0.272585,-0.119729
1.95269,-0.000340454,-0.11372
1.88777,0.184765,0.110464
1.90416,0.0927961,0.0776695
1.87699,0.18371,-0.0878508
1.91909,0.0935236,-0.100694
1.90738,0.0929533,0.155894
1.85043,0.272918,-0.076204
1.88647,0.184638,-0.0441069
1.85267,0.266315,-0.0326709
1.91325,0.0862116,-0.0557375
1.88367,0.177396,0
1.88095,0.17714,-0.293927
1.92252,0.0866295,-0.24496
1.85688,0.26692,0.0109032
1.91802,0.0864267,-0.0111589
1.87679,0.176749,-0.203056
1.9515,-0.00749248,-0.18217
1.95185,-0.00749383,0.0227234
1.89099,0.178086,-0.132816
1.92176,0.0865951,0.0335784
1.86101,0.267514,-0.120496
1.95268,-0.007497,-0.11372
1.88843,0.177845,0.110464
1.91247,0.0861766,0.0779952
1.88163,0.177204,-0.0880369
1.91543,0.0863097,-0.100485
1.91169,0.0861416,0.15622
1.85537,0.266703,-0.0763669
1.88714,0.177723,-0.0441069
1.85755,0.260401,-0.0327407
1.90954,0.0793661,-0.0556211
1.88427,0.170819,0
1.88943,0.171287,-0.295157
1.92281,0.0799176,-0.24496
1.84988,0.259326,0.0108567
1.92231,0.0798967,-0.0111821
1.9435,-0.0142466,-0.181427
1.89173,0.171495,0.0442
1.95581,-0.0143369,0.02277
1.89161,0.171484,-0.132816
1.92393,0.0799642,-0.157196
1.85798,0.260461,-0.12024
1.95264,-0.0143136,-0.11372
1.88904,0.171252,0.110464
1.91276,0.0794998,0.0779952
1.88223,0.170634,-0.0880369
1.91971,0.0797885,-0.100694
1.91597,0.0796331,0.156545
1.86025,0.26078,-0.0765297
1.89571,0.171856,-0.044293
1.86237,0.254781,-0.0328105
1.91379,0.0731856,-0.0557375
1.91661,0.0732936,-0.383605
1.88483,0.164569,0
1.95976,-0.0208656,-0.0228165
1.88211,0.164332,-0.293927
1.85866,0.254273,0.0109032
1.92656,0.0736739,-0.0112054
1.87795,0.163969,-0.203056
1.95141,-0.0207767,-0.18217
1.89627,0.165568,0.044293
1.95576,-0.020823,0.02277
1.88819,0.164863,-0.132537
1.92419,0.0735832,-0.157196
1.9263,0.0736639,0.0336482
1.86279,0.254839,-0.120496
1.91701,0.0733086,0.078158
1.88677,0.164739,-0.088223
1.92395,0.0735742,-0.100904
1.91224,0.0731262,0.15622
1.85715,0.254067,-0.0763669
1.89229,0.165221,-0.0442
1.86721,0.248807,-0.0328803
1.91803,0.0666441,-0.0558538
1.9247,0.0668758,-0.385174
1.88938,0.158324,0
1.95967,-0.0277059,-0.0228165
1.89055,0.158422,-0.295157
1.92331,0.0668276,-0.24496
1.85557,0.247256,0.0108799
1.9308,0.0670878,-0.0112286
1.88247,0.157745,-0.203484
1.9553,-0.0276442,-0.182542
1.90082,0.159283,0.0443861
1.95167,-0.0275928,0.0227234
1.8967,0.158938,-0.133095
1.92045,0.0667281,-0.156871
1.92654,0.0669399,0.0336482
1.85576,0.247281,-0.119984
1.89812,0.159056,0.110929
1.91326,0.0664782,0.0779952
1.89131,0.158486,-0.0884091
1.9242,0.0668583,-0.100904
1.91646,0.0665897,0.156545
1.85802,0.247583,-0.0763669
1.88488,0.157947,-0.0440139
1.86811,0.241962,-0.0328803
1.92226,0.0597383,-0.0559702
1.92493,0.0598214,-0.385174
1.88596,0.151079,0
1.89112,0.151492,-0.295157
1.93148,0.0600248,-0.245971
1.85646,0.240454,0.0108799
1.88304,0.150845,-0.203484
1.96315,-0.0349519,-0.183286
1.96356,-0.034959,0.0228631
1.90125,0.152304,-0.133374
1.92865,0.059937,-0.157522
1.85571,0.240356,0.0544575
1.92678,0.0598787,0.0336482
1.86061,0.240991,-0.12024
1.95637,-0.0348312,-0.113952
1.90267,0.152417,0.111162
1.92547,0.0598382,0.0784836
1.89586,0.151872,-0.0885953
1.92842,0.0599298,-0.101113
1.85892,0.240772,-0.0763669
1.88943,0.151357,-0.0441069
1.86493,0.235266,-0.0328105
1.92512,0.0534381,-0.385174
1.89841,0.145743,0
1.96343,-0.0414698,-0.0228631
1.89949,0.145825,-0.296387
1.93166,0.0536198,-0.245971
1.86122,0.234797,0.0109032
1.88353,0.1446,-0.203484
1.95506,-0.0412931,-0.182542
1.90189,0.146009,0.0443861
1.90175,0.145998,-0.133374
1.93282,0.053652,-0.157847
1.85649,0.234201,0.0544575
1.93496,0.0537113,0.0337879
1.8614,0.23482,-0.12024
1.96024,-0.0414025,-0.114185
1.89918,0.145802,0.110929
1.92167,0.0533423,0.0783208
1.89237,0.145279,-0.0884091
1.9326,0.0536459,-0.101322
1.92087,0.0533201,0.156871
1.86367,0.235107,-0.0765297
1.8979,0.145703,-0.044293
1.87368,0.229728,-0.0329501
1.91862,0.0465555,-0.0558538
1.92921,0.0468125,-0.385959
1.89492,0.138822,0
1.89999,0.139194,-0.296387
1.93581,0.0469725,-0.246476
1.866,0.228785,0.0109264
1.89196,0.138605,-0.204341
1.95889,-0.0482158,-0.182914
1.90637,0.139661,0.0444791
1.97127,-0.0485206,0.0229562
1.89827,0.139067,-0.133095
1.92901,0.0468076,-0.157522
1.86524,0.228692,0.0546902
1.93514,0.0469562,0.0337879
1.86617,0.228806,-0.120496
1.96408,-0.0483435,-0.114418
1.90765,0.139755,0.111394
1.89685,0.138964,-0.0885953
1.93278,0.046899,-0.101322
1.92901,0.0468076,0.157522
1.86845,0.229086,-0.0766925
1.90239,0.139369,-0.0443861
1.87054,0.222387,-0.0328803
1.92278,0.0396059,-0.0559702
1.89057,0.131539,-0.530524
1.92153,0.0395801,-0.38439
1.89542,0.131877,0
1.89655,0.131955,-0.295772
1.87079,0.222417,0.0109496
1.95472,-0.0552822,-0.182542
1.90687,0.132674,0.0444791
1.96708,-0.0556318,0.0229097
1.89876,0.132109,-0.133095
1.93316,0.0398197,-0.157847
1.86606,0.221855,0.0546902
1.93929,0.039946,0.0338577
1.87492,0.222908,-0.121008
1.96788,-0.0556544,-0.11465
1.90815,0.132762,0.111394
1.922,0.0395898,0.0783208
1.89735,0.132011,-0.0885953
1.93294,0.0398151,-0.101322
1.86927,0.222237,-0.0766925
1.90288,0.132396,-0.0443861
1.87127,0.216182,-0.0328803
1.93089,0.0333671,-0.0562029
1.89484,0.125523,-0.531603
1.93342,0.0334107,-0.386743
1.89584,0.12559,0
1.89697,0.125665,-0.295772
1.93609,0.0334569,-0.246476
1.87549,0.216671,0.0109729
1.94368,0.033588,-0.0112984
1.97045,-0.0622677,-0.184029
1.97088,-0.0622815,0.0229562
1.90715,0.126339,-0.133653
1.93727,0.0334772,-0.158173
1.87076,0.216124,0.0548066
1.94341,0.0335835,0.0339275
1.87169,0.216231,-0.120752
1.90858,0.126433,0.111394
1.93011,0.0333536,0.0786465
1.89778,0.125718,-0.0885953
1.93705,0.0334735,-0.101532
1.92929,0.0333394,0.157522
1.86603,0.215577,-0.0765297
1.9073,0.126349,-0.0444791
1.87996,0.210539,-0.03302
1.931,0.0266263,-0.0562029
1.89142,0.118667,-0.530524
1.93744,0.0267152,-0.387528
1.89627,0.118971,0
1.90134,0.119289,-0.296387
1.93619,0.0266979,-0.246476
1.87226,0.209677,0.0109496
1.9742,-0.0692856,-0.184401
1.97465,-0.0693016,0.0230028
1.90758,0.11968,-0.133653
1.93737,0.0267142,-0.158173
1.8715,0.209592,0.0548066
1.8764,0.21014,-0.121008
1.97144,-0.069189,-0.114883
1.90103,0.11927,0.110929
1.93022,0.0266155,0.0786465
1.90219,0.119342,-0.0887814
1.93716,0.0267112,-0.101532
1.93338,0.0266592,0.157847
1.87472,0.209952,-0.0768554
1.90773,0.11969,-0.0444791
1.88466,0.204408,-0.0330898
1.93508,0.0199282,-0.0563193
1.89567,0.112293,-0.531603
1.94145,0.0199938,-0.388312
1.90466,0.112825,0
1.90569,0.112886,-0.297001
1.94421,0.0200222,-0.247486
1.87298,0.203142,0.0109496
1.89371,0.112176,-0.204341
1.97394,-0.0761751,-0.184401
1.91612,0.113504,0.0446652
1.97839,-0.0763468,0.0230493
1.91197,0.113258,-0.133932
1.94144,0.0199937,-0.158498
1.8762,0.20349,0.0549229
1.9476,0.0200572,0.0339973
1.88109,0.20402,-0.121264
1.97119,-0.0760689,-0.114883
1.90543,0.112871,0.111162
1.9303,0.019879,0.0786465
1.9026,0.112703,-0.0887814
1.93724,0.0199505,-0.101532
1.93347,0.0199116,0.157847
1.87544,0.203408,-0.0768554
1.90415,0.112795,-0.0443861
1.88533,0.198156,-0.0330898
1.93513,0.0135106,-0.0563193
1.89219,0.10579,-0.530524
1.93758,0.0135277,-0.387528
1.90902,0.106731,0
1.98213,-0.083075,-0.0230959
1.90606,0.106566,-0.297001
1.94427,0.0135744,-0.247486
1.87365,0.196929,0.0109496
1.9697,-0.0825543,-0.184029
1.97413,-0.0827401,0.0230028
1.90835,0.106694,-0.133653
1.94149,0.013555,-0.158498
1.87686,0.197267,0.0549229
1.94766,0.013598,0.0339973
1.87778,0.197364,-0.121008
1.97492,-0.0827729,-0.115115
1.90978,0.106774,0.111394
1.93435,0.0135051,0.0788093
1.90296,0.106393,-0.0887814
1.94129,0.0135536,-0.101741
1.94149,0.013555,0.158498
1.88008,0.197605,-0.0770182
1.9085,0.106702,-0.0444791
1.88999,0.191978,-0.0331596
1.93917,0.00676909,-0.0564356
1.93762,0.00676367,-0.387528
1.90539,0.0998571,0
1.97383,-0.0896311,-0.0230028
1.90247,0.0997044,-0.296387
1.94827,0.00680086,-0.247991
1.8783,0.190791,0.0109729
1.90634,0.0999072,-0.205626
1.97338,-0.0896105,-0.184401
1.97383,-0.0896311,0.0230028
1.9127,0.10024,-0.133932
1.94552,0.00679125,-0.158823
1.87356,0.19031,0.0548066
1.8864,0.191614,-0.121519
1.98259,-0.090029,-0.11558
1.91014,0.100106,0.111394
1.93438,0.00675239,0.0788093
1.90731,0.0999581,-0.0889675
1.93733,0.00676268,-0.101532
1.94153,0.00677734,0.158498
1.88075,0.19104,-0.0770182
1.91286,0.100249,-0.0445722
1.89068,0.18505,-0.0331596
1.93518,-0.000337228,-0.0563193
1.89674,0.092435,-0.531603
1.94155,-0.000338338,-0.388312
1.90574,0.0928733,0
1.98148,-0.0972567,-0.0230959
1.91072,0.093116,-0.297616
1.94828,-0.000339511,-0.247991
1.88695,0.184685,0.0110194
1.90272,0.0927263,-0.205198
1.97304,-0.0968422,-0.184401
1.98148,-0.0972567,0.0230959
1.91305,0.0932297,-0.133932
1.93755,-0.000337641,-0.158173
1.87823,0.183831,0.0549229
1.9557,-0.000340804,0.0341369
1.88312,0.18431,-0.121264
1.98225,-0.0972945,-0.11558
1.91049,0.0931049,0.111394
1.94239,-0.000338484,0.079135
1.91166,0.0931617,-0.0891536
1.94533,-0.000338996,-0.10195
1.87746,0.183757,-0.0768554
1.91321,0.0932374,-0.0445722
1.89128,0.178779,-0.0331596
1.94317,-0.00678297,-0.056552
1.90089,0.0863188,-0.532681
1.94546,-0.00679098,-0.389097
1.90604,0.0865526,0
1.98914,-0.104246,-0.023189
1.91891,0.0871374,-0.298846
1.94827,-0.00680078,-0.247991
1.87959,0.177673,0.0109729
1.98464,-0.10401,-0.185516
1.98914,-0.104246,0.023189
1.91734,0.0870658,-0.134211
1.94552,-0.00679117,-0.158823
1.88679,0.178354,0.0551557
1.95169,-0.00681273,0.0340671
1.88372,0.178064,-0.121264
1.98192,-0.103868,-0.11558
1.91877,0.0871307,0.111859
1.94238,-0.00678022,0.079135
1.91595,0.0870026,-0.0893398
1.94931,-0.00680443,-0.10216
1.94153,-0.00677726,0.158498
1.89,0.178658,-0.0773438
1.91351,0.086892,-0.0445722
1.88791,0.171814,-0.0330898
1.94313,-0.0135654,-0.056552
1.90118,0.0796833,-0.532681
1.94935,-0.0136088,-0.389881
1.91432,0.0802341,0
1.98876,-0.111189,-0.023189
1.91526,0.0802735,-0.298231
1.9522,-0.0136288,-0.248496
1.88418,0.171474,0.0109961
1.98426,-0.110937,-0.185516
1.98477,-0.110965,0.0231425
1.91763,0.0803729,-0.134211
1.94548,-0.0135818,-0.158823
1.88342,0.171405,0.0550393
1.95565,-0.0136529,0.0341369
1.88433,0.171488,-0.121264
1.98553,-0.111008,-0.115813
1.91108,0.0800984,0.111394
1.95033,-0.0136157,0.0794606
1.92023,0.0804819,-0.0895259
1.94928,-0.0136084,-0.10216
1.92782,0.0807999,0.236914
1.94548,-0.0135818,0.158823
1.88663,0.171697,-0.077181
1.9138,0.0802124,-0.0445722
1.89251,0.16524,-0.0331596
1.94928,-0.0207539,-0.389881
1.9146,0.0732168,0
1.99233,-0.118715,-0.0232356
1.91949,0.0734037,-0.298846
1.95611,-0.0208266,-0.249001
1.88878,0.164915,0.0110194
1.98384,-0.118209,-0.185516
1.92607,0.0736554,0.0448513
1.98834,-0.118477,0.023189
1.9219,0.0734959,-0.13449
1.95339,-0.0207977,-0.159474
1.88801,0.164848,0.0551557
1.95959,-0.0208637,0.0342067
1.88892,0.164927,-0.121519
1.99308,-0.11876,-0.116278
1.91934,0.0733981,0.111859
1.94628,-0.0207219,0.0792978
1.91652,0.0732902,-0.0893398
1.94921,-0.0207532,-0.10216
1.92413,0.0735813,0.236427
1.95339,-0.0207977,0.159474
1.89521,0.165476,-0.0775067
1.92207,0.0735026,-0.0447583
1.90105,0.159302,-0.0332992
1.94298,-0.0274698,-0.056552
1.95312,-0.0276131,-0.390666
1.91484,0.0665335,0
1.9919,-0.125669,-0.0232356
1.91973,0.0667034,-0.298846
1.95999,-0.0277102,-0.249506
1.88536,0.157987,0.0109961
1.91178,0.0664271,-0.206055
1.98739,-0.125384,-0.185888
1.93031,0.067071,0.0449444
1.98392,-0.125165,0.0231425
1.92613,0.0669257,-0.134769
1.88858,0.158257,0.0551557
1.9635,-0.0277599,0.0342765
1.89347,0.158666,-0.121775
1.98867,-0.125465,-0.116045
1.92358,0.066837,0.112092
1.95818,-0.0276846,0.0797863
1.92475,0.0668777,-0.089712
1.94913,-0.0275567,-0.10216
1.95331,-0.0276157,0.159474
1.89578,0.15886,-0.0775067
1.92232,0.0667933,-0.0447583
1.90156,0.152996,-0.0332992
1.95088,-0.0340529,-0.0567847
1.95694,-0.0341588,-0.39145
1.91905,0.0603084,0
1.99547,-0.132539,-0.0232822
1.92785,0.0605848,-0.300076
1.95989,-0.0342102,-0.249506
1.88986,0.152054,0.0110194
1.91199,0.0600865,-0.206055
1.98299,-0.13171,-0.185516
1.93052,0.0606689,0.0449444
1.98749,-0.132009,0.023189
1.91837,0.0602869,-0.134211
1.95719,-0.0341631,-0.1598
1.88909,0.151993,0.0551557
1.9674,-0.0343413,0.0343463
1.89398,0.152386,-0.121775
1.92778,0.0605827,0.112325
1.95009,-0.0340391,0.0794606
1.92496,0.0604941,-0.089712
1.95302,-0.0340904,-0.102369
1.92459,0.0604824,0.236427
1.89629,0.152572,-0.0775067
1.92653,0.0605433,-0.0448513
1.95075,-0.0408621,-0.0567847
1.94897,-0.0408248,-0.389881
1.91925,0.0536097,0
1.99499,-0.139503,-0.0232822
1.92805,0.0538554,-0.300076
1.95579,-0.0409677,-0.249001
1.88639,0.14515,0.0109961
1.91616,0.0535235,-0.206483
1.99841,-0.139742,-0.187003
1.991,-0.139224,0.0232356
1.92654,0.0538134,-0.134769
1.96104,-0.0410779,-0.160125
1.8936,0.145705,0.055272
1.96327,-0.0411245,0.0342765
1.8945,0.145774,-0.121775
1.99972,-0.139834,-0.116743
1.92399,0.053742,0.112092
1.96594,-0.0411803,0.0801119
1.93315,0.0539979,-0.0900843
1.96088,-0.0410744,-0.102788
1.93273,0.0539861,0.237402
1.9008,0.146259,-0.0776695
1.91873,0.0535952,-0.0446652
1.90259,0.139717,-0.0332992
1.95059,-0.0476714,-0.0567847
1.96058,-0.0479154,-0.392235
1.92742,0.0471052,0
1.99449,-0.146466,-0.0232822
1.92822,0.0471247,-0.300076
1.95563,-0.0477946,-0.249001
1.89487,0.13915,0.0110426
1.99791,-0.146717,-0.187003
1.9905,-0.146174,0.0232356
1.9347,0.047283,-0.135328
1.96089,-0.0479231,-0.160125
1.89808,0.139387,0.0553884
1.96711,-0.0480752,0.0343463
1.89898,0.139452,-0.122031
1.99524,-0.146521,-0.116511
1.92816,0.0471231,0.112325
1.95779,-0.0478474,0.0797863
1.92933,0.0471518,-0.0898981
1.96072,-0.047919,-0.102788
1.90528,0.139915,-0.0778323
1.92291,0.0469948,-0.0447583
1.95255,-0.0545398,-0.390666
1.92758,0.040377,0
2.00195,-0.154041,-0.0233753
1.93628,0.0405592,-0.301306
1.96339,-0.0548424,-0.250011
1.89534,0.132535,0.0110426
1.99342,-0.153385,-0.186632
1.93905,0.0406173,0.0451305
1.99397,-0.153428,0.0232822
1.93086,0.0404458,-0.135049
1.9647,-0.0548789,-0.160451
1.89856,0.13276,0.0553884
1.97093,-0.0550531,0.0344161
1.90742,0.13338,-0.122543
1.9987,-0.153791,-0.116743
1.93629,0.0405596,0.11279
1.95761,-0.0546811,0.0797863
1.92549,0.0403333,-0.089712
1.95655,-0.0546514,-0.102578
1.93306,0.0404917,0.237402
1.90177,0.132985,-0.0776695
1.93105,0.0404498,-0.0449444
1.90751,0.126696,-0.033369
1.95627,-0.0614784,-0.39145
1.92371,0.0335784,0
2.0014,-0.161029,-0.0233753
1.93641,0.0338001,-0.301306
1.96318,-0.0616955,-0.250011
1.89978,0.126183,0.0110659
1.92457,0.0335935,-0.20734
2.00081,-0.160981,-0.187375
1.94318,0.0339183,0.0452235
1.99342,-0.160387,0.0232822
1.93099,0.0337056,-0.135049
1.96848,-0.0618619,-0.160776
1.89901,0.126132,0.0553884
1.97472,-0.0620582,0.034486
1.90787,0.126721,-0.122543
2.00213,-0.161087,-0.116976
1.93642,0.0338004,0.11279
1.9614,-0.0616396,0.0799491
1.93361,0.0337513,-0.0900843
1.96034,-0.0616062,-0.102788
1.93319,0.0337439,0.237402
1.90622,0.126611,-0.0778323
1.92718,0.0336391,-0.0448513
1.91193,0.120288,-0.0334388
1.96389,-0.0685804,-0.393019
2.00481,-0.168348,-0.0234219
1.92861,0.0269302,-0.300076
1.96692,-0.0686864,-0.250516
1.91219,0.120305,0.0111356
1.92468,0.0268753,-0.20734
1.99626,-0.167631,-0.187003
1.93929,0.0270793,0.0451305
1.93908,0.0270764,-0.135607
1.96426,-0.0685936,-0.160451
1.89944,0.119503,0.0553884
1.9705,-0.0688113,0.0344161
1.90432,0.11981,-0.122287
2.00155,-0.168075,-0.116976
1.93653,0.0270408,0.11279
1.96118,-0.0684858,0.0799491
1.93771,0.0270573,-0.0902704
1.96411,-0.0685881,-0.102997
1.90665,0.119956,-0.0778323
1.93529,0.0270235,-0.0450374
1.90834,0.113377,-0.033369
1.922,0.0201279,-0.538072
1.96363,-0.0754352,-0.393019
2.00022,-0.174997,-0.0233753
1.9366,0.0202807,-0.301306
1.96667,-0.0755518,-0.250516
1.90062,0.112917,0.0110659
1.97451,-0.075853,-0.0114843
2.0036,-0.175292,-0.187747
1.93916,0.0203076,-0.135607
1.97198,-0.0757559,-0.161102
1.90384,0.113109,0.0555047
1.97025,-0.0756892,0.0344161
1.90871,0.113398,-0.122543
2.00891,-0.175757,-0.117441
1.93661,0.0202809,0.11279
1.96891,-0.075638,0.0802748
1.93779,0.0202933,-0.0902704
1.96785,-0.075597,-0.103207
1.91104,0.113537,-0.0779952
1.93537,0.0202679,-0.0450374
1.90873,0.106714,-0.033369
1.96728,-0.0824534,-0.393804
1.93595,0.0135157,0
2.01155,-0.183065,-0.023515
1.94061,0.0135482,-0.301921
1.97036,-0.0825825,-0.251021
1.90899,0.106729,0.0111124
1.97823,-0.0829124,-0.0115076
2.00695,-0.182646,-0.188119
1.94743,0.0135958,0.0453166
1.94321,0.0135664,-0.135886
1.9717,-0.0826389,-0.161102
1.90821,0.106686,0.0556211
1.97397,-0.0827337,0.034486
1.9091,0.106735,-0.122543
2.00828,-0.182768,-0.117441
1.93268,0.0134929,0.112557
1.96464,-0.082343,0.0801119
1.94185,0.0135569,-0.0904565
1.96358,-0.0822983,-0.102997
1.91143,0.106865,-0.0779952
1.93543,0.0135121,-0.0450374
1.91305,0.100928,-0.0334388
1.97093,-0.0888099,-0.394588
1.93999,0.00744905,0
2.01495,-0.189759,-0.0235616
1.94459,0.00746674,-0.302536
1.96613,-0.0885935,-0.250516
1.90931,0.100731,0.0111124
1.98196,-0.0893068,-0.0115308
1.92883,0.00740621,-0.207768
2.0024,-0.188577,-0.187747
1.95146,0.0074931,0.0454097
1.93925,0.00744623,-0.135607
1.97542,-0.0890122,-0.161427
1.92052,0.101322,0.0559702
1.97769,-0.0891147,0.0345558
1.91739,0.101158,-0.123054
2.01565,-0.189825,-0.117906
1.9407,0.00745178,0.113022
1.96837,-0.0886946,0.0802748
1.93389,0.00742564,-0.0900843
1.97129,-0.0888263,-0.103416
1.91574,0.10107,-0.078158
1.93946,0.00744703,-0.0451305
1.91742,0.0937773,-0.0335086
1.97057,-0.0963771,-0.394588
2.0142,-0.197494,-0.0235616
1.94461,-0,-0.302536
1.98162,-0.0969176,-0.252536
1.91368,0.0935946,0.0111356
1.98559,-0.0971117,-0.0115541
1.93282,-0,-0.208197
2.00562,-0.196653,-0.188119
1.95147,-0,0.0454097
1.93926,-0,-0.135607
1.97506,-0.0965966,-0.161427
1.9129,0.0935566,0.0557375
1.98532,-0.0970986,0.0346954
1.91777,0.0937945,-0.123054
2.01491,-0.197563,-0.117906
1.9487,-0,0.113487
1.96801,-0.0962519,0.0802748
1.9379,-0,-0.0902704
1.96695,-0.0961997,-0.103207
1.91612,0.0937138,-0.078158
1.94347,-0,-0.0452235
1.97645,-0.103581,-0.0575993
1.9298,-0.00673629,-0.540229
1.97414,-0.10346,-0.395372
1.93999,-0.00677186,0
2.00554,-0.203716,-0.0234684
1.94855,-0.00680174,-0.303151
1.97731,-0.103626,-0.252031
1.94474,-0.00678844,-0.209482
2.00888,-0.204055,-0.188491
1.95546,-0.00682586,0.0455027
1.94324,-0.00678322,-0.135886
1.97073,-0.103282,-0.161102
1.92121,0.0872415,0.0559702
1.98098,-0.103819,0.0346256
1.92207,0.0872808,-0.12331
2.01818,-0.204999,-0.118138
1.94869,-0.00680222,0.113487
1.94987,-0.00680637,-0.0908288
1.97458,-0.103483,-0.103625
1.91643,0.0870248,-0.078158
1.94746,-0.00679794,-0.0453166
1.91802,0.080389,-0.0335086
1.97208,-0.110257,-0.0574829
1.97768,-0.11057,-0.396157
1.93995,-0.0135436,0
1.94456,-0.0135758,-0.302536
1.97298,-0.110306,-0.251526
1.91828,0.0803999,0.0111589
1.98886,-0.111195,-0.0115773
2.01212,-0.211482,-0.188862
1.95942,-0.0136796,0.0455958
1.94321,-0.0135664,-0.135886
1.97434,-0.110383,-0.161427
1.9175,0.0803672,0.0558538
1.97661,-0.11051,0.0345558
1.90641,0.0799023,-0.122287
2.02142,-0.21246,-0.118371
1.94066,-0.0135486,0.113022
1.94984,-0.0136127,-0.0908288
1.9742,-0.110375,-0.103625
1.92072,0.080502,-0.0783208
1.94343,-0.0135679,-0.0452235
1.91427,0.0742081,-0.0334388
1.93356,-0.019574,-0.541307
1.98124,-0.117013,-0.396941
1.9439,-0.0196786,0
1.95241,-0.0197648,-0.303765
1.98054,-0.116972,-0.252536
1.91853,0.074373,0.0111589
1.99249,-0.117678,-0.0116006
2.01541,-0.218231,-0.189234
1.95937,-0.0198352,0.0455958
1.94715,-0.0197115,-0.136165
1.98194,-0.117055,-0.162078
1.91775,0.0743428,0.0558538
1.98424,-0.11719,0.0346954
1.91463,0.074222,-0.122798
2.01677,-0.218379,-0.118138
1.95378,-0.0197786,-0.0910149
1.98581,-0.117283,-0.104253
1.92096,0.0744675,-0.0783208
1.95137,-0.0197542,-0.0454097
1.91851,0.0676665,-0.0335086
1.98082,-0.123929,-0.396941
1.94782,-0.0265184,0
1.95628,-0.0266336,-0.30438
1.98012,-0.123885,-0.252536
1.92677,0.0679577,0.0112054
1.99207,-0.124632,-0.0116006
1.94059,-0.02642,-0.209053
2.01463,-0.225265,-0.189234
1.95929,-0.0266746,0.0455958
1.95504,-0.0266168,-0.136723
1.98948,-0.12447,-0.162729
1.98781,-0.124366,0.0347652
1.92286,0.0678197,-0.12331
2.02394,-0.226306,-0.118604
1.95251,-0.0265823,0.11372
1.9577,-0.0266529,-0.091201
1.9814,-0.123965,-0.104044
1.9292,0.0680434,-0.0786465
1.95529,-0.0266201,-0.0455027
1.92274,0.0610963,-0.0335784
1.97646,-0.130584,-0.396157
1.94772,-0.0333174,0
1.96013,-0.0335298,-0.304995
1.99155,-0.131581,-0.254052
1.93099,0.0613586,0.0112286
1.99961,-0.132113,-0.0116471
1.94447,-0.0332618,-0.209482
2.02175,-0.233209,-0.189978
1.95918,-0.0335136,0.0455958
1.95095,-0.0333727,-0.136444
1.98505,-0.131151,-0.162403
1.92222,0.0610797,0.0559702
1.98736,-0.131304,0.0347652
1.93106,0.0613608,-0.123822
2.02313,-0.233369,-0.118604
1.9564,-0.033466,0.113952
1.95759,-0.0334863,-0.091201
1.97697,-0.130617,-0.103835
1.92543,0.0611819,-0.0784836
1.95119,-0.0333768,-0.0454097
1.92694,0.0544974,-0.0336482
1.97991,-0.137754,-0.396941
1.95159,-0.0401984,0
1.95605,-0.0402903,-0.30438
1.98712,-0.138256,-0.253547
1.9312,0.0546178,0.0112286
1.99514,-0.138814,-0.0116238
1.94831,-0.040131,-0.20991
2.02092,-0.240265,-0.189978
1.96305,-0.0404346,0.0456888
1.96279,-0.0404291,-0.137281
1.99254,-0.138633,-0.163054
1.93041,0.0545956,0.0562029
1.98689,-0.13824,0.0347652
1.92727,0.0545069,-0.123566
2.0342,-0.241844,-0.119301
1.95228,-0.0402126,0.11372
1.96146,-0.0404017,-0.0913871
1.98049,-0.137795,-0.104044
1.92963,0.0545735,-0.0786465
1.95905,-0.0403522,-0.0455958
1.92711,0.0477708,-0.0336482
1.98586,-0.145136,-0.0579483
1.98724,-0.145236,-0.39851
1.95143,-0.0470104,0
1.95985,-0.0472131,-0.304995
1.98663,-0.145192,-0.253547
1.93537,0.0479755,0.0112519
2.00262,-0.146361,-0.0116703
1.95214,-0.0470274,-0.210339
2.02402,-0.247802,-0.190349
1.97089,-0.0474792,0.0458749
1.95865,-0.0471842,-0.137002
1.99204,-0.145587,-0.163054
1.93059,0.0478569,0.0562029
1.99039,-0.145466,0.034835
1.92745,0.0477791,-0.123566
2.02938,-0.248458,-0.119069
1.96011,-0.0472194,0.114185
1.9613,-0.0472482,-0.0913871
1.98796,-0.145289,-0.104463
1.92581,0.0477384,-0.0784836
1.9589,-0.0471903,-0.0455958
1.92727,0.0410436,-0.0336482
1.99063,-0.152472,-0.399295
1.96325,-0.0541528,0
1.95967,-0.054054,-0.304995
1.99007,-0.152429,-0.254052
1.92753,0.0410491,0.0112054
2.0021,-0.15335,-0.0116703
1.95196,-0.0538413,-0.210339
2.03105,-0.255861,-0.191093
1.96672,-0.0542484,0.0457819
1.96246,-0.0541309,-0.137281
1.99152,-0.15254,-0.163054
1.93074,0.0411176,0.0562029
1.9316,0.0411358,-0.123822
2.03247,-0.256039,-0.119301
1.95993,-0.0540612,0.114185
1.95713,-0.053984,-0.091201
1.99541,-0.152838,-0.104881
1.93396,0.041186,-0.0788093
1.95473,-0.0539176,-0.0455027
1.9314,0.0343871,-0.033718
1.99009,-0.159419,-0.399295
1.95905,-0.0608812,0
1.96342,-0.061017,-0.30561
1.99743,-0.160008,-0.255062
1.93566,0.034463,0.0112519
2.00155,-0.160338,-0.0116703
2.03014,-0.262949,-0.191093
1.96652,-0.0611132,0.0457819
1.96226,-0.0609808,-0.137281
1.99893,-0.160127,-0.163705
1.93487,0.034449,0.0563193
1.92774,0.0343219,-0.123566
2.03552,-0.263645,-0.119534
1.96372,-0.0610263,0.114418
1.95693,-0.0608153,-0.091201
1.99486,-0.159802,-0.104881
1.93808,0.0345061,-0.0789721
1.95852,-0.0608648,-0.0455958
1.93551,0.0277023,-0.0337879
1.9922,-0.166589,-0.0581811
1.95883,-0.0677193,0
1.96715,-0.0680068,-0.306225
1.99686,-0.166979,-0.255062
1.93977,0.0277633,0.0112751
2.00098,-0.167324,-0.0116703
2.03316,-0.270559,-0.191465
1.96629,-0.0679773,0.0457819
1.96602,-0.0679679,-0.13756
2.00233,-0.167436,-0.164031
1.93098,0.0276376,0.0562029
1.93583,0.0277069,-0.124078
2.03855,-0.271276,-0.119766
1.9635,-0.0678806,0.114418
1.96469,-0.067922,-0.0915733
1.99827,-0.167097,-0.105091
1.93819,0.0277407,-0.0789721
1.96629,-0.0679773,-0.0457819
1.93559,0.0209459,-0.0337879
1.99559,-0.17389,-0.0582974
1.96258,-0.0747086,0
1.9669,-0.074873,-0.306225
1.99231,-0.173604,-0.254557
1.94785,0.0210786,0.0113216
2.00836,-0.175002,-0.0117168
1.95924,-0.0745815,-0.211195
2.0322,-0.277655,-0.191465
1.97404,-0.0751447,0.045968
1.96976,-0.074982,-0.137839
2.00173,-0.174425,-0.164031
1.93107,0.020897,0.0562029
1.93591,0.0209494,-0.124078
2.03759,-0.27839,-0.119766
1.97243,-0.0750836,-0.0919455
1.99768,-0.174072,-0.105091
1.93029,0.0208885,-0.0786465
1.97404,-0.0751447,-0.045968
1.93565,0.0141893,-0.0337879
1.99497,-0.180854,-0.0582974
1.96231,-0.0815588,0
1.96662,-0.0817383,-0.306225
1.9996,-0.181274,-0.255567
1.94392,0.0142499,0.0112984
2.00375,-0.18165,-0.0116936
1.95897,-0.08142,-0.211195
2.03911,-0.285852,-0.192208
1.96977,-0.0818689,0.0458749
1.97347,-0.082023,-0.138118
1.99714,-0.181051,-0.163705
1.93913,0.0142148,0.0564356
1.93997,0.014221,-0.124333
2.04451,-0.286609,-0.120232
1.97216,-0.0819683,-0.0919455
2.00104,-0.181404,-0.1053
1.93834,0.014209,-0.0789721
1.96977,-0.0818689,-0.0458749
1.93569,0.00743256,-0.0337879
1.97,-0.0887682,0
1.97028,-0.0887805,-0.30684
2.00686,-0.188997,-0.256577
1.94795,0.00747964,0.0113216
2.0031,-0.188644,-0.0116936
2.03416,-0.292402,-0.191837
1.96947,-0.0887441,0.0458749
1.97716,-0.0890908,-0.138397
2.00443,-0.188769,-0.164356
1.95116,0.00749195,0.0567847
1.94001,0.00744913,-0.124333
2.04745,-0.294313,-0.120464
1.96787,-0.088672,-0.0917594
2.00039,-0.188388,-0.1053
1.94237,0.00745822,-0.079135
1.96947,-0.0887441,-0.0458749
1.9437,0.00101772,-0.0339275
1.9697,-0.0953004,0
1.97392,-0.0955047,-0.307455
2.00622,-0.195651,-0.256577
1.94797,0.00101995,0.0113216
2.03318,-0.299146,-0.191837
1.97715,-0.0956612,0.046061
1.97685,-0.0956468,-0.138397
2.00776,-0.195802,-0.164682
1.94718,0.00101954,0.0566684
1.94401,0.00101788,-0.124589
1.96756,-0.0951972,-0.0917594
2.00373,-0.195408,-0.105509
1.94239,0.00101703,-0.079135
1.97316,-0.0954679,-0.045968
1.9437,-0.00576709,-0.0339275
1.97335,-0.102383,0
1.97752,-0.102599,-0.30807
2.01342,-0.203451,-0.257587
1.95196,-0.0057916,0.0113449
1.96597,-0.102,-0.212052
2.03606,-0.306834,-0.192208
1.9808,-0.102769,0.0461541
1.96854,-0.102133,-0.137839
2.015,-0.203611,-0.165333
1.95117,-0.00578925,0.0567847
1.944,-0.005768,-0.124589
1.97919,-0.102686,-0.0923178
2.00304,-0.202402,-0.105509
1.94638,-0.00577504,-0.0792978
1.9808,-0.102769,-0.0461541
1.93966,-0.012526,-0.0338577
1.98504,-0.109938,-0.3093
2.0127,-0.210478,-0.257587
1.95193,-0.0126052,0.0113449
1.97751,-0.109521,-0.213337
2.03891,-0.314547,-0.19258
1.98442,-0.109904,0.0462471
1.98012,-0.109666,-0.138676
2.01031,-0.210228,-0.165007
1.94714,-0.0125742,0.0566684
1.94397,-0.0125538,-0.124589
1.98281,-0.109815,-0.0925039
2.01026,-0.210223,-0.105928
1.94634,-0.0125691,-0.0792978
1.98043,-0.109683,-0.0461541
1.94361,-0.0193364,-0.0339275
2.00745,-0.217015,-0.0587629
1.97658,-0.116392,0
1.98465,-0.116867,-0.3093
2.008,-0.217075,-0.257082
1.95187,-0.0194186,0.0113449
1.97315,-0.11619,-0.212909
2.04567,-0.322904,-0.193324
1.99201,-0.1173,0.0464332
1.98371,-0.116812,-0.138955
2.01353,-0.217673,-0.165333
1.95508,-0.0194505,0.0569011
1.94791,-0.0193792,-0.124845
1.9864,-0.11697,-0.09269
2.01349,-0.217668,-0.106137
1.94629,-0.0193631,-0.0792978
1.98003,-0.116595,-0.0461541
1.94752,-0.0268543,-0.0339973
2.01455,-0.225612,-0.0589956
1.98011,-0.124231,0
1.98024,-0.124239,-0.308685
2.01504,-0.225667,-0.258092
1.95578,-0.0269682,0.0113681
1.98063,-0.124263,-0.213766
1.99154,-0.124948,0.0464332
1.98723,-0.124678,-0.139234
2.01664,-0.225846,-0.165658
1.95898,-0.0270124,0.0570174
1.94782,-0.0268584,-0.124845
1.98195,-0.124346,-0.0925039
2.01264,-0.225398,-0.106137
1.95419,-0.0269463,-0.0796234
1.97957,-0.124197,-0.0461541
2.01383,-0.23194,-0.0589956
1.9837,-0.130714,0
2.01827,-0.232451,-0.258597
1.96369,-0.0332478,0.0114146
1.98419,-0.130747,-0.214194
2.04729,-0.337826,-0.193695
1.99114,-0.131204,0.0464332
1.98285,-0.130658,-0.138955
2.02384,-0.233093,-0.166309
1.95889,-0.0331666,0.0570174
1.94772,-0.0329775,-0.124845
1.98952,-0.131098,-0.0928761
2.01192,-0.23172,-0.106137
1.9541,-0.0330855,-0.0796234
1.98715,-0.130941,-0.0463402
1.9473,-0.03977,-0.0339973
1.98726,-0.137917,-0.309915
2.02138,-0.239962,-0.259102
1.96756,-0.0401838,0.0114378
1.98373,-0.137672,-0.214194
1.98636,-0.137855,-0.139234
2.03094,-0.241096,-0.16696
1.95876,-0.0400042,0.0570174
1.95159,-0.0398577,-0.125101
1.98905,-0.138042,-0.0928761
1.95397,-0.0399063,-0.0796234
1.98668,-0.137877,-0.0463402
1.95514,-0.0467583,-0.0341369
1.99072,-0.145141,0
1.99465,-0.145428,-0.311144
2.01659,-0.246535,-0.258597
1.96341,-0.046956,0.0114146
1.9872,-0.144885,-0.214623
2.05666,-0.354138,-0.194811
1.99383,-0.145368,-0.139792
2.02612,-0.2477,-0.166634
1.95861,-0.0468413,0.0570174
1.95543,-0.0467652,-0.125357
2.00052,-0.145856,-0.0934345
2.02215,-0.247214,-0.106765
1.95382,-0.0467267,-0.0796234
1.99018,-0.145102,-0.0464332
1.95497,-0.0535828,-0.0341369
1.99817,-0.152699,0
1.99807,-0.152691,-0.311759
2.01966,-0.254068,-0.259102
1.97123,-0.0540284,0.0114611
1.99065,-0.152124,-0.215051
2.00126,-0.152935,-0.14035
2.03316,-0.255766,-0.167285
1.97043,-0.0540065,0.0573665
1.95525,-0.0535906,-0.125357
1.99999,-0.152838,-0.0934345
2.0292,-0.255268,-0.107184
1.95764,-0.053656,-0.0797863
1.98567,-0.151743,-0.0463402
1.95877,-0.0605301,-0.0342067
1.99364,-0.159354,0
2.00146,-0.159979,-0.312374
2.02663,-0.262134,-0.260113
1.96703,-0.0607854,0.0114378
1.98614,-0.158754,-0.214623
2.00072,-0.15992,-0.14035
2.0283,-0.26235,-0.16696
1.96623,-0.0607607,0.0572502
1.95505,-0.0604154,-0.125357
1.99547,-0.1595,-0.0932484
2.0283,-0.26235,-0.107184
1.96144,-0.0606126,-0.0799491
1.9931,-0.159311,-0.0465263
1.96655,-0.0672989,-0.0343463
1.99698,-0.166287,-0.311759
2.03362,-0.269897,-0.261123
1.97081,-0.0674448,0.0114611
1.98957,-0.16567,-0.215051
2.00018,-0.166553,-0.14035
2.03928,-0.270649,-0.167936
1.97401,-0.0675541,0.0574829
1.95883,-0.0670348,-0.125613
1.99493,-0.166116,-0.0932484
2.03534,-0.270126,-0.107603
1.96522,-0.0672533,-0.0801119
1.99256,-0.165919,-0.0465263
1.96629,-0.0745062,-0.0343463
1.99636,-0.173606,-0.311759
2.03261,-0.277349,-0.261123
1.97455,-0.0748192,0.0114843
2.00083,-0.173994,-0.216336
2.00353,-0.174229,-0.140629
2.03037,-0.277043,-0.167285
1.96975,-0.0746374,0.0573665
1.96256,-0.074365,-0.125868
2.00624,-0.174465,-0.0938067
1.96895,-0.0746071,-0.0802748
2.00389,-0.174261,-0.0468054
1.96602,-0.0813693,-0.0343463
1.99968,-0.180929,-0.312374
2.03556,-0.284993,-0.261628
1.98227,-0.082042,0.0115308
1.99625,-0.180619,-0.215908
2.01086,-0.181941,-0.141187
2.02939,-0.284129,-0.167285
1.97347,-0.081678,0.0574829
1.96229,-0.0812151,-0.125868
2.00164,-0.181107,-0.0936206
1.96868,-0.0814795,-0.0802748
2.01124,-0.181975,-0.0469915
1.96973,-0.0880671,-0.0344161
1.99907,-0.187559,-0.312374
2.03068,-0.291178,-0.261123
1.97799,-0.0884363,0.0115076
1.9996,-0.187609,-0.216336
2.00627,-0.188235,-0.140908
2.04028,-0.292554,-0.168262
1.97319,-0.0882218,0.0574829
1.96999,-0.0880784,-0.12638
2.00899,-0.18849,-0.0939929
1.97638,-0.0883645,-0.0806004
2.00664,-0.18827,-0.0468985
1.96941,-0.0949422,-0.0344161
2.00627,-0.195302,-0.313604
1.98167,-0.0955329,0.0115308
2.01751,-0.196397,-0.141745
2.04319,-0.300254,-0.168587
1.97687,-0.0953015,0.0575993
1.96967,-0.0949544,-0.12638
2.0123,-0.195889,-0.094179
1.97207,-0.0950704,-0.0804376
2.00199,-0.194886,-0.0468054
1.97306,-0.102023,-0.034486
2.00557,-0.202304,-0.313604
1.98132,-0.10245,0.0115308
2.0022,-0.201964,-0.216764
2.01682,-0.203438,-0.141745
2.04607,-0.307978,-0.168913
1.97652,-0.102201,0.0575993
1.97331,-0.102035,-0.126636
2.00762,-0.202511,-0.0939929
1.97572,-0.10216,-0.0806004
1.97669,-0.10913,-0.0345558
2.00879,-0.209714,-0.314219
1.98494,-0.109586,0.0115541
2.00544,-0.209365,-0.217193
2.01609,-0.210477,-0.141745
1.97615,-0.1091,0.0575993
2.01088,-0.209933,-0.094179
2.00854,-0.209688,-0.0469915
1.98029,-0.116263,-0.0346256
2.01197,-0.217149,-0.314834
1.98056,-0.116279,0.0115308
2.00865,-0.21679,-0.217621
2.01931,-0.217941,-0.142024
2.04781,-0.322875,-0.169238
1.98374,-0.116466,0.057832
1.97653,-0.116043,-0.126892
2.01411,-0.217379,-0.0943651
1.97496,-0.115951,-0.0806004
2.00779,-0.216698,-0.0469915
1.98386,-0.123424,-0.0346954
2.01513,-0.224609,-0.315449
1.98413,-0.12344,0.0115541
2.00788,-0.2238,-0.217621
2.02251,-0.225431,-0.142303
2.0506,-0.330656,-0.169564
1.97612,-0.122942,-0.126892
2.02128,-0.225294,-0.0947374
1.98651,-0.123588,-0.0810889
1.97943,-0.130085,-0.0346256
2.01433,-0.231641,-0.315449
1.98768,-0.130628,0.0115773
2.01499,-0.231717,-0.218478
2.02567,-0.232945,-0.142582
1.98364,-0.130362,-0.127403
2.02048,-0.232348,-0.0947374
1.99005,-0.130784,-0.0812517
1.98694,-0.137547,-0.0347652
1.98721,-0.137565,0.0115773
2.02485,-0.240015,-0.142582
1.98318,-0.137286,-0.127403
2.02759,-0.24034,-0.0951096
1.99357,-0.138006,-0.0814146
1.98645,-0.144481,-0.0347652
1.9947,-0.145081,0.0116238
2.02516,-0.247224,-0.219763
2.02796,-0.247565,-0.142861
1.98667,-0.144497,-0.127659
2.02674,-0.247416,-0.0951096
1.98909,-0.144674,-0.0812517
1.98593,-0.151415,-0.0347652
1.99817,-0.152347,0.0116471
2.02034,-0.253796,-0.219335
2.02708,-0.254642,-0.142861
2.02983,-0.254987,-0.0952957
1.98857,-0.151616,-0.0812517
1.99337,-0.158982,-0.0349048
1.99762,-0.159321,0.0116471
2.02339,-0.261356,-0.219763
2.03805,-0.26325,-0.143698
1.99357,-0.158998,-0.128171
2.03685,-0.263095,-0.095668
1.99202,-0.158874,-0.0814146
1.9928,-0.165939,-0.0349048
2.04503,-0.271412,-0.144256
1.993,-0.165956,-0.128171
1.99942,-0.16649,-0.0817402
2.00416,-0.173932,-0.0351142
2.02546,-0.276012,-0.220192
2.03616,-0.277472,-0.143698
1.99241,-0.172912,-0.128171
2.0028,-0.173814,-0.0819031
1.99956,-0.180567,-0.0350444
2.02842,-0.283632,-0.22062
2.03913,-0.28513,-0.143977
2.00372,-0.180942,-0.128938
2.00617,-0.181163,-0.0820659
2.00293,-0.187569,-0.0351142
2.03534,-0.291484,-0.221477
2.04213,-0.292456,-0.144256
