2.38158,0.405381,-0.0281249
2.3737,0.404039,0.0280317
2.37244,0.387227,-0.0279852
2.37378,0.378944,-0.0279852
2.36725,0.369008,-0.027892
2.36725,0.369008,0.027892
2.36049,0.360363,-0.0277989
2.35654,0.359759,0.0277523
2.36581,0.351884,-0.0278455
2.36186,0.351296,0.0277989
2.35503,0.342723,-0.0277058
2.35107,0.342147,0.0276592
2.35621,0.334499,-0.0277058
2.35621,0.334499,0.0277058
2.3534,0.325726,-0.0276592
2.34944,0.325177,0.0276127
2.35458,0.317096,-0.0276592
2.34269,0.315495,0.0275195
2.34372,0.307725,-0.0275195
2.34372,0.307725,0.0275195
2.33685,0.298529,0.0274264
2.33793,0.289962,-0.0274264
2.33413,0.289491,-0.136976
2.33495,0.28132,-0.0273798
2.38163,0.405817,-0.0140416
2.32701,0.280364,0.0272867
2.33513,0.281341,-0.136976
2.32793,0.272646,-0.0272867
2.37113,0.395941,-0.0139718
2.31998,0.271715,0.0271936
2.32812,0.272668,-0.13651
2.37644,0.388306,-0.0139951
2.32092,0.263615,0.0271936
2.33302,0.264989,-0.136743
2.32187,0.255107,-0.0271936
2.36995,0.378333,-0.0139486
2.31789,0.25467,0.027147
2.32207,0.255129,-0.136045
2.31868,0.247386,-0.027147
2.36718,0.370267,-0.0139253
2.3147,0.246962,0.0271004
2.37081,0.370835,0.0418858
2.32286,0.247832,-0.136045
2.37151,0.362045,-0.0698173
2.31559,0.238477,-0.0271004
2.36852,0.361589,-0.0139253
2.32157,0.239093,-0.217861
2.30764,0.237657,0.0270073
2.36029,0.360332,0.0416763
2.31581,0.238499,-0.13558
2.35694,0.351406,-0.0693518
2.30845,0.2296,-0.0270073
2.36185,0.352138,-0.0138789
2.30845,0.2296,0.0270073
2.35362,0.350911,0.0415367
2.31265,0.230018,-0.135348
2.35413,0.343012,-0.0692355
2.30522,0.221562,-0.0269608
2.36301,0.344305,-0.0138789
2.31125,0.222142,-0.216746
2.30124,0.221179,0.0269142
2.35477,0.343105,0.0415367
2.31738,0.22273,-0.13558
2.35532,0.334793,-0.0692355
2.30598,0.213514,-0.0269608
2.34836,0.333803,-0.0137859
2.31598,0.21444,-0.217117
2.302,0.213145,0.0269142
2.352,0.334321,0.0414669
2.31019,0.213904,-0.135115
2.30273,0.205108,-0.0269142
2.34951,0.325603,-0.0137859
2.30482,0.205294,-0.216002
2.29077,0.204043,0.0267745
2.34919,0.325559,0.0413971
2.30297,0.205129,-0.13465
2.33572,0.323693,0.0960692
2.29944,0.196727,-0.0268676
2.34666,0.316864,-0.0137626
2.29758,0.196568,-0.215258
2.28749,0.195704,0.0267279
2.33842,0.315751,0.0411877
2.29571,0.196408,-0.134185
2.33684,0.315537,0.0960692
2.34349,0.316435,-0.123932
2.33491,0.306983,-0.0685373
2.28816,0.18772,-0.0267279
2.29825,0.188548,-0.215258
2.28417,0.187393,0.0266814
2.33554,0.307066,0.0411179
2.29638,0.188394,-0.134185
2.33,0.306338,0.0957435
2.34062,0.307734,-0.123722
2.33602,0.298422,-0.0685373
2.28484,0.179018,-0.0266814
2.3449,0.299557,-0.0137394
2.29099,0.179499,-0.214515
2.28085,0.178706,0.0266348
2.33268,0.297996,0.0410481
2.29308,0.179663,-0.133952
2.32714,0.297288,0.0955807
2.34173,0.299151,-0.123722
2.34101,0.290759,-0.0686537
2.37623,0.413863,0
2.28146,0.170743,-0.0266348
2.338,0.290384,-0.0136929
2.29557,0.171799,-0.214887
2.27748,0.170445,0.0265882
2.33371,0.289852,0.0410481
2.29369,0.171658,-0.133952
2.32817,0.289163,0.0955807
2.33483,0.289991,-0.123304
2.33011,0.281149,-0.0683046
2.28205,0.162779,-0.0266348
2.32708,0.280784,-0.0136231
2.28821,0.163219,-0.214143
2.27407,0.16221,0.0265417
2.29029,0.163367,-0.13372
2.31329,0.27912,0.0949294
2.3279,0.280883,-0.122885
2.32705,0.272954,-0.0681882
2.3711,0.39636,0
2.27858,0.154938,-0.0265882
2.328,0.273065,-0.0136231
2.28079,0.155089,-0.2134
2.26262,0.153853,0.026402
2.34804,0.275415,-0.192997
2.32769,0.273028,0.0409084
2.28285,0.155229,-0.133255
2.31023,0.270981,0.0947666
2.32485,0.272695,-0.122675
2.32005,0.263926,-0.0679555
2.27512,0.146727,-0.0265417
2.32497,0.264486,-0.0135999
2.27735,0.146871,-0.213028
2.26314,0.145955,0.026402
2.28338,0.14726,-0.133255
2.31116,0.262916,0.0947666
2.32096,0.255825,-0.0679555
2.36196,0.377902,0
2.27387,0.138677,-0.212656
2.26364,0.138053,0.026402
2.33009,0.256832,-0.191369
2.27591,0.138801,-0.13279
2.3081,0.254408,0.0946037
2.31876,0.255583,-0.122257
2.36922,0.379063,-0.0558315
2.3553,0.36883,0
2.31478,0.247379,-0.0135301
2.27829,0.131366,-0.213028
2.2561,0.130086,0.0263088
2.31904,0.247834,-0.190393
2.27237,0.131024,-0.132557
2.30893,0.246753,0.0946037
2.31562,0.247468,-0.122047
2.36651,0.370586,-0.0557385
2.30678,0.237976,-0.06749
2.36454,0.361404,0
2.26455,0.122248,-0.026402
2.30771,0.238073,-0.0134836
2.27081,0.122586,-0.212284
2.25656,0.121817,0.0263088
2.32389,0.239742,-0.190718
2.26486,0.122265,-0.132092
2.29789,0.237059,0.0941152
2.31651,0.23898,-0.122047
2.35995,0.360702,-0.0555524
2.29963,0.229129,-0.0672573
2.34996,0.350785,0
2.30853,0.230015,-0.0134836
2.26327,0.114256,-0.211541
2.35328,0.35128,0.0553663
2.24099,0.113132,0.0261226
2.32075,0.231233,-0.190393
2.30822,0.229984,0.0404896
2.26527,0.114357,-0.132092
2.29472,0.228639,0.0939524
2.31335,0.230496,-0.121838
2.28505,0.227675,0.187464
2.35724,0.351871,-0.0554593
2.30038,0.221501,-0.0672573
2.25334,0.106264,-0.0262623
2.30928,0.222358,-0.0134836
2.26363,0.10675,-0.211541
2.34652,0.34232,0.0551802
2.24136,0.105699,0.0261226
2.3215,0.223535,-0.190393
2.26165,0.106656,-0.131859
2.29149,0.220645,0.0937896
2.35647,0.343772,-0.11093
2.30615,0.222057,-0.121419
2.28579,0.220096,0.187464
2.35048,0.342897,-0.0552732
2.30512,0.213841,-0.0673737
2.34042,0.333091,0
2.2497,0.0982251,-0.0262157
2.30606,0.213928,-0.0134604
2.26001,0.0986752,-0.211169
2.35166,0.334692,0.0552732
2.24171,0.0978762,0.0261226
2.31036,0.214327,-0.189416
2.26201,0.0987623,-0.131859
2.28429,0.211908,0.0934639
2.30692,0.214007,-0.121419
2.27463,0.211012,0.186487
2.35166,0.334692,-0.0552732
2.30586,0.205792,-0.0673737
2.34156,0.324919,0
2.24604,0.0902105,-0.0261692
2.29882,0.205165,-0.0134139
2.26432,0.0909449,-0.211541
2.24204,0.0900499,0.0261226
2.3111,0.20626,-0.189416
2.25835,0.090705,-0.131627
2.35882,0.327313,-0.11093
2.30765,0.205952,-0.121419
2.27536,0.203071,0.186487
2.35281,0.32648,-0.0552732
2.29062,0.196377,-0.0669082
2.33872,0.316208,0
2.29156,0.196456,-0.0133674
2.25269,0.082603,-0.210425
2.23834,0.0820771,0.026076
2.30386,0.197511,-0.188766
2.25067,0.0825291,-0.131162
2.28173,0.195614,0.0933011
2.34411,0.316936,-0.110186
2.30835,0.197896,-0.121419
2.27208,0.194787,0.186162
2.34998,0.31773,-0.0551802
2.29133,0.187979,-0.0669082
2.33193,0.306591,0
2.24899,0.074214,-0.210054
2.33923,0.30755,0.054901
2.22664,0.0734763,0.0259363
2.30457,0.189065,-0.188766
2.24298,0.0740155,-0.130697
2.27447,0.186596,0.0929754
2.34129,0.307821,-0.11
2.29712,0.188454,-0.120791
2.26483,0.185805,0.185511
2.33923,0.30755,-0.054901
2.27998,0.179438,-0.0665591
2.23486,0.0663288,-0.0260295
2.28888,0.180139,-0.0133442
2.24525,0.0666369,-0.209682
2.33627,0.299283,0.054808
2.22687,0.0660915,0.0259363
2.30121,0.181108,-0.18844
2.24321,0.0665765,-0.130697
2.27109,0.178738,0.0928126
2.34626,0.300563,-0.110186
2.29773,0.180835,-0.120791
2.26146,0.17798,0.185186
2.34024,0.299791,-0.054901
2.28857,0.172078,-0.0667919
2.32206,0.289228,0
2.23508,0.0585277,-0.0260295
2.24546,0.0587996,-0.209682
2.33333,0.290632,0.0547149
2.22709,0.0583183,0.0259363
2.29785,0.172776,-0.188115
2.24343,0.0587463,-0.130697
2.26373,0.170211,0.0924869
2.33144,0.290396,-0.109441
2.29437,0.172514,-0.120582
2.25014,0.169189,0.184209
2.3373,0.291126,-0.054808
2.32305,0.281121,0
2.24167,0.0508713,-0.20931
2.33036,0.282006,0.0546219
2.22328,0.0504538,0.0258898
2.29446,0.16447,-0.187789
2.27781,0.163276,0.0398613
2.23963,0.0508248,-0.130464
2.26032,0.162022,0.0923241
2.34037,0.283216,-0.109813
2.28699,0.163934,-0.120163
2.25867,0.161904,0.18486
2.33036,0.282006,-0.0546219
2.28174,0.155554,-0.0665591
2.32402,0.273011,0
2.21944,0.0426164,-0.0258432
2.28818,0.155994,-0.291932
2.36705,0.396109,0.0139486
2.27069,0.154801,-0.0132279
2.24184,0.0430465,-0.20931
2.32736,0.273403,0.0545288
2.21944,0.0426164,0.0258432
2.33817,0.274673,-0.164625
2.29104,0.156189,-0.187464
2.22781,0.0427772,-0.129766
2.25689,0.15386,0.0921613
2.3215,0.272715,-0.108883
2.24729,0.153206,0.183884
2.33133,0.27387,-0.0546219
2.36809,0.387791,-0.0418858
2.27029,0.146814,-0.0662101
2.31304,0.263538,0
2.22358,0.0349311,-0.0258898
2.28871,0.148005,-0.291932
2.36447,0.387197,0.0139253
2.26723,0.146615,-0.0132047
2.22605,0.0349699,-0.207823
2.32036,0.264372,0.0543427
2.21558,0.0348055,0.0257966
2.32326,0.264702,-0.163509
2.29157,0.14819,-0.187464
2.27091,0.146854,0.0397217
2.22396,0.0349371,-0.129534
2.25342,0.145723,0.0919985
2.32244,0.264609,-0.108883
2.28409,0.147706,-0.119954
2.25179,0.145617,0.184209
2.3283,0.265277,-0.0545288
2.27079,0.138887,-0.0662101
2.30599,0.254583,0
2.28526,0.139772,-0.291427
2.3658,0.37894,0.0139253
2.26772,0.1387,-0.0132047
2.22616,0.0271988,-0.207823
2.31729,0.255831,0.0542496
2.21168,0.027022,0.0257501
2.3202,0.256153,-0.16323
2.27616,0.139216,-0.186162
2.22007,0.0271245,-0.129301
2.24993,0.137611,0.0918356
2.31938,0.256062,-0.108697
2.27662,0.139244,-0.119535
2.24035,0.137025,0.183233
2.32126,0.25627,-0.0543427
2.26725,0.131127,-0.0660937
2.30682,0.246937,0
2.21176,0.0196891,-0.0257501
2.27778,0.131736,-0.290417
2.35914,0.369855,0.0138789
2.26817,0.13118,-0.0132047
2.22623,0.0198179,-0.207823
2.20776,0.0196535,0.0257035
2.27263,0.131438,-0.185836
2.21616,0.0197282,-0.129069
2.25037,0.130151,0.0918356
2.32021,0.24837,-0.108697
2.27308,0.131464,-0.119326
2.23681,0.129367,0.182907
2.31415,0.247721,-0.0541566
2.26769,0.123212,-0.0660937
2.30369,0.23847,0
2.20782,0.0119463,-0.0257035
2.27427,0.123569,-0.289912
2.35647,0.361012,0.0138556
2.26063,0.122828,-0.0131582
2.21832,0.0120031,-0.207079
2.20782,0.0119463,0.0257035
2.31395,0.239533,-0.162672
2.27706,0.12372,-0.186162
2.25633,0.122594,0.0394424
2.21222,0.0119701,-0.128836
2.25081,0.122294,0.0918356
2.32107,0.240269,-0.108697
2.27352,0.123528,-0.119326
2.22929,0.121125,0.182256
2.35344,0.352144,-0.0415367
2.26012,0.114889,-0.065861
2.30849,0.230825,0
2.19985,0.00422353,-0.0256104
2.27469,0.115629,-0.289912
2.35376,0.352191,0.0138324
2.24906,0.114326,-0.0130884
2.22233,0.00426671,-0.207451
2.30786,0.230762,0.0539705
2.20385,0.00423121,0.0256569
2.31081,0.231057,-0.162393
2.27349,0.115568,-0.185836
2.34094,0.350273,0.0688864
2.24875,0.114311,0.0393028
2.20825,0.00423967,-0.128604
2.23925,0.113827,0.0913472
2.30996,0.230972,-0.108138
2.26995,0.115388,-0.119117
2.23368,0.113544,0.182582
2.30786,0.230762,-0.0539705
2.34674,0.342771,-0.0413971
2.25252,0.106621,-0.0656282
2.29734,0.221614,0
2.20785,-0.0034675,-0.0257035
2.26715,0.107313,-0.288902
2.35101,0.343396,0.0138091
2.25344,0.106664,-0.0131117
2.21039,-0.00347148,-0.206336
2.19985,-0.00345493,0.0256104
2.30763,0.222606,-0.162114
2.2699,0.107443,-0.185511
2.3461,0.342678,0.0690027
2.20426,-0.00346187,-0.128371
2.23564,0.105822,0.0911843
2.3028,0.222141,-0.107766
2.26635,0.107275,-0.118907
2.22609,0.10537,0.181931
2.30866,0.222706,-0.0539705
2.25686,0.099327,-0.0657446
2.29408,0.213624,0
2.19982,-0.0107494,-0.0256104
2.26749,0.0997949,-0.288902
2.34818,0.335033,0.0137859
2.24978,0.0990156,-0.0130884
2.2024,-0.010762,-0.205592
2.19583,-0.0107299,0.0255638
2.30041,0.214213,-0.161556
2.26228,0.0995654,-0.18486
2.33931,0.333767,0.06877
2.20424,-0.010771,-0.128371
2.23598,0.098408,0.0911843
2.29557,0.213763,-0.107394
2.25871,0.0994085,-0.118489
2.22643,0.0979878,0.181931
2.3054,0.214678,-0.0538774
2.34109,0.325687,-0.0412575
2.24521,0.0909623,-0.0653955
2.29082,0.205257,0
2.18778,-0.0183283,-0.0254707
2.2599,0.0915575,-0.287892
2.34141,0.325731,0.0137394
2.24612,0.0909993,-0.0130652
2.19837,-0.018417,-0.205221
2.19577,-0.0183953,0.0255638
2.30114,0.206181,-0.161556
2.25863,0.091506,-0.184535
2.33254,0.324497,0.0685373
2.24182,0.090825,0.0391632
2.20019,-0.0184323,-0.128138
2.22832,0.0902782,0.0908587
2.2963,0.205748,-0.107394
2.21879,0.0898921,0.18128
2.30614,0.206629,-0.0538774
2.33435,0.316031,-0.0411179
2.24952,0.0828792,-0.0655119
2.28359,0.196174,0
2.19169,-0.0263954,-0.0255173
2.25229,0.0829811,-0.286881
2.33466,0.316074,0.0136929
2.23844,0.0824711,-0.0130187
2.20625,-0.0265707,-0.205964
2.19169,-0.0263954,0.0255173
2.2979,0.197404,-0.161277
2.247,0.0827862,-0.183558
2.32579,0.314872,0.0683046
2.23814,0.0824599,0.0390934
2.18813,-0.0263526,-0.127441
2.22864,0.0821098,0.0908587
2.29704,0.19733,-0.107394
2.21911,0.0817587,0.18128
2.20218,0.0811349,0.401786
2.29891,0.19749,-0.0536913
2.33147,0.307358,-0.0410481
2.23781,0.0746271,-0.0651628
2.28825,0.188531,0
2.18759,-0.0339831,-0.0254707
2.2486,0.0749869,-0.286376
2.33179,0.3074,0.0136696
2.23872,0.0746574,-0.0130187
2.20216,-0.0342095,-0.205592
2.18759,-0.0339831,0.0254707
2.2946,0.189054,-0.160998
2.25126,0.0750755,-0.183884
2.32291,0.30623,0.0681882
2.18404,-0.0339279,-0.127208
2.22492,0.0741972,0.0906958
2.28975,0.188654,-0.107022
2.24766,0.0749558,-0.117861
2.21141,0.0737468,0.180629
2.18278,0.0727921,0.398199
2.29161,0.188808,-0.0535052
2.32851,0.299115,-0.0409782
2.23005,0.0669652,-0.0649301
2.2769,0.179995,0
2.18746,-0.0412379,-0.0254707
2.24487,0.0674101,-0.285871
2.33279,0.299665,0.0136696
2.23096,0.0669924,-0.0129722
2.19009,-0.0412873,-0.204477
2.18346,-0.0411625,0.0254241
2.29124,0.181129,-0.160719
2.25149,0.0676091,-0.183884
2.31995,0.298015,0.0680718
2.1879,-0.0412462,-0.127441
2.22116,0.0666981,0.090533
2.29036,0.18106,-0.107022
2.23992,0.0672614,-0.117442
2.21563,0.0665321,0.180955
2.19481,0.0659071,0.400351
2.28425,0.180577,-0.0533191
2.32562,0.290084,-0.0409084
2.23028,0.0587917,-0.0649301
2.27355,0.171349,0
2.1793,-0.0490745,-0.0253776
2.2451,0.0591823,-0.285871
2.33784,0.291608,0.0136929
2.23119,0.0588156,-0.0129722
2.18594,-0.049224,-0.204105
2.28091,0.171903,0.0532261
2.1753,-0.0489844,0.025331
2.28393,0.172131,-0.160161
2.24375,0.0591469,-0.183233
2.32896,0.2905,0.0683046
2.3331,0.291016,-0.150684
2.18375,-0.0491746,-0.127208
2.21739,0.0584519,0.0903702
2.28703,0.172364,-0.106835
2.23216,0.0588412,-0.117023
2.20789,0.0582014,0.180304
2.18717,0.0576553,0.398916
2.2849,0.172204,-0.0533191
2.32662,0.281965,-0.0409084
2.22248,0.0508239,-0.0646974
2.27015,0.163125,0
2.17912,-0.0566809,-0.0253776
2.24529,0.0513456,-0.285871
2.32693,0.282003,0.0136231
2.22738,0.050936,-0.0129489
2.28486,0.164182,-0.246752
2.18177,-0.05675,-0.203733
2.17112,-0.0564729,0.0252844
2.28452,0.164158,-0.160161
2.23996,0.0512237,-0.182907
2.31408,0.280445,0.0678391
2.22308,0.0508376,0.0388142
2.17957,-0.0566927,-0.126976
2.21758,0.0507119,0.0903702
2.28363,0.164094,-0.106649
2.23235,0.0510497,-0.117023
2.20808,0.0504945,0.180304
2.19129,0.0501107,0.399634
2.2815,0.163941,-0.0532261
2.32749,0.274653,-0.0409084
2.22662,0.0439197,-0.0648137
2.27065,0.155992,0
2.17493,-0.0634105,-0.025331
2.31986,0.273753,0.0135766
2.22353,0.0438587,-0.0129257
2.18158,-0.0636046,-0.203733
2.17493,-0.0634105,0.025331
2.28104,0.156706,-0.159882
2.23613,0.0441071,-0.182582
2.31098,0.272705,0.0677228
2.21123,0.0436161,0.0386047
2.26282,0.155454,0.132092
2.21373,0.0436654,0.0902073
2.28413,0.156918,-0.106649
2.22851,0.0439569,-0.116814
2.20025,0.0433995,0.179653
2.27402,0.156224,-0.05304
2.32058,0.264807,-0.0407688
2.22278,0.0353057,-0.0646974
2.26724,0.147013,0
2.17067,-0.0716298,-0.0252844
2.22973,0.0354161,-0.283851
2.31692,0.264389,0.0135534
2.21568,0.035193,-0.0128792
2.16667,-0.0714979,0.0252379
2.28959,0.148462,-0.16044
2.23229,0.0354568,-0.182256
2.31996,0.264735,0.0679555
2.21538,0.0351883,0.0386745
2.17114,-0.0716452,-0.126511
2.20989,0.035101,0.0900445
2.27276,0.14737,-0.106091
2.22467,0.0353357,-0.116605
2.2004,0.0349503,0.179653
2.18372,0.0346854,0.398199
2.27062,0.147232,-0.0529469
2.31752,0.256267,-0.040699
2.21089,0.0273995,-0.0643483
2.2434,0.0278023,-0.448716
2.26774,0.139099,0
2.30988,0.255423,0.0135069
2.21979,0.0275098,-0.0129024
2.16241,-0.0789132,0.0251913
2.27815,0.139738,-0.159603
2.2324,0.027666,-0.182256
2.31689,0.256198,0.0678391
2.21149,0.0274069,0.0386047
2.32106,0.256659,-0.149661
2.17087,-0.0792219,-0.126511
2.206,0.0273388,0.0898817
2.27326,0.139438,-0.106091
2.22078,0.027522,-0.116395
2.19652,0.0272214,0.179327
2.31595,0.256094,-0.0949294
2.27112,0.139306,-0.0529469
2.31036,0.24813,-0.0405594
2.21097,0.020453,-0.0643483
2.26018,0.131509,0
2.22991,0.0206282,-0.283851
2.21587,0.0204983,-0.0128792
2.16886,-0.0859726,-0.202618
2.15816,-0.0855484,0.0251447
2.27459,0.132347,-0.159324
2.2245,0.0205782,-0.181606
2.30178,0.247209,0.0673737
2.21157,0.0204585,0.0386047
2.31392,0.248512,-0.149149
2.15864,-0.0855677,-0.125813
2.19808,0.0203338,0.089556
2.2697,0.132063,-0.105905
2.21287,0.0204705,-0.115976
2.19261,0.0202832,0.179002
2.26755,0.131938,-0.0528539
2.31125,0.23966,-0.0405594
2.20703,0.0123263,-0.0642319
2.25665,0.123006,0
2.16183,-0.0936315,-0.0251913
2.21807,0.012388,-0.282336
2.30759,0.23928,0.0134836
2.27147,0.123813,-0.245038
2.16455,-0.0937495,-0.202246
2.15383,-0.0932854,0.0250982
2.27108,0.123792,-0.159045
2.2126,0.0123575,-0.180629
2.30267,0.23877,0.0673737
2.20763,0.0123297,0.0385349
2.31481,0.240029,-0.149149
2.16231,-0.0936523,-0.126045
2.19814,0.0122767,0.089556
2.26618,0.123525,-0.105719
2.20494,0.0123147,-0.115558
2.19267,0.0122461,0.179002
2.25604,0.122972,-0.0525747
2.3081,0.231193,-0.0404896
2.21106,0.00463114,-0.0643483
2.25307,0.114924,0
2.29647,0.230028,0.0134139
2.20796,0.00462464,-0.0128327
2.16421,-0.101304,-0.202246
2.15749,-0.10099,0.0251447
2.26352,0.115458,-0.158487
2.20865,0.00462608,-0.180304
2.29951,0.230333,0.0672573
2.19966,0.00460726,0.0383953
2.30769,0.231152,-0.148637
2.15798,-0.101012,-0.125813
2.24527,0.114527,0.130929
2.19817,0.00460414,0.089556
2.26659,0.115614,-0.105719
2.20097,0.00461001,-0.115348
2.1927,0.00459268,0.179002
2.30256,0.230638,-0.0942781
2.26045,0.115301,-0.0526678
2.29691,0.222382,-0.0402802
2.19907,-0.00268594,-0.0639992
2.29324,0.222026,0.0133907
2.20396,-0.00269192,-0.0128095
2.26034,0.107782,-0.243753
2.15591,-0.108081,-0.201503
2.26788,0.108141,-0.158766
2.29231,0.221936,0.0670246
2.19966,-0.00268667,0.0383953
2.30447,0.223114,-0.148382
2.15763,-0.108167,-0.125813
2.23766,0.1067,0.130464
2.19018,-0.00267509,0.0892304
2.26297,0.107907,-0.105533
2.20098,-0.00268827,-0.115348
2.29933,0.222616,-0.0941152
2.24884,0.107233,-0.0523886
2.29771,0.213961,-0.0402802
2.18705,-0.0106878,-0.0636501
2.24583,0.0988405,0
2.29404,0.213619,0.0133907
2.25675,0.0993212,-0.243325
2.2563,0.0993015,-0.157929
2.20464,-0.0107738,-0.179978
2.29709,0.213903,0.067141
2.19564,-0.0107298,0.0383255
2.14924,-0.115646,-0.125348
2.23804,0.0984977,0.130464
2.19016,-0.010703,0.0892304
2.25936,0.0994362,-0.105346
2.19696,-0.0107363,-0.115139
2.29615,0.213816,-0.0939524
2.24522,0.0988138,-0.0522955
2.29446,0.205583,-0.0402103
2.191,-0.018355,-0.0637664
2.24216,0.0908391,0
2.14833,-0.123119,-0.0250516
2.20612,-0.0184818,-0.280821
2.29078,0.205254,0.0133674
2.19589,-0.018396,-0.012763
2.25311,0.0912826,-0.242896
2.1511,-0.123278,-0.201131
2.14034,-0.122661,0.0249585
2.25265,0.0912639,-0.15765
2.19662,-0.0184021,-0.179327
2.28587,0.204814,0.0667919
2.19159,-0.01836,0.0382557
2.29806,0.205906,-0.14787
2.14883,-0.123147,-0.125348
2.23039,0.0903621,0.129999
2.18611,-0.0183141,0.0890675
2.24772,0.0910642,-0.104788
2.17668,-0.0182351,0.1777
2.2929,0.205444,-0.0937896
2.24955,0.0911382,-0.0523886
2.19092,-0.0260035,-0.0637664
2.24246,0.0830113,0
2.14789,-0.130618,-0.0250516
2.2875,0.196912,0.0133442
2.19581,-0.0260616,-0.012763
2.24944,0.0832695,-0.242468
2.13591,-0.129889,0.0249119
2.25295,0.0833995,-0.15765
2.28259,0.19649,0.0666755
2.18751,-0.0259631,0.0381859
2.29081,0.197197,-0.147358
2.14041,-0.130163,-0.124883
2.18204,-0.0258981,0.0889047
2.18884,-0.0259789,-0.11472
2.17661,-0.0258336,0.1777
2.28963,0.197095,-0.0936268
2.24985,0.0832847,-0.0523886
2.28783,0.189299,-0.0400707
2.18282,-0.0331479,-0.0635337
2.23073,0.0751698,0
2.27618,0.188336,0.0132744
2.18771,-0.0332221,-0.0127165
2.24573,0.075675,-0.242039
2.14624,-0.137663,-0.200759
2.13946,-0.137228,0.0249585
2.24524,0.0756586,-0.157092
2.27924,0.188589,0.0665591
2.18342,-0.0331569,0.0381161
2.29145,0.189599,-0.147358
2.13997,-0.137261,-0.124883
2.18475,-0.0331771,-0.114511
2.21411,0.0746095,0.272012
2.28628,0.189171,-0.0934639
2.23812,0.0754188,-0.0521094
2.28452,0.180598,-0.0400009
2.17469,-0.0409969,-0.063301
2.14293,-0.145339,-0.025005
2.27287,0.179677,0.0132512
2.24201,0.0673247,-0.241611
2.13777,-0.144989,-0.200016
2.24949,0.0675492,-0.157371
2.18434,-0.0411789,-0.178351
2.27195,0.179604,0.0663264
2.17528,-0.041008,0.0379764
2.28417,0.180571,-0.146847
2.13547,-0.144833,-0.12465
2.21924,0.0666407,0.129301
2.17781,-0.0410556,0.0887419
2.18461,-0.0411839,-0.114511
2.28298,0.180476,-0.0933011
2.23439,0.0670956,-0.0520164
2.28115,0.172321,-0.0399311
2.22722,0.059099,0
2.13842,-0.152534,-0.0249585
2.2695,0.17144,0.0132279
2.23826,0.0593921,-0.241183
2.13725,-0.152451,-0.200016
2.13044,-0.151965,0.0248654
2.23775,0.0593784,-0.156534
2.18419,-0.048804,-0.178351
2.27256,0.171672,0.0663264
2.17513,-0.0486015,0.0379764
2.28081,0.172295,-0.146591
2.13495,-0.152287,-0.12465
2.21946,0.0588931,0.129301
2.16566,-0.0483901,0.0882534
2.23679,0.059353,-0.10423
2.28359,0.172505,-0.0933011
2.22661,0.059083,-0.0518303
2.27775,0.16407,-0.0398613
2.21941,0.0511406,0
2.18563,-0.0564693,-0.278295
2.27407,0.163805,0.0132512
2.17924,-0.0563041,-0.01267
2.23845,0.0515794,-0.241183
2.11793,-0.158505,0.0247257
2.22597,0.0512918,-0.155696
2.18002,-0.0563243,-0.178025
2.26517,0.163164,0.0660937
2.17494,-0.0561932,0.0379764
2.2814,0.164333,-0.146591
2.12644,-0.159141,-0.124185
2.21566,0.0510541,0.129069
2.16149,-0.0558455,0.0880906
2.23299,0.0514534,-0.104044
2.17229,-0.0561247,-0.113883
2.16009,-0.0558095,0.176398
2.27222,0.163672,-0.0928126
2.22281,0.0512189,-0.0517372
2.27432,0.155845,-0.0397915
2.16615,-0.0635331,-0.0630683
2.21558,0.0433149,0
2.12933,-0.166834,-0.0248654
2.26665,0.155319,0.0132047
2.17903,-0.0639107,-0.01267
2.23862,0.0437654,-0.241183
2.11338,-0.165584,0.0246791
2.23013,0.0435994,-0.155975
2.17582,-0.0638168,-0.1777
2.25376,0.154436,0.0657446
2.17074,-0.0636676,0.0379066
2.27399,0.155823,-0.146079
2.13383,-0.167187,-0.12465
2.16128,-0.0633901,0.0880906
2.23315,0.0436585,-0.104044
2.1559,-0.0632324,0.176073
2.26879,0.155466,-0.0926498
2.21898,0.0433814,-0.0516442
2.27083,0.148042,-0.0397217
2.21171,0.0359026,0
2.12876,-0.173894,-0.0248654
2.25917,0.147282,0.0131582
2.16681,-0.0707447,-0.0126002
2.22682,0.036148,-0.239897
2.11681,-0.172917,0.0247257
2.22627,0.036139,-0.155696
2.25825,0.147222,0.065861
2.16652,-0.0707351,0.0378368
2.12531,-0.173612,-0.124185
2.20397,0.0357771,0.128371
2.16505,-0.0706872,0.0882534
2.23328,0.0362529,-0.104044
2.16787,-0.0707793,-0.113674
2.15568,-0.0703812,0.176073
2.2693,0.147942,-0.0926498
2.21111,0.0358929,-0.0514581
2.25936,0.139376,-0.0395123
2.21182,0.0281821,0
2.12416,-0.180984,-0.0248188
2.25168,0.138902,0.0131117
2.16255,-0.0781633,-0.012577
2.22296,0.028324,-0.239469
2.1122,-0.179966,0.0246791
2.22638,0.0283677,-0.155696
2.16737,-0.0783375,-0.177049
2.25476,0.139092,0.0657446
2.16626,-0.0782972,0.0378368
2.26703,0.139849,-0.145567
2.12071,-0.18069,-0.123952
2.20808,0.0281344,0.128604
2.15281,-0.0778112,0.0877649
2.22541,0.0283552,-0.103671
2.16362,-0.0782018,-0.113464
2.15143,-0.0777615,0.175747
2.26581,0.139774,-0.0924869
2.20322,0.0280726,-0.051272
2.25983,0.131488,-0.0395123
2.1534,-0.08536,-0.0627192
2.20791,0.0204243,0
2.24816,0.130809,0.0130884
2.16227,-0.0857116,-0.012577
2.21907,0.0205275,-0.239041
2.21131,0.0204557,0.0514581
2.11156,-0.187338,0.0246791
2.22248,0.0205591,-0.155417
2.16708,-0.0859026,-0.177049
2.25124,0.130988,0.0656282
2.2675,0.131935,-0.145567
2.12007,-0.188092,-0.123952
2.20018,0.0203528,0.128138
2.14853,-0.0851671,0.0876021
2.21351,0.0204761,-0.103113
2.19145,0.020272,0.269088
2.26628,0.131864,-0.0924869
2.20331,0.0203817,-0.051272
2.26026,0.123994,-0.0395123
2.19996,0.013055,0
2.1189,-0.195072,-0.0247722
2.24459,0.123134,0.0130652
2.15398,-0.0925381,-0.0125305
2.21515,0.0131451,-0.238612
2.10296,-0.193605,0.024586
2.20657,0.0130942,-0.154301
2.24767,0.123303,0.0655119
2.26394,0.124196,-0.145312
2.11545,-0.194755,-0.12372
2.15223,-0.0924629,0.0877649
2.21756,0.0131594,-0.103299
2.15505,-0.0925843,-0.113046
2.14289,-0.0920617,0.175096
2.25474,0.123691,-0.0919985
2.20736,0.0130989,-0.051365
2.26068,0.116103,-0.0395123
2.14877,-0.0998301,-0.0626028
2.19599,0.00536584,0
2.11422,-0.202087,-0.0247257
2.249,0.115504,0.0130884
2.21916,0.00542243,-0.239041
2.10626,-0.201325,0.0246325
2.20661,0.00539177,-0.154301
2.15848,-0.100281,-0.176398
2.2361,0.114841,0.0651628
2.15734,-0.100228,0.0376972
2.25639,0.115883,-0.1448
2.11476,-0.202138,-0.12372
2.19228,0.00535676,0.127673
2.13991,-0.0994186,0.0872764
2.2056,0.00538931,-0.102741
2.15073,-0.0999209,-0.112836
2.13459,-0.0991712,0.174445
2.24717,0.11541,-0.0916728
2.2034,0.00538393,-0.051272
2.2491,0.107245,-0.0393028
2.1444,-0.107505,-0.0624865
2.196,-0.00268291,0
2.24142,0.106879,0.0130419
2.14927,-0.107749,-0.0125072
2.20723,-0.00269664,-0.237755
2.12031,-0.210514,-0.1989
2.09356,-0.207858,0.0244928
2.20661,-0.00269588,-0.154301
2.23651,0.106645,0.0651628
2.14498,-0.107534,0.0374878
2.24883,0.107232,-0.144288
2.11401,-0.209888,-0.12372
2.19228,-0.00267838,0.127673
2.13819,-0.107194,0.174771
2.25157,0.107363,-0.0918356
2.1954,-0.00268219,-0.0510859
2.24147,0.0990407,-0.0391632
2.19598,-0.0103484,0
2.23778,0.0988775,0.0130187
2.14488,-0.115036,-0.012484
2.0968,-0.215574,0.0245394
2.20659,-0.0103984,-0.154301
2.23687,0.0988373,0.0651628
2.25317,0.0995578,-0.144544
2.10134,-0.216041,-0.123022
2.18028,-0.0102744,0.126976
2.13915,-0.114729,0.0872764
2.20558,-0.0103936,-0.102741
2.14597,-0.115095,-0.112627
2.13382,-0.114443,0.174445
2.24395,0.0991501,-0.09151
2.18738,-0.0103079,-0.0508998
2.23779,0.0914438,-0.0390934
2.18793,-0.0175662,0
2.2341,0.0912929,0.0129954
2.14449,-0.122148,-0.012484
2.19134,-0.0175936,0.0509928
2.08415,-0.221259,0.0243997
2.19856,-0.0176516,-0.153743
2.2292,0.0910925,0.0649301
2.2495,0.0919224,-0.144288
2.10062,-0.223008,-0.123022
2.18024,-0.0175044,0.126976
2.13078,-0.121367,0.0869508
2.19355,-0.0176113,-0.102182
2.13343,-0.121519,0.174445
2.24426,0.0917083,-0.09151
2.19134,-0.0175936,-0.0509928
2.23811,0.0832413,-0.0390934
2.17585,-0.0254449,0
2.09525,-0.230207,-0.0245394
2.23841,0.0832526,0.0130187
2.14003,-0.129765,-0.0124607
2.19913,-0.0257171,-0.236899
2.08332,-0.228897,0.0243997
2.19449,-0.0256629,-0.153464
2.22951,0.0829215,0.0649301
2.24983,0.083677,-0.144288
2.10375,-0.231142,-0.123255
2.18016,-0.0254953,0.126976
2.13431,-0.129418,0.0871136
2.19347,-0.025651,-0.102182
2.2366,0.083185,-0.0911843
2.18326,-0.0255316,-0.0508067
2.23438,0.0756836,-0.0390236
2.17576,-0.0326602,0
2.09447,-0.237154,-0.0245394
2.23068,0.0755584,0.0129722
2.13959,-0.136861,-0.0124607
2.08652,-0.236254,0.0244463
2.19439,-0.03294,-0.153464
2.21779,0.0751217,0.064581
2.1393,-0.136843,0.037418
2.2461,0.0760807,-0.144032
2.10298,-0.238117,-0.123255
2.18006,-0.0327248,0.126976
2.12988,-0.13624,0.0869508
2.19337,-0.0329247,-0.102182
2.12855,-0.136155,0.17412
2.23287,0.0756324,-0.0910215
2.19116,-0.0328914,-0.0509928
2.23063,0.0677623,-0.0389538
2.17563,-0.0402548,0
2.22294,0.0675285,0.0129257
2.13112,-0.14379,-0.0124142
2.18304,-0.0403918,0.0508067
2.19427,-0.0405996,-0.153464
2.21804,0.0673797,0.064581
2.23039,0.067755,-0.143009
2.0942,-0.24453,-0.12279
2.17195,-0.0401867,0.126511
2.19325,-0.0405808,-0.102182
2.13222,-0.143865,-0.111999
2.12011,-0.143048,0.173469
2.22513,0.067595,-0.0906958
2.18304,-0.0403918,-0.0508067
2.22686,0.059868,-0.038884
2.17147,-0.0477609,0
2.22316,0.0597686,0.0129257
2.1306,-0.151229,-0.0124142
2.08483,-0.250815,0.0244463
2.18613,-0.0480833,-0.152906
2.22226,0.0597443,0.0646974
2.12633,-0.150925,0.0372085
2.23062,0.0599691,-0.143009
2.0973,-0.252315,-0.123022
2.16381,-0.0475923,0.126045
2.1209,-0.15054,0.0866251
2.1851,-0.0480606,-0.10181
2.1317,-0.151307,-0.111999
2.1196,-0.150447,0.173469
2.22535,0.0598275,-0.0906958
2.17489,-0.0478359,-0.0506206
2.21506,0.0518139,-0.0386745
2.21936,0.0519144,0.0129024
2.12607,-0.158368,-0.012391
2.17471,-0.0554274,0.0506206
2.06806,-0.256124,0.02426
2.17797,-0.0555107,-0.152348
2.13099,-0.158734,-0.174445
2.21845,0.0518933,0.064581
2.12977,-0.158643,0.0372783
2.22682,0.0520891,-0.142753
2.08452,-0.258162,-0.122325
2.16762,-0.0552469,0.126278
2.11239,-0.157348,0.0862994
2.17294,-0.0553824,-0.101252
2.12718,-0.15845,-0.11179
2.15511,-0.054928,0.2647
2.11111,-0.157253,0.172818
2.22554,0.0520592,-0.0906958
2.1787,-0.0555293,-0.0507136
2.21922,0.0441612,-0.0387443
2.16309,-0.0626876,0
2.08302,-0.265363,-0.0244463
2.21952,0.0441671,0.0129024
2.12152,-0.165477,-0.0123678
2.06318,-0.262836,0.0242135
2.21063,0.0439901,0.0643483
2.22699,0.0443157,-0.142753
2.08756,-0.265942,-0.122557
2.11183,-0.164721,0.0862994
2.18072,-0.0631985,-0.101624
2.12661,-0.165874,-0.11179
2.15094,-0.0623354,0.264213
2.1026,-0.164001,0.172167
2.1705,-0.0629024,-0.0505275
2.21936,0.0368017,-0.0387443
2.15887,-0.0697312,0
2.0742,-0.271232,-0.0243531
2.21566,0.0367404,0.0128792
2.12893,-0.17316,-0.0124142
2.17826,-0.0703573,-0.234757
2.17028,-0.0700997,0.0505275
2.0623,-0.269677,0.0242135
2.16957,-0.0700766,-0.15179
2.20676,0.0365929,0.0642319
2.21914,0.0367981,-0.142242
2.15921,-0.0697422,0.125813
2.11127,-0.171723,0.0862994
2.17251,-0.0701717,-0.101252
2.12207,-0.172602,-0.11158
2.15072,-0.0694678,0.264213
2.09807,-0.170649,0.171842
2.21386,0.0367105,-0.0902073
2.16628,-0.0699706,-0.0504345
2.20348,0.0284605,-0.0384651
2.11547,-0.179872,-0.0617883
2.1586,-0.0776434,0
2.07319,-0.278833,-0.0243531
2.20778,0.028516,0.0128327
2.11234,-0.179606,-0.0123213
2.0613,-0.277233,0.0242135
2.1693,-0.0780281,-0.15179
2.19889,0.0284011,0.0639992
2.12003,-0.18026,0.0371387
2.15894,-0.0776557,0.125813
2.10665,-0.179122,0.0861366
2.17224,-0.0781339,-0.101252
2.11744,-0.18004,-0.111371
2.14648,-0.0772074,0.263725
2.09346,-0.178,0.171516
2.20998,0.0285445,-0.0900445
2.17001,-0.0780537,-0.0505275
2.20357,0.0207687,-0.0384651
2.10686,-0.18655,-0.0615556
2.15033,-0.0848624,0
2.07221,-0.286068,-0.0243531
2.20786,0.0208092,0.0128327
2.10772,-0.186626,-0.012298
2.16502,-0.0854425,-0.151511
2.19897,0.0207254,0.0639992
2.11142,-0.186953,0.0369991
2.15467,-0.0850338,0.12558
2.10203,-0.186122,0.0859738
2.16397,-0.0854008,-0.100879
2.1168,-0.18743,-0.111371
2.16573,-0.0854702,-0.0504345
2.20363,0.0130767,-0.0384651
2.10222,-0.193537,-0.0614392
2.15002,-0.092368,0
2.07119,-0.293299,-0.0243531
2.20392,0.0130785,0.0128095
2.11104,-0.194349,-0.0123213
2.16546,-0.0930316,-0.233472
2.05535,-0.291056,0.0241669
2.16073,-0.092828,-0.151232
2.19903,0.0130495,0.0639992
2.20743,0.0130993,-0.141474
2.15037,-0.0923831,0.125348
2.09738,-0.193092,0.085811
2.15567,-0.0926109,-0.100507
2.10818,-0.194086,-0.110952
2.20613,0.0130916,-0.0898817
2.15743,-0.0926862,-0.0502484
2.19566,0.00536503,-0.0383255
2.14968,-0.0998723,0
2.06224,-0.299378,-0.02426
2.20396,0.0053853,0.0128095
2.10636,-0.201336,-0.012298
2.16115,-0.100405,-0.233043
2.19107,0.0053538,0.0637664
2.20746,0.00539387,-0.141474
2.09272,-0.200031,0.0856481
2.15534,-0.100135,-0.100507
2.10351,-0.201063,-0.110743
2.13366,-0.0991279,0.262263
2.19817,0.00537116,-0.089556
2.15309,-0.100031,-0.0501553
2.19167,-0.00229508,-0.0382557
2.14532,-0.107176,0
2.06514,-0.307163,-0.0243066
2.19596,-0.00229958,0.012763
2.10167,-0.208293,-0.0122748
2.04536,-0.304221,0.0240738
2.15205,-0.107512,-0.150674
2.18707,-0.00229027,0.0636501
2.20348,-0.00230745,-0.141218
2.09201,-0.207335,0.0856481
2.15497,-0.107658,-0.100507
2.1028,-0.208405,-0.110743
2.15673,-0.107746,-0.0502484
2.13697,-0.113864,0
2.06016,-0.313408,-0.02426
2.19594,-0.00958166,0.012763
2.09301,-0.214445,-0.0122283
2.04434,-0.311002,0.0240738
2.15169,-0.114648,-0.150674
2.18705,-0.00954287,0.0636501
2.10068,-0.215232,0.0368595
2.09131,-0.214271,0.0856481
2.15061,-0.114591,-0.100321
2.1021,-0.215377,-0.110743
2.19016,-0.00955644,-0.0892304
2.15236,-0.114684,-0.0501553
2.1836,-0.0171503,-0.0381161
2.13256,-0.121096,0
2.05115,-0.319367,-0.0241669
2.1919,-0.0172155,0.0127397
2.08827,-0.221329,-0.012205
2.10517,-0.22312,-0.172818
2.18301,-0.0171457,0.0635337
2.09992,-0.222563,0.0368595
2.19144,-0.0172119,-0.140451
2.13693,-0.121344,0.12465
2.08657,-0.221149,0.0854853
2.14222,-0.121644,-0.0999489
2.1053,-0.223134,-0.110952
2.19012,-0.0172015,-0.0892304
2.15195,-0.122197,-0.0501553
2.17953,-0.024727,-0.0380462
2.09061,-0.228959,-0.0612065
2.05397,-0.327154,-0.0242135
2.18782,-0.0248211,0.0127165
2.09146,-0.229052,-0.0122283
2.14765,-0.129475,-0.231758
2.14287,-0.129186,-0.150116
2.18293,-0.0247657,0.0635337
2.18737,-0.024816,-0.140195
2.13649,-0.128802,0.12465
2.07784,-0.227561,0.0851596
2.1378,-0.128881,-0.0997627
2.14353,-0.129226,-0.0499692
2.17543,-0.0322755,-0.0379764
2.12768,-0.135726,0
2.18772,-0.0324579,0.0127165
2.0827,-0.235453,-0.0121818
2.17884,-0.0323261,0.0634174
2.09434,-0.236768,0.0367897
2.18727,-0.0324512,-0.140195
2.07704,-0.234812,0.0851596
2.14132,-0.136597,-0.0999489
2.09179,-0.23648,-0.110324
2.14705,-0.136962,-0.0500623
2.1713,-0.0397957,-0.0379066
2.08102,-0.242622,-0.0609738
2.1232,-0.142884,0
2.0398,-0.339515,-0.0240738
2.1836,-0.040021,0.0126932
2.08981,-0.243648,-0.0122283
2.13395,-0.143607,-0.149558
2.17072,-0.0397849,0.0631846
2.08953,-0.243615,0.0367199
2.06826,-0.241136,0.084834
2.13286,-0.143534,-0.0995766
2.08698,-0.243318,-0.110115
2.13858,-0.143919,-0.0498762
2.17515,-0.047462,-0.0379764
2.12269,-0.150294,0
2.03071,-0.345293,-0.0239806
2.17944,-0.0475556,0.01267
2.07306,-0.249032,-0.0121353
2.17456,-0.0474491,0.063301
2.07278,-0.248999,0.0364406
2.12308,-0.150322,0.123952
2.06741,-0.248354,0.084834
2.12836,-0.150696,-0.0993905
2.08215,-0.250125,-0.109906
2.13009,-0.150818,-0.0496901
2.17097,-0.0549532,-0.0379066
2.12215,-0.157703,0
2.03344,-0.353063,-0.0240272
2.17527,-0.0550618,0.0126467
2.07615,-0.256758,-0.0121585
2.12955,-0.158253,0.0496901
2.12892,-0.158206,-0.149279
2.17039,-0.0549383,0.0631846
2.07587,-0.256723,0.0365104
2.17484,-0.055051,-0.139427
2.06256,-0.255078,0.0846712
2.12383,-0.157828,-0.0992044
2.08127,-0.257391,-0.109906
2.12955,-0.158253,-0.0496901
2.07052,-0.262669,-0.060741
2.11765,-0.16406,0
2.17508,-0.0618953,0.0126467
2.07533,-0.263279,-0.0121585
2.12443,-0.164585,-0.149
2.1702,-0.0617565,0.0631846
2.17067,-0.0617697,-0.139172
2.16533,-0.0616177,-0.0882534
2.12904,-0.164942,-0.0496901
2.16257,-0.0690948,-0.037767
2.06959,-0.269895,-0.060741
2.07043,-0.270005,-0.0121353
2.12868,-0.172391,-0.230044
2.12048,-0.171727,0.049504
2.16598,-0.0692038,0.0630683
2.07412,-0.270485,0.0365104
2.12447,-0.17205,-0.049597
2.15224,-0.288699,-1.01259
2.1583,-0.0768782,-0.0376972
2.06463,-0.276947,-0.0606247
2.11244,-0.178872,0
2.16259,-0.077031,0.012577
2.06943,-0.277591,-0.0121353
2.15772,-0.0768574,0.0628356
2.06915,-0.277554,0.0364406
2.11413,-0.179015,-0.0988321
2.07059,-0.277747,-0.109487
2.12382,-0.179836,-0.049597
2.15404,-0.0838794,-0.0376274
2.0637,-0.283792,-0.0606247
2.10785,-0.185525,0
2.15833,-0.0840464,0.0125537
2.06454,-0.283908,-0.012112
2.15745,-0.0840122,0.0628356
2.06426,-0.283869,0.0363708
2.10826,-0.185562,0.123255
2.11751,-0.186375,-0.0990182
2.06966,-0.284612,-0.109487
2.11525,-0.186176,-0.0494109
2.14304,-0.302329,-1.00921
2.14974,-0.0912283,-0.0375576
2.05873,-0.290436,-0.0605083
2.11117,-0.193247,0
2.15802,-0.0915798,0.0125537
2.15315,-0.0913731,0.0627192
2.06325,-0.291073,0.0363708
2.10889,-0.193037,-0.098646
2.10662,-0.19283,-0.0492248
2.13833,-0.309662,-1.00752
2.15338,-0.0992911,-0.0376274
2.10647,-0.200604,0
2.05453,-0.297527,-0.0120655
2.14881,-0.09908,0.0626028
2.06217,-0.298633,0.0363708
2.15329,-0.0992868,-0.138148
2.10291,-0.200265,0.123022
2.10419,-0.200387,-0.0984599
2.1059,-0.20055,-0.0492248
2.14082,-0.317657,-1.00921
2.14903,-0.106609,-0.0375576
2.0978,-0.207169,0
2.15332,-0.106822,0.0125305
2.04953,-0.30411,-0.0120423
2.14445,-0.106382,0.0624865
2.0532,-0.304656,0.0362312
2.09822,-0.207211,0.12279
2.0995,-0.207338,-0.0982737
2.10917,-0.208292,-0.0493179
2.13976,-0.324754,-1.00921
2.14467,-0.113523,-0.0374878
2.09312,-0.213718,0
2.14896,-0.11375,0.0125072
2.04851,-0.310905,-0.0120423
2.1361,-0.11307,0.0622537
2.10278,-0.214705,-0.0984599
2.10051,-0.214473,-0.0491318
2.13503,-0.331665,-1.00752
2.14027,-0.120784,-0.037418
2.04658,-0.317924,-0.0602756
2.09236,-0.221024,0
2.14455,-0.121025,0.012484
2.04346,-0.317439,-0.012019
2.13969,-0.120751,0.0623701
2.09407,-0.221204,-0.0980876
2.09975,-0.221804,-0.0491318
2.1338,-0.339488,-1.00752
2.13582,-0.128387,-0.0373482
2.09153,-0.228691,0
2.13611,-0.128405,0.0124375
2.13923,-0.128593,0.0623701
2.07609,-0.227002,0.121627
2.08699,-0.228194,-0.0488526
2.13988,-0.347352,-1.0109
2.13541,-0.135097,-0.0373482
2.04042,-0.331207,-0.0601592
2.08683,-0.234813,0
2.13569,-0.135115,0.0124375
2.0373,-0.3307,-0.0119958
2.09421,-0.235644,0.0490387
2.13483,-0.13506,0.0622537
2.09024,-0.235197,-0.0489456
2.13508,-0.354226,-1.00921
2.13093,-0.142283,-0.0372783
2.07805,-0.241174,0
2.1392,-0.142836,0.0124607
2.12636,-0.141978,0.062021
2.13486,-0.142546,-0.137125
2.08374,-0.241834,-0.0977154
2.08146,-0.24157,-0.0487595
2.1337,-0.362421,-1.00921
2.12638,-0.150183,-0.0372085
2.07711,-0.249151,0
2.13066,-0.150485,0.0124142
2.1258,-0.150142,0.062021
2.08449,-0.250036,-0.0488526
2.12988,-0.157156,-0.0372783
2.08029,-0.256164,0
2.12618,-0.156883,0.012391
2.12532,-0.15682,0.062021
2.07576,-0.255606,-0.0486665
2.12768,-0.375934,-1.00752
2.12534,-0.164282,-0.0372085
2.07541,-0.262922,0
2.12562,-0.164304,0.012391
2.11679,-0.163621,0.0617883
2.07088,-0.262348,-0.0485734
2.11672,-0.171794,-0.0370689
2.06645,-0.269853,0
2.12099,-0.172141,0.0123678
2.07383,-0.270815,0.0486665
2.11216,-0.171424,0.0616719
2.06986,-0.270298,-0.0485734
2.12015,-0.178779,-0.0371387
2.06163,-0.275813,0
2.11645,-0.178468,0.0123445
2.11161,-0.178059,0.0616719
2.069,-0.276799,-0.0485734
2.11553,-0.185829,-0.0370689
2.06066,-0.283008,0
2.11582,-0.185854,0.0123445
2.06802,-0.284019,0.0485734
2.10699,-0.185079,0.0615556
2.0703,-0.284332,-0.0973431
2.06406,-0.283475,-0.0484804
2.11487,-0.193213,-0.0370689
2.05966,-0.290199,0
2.10719,-0.192511,0.012298
2.06306,-0.290678,0.0484804
2.10235,-0.192069,0.0614392
2.07721,-0.292672,-0.0977154
2.10548,-0.192355,-0.0861366
2.11017,-0.200584,-0.0369991
2.05858,-0.297746,0
2.10647,-0.200233,0.012298
2.09765,-0.199395,0.0613228
2.10617,-0.200204,-0.13559
2.10547,-0.207556,-0.0369293
2.05357,-0.304344,0
2.10178,-0.207192,0.0122748
2.09694,-0.206716,0.0613228
2.10007,-0.207024,-0.0859738
2.10079,-0.214132,-0.0368595
2.04464,-0.309953,0
2.10108,-0.214161,0.0122748
2.08829,-0.212857,0.0610901
2.10078,-0.214131,-0.135334
2.10397,-0.22225,-0.0369293
2.04349,-0.317445,0
2.0963,-0.22144,0.0122515
2.07954,-0.21967,0.0608574
2.09998,-0.221829,-0.135334
2.09531,-0.227994,-0.0367897
2.03853,-0.323237,0
2.08367,-0.226727,0.0121818
2.08282,-0.226634,0.0609738
2.09053,-0.23486,-0.0367199
2.04134,-0.330991,0
2.08684,-0.234445,0.012205
2.08202,-0.233903,0.0609738
2.08572,-0.241695,-0.0366501
2.03228,-0.336806,0
2.08601,-0.241728,0.012205
2.08119,-0.24117,0.0609738
2.08482,-0.249338,-0.0366501
2.08511,-0.249372,0.012205
2.07632,-0.248321,0.0608574
2.0839,-0.256978,-0.0366501
2.07624,-0.256034,0.0121585
2.06746,-0.254951,0.0606247
2.07911,-0.263021,-0.0365802
2.07939,-0.263057,0.0121818
2.07061,-0.261946,0.060741
2.06628,-0.26873,-0.0363708
2.06656,-0.268766,0.012112
2.06176,-0.268141,0.0605083
2.07326,-0.277,-0.0365104
2.06561,-0.275978,0.012112
2.05684,-0.274807,0.060392
2.06789,-0.276283,-0.0849968
2.06039,-0.282605,-0.036301
2.06067,-0.282643,0.0120888
2.0633,-0.290713,-0.0363708
2.05566,-0.289636,0.0120655
2.05837,-0.296982,-0.036301
2.05331,-0.303939,-0.0362312
2.04568,-0.302809,0.012019
2.05229,-0.310746,-0.0362312
2.04329,-0.316683,-0.0360916
2.03961,-0.316113,0.0119958
2.04612,-0.32444,-0.0361614
2.04503,-0.331223,-0.0361614
2.03592,-0.337409,-0.0360218
