1.73198,0.621162,-0.171761
1.73049,0.61348,-0.171389
1.72887,0.606118,-0.171017
1.74059,0.596616,-0.171761
1.74266,0.590536,-0.171761
1.75206,0.587592,-0.172504
1.75798,0.582418,-0.172876
1.75506,0.581449,-0.107673
1.76,0.576279,-0.172876
1.75708,0.57532,-0.107673
1.75822,0.568905,-0.172504
1.76287,0.570412,-0.107906
1.76768,0.565499,-0.173248
1.77617,0.568213,-0.108604
1.76974,0.559017,-0.173248
1.78204,0.562903,-0.108836
1.77919,0.555518,-0.173991
1.78009,0.5558,-0.108604
1.77731,0.54813,-0.17362
1.78202,0.549582,-0.108604
1.78312,0.542773,-0.173991
1.72624,0.619103,-0.149711
1.79166,0.545373,-0.109069
1.78119,0.535398,-0.17362
1.79738,0.540265,-0.109301
1.79832,0.533711,-0.175107
1.73052,0.607037,-0.149711
1.79925,0.533989,-0.109301
1.80008,0.527744,-0.175107
1.80868,0.530266,-0.109766
1.80191,0.521457,-0.175107
1.80285,0.521728,-0.109301
1.81528,0.518468,-0.0219784
1.80372,0.515164,-0.175107
1.748,0.593027,-0.150687
1.81234,0.517626,-0.109766
1.81323,0.511042,-0.0219318
1.74936,0.586684,-0.234859
1.80934,0.509945,-0.175478
1.74628,0.585654,-0.150362
1.81797,0.512379,-0.109999
1.81886,0.505783,-0.0219784
1.81111,0.503627,-0.175478
1.74832,0.579556,-0.150362
1.8236,0.507101,-0.110232
1.81667,0.498689,-0.0219318
1.74954,0.573528,-0.234354
1.81661,0.498673,-0.17585
1.75781,0.576238,-0.151012
1.82527,0.501051,-0.110232
1.82621,0.494116,-0.0220249
1.7705,0.573222,-0.236879
1.82611,0.494091,-0.176594
1.75991,0.569791,-0.151012
1.8271,0.494357,-0.110232
1.83556,0.490121,-0.0221181
1.77239,0.567347,-0.236879
1.82389,0.487005,-0.176222
1.82397,0.487025,0.0219784
1.76938,0.566382,-0.151663
1.83258,0.489325,-0.110464
1.83726,0.483712,-0.0221181
1.77815,0.562355,-0.237384
1.82943,0.48165,-0.176594
1.77135,0.560204,-0.151663
1.83814,0.483943,-0.110697
1.8429,0.477978,-0.0221646
1.78398,0.557016,-0.237889
1.82733,0.473942,-0.176222
1.77719,0.554896,-0.151989
1.84377,0.478205,-0.110929
1.77685,0.554788,-0.0975542
1.84455,0.471543,-0.0221646
1.78592,0.550786,-0.237889
1.83669,0.469533,-0.176966
1.77531,0.547514,-0.151663
1.84543,0.471766,-0.110929
1.77877,0.548583,-0.0975542
1.85386,0.467378,-0.0222578
1.79153,0.546017,-0.238394
1.8421,0.464413,-0.177337
1.84223,0.464445,0.0221181
1.78474,0.543948,-0.152314
1.85472,0.467596,-0.111394
1.85936,0.461868,-0.0223043
1.84371,0.45798,-0.177337
1.74098,0.618224,-0.129189
1.79045,0.538863,-0.15264
1.85247,0.460155,-0.111162
1.78247,0.536461,-0.0975542
1.85708,0.454425,-0.0222578
1.72983,0.607473,-0.197487
1.84917,0.452488,-0.177709
1.79232,0.532611,-0.15264
1.85794,0.454636,-0.111394
1.7917,0.525628,-0.0543411
1.85865,0.44794,-0.0222578
1.80096,0.528343,-0.238899
1.85073,0.446031,-0.177709
1.79799,0.527474,-0.152965
1.85952,0.448148,-0.111394
1.79383,0.526254,-0.0979729
1.8012,0.521595,-0.0545738
1.8641,0.442373,-0.0223043
1.8066,0.523158,-0.239405
1.85616,0.440488,-0.178081
1.86021,0.44145,0.0222578
1.79982,0.521195,-0.152965
1.86884,0.443499,-0.111859
1.7995,0.521101,-0.0981823
1.87342,0.437683,-0.0223974
1.81223,0.517938,-0.23991
1.73986,0.590604,-0.197915
1.86156,0.434912,-0.178453
1.74566,0.592573,-0.12891
1.80546,0.516004,-0.153291
1.87038,0.436972,-0.111859
1.80899,0.517011,-0.0986009
1.8048,0.509007,-0.0545738
1.88273,0.432933,-0.0224906
1.80939,0.510299,-0.0109264
1.86307,0.428411,-0.178453
1.86714,0.429348,0.0223043
1.74772,0.586476,-0.12891
1.81493,0.511862,-0.153942
1.87578,0.431335,-0.112092
1.80694,0.509609,-0.0983916
1.81033,0.504093,-0.0546902
1.88806,0.427572,-0.0225371
1.75139,0.581254,-0.198772
1.86836,0.423111,-0.178824
1.74966,0.580678,-0.12891
1.81661,0.505842,-0.153942
1.87331,0.424232,-0.111859
1.80862,0.503615,-0.0983916
1.81199,0.498086,-0.0546902
1.88556,0.420438,-0.0224906
1.82044,0.500409,-0.0109729
1.87364,0.417779,-0.179196
1.87776,0.418697,0.0223974
1.75536,0.576117,-0.129189
1.81828,0.499815,-0.153942
1.8864,0.420624,-0.112557
1.81413,0.498673,-0.0986009
1.82153,0.493532,-0.0549229
1.89491,0.415236,-0.0225837
1.82613,0.494779,-0.0109961
1.87905,0.411761,-0.179568
1.88319,0.412667,0.022444
1.8278,0.495232,-0.154593
1.88793,0.413707,-0.112557
1.82365,0.494109,-0.0990196
1.89634,0.408619,-0.0225837
1.82784,0.488402,-0.0109961
1.76117,0.564094,-0.199201
1.88437,0.406039,-0.17994
1.88852,0.406934,0.0224906
1.76704,0.565975,-0.129747
1.82952,0.488849,-0.154593
1.88936,0.407114,-0.112557
1.82923,0.488772,-0.099229
1.82493,0.480804,-0.0549229
1.90167,0.402825,-0.0226303
1.8334,0.483037,-0.0110194
1.87798,0.397808,-0.179196
1.89385,0.401168,0.0225371
1.76901,0.559803,-0.129747
1.83507,0.483475,-0.154918
1.88686,0.399689,-0.112325
1.77141,0.560562,-0.0865479
1.82706,0.481366,-0.0990196
1.90691,0.397333,-0.0226768
1.84274,0.478968,-0.0110659
1.88709,0.393203,-0.17994
1.89125,0.39407,0.0224906
1.8328,0.476385,-0.154593
1.896,0.395059,-0.11279
1.77326,0.554685,-0.0865479
1.82865,0.475305,-0.0990196
1.90829,0.390675,-0.0226768
1.84052,0.47154,-0.0110426
1.77068,0.547103,-0.199629
1.88845,0.386614,-0.17994
1.90437,0.389873,0.0226303
1.77659,0.548928,-0.130026
1.83445,0.469984,-0.154593
1.84027,0.471476,0.0331596
1.90128,0.38924,-0.113022
1.77518,0.548493,-0.0865479
1.83803,0.470902,-0.0994383
1.84141,0.464923,-0.055272
1.91356,0.384799,-0.0227234
1.84668,0.466254,-0.242435
1.84216,0.465112,-0.0110426
1.90541,0.38316,-0.181427
1.90572,0.383222,0.0226303
1.78231,0.543887,-0.130305
1.84381,0.46553,-0.155243
1.84579,0.466028,0.0332294
1.90654,0.383387,-0.113255
1.78091,0.543458,-0.086734
1.84354,0.46546,-0.0996477
1.8469,0.459457,-0.0553884
1.91882,0.378892,-0.02277
1.77486,0.534849,-0.288393
1.84765,0.459644,-0.0110659
1.78208,0.537022,-0.200486
1.90283,0.375734,-0.181055
1.91489,0.378117,0.0227234
1.78802,0.538813,-0.130584
1.85316,0.461015,-0.155894
1.85128,0.460547,0.0332992
1.90787,0.376729,-0.113255
1.78662,0.538391,-0.0869201
1.8529,0.46095,-0.100066
1.8571,0.454772,-0.0111124
1.78403,0.530488,-0.200486
1.90419,0.368758,-0.181055
1.91234,0.370336,0.0226768
1.78616,0.531119,-0.130305
1.85484,0.45422,-0.155894
1.85684,0.454711,0.033369
1.91315,0.370494,-0.113487
1.78858,0.531839,-0.0869201
1.85846,0.455107,-0.100276
1.84999,0.446876,-0.0553884
1.79742,0.528329,-0.291467
1.85074,0.447058,-0.0110659
1.78569,0.524881,-0.200486
1.91316,0.364264,-0.181799
1.92135,0.365823,0.02277
1.79547,0.527756,-0.130863
1.85626,0.448391,-0.155894
1.86215,0.449814,0.0334388
1.91823,0.365229,-0.11372
1.79791,0.528472,-0.0872924
1.85988,0.449266,-0.100276
1.7917,0.526646,-0.0434555
1.85543,0.44134,-0.0555047
1.85832,0.442029,-0.382037
1.92655,0.359848,-0.0228165
1.79167,0.519849,-0.290237
1.86785,0.444297,-0.0111589
1.79897,0.521968,-0.201771
1.91834,0.358314,-0.18217
1.92262,0.359113,0.02277
1.7973,0.521485,-0.130863
1.86557,0.443754,-0.156545
1.86371,0.443311,0.0334388
1.92735,0.359997,-0.114185
1.7959,0.521079,-0.0871063
1.85755,0.441846,-0.100066
1.79737,0.521503,-0.0435486
1.86085,0.435773,-0.0556211
1.93173,0.353842,-0.0228631
1.79727,0.51468,-0.290852
1.86992,0.437897,-0.244455
1.86939,0.437774,-0.0111589
1.79313,0.513496,-0.200914
1.91958,0.351616,-0.18217
1.92386,0.3524,0.02277
1.79911,0.515209,-0.130863
1.86711,0.437239,-0.156545
1.86914,0.437715,0.0335086
1.92073,0.351828,-0.11372
1.8054,0.517007,-0.0874785
1.86686,0.437182,-0.100485
1.8664,0.429522,-0.0557375
1.94095,0.347833,-0.0229562
1.79923,0.507776,-0.290852
1.86716,0.429696,-0.0111356
1.79892,0.507688,-0.201342
1.92483,0.344946,-0.182542
1.94095,0.347833,0.0229562
1.80876,0.510465,-0.131421
1.86877,0.430067,-0.156545
1.87081,0.430535,0.0335086
1.93386,0.346564,-0.114418
1.80352,0.508986,-0.0872924
1.86463,0.429115,-0.100276
1.94991,0.343119,-0.0230493
1.80843,0.504242,-0.292082
1.8763,0.425597,-0.0111821
1.80434,0.503101,-0.201771
1.92983,0.339586,-0.182914
1.93809,0.341039,0.0229097
1.81804,0.506922,-0.131979
1.88178,0.426838,-0.157522
1.87995,0.426424,0.0336482
1.93888,0.341178,-0.11465
1.80896,0.50439,-0.0874785
1.87766,0.425904,-0.100904
1.87319,0.417677,-0.0558538
1.86821,0.416568,-0.382821
1.94721,0.335291,-0.0230028
1.81408,0.498659,-0.292697
1.88176,0.419588,-0.0112054
1.81,0.497539,-0.202199
1.93106,0.332511,-0.182914
1.93933,0.333934,0.0229097
1.81219,0.49814,-0.131421
1.87555,0.418204,-0.156871
1.8815,0.419531,0.0336482
1.94405,0.334747,-0.114883
1.81465,0.498816,-0.0876646
1.88311,0.419889,-0.101113
1.81227,0.498161,-0.0437347
1.87861,0.411665,-0.0559702
1.88122,0.412237,-0.385174
1.94843,0.328153,-0.0230028
1.81208,0.490973,-0.292082
1.8911,0.414401,-0.0112519
1.81565,0.491942,-0.202628
1.94405,0.327416,-0.184029
1.94843,0.328153,0.0230028
1.82171,0.493582,-0.131979
1.87707,0.411327,-0.156871
1.88303,0.412632,0.0336482
1.95314,0.328946,-0.115348
1.82032,0.493207,-0.0878508
1.88073,0.41213,-0.100904
1.81794,0.492562,-0.0438278
1.8838,0.406605,-0.0560866
1.95339,0.322682,-0.0230493
1.81743,0.4863,-0.292697
1.89239,0.408458,-0.0112519
1.95734,0.323334,0.0230959
1.8271,0.488888,-0.132258
1.88615,0.407111,-0.157522
1.88822,0.407559,0.033718
1.95416,0.322809,-0.115348
1.82572,0.488519,-0.0880369
1.88983,0.407905,-0.101322
1.82334,0.487882,-0.0439208
1.95846,0.316499,-0.0230959
1.82294,0.480961,-0.293312
1.89032,0.401111,-0.245971
1.88989,0.401019,-0.0112286
1.81888,0.479889,-0.202628
1.95011,0.315151,-0.184401
1.9624,0.317137,0.0231425
1.83652,0.484543,-0.132816
1.88756,0.400524,-0.157522
1.88963,0.400965,0.033718
1.95528,0.315985,-0.115348
1.82742,0.482142,-0.0880369
1.89515,0.402134,-0.101532
1.82504,0.481514,-0.0439208
1.96355,0.309943,-0.0231425
1.83234,0.476265,-0.294542
1.89566,0.394989,-0.246476
1.89526,0.394906,-0.0112519
1.95912,0.309243,-0.185145
1.9596,0.309319,0.0230959
1.83828,0.477809,-0.132816
1.89291,0.394416,-0.157847
1.90284,0.396484,0.0339275
1.96037,0.30944,-0.11558
1.88879,0.393557,-0.101113
1.83066,0.475828,-0.0440139
1.89187,0.387658,-0.0562029
1.96852,0.30404,-0.023189
1.83774,0.471167,-0.295157
1.9044,0.390224,-0.0112984
1.82989,0.469154,-0.203484
1.96407,0.303352,-0.185516
1.96852,0.30404,0.023189
1.83212,0.469728,-0.132258
1.90202,0.389737,-0.158498
1.90806,0.390974,0.0339973
1.96927,0.304156,-0.116045
1.83461,0.470365,-0.088223
1.89791,0.388894,-0.101532
1.8361,0.470748,-0.0441069
1.96962,0.296823,-0.023189
1.83179,0.462494,-0.293927
1.90615,0.38331,-0.247486
1.90974,0.384031,-0.0113216
1.83545,0.463418,-0.203913
1.96517,0.296152,-0.185516
1.97358,0.297419,0.0232356
1.84157,0.464964,-0.132816
1.89562,0.381192,-0.157847
1.91732,0.385555,0.0341369
1.97432,0.297532,-0.116278
1.83632,0.463638,-0.088223
1.90324,0.382723,-0.101741
1.84945,0.466952,-0.0443861
1.90624,0.377099,-0.056552
1.90079,0.376022,-0.387528
1.97846,0.291801,-0.0232822
1.8409,0.458647,-0.295157
1.91124,0.378089,-0.247991
1.91093,0.378028,-0.0113216
1.8369,0.457649,-0.203913
1.9745,0.291217,0.0232356
1.84689,0.46014,-0.133095
1.90854,0.377555,-0.158823
1.91068,0.377977,0.0339973
1.84552,0.459798,-0.0885953
1.90835,0.377517,-0.10195
1.84314,0.459205,-0.0442
1.97947,0.284893,-0.0232822
1.85401,0.455045,-0.297001
1.91645,0.372172,-0.248496
1.91224,0.371356,-0.0113216
1.97498,0.284247,-0.18626
1.85639,0.455629,0.0444791
1.98343,0.285463,0.0233287
1.85237,0.454642,-0.133374
1.90593,0.370131,-0.158498
1.91591,0.372068,0.0340671
1.98416,0.285568,-0.116743
1.84712,0.453354,-0.0885953
1.91358,0.371615,-0.10216
1.84474,0.452769,-0.0442
1.99233,0.279649,-0.0234219
1.92139,0.366176,-0.0113681
1.84391,0.445749,-0.204341
1.97596,0.277351,-0.18626
1.85797,0.449146,0.0444791
1.98441,0.278537,0.0233287
1.85394,0.448173,-0.133374
1.91505,0.364968,-0.159149
1.92113,0.366127,0.0341369
1.78842,0.526022,-0.119473
1.98514,0.27864,-0.116743
1.84869,0.446903,-0.0885953
1.91878,0.36568,-0.102369
1.85408,0.448206,-0.0443861
1.91407,0.357518,-0.0566684
1.98542,0.271263,-0.0233287
1.85337,0.440852,-0.296387
1.93058,0.360601,-0.0114146
1.8494,0.439908,-0.20477
1.9888,0.271724,-0.187375
1.86738,0.444184,0.0446652
1.98542,0.271263,0.0233287
1.85557,0.441375,-0.133374
1.92029,0.358679,-0.159474
1.93032,0.360552,0.0342765
1.798,0.521688,-0.119984
1.99406,0.272444,-0.117208
1.85809,0.441974,-0.0889675
1.91619,0.357912,-0.10216
1.79636,0.521212,-0.076204
1.8596,0.442333,-0.0444791
1.80314,0.516703,-0.0327407
1.99424,0.265734,-0.0234219
1.85867,0.435606,-0.297001
1.92804,0.353515,-0.249506
1.93963,0.35564,-0.0114611
1.85472,0.434681,-0.205198
1.99363,0.265654,-0.187747
1.86884,0.437989,0.0446652
1.99424,0.265734,0.0234219
1.86091,0.43613,-0.133653
1.92147,0.35231,-0.159474
1.9315,0.354149,0.0342765
1.85565,0.434898,-0.0887814
1.92522,0.352997,-0.102578
1.86495,0.437077,-0.0445722
1.80494,0.510405,-0.0327407
1.92827,0.346603,-0.0570174
1.92637,0.346261,-0.39145
1.99912,0.259285,-0.0234684
1.86403,0.430003,-0.297616
1.92536,0.34608,-0.249001
1.93299,0.347451,-0.0114146
1.85623,0.428203,-0.205198
1.87815,0.433261,0.0448513
2.00309,0.2598,0.023515
1.86242,0.429631,-0.133653
1.92661,0.346305,-0.1598
1.93666,0.348112,0.0343463
1.86884,0.431112,-0.0893398
1.93037,0.346981,-0.102788
1.80371,0.51006,-0.0763669
1.86646,0.430564,-0.0445722
2.00402,0.252457,-0.023515
1.87331,0.424917,-0.298846
1.93425,0.340365,-0.0114146
2.00339,0.252377,-0.188491
1.87973,0.426374,0.0448513
2.00006,0.251957,0.0234684
1.87177,0.424568,-0.134211
1.93572,0.340624,-0.160451
1.93793,0.341012,0.0343463
2.00869,0.253045,-0.117906
1.88095,0.426652,0.112325
1.93268,0.340088,0.0799491
1.87041,0.42426,-0.0893398
1.93556,0.340596,-0.102997
1.80942,0.504519,-0.0765297
1.86803,0.423721,-0.0445722
1.81231,0.498853,-0.0328105
1.93647,0.334138,-0.393019
2.01676,0.24727,-0.0236547
1.93946,0.334654,-0.250516
1.94719,0.335988,-0.0114843
2.00817,0.246216,-0.188862
1.88113,0.420138,0.0448513
2.00485,0.245809,0.023515
1.87316,0.418358,-0.134211
1.9447,0.335558,-0.161102
1.94693,0.335943,0.034486
1.81657,0.500026,-0.120752
2.00952,0.246382,-0.117906
1.8718,0.418055,-0.0893398
1.93668,0.334175,-0.102997
1.81108,0.498516,-0.0765297
1.87333,0.418395,-0.0446652
1.8179,0.493572,-0.0328803
1.93573,0.327058,-0.0571338
2.01761,0.240229,-0.0236547
1.88001,0.413004,-0.299461
1.94844,0.329205,-0.251526
1.95624,0.330523,-0.0115308
1.87615,0.412155,-0.206912
1.88649,0.414427,0.0449444
2.0057,0.23881,0.023515
1.87461,0.411818,-0.134211
1.94193,0.328104,-0.160776
1.95203,0.329812,0.0345558
1.81831,0.493683,-0.120752
1.88381,0.413838,0.112325
1.87715,0.412376,-0.0895259
1.94178,0.328079,-0.103207
1.88259,0.413569,-0.0448513
1.82356,0.487939,-0.0329501
1.94086,0.320612,-0.0572502
1.94655,0.321551,-0.394588
2.0145,0.232373,-0.0236081
1.88152,0.406111,-0.299461
1.95349,0.322698,-0.0115076
1.87765,0.405276,-0.206912
2.01779,0.232752,-0.189606
1.888,0.40751,0.0449444
2.01053,0.231915,0.0235616
1.88391,0.406627,-0.134769
1.94312,0.320984,-0.160776
1.94928,0.322002,0.034486
1.8201,0.487015,-0.120752
1.89312,0.408616,0.11279
1.88256,0.406336,-0.089712
1.94691,0.32161,-0.103416
1.888,0.40751,-0.0449444
1.82525,0.481571,-0.0329501
1.95776,0.316387,-0.0577156
2.02325,0.226229,-0.0237012
1.95466,0.315887,-0.252031
1.9625,0.317154,-0.0115541
1.89072,0.401196,-0.208197
1.89723,0.402578,0.0451305
2.0153,0.225341,0.0236081
1.88532,0.400049,-0.134769
1.95997,0.316744,-0.162078
1.95039,0.315197,0.034486
1.82565,0.481677,-0.121008
1.89063,0.401177,0.112557
1.95302,0.315621,0.0806004
1.89178,0.401421,-0.0900843
1.95196,0.31545,-0.103625
1.82788,0.482265,-0.0770182
1.88941,0.400917,-0.0449444
1.95485,0.309269,-0.0575993
2.02797,0.21995,-0.0237478
1.95959,0.310019,-0.0115308
1.88426,0.393299,-0.20734
1.89464,0.395467,0.0450374
2.02399,0.219519,0.0237012
1.89445,0.395426,-0.135328
1.96101,0.310243,-0.162078
1.96328,0.310602,0.0346954
1.82724,0.475621,-0.121008
2.02865,0.220024,-0.118836
1.89586,0.395721,0.11279
1.89701,0.395962,-0.0902704
1.96089,0.310224,-0.104044
1.82947,0.476201,-0.0770182
1.89073,0.39465,-0.0449444
1.83624,0.471124,-0.0330898
1.95751,0.302689,-0.396157
2.03668,0.213704,-0.0238409
1.90109,0.389891,-0.301921
1.96069,0.303181,-0.252536
1.96857,0.304399,-0.0115773
1.88951,0.387518,-0.207768
2.028,0.212794,-0.190349
1.89601,0.388851,0.0450374
2.02475,0.212452,0.0237012
1.89191,0.388009,-0.135049
1.9604,0.303136,0.0346256
1.83276,0.470231,-0.121264
2.03734,0.213774,-0.119301
1.90114,0.389903,0.113022
1.89447,0.388535,-0.0900843
1.96196,0.303377,-0.104044
1.83886,0.471798,-0.0773438
1.89993,0.389654,-0.0451305
1.84554,0.466994,-0.0332294
1.96086,0.296552,-0.0577156
2.04136,0.207353,-0.0238875
1.96953,0.297863,-0.253547
1.84192,0.466076,0.0110426
1.96957,0.297869,-0.0115773
1.89469,0.382036,-0.208197
1.90513,0.384142,0.0452235
2.0334,0.206545,0.0237944
1.89709,0.382521,-0.135328
1.97096,0.298079,-0.162729
1.9693,0.297829,0.0347652
1.83818,0.465129,-0.121519
1.90634,0.384385,0.113255
1.96402,0.297029,0.0809261
1.9075,0.384619,-0.0906426
1.959,0.296271,-0.103835
1.83655,0.464717,-0.077181
1.90905,0.384932,-0.0453166
1.84716,0.46055,-0.0332294
1.9698,0.290875,-0.0579483
2.04207,0.200228,-0.0238875
1.90369,0.376943,-0.301921
1.98643,0.293331,-0.0116703
1.90381,0.376966,-0.209053
1.91038,0.378267,0.0453166
2.03411,0.199447,0.0237944
1.90233,0.376673,-0.135607
1.97198,0.291198,-0.162729
1.97429,0.291538,0.034835
1.84366,0.459677,-0.121775
1.90767,0.377729,0.113255
1.969,0.290757,0.0810889
1.90883,0.37796,-0.0906426
1.96793,0.2906,-0.104253
1.84203,0.459271,-0.0773438
1.91431,0.379044,-0.0454097
1.85272,0.454729,-0.0332992
1.97876,0.284791,-0.0581811
2.05473,0.193867,-0.0240272
1.97947,0.284893,-0.254557
1.97561,0.284337,-0.0116006
1.90518,0.369984,-0.209053
2.04994,0.193415,-0.192208
1.91961,0.372786,0.0455027
2.04279,0.19274,0.0238875
1.91153,0.371218,-0.136165
1.97699,0.284535,-0.163054
1.85222,0.454605,0.0555047
1.97534,0.284299,0.034835
1.84533,0.452915,-0.121775
1.91413,0.371721,-0.0908288
1.97294,0.283952,-0.104463
1.91176,0.371261,-0.0453166
1.97574,0.277672,-0.0580647
2.05935,0.187415,-0.0240738
1.98433,0.278879,-0.255062
1.85447,0.448644,0.0110891
1.98842,0.279455,-0.0116703
2.05057,0.186617,-0.192208
1.92083,0.366419,0.0455027
2.05138,0.18669,0.0239806
1.91667,0.365625,-0.136444
1.9842,0.27886,0.0349746
1.85458,0.448671,-0.122287
2.05601,0.187111,-0.120232
1.97889,0.278115,0.0814146
1.91142,0.364623,-0.0906426
1.98178,0.278521,-0.104881
1.84908,0.447339,-0.0775067
1.91691,0.365669,-0.0454097
1.85577,0.442108,-0.0332992
1.9767,0.270774,-0.0580647
2.06398,0.180575,-0.0241203
1.92308,0.359895,-0.30438
1.85603,0.442168,0.0110891
1.98939,0.272513,-0.0116703
1.90765,0.357008,-0.209053
2.05518,0.179805,-0.19258
1.91817,0.358976,0.0454097
1.91794,0.358933,-0.136444
1.85916,0.442915,0.0556211
1.98912,0.272476,0.0350444
1.85614,0.442195,-0.122287
1.91661,0.358684,-0.0908288
1.9867,0.272144,-0.105091
1.91817,0.358976,-0.0454097
1.86509,0.437453,-0.0334388
1.98556,0.264929,-0.0582974
1.92821,0.353893,-0.304995
1.86535,0.437513,0.0111356
1.99826,0.266624,-0.0117168
1.92454,0.353218,-0.210767
1.92728,0.353722,0.0455958
2.05264,0.172364,0.0239806
1.9231,0.352955,-0.136723
1.99562,0.266272,-0.164356
1.86459,0.437335,0.0557375
1.99402,0.266059,0.0351142
1.86544,0.437536,-0.122798
1.92571,0.353434,-0.091201
1.99159,0.265735,-0.1053
1.85994,0.436245,-0.0778323
1.92728,0.353722,-0.0455958
1.86668,0.430615,-0.0334388
1.99444,0.258679,-0.0585302
2.0692,0.166121,-0.0241669
1.9256,0.346124,-0.30438
1.87083,0.431572,0.0111589
1.99922,0.259299,-0.0117168
1.9219,0.345459,-0.210339
2.06832,0.16605,-0.193695
1.93643,0.348071,0.0457819
1.92831,0.346611,-0.137002
1.99658,0.258956,-0.164356
1.86618,0.430498,0.0557375
1.99498,0.258749,0.0351142
1.86704,0.430696,-0.122798
1.93486,0.347788,-0.0915733
1.99255,0.258434,-0.1053
1.86153,0.429425,-0.0778323
1.9325,0.347363,-0.0456888
1.86818,0.424096,-0.0334388
1.99533,0.251715,-0.0585302
2.08173,0.159815,-0.0243066
2.00382,0.252786,-0.257082
1.86843,0.424153,0.0111356
2.00011,0.252318,-0.0117168
1.92701,0.339437,-0.210767
2.07286,0.159134,-0.194067
1.94158,0.342002,0.0458749
2.06578,0.15859,0.0241203
1.9413,0.341954,-0.137839
1.87547,0.425751,0.0559702
2.00381,0.252785,0.0352539
1.86463,0.423292,-0.122543
1.99849,0.252113,0.0820659
1.94393,0.342418,-0.0919455
2.00533,0.252977,-0.105928
1.86691,0.423809,-0.0779952
1.9337,0.340615,-0.0456888
2.00409,0.246072,-0.0587629
2.08624,0.153204,-0.0243531
1.87763,0.419701,0.0111821
2.00888,0.24666,-0.0117633
1.93205,0.333723,-0.211195
2.07735,0.152551,-0.194439
1.93876,0.334882,0.0457819
2.07028,0.152032,0.0241669
1.94242,0.335515,-0.137839
1.87687,0.41953,0.0559702
2.00464,0.246139,0.0352539
1.87382,0.418848,-0.123054
2.00328,0.245972,0.0822287
1.94506,0.33597,-0.0919455
2.01409,0.247299,-0.106347
1.93482,0.334201,-0.0456888
1.87493,0.41223,-0.0335086
2.00097,0.238602,-0.0586465
1.87909,0.413144,0.0111821
2.00576,0.239173,-0.0117401
1.92928,0.326314,-0.210767
2.0739,0.145022,-0.194067
1.94386,0.32878,0.0458749
1.94358,0.328733,-0.137839
2.01497,0.240272,-0.165658
1.88223,0.413835,0.0560866
2.00946,0.239614,0.0353237
1.87527,0.412305,-0.123054
2.08337,0.145684,-0.121627
1.94622,0.329179,-0.0919455
2.00701,0.239322,-0.105928
1.87756,0.412809,-0.0783208
1.9478,0.329446,-0.045968
1.88417,0.407372,-0.0336482
2.01371,0.232994,-0.0589956
1.94969,0.322769,-0.307455
1.88443,0.407427,0.0112054
2.02247,0.234008,-0.0118331
1.93825,0.320876,-0.211624
2.08234,0.138309,-0.194811
1.94894,0.322645,0.045968
1.94865,0.322598,-0.138118
2.01976,0.233694,-0.165984
1.88757,0.408107,0.0562029
2.01425,0.233057,0.0353935
1.8845,0.407444,-0.123566
1.9513,0.323035,-0.0921316
2.01577,0.233232,-0.106347
1.87899,0.406252,-0.0783208
1.94894,0.322645,-0.045968
1.88949,0.401625,-0.033718
2.02643,0.227301,-0.0593447
1.88975,0.401679,0.0112286
2.03123,0.227839,-0.0118796
1.95114,0.316016,-0.212909
2.08678,0.13129,-0.195183
1.954,0.316479,0.046061
1.94977,0.315794,-0.138118
2.02453,0.227087,-0.166309
1.88898,0.401516,0.0562029
2.01903,0.226471,0.0354633
1.88982,0.401693,-0.123822
1.9603,0.3175,-0.0925039
2.02054,0.22664,-0.106556
1.95795,0.317119,-0.0461541
1.89088,0.395026,-0.033718
2.03118,0.220657,-0.0594611
1.9441,0.307915,-0.551012
2.10415,0.125009,-0.0245394
1.9597,0.310386,-0.308685
1.89114,0.39508,0.0112286
2.02406,0.219883,-0.0118331
1.95223,0.309203,-0.212909
2.09518,0.124477,-0.195926
1.95904,0.310282,0.0461541
2.09217,0.124298,0.0243997
1.96268,0.310858,-0.138955
2.02531,0.220019,-0.166309
1.8982,0.396554,0.0564356
2.02378,0.219853,0.0355331
2.02241,0.219704,0.08288
1.96534,0.31128,-0.09269
2.02926,0.220448,-0.106975
1.89352,0.395576,-0.0788093
1.95904,0.310282,-0.0461541
1.90009,0.390031,-0.0338577
2.02797,0.213147,-0.0593447
1.94516,0.301126,-0.551012
1.95669,0.302911,0
2.10856,0.117886,-0.024586
1.90426,0.390888,0.0112984
2.02083,0.212398,-0.0118098
1.9533,0.302386,-0.212909
2.09958,0.117384,-0.196298
1.96407,0.304053,0.0462471
2.10058,0.11744,0.0244928
1.9677,0.304615,-0.139234
1.90349,0.390729,0.056552
2.02852,0.213205,0.0356029
1.88866,0.387687,-0.123566
2.10514,0.117695,-0.12279
1.96127,0.303621,0.11558
1.97037,0.305028,-0.0928761
2.03796,0.214198,-0.107393
1.89097,0.38816,-0.0786465
1.96407,0.304053,-0.0462471
1.89738,0.383268,-0.0337879
2.03658,0.207586,-0.0595774
1.9461,0.295014,-0.551012
1.90156,0.384112,0.0112751
2.03343,0.207265,-0.0118796
1.95817,0.296844,-0.213337
2.09994,0.110788,-0.196298
1.97292,0.29908,0.0464332
2.10094,0.11084,0.0244928
1.96865,0.298432,-0.139234
1.90471,0.384748,0.056552
2.03713,0.207643,0.0357425
1.90161,0.384123,-0.124333
1.97132,0.298837,-0.0928761
2.03863,0.207795,-0.107393
1.90002,0.3838,-0.0789721
1.96106,0.297282,-0.0461541
1.90263,0.377422,-0.0338577
2.04127,0.200869,-0.0596938
1.95473,0.289348,-0.553169
1.96657,0.291101,0
1.90681,0.378252,0.0112984
2.0421,0.200951,-0.011926
1.96313,0.290591,-0.213766
2.10429,0.103654,-0.19667
1.97,0.291607,0.0463402
2.1093,0.103901,0.024586
1.97362,0.292144,-0.139513
1.91388,0.379654,0.0567847
2.04581,0.201315,0.0358821
1.90294,0.377484,-0.124333
2.11784,0.104322,-0.123487
2.03647,0.200396,0.0833685
2.03934,0.200679,-0.107393
1.90134,0.377167,-0.0789721
1.97,0.291607,-0.0463402
1.90793,0.371209,-0.0339275
2.04996,0.194138,-0.0599265
1.96341,0.283281,-0.555325
1.97158,0.284461,0
1.91604,0.372787,0.0113449
2.05079,0.194217,-0.0119725
1.97205,0.284528,-0.214623
2.11659,0.0964836,-0.197785
1.97897,0.285526,0.0465263
2.11366,0.0963501,0.0246325
1.97863,0.285477,-0.139792
2.04799,0.193953,-0.167936
2.04255,0.193437,0.0358123
1.91215,0.37203,-0.124845
1.98527,0.286435,-0.0934345
2.05199,0.194331,-0.108021
1.97501,0.284955,-0.0464332
1.917,0.366382,-0.0340671
2.05855,0.188067,-0.0601592
1.96434,0.276769,-0.555325
1.98038,0.279029,-0.311144
2.05084,0.187363,-0.262133
1.91334,0.365681,0.0113216
2.05142,0.187416,-0.0119725
1.97299,0.277988,-0.214623
2.11292,0.0892965,-0.197413
1.98386,0.27952,0.0466193
1.98747,0.280028,-0.14035
1.91649,0.366283,0.0567847
2.05513,0.187755,0.0360218
1.90945,0.364938,-0.124589
2.12251,0.0897016,-0.12372
2.0566,0.187889,-0.108231
1.9932,0.280835,0.247151
1.91571,0.366134,-0.0794606
1.97594,0.278404,-0.0464332
1.91827,0.359688,-0.0340671
2.0592,0.180881,-0.0601592
1.97292,0.270959,-0.557482
1.9814,0.272123,0
2.13825,0.0828912,-0.0249119
1.98526,0.272653,-0.311759
1.92639,0.361211,0.0113914
2.05206,0.180255,-0.0119725
1.97789,0.27164,-0.215051
2.12118,0.0822295,-0.198157
1.98483,0.272594,0.0466193
1.99239,0.273632,-0.140629
1.91775,0.359591,0.0567847
2.05577,0.18058,0.0360218
1.91856,0.359742,-0.125101
2.1268,0.0824472,-0.123952
1.91697,0.359445,-0.0794606
1.98086,0.27205,-0.0465263
1.91952,0.35299,-0.0340671
2.05981,0.173691,-0.0601592
1.97004,0.263559,-0.556404
1.99423,0.266796,0
2.14252,0.0755672,-0.0249585
1.92764,0.354484,0.0113914
2.05667,0.173426,-0.0119958
1.99065,0.266316,-0.216336
2.12543,0.0749645,-0.198529
1.98973,0.266193,0.0467124
1.99728,0.267204,-0.140908
1.92686,0.35434,0.0570174
2.06436,0.174075,0.0361614
1.92373,0.353765,-0.125357
2.13505,0.0753038,-0.124418
1.99999,0.267567,-0.0939929
2.06582,0.174198,-0.108649
1.92608,0.354197,-0.0797863
1.98577,0.265663,-0.0466193
1.92861,0.347707,-0.0342067
2.06439,0.166823,-0.0602756
1.97095,0.256681,-0.556404
1.99119,0.259317,0
1.99495,0.259808,-0.312989
1.93674,0.349173,0.0114378
2.06922,0.167213,-0.0120655
1.99156,0.259366,-0.216336
2.13364,0.0677983,-0.199272
2.00254,0.260796,0.0469915
1.99821,0.260231,-0.140908
1.93202,0.348322,0.0571338
2.07691,0.167834,0.0363708
1.92495,0.347048,-0.125357
2.1353,0.0678511,-0.124418
1.99574,0.25991,0.117208
2.00488,0.2611,-0.094179
2.06642,0.166986,-0.108649
1.99461,0.259763,-0.0468054
2.06895,0.159923,-0.060392
1.97565,0.250283,-0.557482
2.15099,0.0608339,-0.0250516
1.99585,0.252842,-0.312989
1.93795,0.34241,0.0114378
2.07378,0.160297,-0.0120888
2.00035,0.253412,-0.217193
2.13387,0.0603495,-0.199272
2.00741,0.254306,0.0470846
2.00306,0.253756,-0.141187
2.07489,0.160382,-0.169889
2.07749,0.160583,0.0363708
1.93008,0.34102,-0.125613
2.14351,0.0606222,-0.124883
2.00059,0.253443,0.117441
2.06413,0.15955,0.0843455
2.00974,0.254602,-0.0943651
1.9285,0.340741,-0.0797863
1.99947,0.253301,-0.0468985
1.93493,0.334916,-0.0342765
2.08146,0.153583,-0.060741
1.98798,0.244798,-0.560717
2.00486,0.246876,0
2.00456,0.24684,-0.314219
1.93519,0.334962,0.0114146
2.07832,0.153352,-0.012112
2.00911,0.2474,-0.21805
2.14203,0.0530984,-0.200016
2.01225,0.247787,0.0471777
1.93835,0.335507,0.0572502
2.07803,0.153331,0.0363708
1.93126,0.334281,-0.125613
2.1477,0.053239,-0.125115
2.0846,0.153815,0.0851596
2.07949,0.153438,-0.109277
1.93362,0.33469,-0.0799491
2.00035,0.246321,-0.0468985
1.93609,0.32816,-0.0342765
2.07799,0.146037,-0.0606247
1.98882,0.237858,-0.560717
2.01365,0.240827,0
2.00934,0.240311,-0.314834
1.94029,0.328873,0.0114378
2.08682,0.146657,-0.0121585
2.00997,0.240386,-0.21805
2.15414,0.0458759,-0.201131
2.02105,0.241711,0.0473638
2.07993,0.146173,-0.170214
2.08653,0.146637,0.0365104
1.94029,0.328873,-0.126124
2.15187,0.0458273,-0.125348
2.0194,0.241515,-0.0947374
1.93872,0.328606,-0.0801119
2.00913,0.240287,-0.0470846
1.94117,0.322054,-0.0343463
2.08647,0.139315,-0.0608574
2.01051,0.233335,0
2.01409,0.233751,-0.315449
1.95721,0.324717,0.0115308
2.08732,0.139371,-0.0121585
2.01474,0.233827,-0.218478
2.15429,0.0383556,-0.201131
2.02585,0.235116,0.0474568
2.02146,0.234606,-0.142303
1.95642,0.324585,0.0577156
2.09102,0.139619,0.0365802
1.94142,0.322097,-0.126124
2.16,0.0384572,-0.125813
2.019,0.234321,0.118371
2.01627,0.234003,-0.0945512
1.95168,0.323799,-0.0806004
2.00996,0.233272,-0.0470846
1.95017,0.316558,-0.034486
2.09492,0.132536,-0.0610901
2.01528,0.226763,0
2.01489,0.226719,-0.315449
1.95833,0.317883,0.0115308
2.09977,0.132843,-0.0122283
2.0195,0.227238,-0.218906
2.15441,0.030836,-0.201131
2.02268,0.227596,0.0473638
2.02227,0.227549,-0.142303
2.09284,0.132404,-0.171191
1.94965,0.316473,0.0574829
2.09549,0.132572,0.0366501
1.94648,0.315958,-0.12638
2.16012,0.0309176,-0.125813
2.02378,0.227719,0.118604
2.09692,0.132663,-0.110115
1.9528,0.316985,-0.0806004
2.02268,0.227596,-0.0473638
1.96317,0.311287,-0.0346954
2.0914,0.124619,-0.0609738
2.02405,0.22024,0
2.01571,0.219332,-0.315449
1.95949,0.310703,0.0115308
2.16248,0.0230237,-0.201875
2.03146,0.221046,0.0475499
2.03102,0.220998,-0.142861
2.09729,0.124969,-0.171516
1.95869,0.310577,0.0577156
2.09996,0.125128,0.0367199
1.94762,0.308822,-0.12638
2.1722,0.0231272,-0.126511
2.02857,0.220731,0.118836
2.03378,0.221298,-0.0952957
2.0974,0.124976,-0.110115
1.9579,0.31045,-0.0807633
2.02351,0.22018,-0.0473638
1.96019,0.304504,-0.0346256
2.09578,0.118273,-0.0610901
2.02871,0.214301,0
2.02425,0.213829,-0.316679
1.96045,0.304546,0.0115308
2.1126,0.119223,-0.012298
2.02891,0.214322,-0.219763
2.17448,0.0163201,-0.20299
2.03568,0.215036,-0.14314
2.10165,0.118605,-0.171842
2.10433,0.118756,0.0367897
1.96042,0.30454,-0.127148
2.17625,0.0163333,-0.126743
2.03322,0.214777,0.119069
2.03844,0.215328,-0.0954819
2.10576,0.118836,-0.110534
1.96281,0.304912,-0.0809261
2.02816,0.214243,-0.0474568
1.96519,0.298261,-0.0346954
2.10416,0.11138,-0.0613228
2.04139,0.208437,0
2.02499,0.206763,-0.316679
1.96941,0.298901,0.0115773
2.10901,0.111637,-0.0122748
2.02965,0.207238,-0.219763
2.17453,0.00873004,-0.20299
2.04481,0.208787,0.047829
2.10205,0.111269,-0.171842
2.11272,0.111833,0.0369293
1.96541,0.298294,-0.127403
2.16831,0.00870507,-0.126278
2.04315,0.208617,-0.095668
1.96781,0.298659,-0.0810889
2.0289,0.207162,-0.0474568
1.96622,0.291399,-0.0346954
2.10454,0.104034,-0.0613228
2.03812,0.200917,0
2.02963,0.20008,-0.317293
1.9744,0.292611,0.0116006
2.03431,0.200542,-0.220192
2.17853,0.00114096,-0.203362
2.04553,0.201647,0.047829
2.11438,0.10452,-0.172818
1.9736,0.292492,0.0580647
1.96644,0.291432,-0.127403
2.18031,0.00114189,-0.126976
2.04262,0.201361,0.119534
2.04784,0.201876,-0.0958541
2.11451,0.104527,-0.110952
1.97675,0.292959,-0.0814146
2.04155,0.201255,-0.047736
1.97118,0.285105,-0.0347652
2.11288,0.0970535,-0.0615556
2.03881,0.193801,0
2.04212,0.194116,-0.319138
1.97937,0.286289,0.0116238
2.12173,0.09746,-0.0123445
2.04292,0.194192,-0.221048
2.17852,-0.0064641,-0.203362
2.05418,0.195262,0.0480151
2.04973,0.194839,-0.143977
2.11871,0.0973215,-0.173144
1.97857,0.286173,0.0581811
1.9793,0.286279,-0.128171
2.19228,-0.00650492,-0.127673
2.05126,0.194985,0.119999
2.11486,0.0971448,-0.110952
1.97776,0.286057,-0.0814146
2.05418,0.195262,-0.0480151
1.98405,0.279899,-0.0349746
2.1172,0.0898476,-0.0616719
2.04346,0.187048,0
2.04278,0.186987,-0.319138
1.98432,0.279937,0.0116471
2.04755,0.187422,-0.221477
2.19043,-0.0141452,-0.204477
2.05883,0.188456,0.0481082
2.11904,0.0899256,-0.173144
1.98029,0.279369,-0.128171
2.19623,-0.0141827,-0.127906
2.05988,0.188552,0.120464
2.05716,0.188303,-0.0962264
2.12716,0.0902705,-0.11158
1.97875,0.279152,-0.0814146
2.05485,0.188091,-0.0480151
2.12149,0.0826126,-0.0617883
2.06004,0.181317,0
2.04342,0.179855,-0.319138
1.98132,0.272465,0.0116238
2.13435,0.0831132,-0.0124142
2.04819,0.180275,-0.221477
2.19833,-0.0218699,-0.205221
2.12731,0.082839,-0.173795
1.98448,0.272899,0.0582974
1.98125,0.272455,-0.128171
2.19218,-0.0218087,-0.127673
2.06849,0.182061,0.120929
1.98763,0.273332,-0.0817402
2.05948,0.181268,-0.0481082
1.98199,0.265511,-0.0349048
2.12976,0.0754905,-0.062021
2.06464,0.174463,0
2.05192,0.173387,-0.320368
2.12947,0.0754802,-0.271224
1.99019,0.266609,0.0116703
2.13862,0.0758045,-0.0124375
2.05277,0.173459,-0.221905
2.12758,0.0754133,-0.173795
1.98542,0.26597,0.0582974
1.9901,0.266598,-0.128683
2.20407,-0.0296212,-0.128371
2.06639,0.17461,-0.0965986
2.13573,0.0757019,-0.111999
1.98857,0.266393,-0.0817402
2.0601,0.174079,-0.0481082
1.99877,0.260659,-0.0351841
2.13001,0.0680552,-0.062021
2.06524,0.167254,0
2.06039,0.166861,-0.321598
1.99904,0.260695,0.0117168
2.05336,0.166292,-0.221905
2.06816,0.167491,-0.145093
2.13979,0.0683675,-0.174771
1.9903,0.259555,0.0584138
1.99498,0.260165,-0.128938
2.06698,0.167395,-0.0965986
2.13598,0.0682458,-0.111999
1.99742,0.260483,-0.0820659
2.06468,0.167209,-0.0482012
1.99967,0.25368,-0.0351841
2.13823,0.0608466,-0.0622537
2.06581,0.160043,0
2.0649,0.159973,-0.322213
2.00391,0.254218,0.0117401
2.06186,0.159737,-0.222762
2.0812,0.161236,0.0485734
2.14001,0.0608973,-0.174771
2.0038,0.254204,-0.12945
2.07552,0.160796,-0.0969709
2.1402,0.0609025,-0.112208
1.99831,0.253509,-0.0820659
2.07721,0.160927,-0.0484804
2.00054,0.246699,-0.0351841
2.14243,0.0534826,-0.0623701
2.07832,0.153717,0
2.06939,0.153056,-0.322828
2.00081,0.246732,0.0117168
2.0624,0.15254,-0.222762
2.08574,0.154265,0.0486665
2.07724,0.153637,-0.145652
2.14818,0.0536263,-0.175422
2,0.246632,0.0586465
2.00071,0.24672,-0.129194
2.15237,0.053731,-0.112836
2.00712,0.24751,-0.0823915
2.08175,0.15397,-0.0485734
2.00139,0.239714,-0.0351841
2.1466,0.0460891,-0.0624865
2.07885,0.146461,0
2.07385,0.146109,-0.323443
2.14618,0.0460802,-0.273244
2.01357,0.241173,0.0117866
2.07086,0.145898,-0.223619
2.09424,0.147545,0.0488526
2.08174,0.146665,-0.145931
2.15234,0.0462124,-0.175747
2.00482,0.240124,0.0587629
2.00949,0.240684,-0.129706
2.14856,0.0461311,-0.112627
2.01591,0.241453,-0.0827172
2.09025,0.147264,-0.0487595
2.00619,0.233189,-0.0352539
2.15074,0.0386691,-0.0626028
2.08334,0.139472,0
2.07829,0.139134,-0.324057
2.15427,0.0387325,-0.274255
2.01043,0.233683,0.0117633
2.07135,0.13867,-0.223619
2.09021,0.139932,-0.146489
2.16046,0.0388439,-0.176398
2.00961,0.233588,0.0588792
2.01428,0.23413,-0.129962
2.09304,0.140122,-0.0977154
2.16069,0.0388479,-0.113255
2.02468,0.235339,-0.0830429
2.08277,0.139434,-0.0485734
2.02682,0.228778,-0.0356029
2.15486,0.0315948,-0.0627192
2.09177,0.13307,0
2.08663,0.132743,-0.325287
2.15835,0.0316461,-0.27476
2.01517,0.227463,0.0117866
2.08768,0.13281,-0.225332
2.09464,0.133253,-0.146768
2.16058,0.0316787,-0.176398
2.0223,0.228267,0.0592283
2.01901,0.227896,-0.130218
2.09349,0.13318,-0.0977154
2.15681,0.0316234,-0.113046
2.02942,0.229071,-0.0832057
2.0952,0.133288,-0.0488526
2.02761,0.221701,-0.0356029
2.15495,0.0240722,-0.0627192
2.09222,0.125767,0
2.09103,0.125695,-0.325902
2.0239,0.221296,0.0118331
2.08416,0.125282,-0.224904
2.09111,0.1257,-0.146489
2.16865,0.0242252,-0.177049
2.02308,0.221206,0.0592283
2.02773,0.221715,-0.130729
2.09793,0.12611,-0.0979015
2.16489,0.0241832,-0.113464
2.03418,0.22242,-0.0833685
2.03636,0.215109,-0.0357425
2.10066,0.118549,0
2.09542,0.118253,-0.326517
2.02868,0.214297,0.0118563
2.09255,0.118091,-0.225761
2.10351,0.11871,-0.147326
2.17271,0.0163069,-0.177375
2.0325,0.214701,-0.130985
2.17296,0.0163088,-0.113883
2.03101,0.214543,-0.0832057
2.03706,0.208355,-0.0357425
2.10104,0.111583,0
2.09975,0.111514,-0.327132
2.03336,0.207976,0.0118796
2.08498,0.11073,-0.224904
2.18073,0.00913572,-0.178025
2.03651,0.208299,0.0595774
2.03717,0.208366,-0.131241
2.11073,0.112098,-0.0984599
2.17699,0.00912008,-0.114092
2.03966,0.208621,-0.0835313
2.10846,0.111977,-0.0491318
2.03778,0.201242,-0.0357425
2.10941,0.104644,0
2.10012,0.104183,-0.327132
2.04203,0.201663,0.011926
2.09727,0.104042,-0.226189
2.11224,0.104784,-0.147884
2.18473,0.00152571,-0.178351
2.04518,0.201974,0.0598101
2.03789,0.201253,-0.131241
2.11111,0.104728,-0.0984599
2.18101,0.00152311,-0.114302
2.04435,0.201892,-0.0836942
2.11682,0.105012,-0.0493179
2.04643,0.194887,-0.0358821
2.10976,0.0972804,0
2.04671,0.194913,0.0119493
2.1016,0.0969041,-0.226617
2.11259,0.0974111,-0.147884
2.1927,-0.00612224,-0.179002
2.04587,0.194834,0.0598101
2.03858,0.194139,-0.131241
2.11146,0.0973591,-0.0984599
2.18899,-0.00611189,-0.11472
2.05506,0.188472,-0.0360218
2.11808,0.0902555,0
2.11265,0.090024,-0.328977
2.05136,0.188132,0.0119725
2.10192,0.089567,-0.226617
2.11292,0.0900356,-0.147884
2.19266,-0.0137767,-0.179002
2.04654,0.187691,0.0598101
2.05514,0.18848,-0.132264
2.11978,0.0903278,-0.0988321
2.05765,0.18871,-0.0841827
2.12949,0.0907418,-0.049597
2.12637,0.0831735,0
2.12085,0.0829573,-0.330207
2.052,0.18097,0.0119725
2.12209,0.0830061,-0.228759
2.12917,0.0832829,-0.149
2.20057,-0.021509,-0.179653
2.05515,0.181248,0.0600429
2.05976,0.181655,-0.13252
2.13206,0.0833958,-0.0993905
2.0583,0.181525,-0.0841827
2.16407,-0.0287068,-1.00921
2.0643,0.174796,-0.0361614
2.12507,0.0756948,-0.330821
2.05661,0.174144,0.0119958
2.11442,0.0753154,-0.227903
2.13343,0.0759927,-0.149279
2.20049,-0.0291898,-0.179653
2.06374,0.174748,0.0602756
2.06436,0.174801,-0.132776
2.13633,0.0760957,-0.0995766
2.06688,0.175014,-0.0845083
2.13806,0.0761576,-0.0497831
2.16396,-0.0362612,-1.00921
2.06119,0.167287,0.012019
2.12262,0.068189,-0.228759
2.14166,0.0688008,-0.149837
2.21632,-0.0371386,-0.180955
2.06832,0.167866,0.060392
2.06496,0.167593,-0.132776
2.14057,0.0687658,-0.0997627
2.06748,0.167798,-0.0845083
2.14231,0.0688217,-0.0498762
2.16744,-0.0438865,-1.0109
2.07344,0.161,-0.036301
2.07372,0.161022,0.0120888
2.13477,0.0611222,-0.230044
2.1379,0.0612119,-0.149558
2.08085,0.161575,0.060741
2.07349,0.161004,-0.133288
2.1408,0.0612949,-0.0997627
2.07602,0.1612,-0.084834
2.14654,0.0614592,-0.0499692
2.08197,0.154352,-0.0364406
2.07826,0.154077,0.012112
2.14292,0.0538694,-0.230901
2.14209,0.0538485,-0.149837
2.07742,0.154015,0.0606247
2.145,0.0539215,-0.0999489
2.08056,0.154248,-0.0849968
2.15474,0.0541664,-0.0501553
2.08648,0.147365,-0.0365104
2.07879,0.146821,0.012112
2.14707,0.0464744,-0.23133
2.15024,0.046543,-0.150395
2.07794,0.146762,0.0606247
2.15716,0.0466926,-0.100507
2.08507,0.147265,-0.0851596
2.15891,0.0467306,-0.0502484
2.09098,0.140349,-0.0365802
2.07929,0.139564,0.012112
2.14722,0.0389794,-0.23133
2.16236,0.0392543,-0.151232
2.09041,0.140311,0.0609738
2.08701,0.140083,-0.134055
2.1653,0.0393075,-0.100879
2.09355,0.140521,-0.0854853
2.16706,0.0393395,-0.0504345
2.09542,0.133669,-0.0366501
2.0997,0.133941,0.0122283
2.15529,0.0319768,-0.232186
2.16647,0.0321426,-0.151511
2.09145,0.133415,-0.134311
2.16541,0.0321269,-0.100879
2.09799,0.133833,-0.0856481
2.09987,0.126594,-0.0367199
2.10414,0.126852,0.0122515
2.15539,0.0244532,-0.232186
2.17056,0.0246253,-0.15179
2.16551,0.024568,-0.100879
2.10244,0.126749,-0.085811
2.10429,0.11949,-0.0367897
2.10857,0.119733,0.0122748
2.16342,0.0169918,-0.233043
2.17063,0.0170485,-0.15179
2.10429,0.11949,-0.135078
2.17358,0.0170716,-0.101252
2.10287,0.119409,-0.085811
2.10899,0.112004,0.0122748
2.1754,0.00911234,-0.234328
2.17866,0.00912601,-0.152348
2.10728,0.111913,-0.0859738
2.12105,0.105592,-0.0370689
2.11734,0.105408,0.0123213
2.17144,0.00189494,-0.2339
2.19065,0.0019117,-0.153185
2.10906,0.104995,-0.135334
2.11562,0.105322,-0.0862994
2.11741,0.0980027,-0.0369991
2.12169,0.0982009,0.0123445
2.19064,-0.0057351,-0.153185
2.11738,0.0980015,-0.135846
2.12396,0.098306,-0.0866251
2.12973,0.0911239,-0.0372085
2.1946,-0.0134062,-0.153464
2.1217,0.0907805,-0.136102
2.12429,0.0908913,-0.0866251
2.20651,-0.0211816,-0.154301
2.12859,0.0836325,-0.0867879
2.1423,0.0766827,-0.037418
2.21041,-0.0289359,-0.15458
2.13425,0.0763945,-0.136869
2.12887,0.0762019,-0.0867879
2.14256,0.0692042,-0.037418
2.2103,-0.0366515,-0.15458
2.13451,0.0689441,-0.136869
2.13711,0.0690283,-0.0871136
2.15078,0.0619552,-0.0375576
2.21814,-0.0445268,-0.155138
2.14271,0.0617228,-0.137381
2.14133,0.0616831,-0.0872764
2.15098,0.0544471,-0.0375576
2.1509,0.054445,-0.137892
2.15352,0.0545114,-0.0877649
2.15107,0.0469366,-0.137892
2.1497,0.0469067,-0.0876021
2.15522,0.0395008,-0.138148
2.15785,0.039549,-0.0879277
2.15932,0.0327904,-0.138404
2.16196,0.0328305,-0.0880906
2.1674,0.0253462,-0.138916
2.17005,0.0253771,-0.0884162
2.17148,0.0170551,-0.139172
2.17413,0.0170759,-0.0885791
2.1795,0.0102707,-0.139683
2.18352,0.00228657,-0.139939
2.1915,-0.00497237,-0.140451
2.18748,-0.0125991,-0.140195
2.1954,-0.0206918,-0.140707
2.20729,-0.0285097,-0.141474
