2.19236,0.350766,-0.129301
2.19413,0.312272,-0.129069
2.18048,0.294426,-0.128138
2.18145,0.287194,-0.128138
2.18163,0.271351,-0.205221
2.17552,0.270591,-0.127673
2.19443,0.265166,-0.206336
2.17249,0.262516,-0.127441
2.18128,0.256241,-0.127906
2.17423,0.247722,-0.127441
2.16714,0.239255,-0.126976
2.17807,0.23277,-0.204477
2.17193,0.232113,-0.127208
2.17887,0.225165,-0.204477
2.17273,0.22453,-0.127208
2.16904,0.216881,-0.0253776
2.17168,0.217145,-0.203733
2.17346,0.217323,-0.127208
2.1658,0.208925,-0.025331
2.17639,0.209947,-0.204105
2.17023,0.209353,-0.126976
2.17046,0.202112,-0.0253776
2.17311,0.202359,-0.203733
2.17091,0.202155,-0.126976
2.1672,0.193799,-0.025331
2.1778,0.194747,-0.204105
2.16766,0.19384,-0.126743
2.16388,0.185891,-0.0252844
2.1745,0.186804,-0.203733
2.16037,0.185589,-0.126278
2.15655,0.177679,-0.0251913
2.17514,0.179211,-0.203733
2.16498,0.178374,-0.126511
2.16513,0.17078,-0.0252844
2.17575,0.171618,-0.203733
2.16513,0.17078,0.0252844
2.16559,0.170817,-0.126511
2.16568,0.1636,-0.0252844
2.1644,0.163502,-0.202618
2.15818,0.163033,-0.126045
2.17608,0.271817,-0.11493
2.16627,0.15566,-0.0252844
2.16101,0.155282,-0.202246
2.16627,0.15566,0.0252844
2.18074,0.264285,-0.179327
2.15877,0.155121,-0.126045
2.16281,0.147825,-0.0252379
2.16551,0.14801,-0.202618
2.15483,0.14728,0.0251447
2.17769,0.256205,-0.179002
2.1593,0.147585,-0.126045
2.16329,0.140652,-0.0252379
2.16202,0.140569,-0.202246
2.15929,0.140392,0.0251913
2.1706,0.248077,-0.178351
2.16379,0.132723,-0.0252379
2.16649,0.132888,-0.202618
2.15979,0.132478,0.0251913
2.1715,0.24012,-0.178351
2.16426,0.132751,-0.126278
2.16024,0.124937,-0.0251913
2.15899,0.124865,-0.201875
2.16024,0.124937,0.0251913
2.17629,0.232962,-0.178676
2.15674,0.124734,-0.125813
2.16862,0.232141,-0.114302
2.16063,0.11815,-0.0251913
2.15937,0.118082,-0.201875
2.15663,0.117932,0.0251447
2.17701,0.226124,-0.178676
2.16509,0.118395,-0.126278
2.16536,0.224915,-0.114092
2.15707,0.109651,-0.0251447
2.15583,0.109588,-0.201503
2.15707,0.109651,0.0251447
2.16993,0.216971,-0.178025
2.15357,0.109473,-0.12558
2.16105,0.208466,-0.0631846
2.15744,0.10212,-0.0251447
2.16018,0.10225,-0.201875
2.15344,0.101931,0.0250982
2.1667,0.209012,-0.1777
2.15393,0.101954,-0.12558
2.15379,0.0944138,-0.0250982
2.17061,0.201744,-0.01267
2.1645,0.0948836,-0.202246
2.17536,0.202186,-0.178351
2.15428,0.0944353,-0.12558
2.18355,0.311155,-0.102741
2.15407,0.0876464,-0.0250982
2.17123,0.194923,-0.01267
2.15683,0.0877587,-0.201503
2.16407,0.19428,-0.177375
2.15456,0.0876664,-0.12558
2.16431,0.194302,-0.113883
2.1719,0.187344,-0.01267
2.1611,0.0803779,-0.201875
2.17268,0.187411,-0.178025
2.15087,0.0799971,-0.125348
2.17765,0.295591,-0.102368
2.161,0.186404,-0.113674
2.14666,0.0715873,-0.025005
2.17502,0.179202,-0.27779
2.1726,0.179002,-0.01267
2.1614,0.0720787,-0.201875
2.14266,0.071454,0.0249585
2.18768,0.288403,-0.154301
2.16543,0.178412,-0.177375
2.14717,0.0716042,-0.125115
2.18669,0.288272,-0.102741
2.14688,0.0648424,-0.025005
2.17162,0.172054,-0.277285
2.15365,0.0650471,-0.201131
2.15087,0.0649632,0.0250516
2.17671,0.280001,-0.153464
2.16996,0.171922,-0.1777
2.1609,0.171204,0.0378368
2.15536,0.0650988,-0.12558
2.17966,0.28038,-0.102368
2.15694,0.162938,-0.0629519
2.1471,0.0569738,-0.025005
2.17223,0.164094,-0.277285
2.15786,0.0572592,-0.201503
2.1471,0.0569738,0.025005
2.18168,0.272516,-0.153743
2.16262,0.163368,-0.177049
2.1476,0.0569872,-0.125115
2.18067,0.27239,-0.102368
2.15888,0.163085,-0.113464
2.15351,0.155121,-0.0628356
2.14728,0.0494791,-0.025005
2.16884,0.156226,-0.27678
2.16635,0.156047,-0.0126235
2.15406,0.0496353,-0.201131
2.18261,0.264899,-0.153743
2.16318,0.155818,-0.177049
2.15178,0.0495827,-0.125348
2.17368,0.263814,-0.101996
2.17544,0.264029,-0.0509928
2.15002,0.147706,-0.0627192
2.16538,0.148761,-0.276275
2.16287,0.148588,-0.0126002
2.15421,0.0424923,-0.201131
2.18348,0.25766,-0.153743
2.16766,0.148918,-0.177375
2.16257,0.148568,0.0378368
2.14794,0.0423686,-0.125115
2.17454,0.256605,-0.101996
2.15197,0.147839,-0.113046
2.15055,0.139823,-0.0627192
2.14758,0.034486,-0.025005
2.17383,0.141337,-0.277285
2.14241,0.034403,-0.200016
2.17648,0.248748,-0.153185
2.16024,0.140453,-0.176724
2.14808,0.0344941,-0.125115
2.17149,0.248178,-0.10181
2.17326,0.24838,-0.0508998
2.15102,0.132317,-0.0627192
2.14768,0.0269908,-0.025005
2.16639,0.133262,-0.276275
2.1465,0.0269759,-0.200387
2.14369,0.0269406,0.0249585
2.17734,0.24115,-0.153185
2.16071,0.132913,-0.176724
2.15959,0.132844,0.037767
2.1442,0.026947,-0.124883
2.17632,0.241038,-0.101996
2.14898,0.132191,-0.112836
2.17014,0.240353,-0.0508067
2.15546,0.125038,-0.0628356
2.17081,0.125928,-0.27678
2.15056,0.0195186,-0.200759
2.13977,0.0194207,0.0249119
2.17817,0.233548,-0.153185
2.16515,0.1256,-0.177049
2.15605,0.125072,0.0376972
2.14428,0.0194616,-0.124883
2.17715,0.233439,-0.101996
2.14943,0.124688,-0.112836
2.16699,0.23235,-0.0507136
2.15185,0.118048,-0.0627192
2.14382,0.0127224,-0.0249585
2.16723,0.118891,-0.276275
2.16071,0.118534,-0.012577
2.1756,0.226362,-0.235614
2.14265,0.0127155,-0.200016
2.17095,0.225879,-0.152627
2.16155,0.118579,-0.176724
2.16042,0.118518,0.037767
2.14034,0.0127018,-0.12465
2.16595,0.225358,-0.101438
2.14981,0.117936,-0.112836
2.16373,0.225127,-0.0506206
2.14428,0.109751,-0.0624865
2.16765,0.110947,-0.276275
2.16113,0.110614,-0.012577
2.1387,0.00485365,-0.199644
2.13585,0.00484719,0.0248654
2.16779,0.217522,-0.152348
2.15799,0.110453,-0.176398
2.15685,0.110395,0.0376972
2.14436,0.00486651,-0.124883
2.1514,0.110116,0.0877649
2.17073,0.217817,-0.101624
2.15023,0.110056,-0.112836
2.16454,0.217196,-0.0506206
2.14863,0.102831,-0.0626028
2.16584,0.210073,0
2.16404,0.103568,-0.27577
2.14268,-0.0022433,-0.200016
2.13985,-0.00224033,0.0249119
2.17248,0.210717,-0.152627
2.15436,0.103105,-0.176073
2.14437,-0.00224506,-0.124883
2.17542,0.211003,-0.10181
2.16525,0.210016,-0.0506206
2.145,0.0947789,-0.0624865
2.13983,-0.0100828,-0.0249119
2.16044,0.0954614,-0.275265
2.17393,0.202818,-0.235185
2.13868,-0.0100774,-0.199644
2.13583,-0.010064,0.0248654
2.16926,0.202383,-0.152348
2.14676,0.0948566,-0.175422
2.14013,0.094564,0.0872764
2.1722,0.202657,-0.101624
2.14696,0.0948654,-0.112627
2.16601,0.202079,-0.0506206
2.14931,0.0874529,-0.0626028
2.13978,-0.0175527,-0.0249119
2.1568,0.0877576,-0.27476
2.17066,0.194873,-0.234757
2.13863,-0.0175433,-0.199644
2.13178,-0.0174871,0.0248188
2.16995,0.194809,-0.152348
2.15504,0.0876861,-0.176073
2.15389,0.0876392,0.0376274
2.14045,0.0870924,0.0872764
2.16892,0.194716,-0.101438
2.16271,0.194159,-0.0505275
2.14161,0.079652,-0.0623701
2.17194,0.187346,0
2.16502,0.0805227,-0.27577
2.16737,0.186952,-0.234328
2.13856,-0.0250089,-0.199644
2.13571,-0.0249757,0.0248654
2.16664,0.18689,-0.152069
2.15533,0.0801624,-0.176073
2.15019,0.0799709,0.0375576
2.13623,-0.0249818,-0.124418
2.14074,0.0796197,0.0872764
2.16958,0.187143,-0.101438
2.14757,0.0798735,-0.112627
2.16338,0.186608,-0.0505275
2.14186,0.0725502,-0.0623701
2.16131,0.073209,-0.275265
2.16798,0.179764,-0.234328
2.1305,-0.0319805,-0.1989
2.13162,-0.0319973,0.0248188
2.16725,0.179704,-0.152069
2.15559,0.0730151,-0.176073
2.17651,0.28809,-0.140707
2.13614,-0.0320652,-0.124418
2.141,0.0725208,0.0872764
2.16621,0.179618,-0.101252
2.13983,0.0724815,-0.112208
2.16,0.179103,-0.0504345
2.14212,0.0646988,-0.0623701
2.13548,-0.0398851,-0.0248654
2.16157,0.0652863,-0.275265
2.17259,0.172131,-0.234757
2.13833,-0.0399383,-0.199644
2.13148,-0.0398104,0.0248188
2.15994,0.171129,-0.151511
2.14389,0.0647524,-0.175096
2.14,-0.0399695,-0.12465
2.13326,0.0644313,0.0869508
2.17084,0.171992,-0.101438
2.14408,0.0647581,-0.112418
2.16463,0.1715,-0.0505275
2.13434,0.057009,-0.0621374
2.14985,0.162781,0
2.14988,0.0574243,-0.27375
2.17317,0.164547,-0.234757
2.13818,-0.0474007,-0.199644
2.13133,-0.047249,0.0248188
2.1645,0.163891,-0.15179
2.14012,0.0571634,-0.174771
2.13746,0.0570926,0.0871136
2.16744,0.164113,-0.101252
2.13631,0.0570617,-0.111999
2.16123,0.163643,-0.0504345
2.14251,0.0501174,-0.0623701
2.15037,0.15565,0
2.15403,0.0503869,-0.274255
2.17371,0.157339,-0.234757
2.15378,0.155897,0.0502484
2.13116,-0.0543171,0.0248188
2.16106,0.156424,-0.151511
2.14826,0.0502521,-0.175422
2.14709,0.0502245,0.0374878
2.13569,-0.0544323,-0.124418
2.13365,0.0499102,0.0869508
2.16797,0.156924,-0.101252
2.13648,0.0499765,-0.111999
2.16176,0.156474,-0.0504345
2.1509,0.148143,0
2.13096,-0.0617565,-0.0248188
2.15419,0.0428671,-0.274255
2.16234,0.14893,-0.233472
2.13382,-0.0618394,-0.199272
2.16955,0.149427,-0.152069
2.14444,0.0426731,-0.175096
2.13149,-0.0617718,-0.124185
2.13381,0.0424615,0.0869508
2.16053,0.148806,-0.100879
2.14463,0.0426769,-0.112418
2.16229,0.148927,-0.0504345
2.17122,0.0356239,-1.01259
2.13481,0.0350265,-0.0621374
2.16091,0.0354547,-0.432243
2.14742,0.140372,0
2.13073,-0.0691951,-0.0248188
2.15829,0.0354118,-0.27476
2.16681,0.14164,-0.2339
2.12961,-0.0691588,-0.1989
2.1621,0.141332,-0.151511
2.15255,0.0353175,-0.175747
2.12727,-0.0690827,-0.123952
2.13394,0.0350123,0.0869508
2.16104,0.141263,-0.100879
2.14077,0.0351243,-0.112208
2.17196,0.248999,-0.0890675
2.1628,0.141378,-0.0504345
2.1677,0.0283767,-1.0109
2.1663,0.241075,-0.0380462
2.13092,0.0278951,-0.062021
2.15709,0.0282378,-0.431458
2.14787,0.133251,0
2.15046,0.028151,-0.27375
2.1633,0.134208,-0.233472
2.12937,-0.07622,-0.1989
2.15926,0.133958,0.0503414
2.1185,-0.0758308,0.0246791
2.1506,0.13342,-0.150674
2.14468,0.0280753,-0.175096
2.13102,-0.076279,-0.124185
2.12605,0.0278315,0.0866251
2.1615,0.134096,-0.100879
2.14088,0.0280255,-0.112208
2.15926,0.133958,-0.0503414
2.16417,0.0203978,-1.00921
2.16716,0.233134,-0.0380462
2.135,0.0201229,-0.0621374
2.15718,0.0203319,-0.431458
2.14834,0.125378,0
2.15055,0.0202694,-0.27375
2.16775,0.126511,-0.2339
2.13306,-0.0841806,-0.199272
2.1222,-0.0837522,0.0247257
2.15905,0.126003,-0.151232
2.14078,0.0201774,-0.174771
2.13414,0.0201147,0.0869508
2.15798,0.125941,-0.100693
2.13697,0.0201414,-0.111999
2.15974,0.126043,-0.0503414
2.17194,0.225982,-0.0381161
2.13106,0.0126469,-0.062021
2.15724,0.0128023,-0.431458
2.14877,0.117879,0
2.16664,0.118859,-0.337585
2.15061,0.0127629,-0.27375
2.16024,0.118508,-0.233043
2.13275,-0.0916254,-0.199272
2.1179,-0.0909875,0.0246791
2.15947,0.118466,-0.151232
2.13685,0.0126813,-0.174445
2.16783,0.225554,-0.139683
2.12643,-0.0913539,-0.123952
2.13819,0.0126892,0.0871136
2.1624,0.118626,-0.100879
2.14102,0.012706,-0.112208
2.1665,0.225415,-0.0887419
2.15617,0.118285,-0.0502484
2.16426,0.00566624,-1.00921
2.16074,0.217576,-0.0379066
2.13509,0.00558988,-0.0621374
2.15727,0.00564795,-0.431458
2.14915,0.110752,0
2.16307,0.111469,-0.336971
2.15064,0.0056306,-0.27375
2.15665,0.111138,-0.232615
2.12846,-0.0985138,-0.1989
2.15655,0.111133,0.0502484
2.12158,-0.0981957,0.0247257
2.15587,0.111098,-0.150953
2.13688,0.00559458,-0.174445
2.16459,0.217963,-0.139427
2.12612,-0.0984055,-0.123952
2.12623,0.00556668,0.0866251
2.1548,0.111043,-0.100507
2.13706,0.00559504,-0.111999
2.15256,0.110928,-0.0501553
2.16064,-0.00226295,-1.00752
2.16153,0.209654,-0.0379066
2.14943,-0.00225121,-0.429889
2.14155,0.102491,0
2.16742,0.103729,-0.337585
2.14668,-0.00224833,-0.273244
2.16498,0.103613,-0.233472
2.1241,-0.106116,-0.198529
2.15695,0.103228,0.0502484
2.16423,0.103577,-0.151511
2.13689,-0.00223808,-0.174445
2.16537,0.210027,-0.139427
2.12574,-0.106198,-0.123952
2.12624,-0.00222692,0.0866251
2.15519,0.103144,-0.100507
2.12908,-0.0022299,-0.11158
2.12094,-0.00222138,0.173144
2.15295,0.103037,-0.0501553
2.16062,-0.00980451,-1.00752
2.16224,0.202108,-0.0379066
2.12708,-0.00965232,-0.0619047
2.13764,-0.00970027,-0.427536
2.14189,0.0950154,0
2.15592,0.0956376,-0.335741
2.15063,-0.00975918,-0.27375
2.16652,0.202508,0.0126467
2.15739,0.0957027,-0.232615
2.1277,-0.113742,-0.1989
2.11683,-0.113161,0.0246791
2.15262,0.0954913,-0.150674
2.13288,-0.00967866,-0.17412
2.17007,0.202839,-0.139683
2.12137,-0.113404,-0.12372
2.12621,-0.0096484,0.0866251
2.15554,0.0956208,-0.100507
2.12506,-0.00964317,-0.111371
2.12092,-0.00962439,0.173144
2.1533,0.0955214,-0.0501553
2.16782,-0.0170258,-1.0109
2.16689,0.195296,-0.0379764
2.12703,-0.0167055,-0.0619047
2.15329,-0.0169117,-0.430674
2.1422,0.0879126,0
2.16017,0.0886503,-0.336356
2.14661,-0.0168593,-0.273244
2.16167,0.0887115,-0.233043
2.12731,-0.120797,-0.1989
2.11245,-0.119953,0.0246325
2.15293,0.0883529,-0.150674
2.13284,-0.0167511,-0.17412
2.12497,-0.120664,-0.123952
2.12217,-0.0166673,0.0864623
2.14786,0.088145,-0.100135
2.12901,-0.016721,-0.11158
2.11689,-0.0166258,0.172818
2.1576,0.0885447,-0.0502484
2.1605,-0.0245112,-1.00752
2.16357,0.187385,-0.0379066
2.13096,-0.024176,-0.062021
2.14929,-0.024384,-0.429889
2.14249,0.0804338,0
2.16047,0.0811088,-0.336356
2.14654,-0.0243528,-0.273244
2.15004,0.0807172,-0.231758
2.11601,-0.127568,0.0246791
2.15322,0.0808367,-0.150674
2.13675,-0.0242418,-0.174445
2.16345,0.187375,-0.139172
2.12454,-0.128081,-0.123952
2.1301,-0.0241662,0.0867879
2.13294,-0.0241985,-0.11179
2.11682,-0.0240156,0.172818
2.15678,-0.0319983,-1.00583
2.12287,-0.0314953,-0.0617883
2.14276,0.0729551,0
2.16469,0.0737018,-0.336971
2.14248,-0.0317862,-0.272739
2.16052,0.179526,0.0126002
2.14633,0.0730768,-0.23133
2.11847,-0.135138,-0.198157
2.15017,0.0732075,0.0500623
2.15748,0.0734562,-0.150953
2.13267,-0.0316407,-0.17412
2.16409,0.179822,-0.139172
2.126,-0.0315418,0.0866251
2.15242,0.0732839,-0.100321
2.13284,-0.0316432,-0.11179
2.12071,-0.0314633,0.173144
2.15876,0.17938,-0.0882534
2.15017,0.0732075,-0.0500623
2.1639,-0.0396601,-1.00921
2.15685,0.171642,-0.037767
2.11875,-0.0388326,-0.0616719
2.14515,-0.0393165,-0.429105
2.135,0.0652301,0
2.16098,0.0660239,-0.336356
2.13838,-0.0391925,-0.272234
2.16113,0.171982,0.0126002
2.15055,0.0657051,-0.231758
2.11798,-0.142533,-0.198157
2.15041,0.065701,0.0500623
2.11108,-0.142069,0.0246325
2.15373,0.0658024,-0.150674
2.13255,-0.0390855,-0.17412
2.16072,0.17195,-0.138916
2.11789,-0.0388168,0.0862994
2.14867,0.0656476,-0.100135
2.12872,-0.0390154,-0.11158
2.12059,-0.0388663,0.173144
2.15539,0.171526,-0.0880906
2.15041,0.065701,-0.0500623
2.171,-0.047372,-1.01259
2.16143,0.164415,-0.0378368
2.1186,-0.0462287,-0.0616719
2.14108,-0.0467192,-0.42832
2.13522,0.0577766,0
2.15725,0.0583727,-0.335741
2.1697,0.165044,0.0126467
2.15077,0.0581973,-0.231758
2.12144,-0.150207,-0.198529
2.11057,-0.149437,0.0246325
2.14996,0.0581755,-0.150395
2.13638,-0.0466168,-0.174445
2.16131,0.164406,-0.138916
2.1191,-0.150041,-0.12372
2.1356,0.0577869,0.124418
2.11774,-0.0462099,0.0862994
2.14888,0.0581463,-0.100135
2.12458,-0.0463592,-0.111371
2.11247,-0.0460949,0.172493
2.15063,0.0581936,-0.0500623
2.16719,-0.0548575,-1.0109
2.16199,0.15687,-0.0378368
2.12242,-0.0537242,-0.0617883
2.14482,-0.0542912,-0.429105
2.13941,0.0504179,0
2.11403,-0.157099,-0.0246791
2.15349,0.0507498,-0.335126
2.13806,-0.05412,-0.272234
2.15031,0.156022,0.0125305
2.15493,0.0507838,-0.232186
2.12091,-0.157611,-0.198529
2.11403,-0.157099,0.0246791
2.14616,0.0505771,-0.150116
2.12824,-0.0538714,-0.173795
2.15391,0.156283,-0.138404
2.14377,0.0505208,0.124883
2.12156,-0.0537024,0.0864623
2.15307,0.0507398,-0.100321
2.1284,-0.0538754,-0.11158
2.10831,-0.053367,0.172167
2.16699,-0.0624221,-1.0109
2.15454,0.148771,-0.0376972
2.11822,-0.0610174,-0.0616719
2.1407,-0.0616648,-0.42832
2.13157,0.0427891,0
2.10948,-0.164167,-0.0246325
2.15365,0.0432324,-0.335126
2.13389,-0.0614686,-0.271729
2.14685,0.14824,0.0125072
2.11637,-0.164704,-0.198157
2.10948,-0.164167,0.0246325
2.1543,0.0432455,-0.150674
2.13202,-0.0614148,-0.17412
2.14997,0.148455,0.0627192
2.15444,0.148764,-0.138404
2.13595,0.042877,0.124418
2.14524,0.0430635,-0.0999489
2.1282,-0.0613046,-0.11158
2.10811,-0.060726,0.172167
2.15098,0.0431788,-0.0500623
2.16314,-0.0698689,-1.00921
2.15505,0.141249,-0.0376972
2.114,-0.0682819,-0.0615556
2.14047,-0.0691368,-0.42832
2.13571,0.0354146,0
2.11288,-0.171854,-0.0246791
2.15379,0.0357145,-0.335126
2.15135,0.141007,0.0125305
2.14331,0.0355406,-0.230901
2.11975,-0.172413,-0.198529
2.13179,-0.0688565,-0.17412
2.15495,0.141243,-0.138404
2.11343,-0.171899,-0.123487
2.13609,0.0354209,0.124418
2.11714,-0.0683832,0.0862994
2.14937,0.0356412,-0.100135
2.13196,-0.068862,-0.11179
2.11187,-0.068213,0.172493
2.14712,0.0356039,-0.0499692
2.15927,-0.0769126,-1.00752
2.1555,0.134102,-0.0376972
2.11376,-0.0752918,-0.0615556
2.14415,-0.0763741,-0.429105
2.13581,0.0283321,0
2.15785,0.0286245,-0.335741
2.13739,-0.0761333,-0.272234
2.14781,0.133624,0.0125072
2.14739,0.0284857,-0.23133
2.1152,-0.179106,-0.198157
2.13923,0.0283775,0.0497831
2.10034,-0.177847,0.0245394
2.14657,0.0284748,-0.150116
2.13554,-0.0760673,-0.174445
2.15492,0.134066,0.0628356
2.1554,0.134096,-0.138404
2.11285,-0.178906,-0.123487
2.13619,0.0283372,0.124418
2.1169,-0.0754035,0.0862994
2.14149,0.0284075,-0.0997627
2.12773,-0.0757892,-0.11158
2.10765,-0.0750739,0.172167
2.14723,0.0284836,-0.0499692
2.16261,-0.0845911,-1.00921
2.15596,0.126577,-0.0376972
2.11349,-0.0826697,-0.0615556
2.13603,-0.0835515,-0.427536
2.1319,0.0208375,0
2.15003,0.0210147,-0.334511
2.15625,0.126594,0.0125537
2.13952,0.020912,-0.230473
2.1106,-0.186138,-0.197785
2.14267,0.0209427,-0.149837
2.13128,-0.0833655,-0.17412
2.15138,0.126309,0.0627192
2.15984,0.126805,-0.13866
2.10823,-0.18593,-0.123255
2.13229,0.0208413,0.124185
2.12062,-0.0829486,0.0864623
2.14158,0.0209321,-0.0997627
2.12346,-0.0830598,-0.111371
2.11534,-0.0827422,0.172818
2.14652,0.126023,-0.0876021
2.14332,0.0209491,-0.0498762
2.16228,-0.0925169,-1.00921
2.15641,0.118674,-0.0376972
2.11317,-0.0904155,-0.0615556
2.13571,-0.0913799,-0.427536
2.12796,0.0129991,0
2.10698,-0.193604,-0.0246325
2.14219,0.0130861,-0.333281
2.13679,-0.091426,-0.272234
2.15271,0.118471,0.0125305
2.14754,0.0131187,-0.23133
2.103,-0.193238,0.024586
2.14672,0.0131137,-0.150116
2.13096,-0.0911764,-0.17412
2.15183,0.118422,0.0627192
2.15631,0.118669,-0.138404
2.13235,0.0130259,0.124185
2.11231,-0.0903788,0.0861366
2.13764,0.0130583,-0.0995766
2.12314,-0.0908421,-0.111371
2.10307,-0.0899834,0.171842
2.14697,0.118155,-0.0876021
2.15282,0.11094,-0.0376274
2.11284,-0.0977913,-0.0615556
2.13538,-0.0988344,-0.427536
2.12799,0.00557108,0
2.10629,-0.200958,-0.0246325
2.14222,0.00560834,-0.333281
2.12457,-0.0983339,-0.270719
2.14512,0.110544,0.012484
2.14359,0.00561192,-0.230901
2.10629,-0.200958,0.0246325
2.14675,0.00562019,-0.150116
2.12664,-0.09843,-0.173795
2.14824,0.110705,0.0626028
2.14873,0.11073,-0.137892
2.11082,-0.20139,-0.123487
2.13238,0.00558257,0.124185
2.11997,-0.0981212,0.0864623
2.14167,0.00560689,-0.0997627
2.12281,-0.0982527,-0.111371
2.10275,-0.097324,0.171842
2.14737,0.11066,-0.0876021
2.15436,-0.106874,-1.00583
2.14518,0.103416,-0.0374878
2.10851,-0.104599,-0.0614392
2.13504,-0.105915,-0.427536
2.124,-0.00148283,0
2.15013,-0.00150107,-0.334511
2.13215,-0.105772,-0.271729
2.14947,0.103622,0.0125072
2.1436,-0.00149651,-0.230901
2.10457,-0.207838,-0.197413
2.13942,-0.0014936,0.0497831
2.10561,-0.207941,0.0246325
2.14277,-0.00149593,-0.149837
2.1263,-0.105482,-0.173795
2.15259,0.103773,0.0627192
2.15308,0.103796,-0.138148
2.11014,-0.208389,-0.123487
2.12839,-0.0014859,0.123952
2.11963,-0.105151,0.0864623
2.13768,-0.00149238,-0.0995766
2.12247,-0.105292,-0.111371
2.10639,-0.104494,0.172167
2.14373,0.103346,-0.0874392
2.14951,0.0964808,-0.0375576
2.10815,-0.111591,-0.0614392
2.13076,-0.112787,-0.426751
2.12798,-0.00854232,0
2.14617,-0.00861531,-0.333896
2.13179,-0.112842,-0.271729
2.14181,0.0961352,0.0124607
2.14358,-0.00860494,-0.230901
2.11179,-0.215625,-0.198157
2.10093,-0.214517,0.024586
2.13477,-0.00856957,-0.149279
2.14893,0.0964547,0.0626028
2.14942,0.0964769,-0.137892
2.10944,-0.215385,-0.123487
2.13237,-0.00855993,0.124185
2.1073,-0.111545,0.0859738
2.12967,-0.00854911,-0.0992044
2.12211,-0.112329,-0.111371
2.10205,-0.111268,0.171842
2.14406,0.0962363,-0.0874392
2.15721,-0.12174,-1.00752
2.14983,0.088977,-0.0375576
2.10775,-0.118949,-0.0614392
2.13035,-0.120224,-0.426751
2.12394,-0.0159403,0
2.14217,-0.0160771,-0.333281
2.14213,0.0886583,0.0124607
2.13559,-0.0160277,-0.230044
2.1031,-0.222159,-0.197413
2.13536,-0.016026,0.0496901
2.09619,-0.221429,0.0245394
2.13473,-0.0160212,-0.149279
2.12156,-0.119728,-0.173469
2.14525,0.0887876,0.0624865
2.15373,0.0891385,-0.138148
2.1047,-0.222328,-0.123255
2.12833,-0.0159733,0.123952
2.11089,-0.119126,0.0861366
2.12564,-0.015953,-0.0990182
2.12171,-0.119736,-0.111371
2.10165,-0.118605,0.171842
2.14039,0.0885863,-0.0872764
2.15014,0.0810969,-0.0375576
2.10331,-0.126433,-0.0613228
2.1299,-0.128032,-0.426751
2.12787,-0.0237695,0
2.13814,-0.0238843,-0.332666
2.14644,0.0809571,0.012484
2.13949,-0.0238993,-0.230473
2.10624,-0.230298,-0.197785
2.09537,-0.22911,0.0245394
2.13465,-0.0238453,-0.149279
2.1211,-0.127503,-0.173469
2.13757,0.0806229,0.0622537
2.15006,0.0810937,-0.137892
2.12826,-0.0237739,0.123952
2.11044,-0.126862,0.0861366
2.13755,-0.0238776,-0.0995766
2.11727,-0.127272,-0.111162
2.09723,-0.126068,0.171516
2.14907,-0.136338,-1.00414
2.1464,0.0738288,-0.0374878
2.10687,-0.133661,-0.0614392
2.12946,-0.135094,-0.426751
2.12378,-0.0307677,0
2.142,-0.0310318,-0.333281
2.1387,0.0735639,0.0124375
2.13542,-0.0309364,-0.230044
2.10546,-0.237282,-0.197785
2.09857,-0.236505,0.024586
2.13456,-0.0309239,-0.149279
2.12067,-0.134536,-0.173469
2.14582,0.0738088,0.0624865
2.15031,0.0739634,-0.137892
2.1031,-0.237016,-0.123255
2.12418,-0.0307735,0.12372
2.13746,-0.0309659,-0.0995766
2.11683,-0.134293,-0.111162
2.0968,-0.133021,0.171516
2.15217,-0.144456,-1.00583
2.14666,0.0659614,-0.0374878
2.10238,-0.141114,-0.0613228
2.12895,-0.142898,-0.426751
2.12365,-0.0385515,0
2.13793,-0.0388107,-0.332666
2.14695,0.0659703,0.012484
2.12734,-0.0386185,-0.229188
2.10458,-0.244997,-0.197785
2.13107,-0.0386862,0.049597
2.12414,-0.142575,-0.173795
2.14608,0.0659435,0.0624865
2.14658,0.065959,-0.137637
2.09825,-0.244261,-0.123022
2.12006,-0.0384863,0.123487
2.1095,-0.141592,0.0861366
2.13334,-0.0387273,-0.0993905
2.11633,-0.14205,-0.111162
2.10027,-0.140973,0.171842
2.14121,0.065794,-0.0872764
2.15087,0.0585766,-0.0375576
2.10586,-0.148734,-0.0614392
2.12453,-0.150052,-0.425967
2.1195,-0.0458776,0
2.14568,-0.0464442,-0.333896
2.14317,0.0583668,0.0124607
2.13515,-0.0462162,-0.230044
2.09975,-0.251867,-0.197413
2.09285,-0.25104,0.0245394
2.13429,-0.0461976,-0.149279
2.1423,0.0583431,0.0623701
2.15079,0.0585743,-0.137892
2.10899,-0.148955,0.0861366
2.13319,-0.0461738,-0.0993905
2.11183,-0.149155,-0.110952
2.10772,-0.148865,0.172493
2.14143,0.0583194,-0.0872764
2.14707,0.0509734,-0.0374878
2.10134,-0.155788,-0.0613228
2.12399,-0.157467,-0.425967
2.11533,-0.0531753,0
2.1376,-0.0537351,-0.332666
2.13536,0.0506955,0.0124142
2.131,-0.053569,-0.229616
2.10281,-0.259683,-0.197785
2.13075,-0.0535629,0.049597
2.09594,-0.258834,0.024586
2.13012,-0.0535471,-0.149
2.11912,-0.157106,-0.173469
2.13849,0.0507698,0.0622537
2.15098,0.0510663,-0.137892
2.0965,-0.258903,-0.123022
2.12772,-0.0534867,0.123952
2.10447,-0.15602,0.0859738
2.13301,-0.0536197,-0.0993905
2.1113,-0.156526,-0.110952
2.09526,-0.155337,0.171516
2.13475,-0.0536634,-0.0496901
2.14722,0.0442279,-0.0374878
2.10084,-0.162389,-0.0613228
2.11958,-0.163837,-0.425182
2.11915,-0.0599336,0
2.13347,-0.0603386,-0.332051
2.12051,-0.163909,-0.270719
2.13551,0.0439868,0.0124142
2.12684,-0.0601511,-0.229188
2.09014,-0.264787,-0.19667
2.12657,-0.0601435,0.049504
2.09511,-0.265417,0.024586
2.13393,-0.0603516,-0.149279
2.11861,-0.163762,-0.173469
2.13864,0.0440513,0.0622537
2.14315,0.0441441,-0.137381
2.09567,-0.265488,-0.123022
2.12355,-0.060058,0.12372
2.10397,-0.162631,0.0859738
2.13283,-0.0603205,-0.0993905
2.1108,-0.163158,-0.110952
2.09476,-0.161919,0.171516
2.13936,0.0365957,-0.0373482
2.10026,-0.169721,-0.0613228
2.1229,-0.17155,-0.425967
2.11093,-0.0670764,0
2.1372,-0.0679109,-0.332666
2.13565,0.0365322,0.0124142
2.11308,-0.170756,-0.0123213
2.12662,-0.0675748,-0.229188
2.09021,-0.272212,0.0245394
2.12972,-0.0676734,-0.149
2.11803,-0.171157,-0.173469
2.13478,0.0365174,0.0621374
2.1393,0.0365946,-0.137125
2.09869,-0.273317,-0.123255
2.11934,-0.0673434,0.123487
2.10738,-0.170296,0.0861366
2.1142,-0.170847,-0.111162
2.09418,-0.16923,0.171516
2.13392,0.0365026,-0.0869508
2.13949,0.0283809,-0.0373482
2.09561,-0.177447,-0.0612065
2.11466,-0.0753237,0
2.13297,-0.075976,-0.332051
2.11926,-0.179449,-0.270719
2.13578,0.0283317,0.0124142
2.12634,-0.0757399,-0.229188
2.08814,-0.280101,-0.19667
2.09311,-0.280768,0.024586
2.11338,-0.178952,-0.173144
2.13891,0.0283732,0.0622537
2.13942,0.02838,-0.137125
2.09367,-0.280843,-0.123022
2.12305,-0.0756227,0.12372
2.10272,-0.178049,0.0859738
2.12435,-0.0756688,-0.0990182
2.10146,-0.177942,0.172167
2.13404,0.0283087,-0.0869508
2.13007,-0.0758727,-0.049597
2.13957,0.0209125,-0.0373482
2.09498,-0.184761,-0.0612065
2.12159,-0.187107,-0.425967
2.11438,-0.0827047,0
2.14386,0.0209544,0.0124607
2.12607,-0.0831617,-0.229188
2.09109,-0.287932,-0.197041
2.1258,-0.0831513,0.049504
2.08815,-0.287527,0.0245394
2.12917,-0.0832831,-0.149
2.11672,-0.186678,-0.173469
2.14299,0.0209459,0.0623701
2.13552,0.0208729,-0.136869
2.09268,-0.288149,-0.123022
2.11879,-0.082877,0.123487
2.10209,-0.185388,0.0859738
2.12806,-0.0832398,-0.0992044
2.10493,-0.185638,-0.110743
2.11052,-0.0825538,0.259338
2.09289,-0.184576,0.171516
2.13812,0.0208984,-0.0871136
2.14363,0.0142173,-0.037418
2.09837,-0.191705,-0.0613228
2.11708,-0.193415,-0.425182
2.11411,-0.0893469,0
2.11802,-0.1935,-0.270719
2.13192,0.0141396,0.012391
2.12579,-0.0898405,-0.229188
2.08623,-0.293944,-0.19667
2.0912,-0.294644,0.024586
2.12491,-0.0898032,-0.148721
2.13905,0.0141869,0.0622537
2.13956,0.0141903,-0.137125
2.08781,-0.294165,-0.12279
2.11852,-0.0895329,0.123487
2.10548,-0.192355,0.0861366
2.10434,-0.19225,-0.110743
2.09627,-0.191513,0.171842
2.13418,0.0141547,-0.0869508
2.13967,0.00597509,-0.0373482
2.09762,-0.199761,-0.0613228
2.11632,-0.201542,-0.425182
2.10576,-0.0970953,0
2.09005,-0.302671,-0.024586
2.12416,-0.0979437,-0.330821
2.11726,-0.201631,-0.270719
2.13596,0.00596473,0.0124142
2.12146,-0.0978191,-0.228759
2.08903,-0.302523,-0.197041
2.09005,-0.302671,0.024586
2.12854,-0.0981453,-0.149
2.13109,0.00595114,0.062021
2.1396,0.00597491,-0.137125
2.09061,-0.302752,-0.123022
2.11816,-0.0976668,0.123487
2.09279,-0.199301,0.0856481
2.09961,-0.19995,-0.110534
2.10593,-0.097103,0.258851
2.09155,-0.199183,0.171516
2.12623,0.00593756,-0.0866251
2.13567,-0.000745494,-0.0372783
2.10096,-0.206741,-0.0614392
2.11568,-0.20819,-0.425182
2.11344,-0.104104,0
2.12779,-0.104811,-0.331436
2.10872,-0.207505,-0.269709
2.13196,-0.000744199,0.012391
2.12114,-0.104483,-0.228759
2.08413,-0.308501,-0.19667
2.08118,-0.308064,0.0244928
2.12822,-0.104832,-0.149
2.11075,-0.207705,-0.173144
2.1311,-0.000743896,0.062021
2.13562,-0.000745474,-0.136869
2.08965,-0.309318,-0.123022
2.11784,-0.104321,0.123487
2.09215,-0.205875,0.0856481
2.10692,-0.207328,-0.110952
2.10165,-0.103523,0.258363
2.08694,-0.205362,0.171191
2.13023,-0.000743594,-0.0867879
2.13566,-0.00857313,-0.0372783
2.10019,-0.21444,-0.0614392
2.111,-0.215544,-0.424398
2.10505,-0.111426,0
2.12345,-0.1124,-0.330821
2.10794,-0.215232,-0.269709
2.12795,-0.00854217,0.0123678
2.12472,-0.112467,-0.229188
2.08299,-0.316138,-0.19667
2.08399,-0.31629,0.0245394
2.10601,-0.215035,-0.172818
2.12708,-0.0085387,0.0619047
2.1356,-0.0085729,-0.136869
2.09245,-0.317574,-0.123255
2.11346,-0.111871,0.123255
2.09536,-0.213947,0.085811
2.12272,-0.112362,-0.0990182
2.10614,-0.215049,-0.110952
2.10522,-0.111435,0.258851
2.08618,-0.21301,0.171191
2.13022,-0.00855128,-0.0867879
2.13162,-0.0159979,-0.0372085
2.09943,-0.22177,-0.0614392
2.11024,-0.222912,-0.424398
2.10465,-0.118774,0
2.12699,-0.120034,-0.331436
2.1319,-0.0160001,0.012391
2.10426,-0.22228,-0.012298
2.12034,-0.119659,-0.228759
2.08187,-0.323407,-0.19667
2.12005,-0.119643,0.0494109
2.07892,-0.322949,0.0244928
2.11944,-0.119609,-0.148442
2.10524,-0.222385,-0.172818
2.13504,-0.0160236,0.0621374
2.13955,-0.0160574,-0.137125
2.09133,-0.324876,-0.123255
2.11704,-0.119473,0.123487
2.09857,-0.22168,0.0859738
2.12232,-0.119771,-0.0990182
2.09744,-0.22156,-0.110534
2.10878,-0.119007,0.259338
2.09732,-0.221547,0.172167
2.13417,-0.0160171,-0.0869508
2.13555,-0.0234825,-0.0372783
2.09864,-0.229097,-0.0614392
2.10555,-0.229851,-0.423613
2.10822,-0.126359,0
2.1305,-0.127695,-0.332051
2.13184,-0.0234417,0.012391
2.11991,-0.12706,-0.228759
2.08073,-0.330672,-0.19667
2.08173,-0.330832,0.0245394
2.123,-0.127245,-0.148721
2.10049,-0.229299,-0.172493
2.12297,-0.0233442,0.0617883
2.13948,-0.0235258,-0.137125
2.08624,-0.331548,-0.123022
2.11262,-0.126623,0.123255
2.09381,-0.22857,0.085811
2.12189,-0.127178,-0.0990182
2.09665,-0.22888,-0.110534
2.10439,-0.12613,0.258851
2.12611,-0.0233787,-0.0866251
2.13546,-0.0305641,-0.0372783
2.09389,-0.235608,-0.0613228
2.10867,-0.23727,-0.424398
2.10379,-0.133097,0
2.08457,-0.338374,-0.024586
2.12218,-0.13426,-0.330821
2.10956,-0.237371,-0.270214
2.13175,-0.030511,0.012391
2.11948,-0.134089,-0.228759
2.07962,-0.33757,-0.19667
2.12256,-0.134284,-0.148721
2.09972,-0.236264,-0.172493
2.12288,-0.0303841,0.0617883
2.1354,-0.0305633,-0.136869
2.08907,-0.339104,-0.123255
2.09702,-0.235959,0.0859738
2.12145,-0.134214,-0.0990182
2.09985,-0.236278,-0.110743
2.1,-0.132857,0.258363
2.12202,-0.0303718,-0.0864623
2.13533,-0.0383908,-0.0372783
2.09699,-0.243743,-0.0614392
2.10779,-0.244998,-0.424398
2.10728,-0.141074,0
2.11773,-0.141773,-0.330207
2.10473,-0.244643,-0.269709
2.12762,-0.0382521,0.0123678
2.11897,-0.141856,-0.228759
2.0823,-0.345843,-0.197041
2.07543,-0.344701,0.0244928
2.12206,-0.142063,-0.148721
2.09884,-0.243958,-0.172493
2.12676,-0.0382366,0.0619047
2.13128,-0.038318,-0.136613
2.076,-0.344796,-0.122557
2.1077,-0.141102,0.123022
2.09217,-0.243182,0.085811
2.11696,-0.141722,-0.0988321
2.095,-0.243512,-0.110534
2.0995,-0.140553,0.258363
2.12589,-0.0382211,-0.0866251
2.12719,-0.0456725,-0.0371387
2.09215,-0.250585,-0.0613228
2.10692,-0.252354,-0.424398
2.10279,-0.148148,0
2.0821,-0.353282,-0.024586
2.12116,-0.149442,-0.330821
2.10781,-0.25246,-0.270214
2.12347,-0.0455928,0.0123445
2.11053,-0.148693,-0.227903
2.07715,-0.352443,-0.19667
2.07815,-0.352613,0.0245394
2.11757,-0.149189,-0.148442
2.10193,-0.251757,-0.172818
2.13061,-0.0457459,0.062021
2.13114,-0.0457573,-0.136613
2.08265,-0.353376,-0.123022
2.1072,-0.148458,0.123022
2.08734,-0.250008,0.0856481
2.11247,-0.14883,-0.098646
2.0981,-0.251298,-0.110743
2.12575,-0.0456416,-0.0866251
2.13103,-0.0524534,-0.0372085
2.08739,-0.256669,-0.0612065
2.08098,-0.359821,-0.024586
2.1128,-0.155525,-0.329592
2.107,-0.259081,-0.270214
2.12332,-0.0522637,0.0123445
2.11402,-0.155615,-0.228331
2.07211,-0.358288,-0.196298
2.11371,-0.155592,0.0493179
2.06521,-0.357095,0.0243997
2.10913,-0.155255,-0.147884
2.09718,-0.257872,-0.172493
2.12246,-0.0522424,0.0617883
2.13497,-0.0525504,-0.136869
2.08547,-0.360598,-0.123255
2.08654,-0.256565,0.0856481
2.11597,-0.155759,-0.0988321
2.09334,-0.257401,-0.110534
2.1216,-0.0522212,-0.0864623
2.0904,-0.26482,-0.0613228
2.09774,-0.162149,0
2.07964,-0.367446,-0.024586
2.12404,-0.164182,-0.331436
2.10604,-0.266802,-0.270214
2.12711,-0.0601587,0.0123678
2.11343,-0.163362,-0.228331
2.07863,-0.367266,-0.197041
2.11252,-0.163292,-0.148163
2.10017,-0.266058,-0.172818
2.12625,-0.0601343,0.0619047
2.12678,-0.0601494,-0.136357
2.08955,-0.264713,0.085811
2.09238,-0.265071,-0.110534
2.12139,-0.0599969,-0.0864623
2.08951,-0.271751,-0.0613228
2.10118,-0.169426,0
2.07841,-0.37434,-0.024586
2.11954,-0.170907,-0.330821
2.11684,-0.170689,-0.228759
2.0774,-0.374157,-0.197041
2.11197,-0.170296,-0.148163
2.09928,-0.273021,-0.172818
2.12204,-0.0670586,0.0617883
2.12657,-0.0672018,-0.136357
2.09263,-0.272156,0.0859738
2.11484,-0.170527,-0.0988321
2.09149,-0.272009,-0.110534
2.12118,-0.0670314,-0.0864623
2.12637,-0.0746259,-0.0371387
2.08459,-0.278514,-0.0612065
2.10058,-0.17676,0
2.11893,-0.178304,-0.330821
2.12266,-0.0744958,0.0123445
2.11624,-0.178077,-0.228759
2.07608,-0.381406,-0.197041
2.11136,-0.177667,-0.148163
2.09831,-0.280347,-0.172818
2.1178,-0.0743252,0.0616719
2.12633,-0.0746245,-0.136357
2.07765,-0.381695,-0.123022
2.10498,-0.17713,0.123022
2.08374,-0.2784,0.0856481
2.11423,-0.177908,-0.0988321
2.08657,-0.278779,-0.110324
2.11694,-0.0742951,-0.0862994
2.12608,-0.082419,-0.0371387
2.08355,-0.286152,-0.0612065
2.1039,-0.184807,0
2.11433,-0.185723,-0.330207
2.0992,-0.288301,-0.269709
2.11837,-0.0821203,0.0123213
2.08836,-0.286813,-0.0122515
2.10765,-0.185136,-0.227903
2.06684,-0.387545,-0.196298
2.1107,-0.185405,-0.148163
2.09332,-0.287494,-0.172493
2.11751,-0.0820869,0.0616719
2.12604,-0.0824174,-0.136357
2.08016,-0.390043,-0.123255
2.10432,-0.184844,0.123022
2.08271,-0.286036,0.0856481
2.10958,-0.185306,-0.098646
2.08949,-0.286968,-0.110534
2.12464,-0.0823632,-0.0866251
2.12579,-0.0894688,-0.0371387
2.07863,-0.292503,-0.0610901
2.09132,-0.190693,0
2.07438,-0.396085,-0.024586
2.12157,-0.193451,-0.331436
2.09823,-0.295261,-0.269709
2.11409,-0.0889764,0.012298
2.11098,-0.192486,-0.228331
2.06554,-0.394397,-0.196298
2.10212,-0.191678,-0.147605
2.12122,-0.0892765,0.0617883
2.12575,-0.0894671,-0.136357
2.07101,-0.395441,-0.12279
2.09972,-0.191459,0.12279
2.07383,-0.291827,0.0853225
2.10498,-0.191938,-0.0984599
2.08457,-0.293339,-0.110324
2.11637,-0.0890722,-0.0862994
2.11067,-0.192457,-0.0493179
2.0815,-0.300691,-0.0612065
2.09061,-0.198357,0
2.11298,-0.200479,-0.330207
2.12174,-0.09709,0.0123445
2.11026,-0.200222,-0.228331
2.06799,-0.402726,-0.19667
2.09744,-0.199005,-0.147326
2.09126,-0.302101,-0.172493
2.11289,-0.096685,0.0615556
2.12541,-0.0972578,-0.136357
2.10298,-0.19953,0.123022
2.10426,-0.199652,-0.0984599
2.08348,-0.300977,-0.110324
2.11204,-0.0966458,-0.0861366
2.10995,-0.200192,-0.0493179
2.1251,-0.104678,-0.0371387
2.0844,-0.30854,-0.0613228
2.09787,-0.206437,0
2.10833,-0.207467,-0.329592
2.12139,-0.104496,0.0123445
2.11351,-0.207976,-0.228759
2.06657,-0.409942,-0.19667
2.09673,-0.206325,-0.147326
2.08625,-0.308815,-0.172167
2.11654,-0.104257,0.0616719
2.12905,-0.104873,-0.136613
2.09957,-0.206605,-0.0982737
2.08242,-0.308248,-0.110324
2.11169,-0.104018,-0.0861366
2.08726,-0.316414,-0.0614392
2.10111,-0.214164,0
2.11153,-0.215226,-0.330207
2.09497,-0.317582,-0.269709
2.11702,-0.111689,0.0123213
2.09694,-0.213739,-0.227046
2.06903,-0.417942,-0.197041
2.096,-0.213643,-0.147326
2.0891,-0.316693,-0.172493
2.11616,-0.111644,0.0616719
2.12468,-0.112093,-0.136357
2.0706,-0.418258,-0.123022
2.09884,-0.213932,-0.0982737
2.08133,-0.315515,-0.110324
2.11929,-0.111809,-0.0864623
2.11635,-0.118693,-0.0369991
2.0783,-0.322109,-0.0612065
2.09244,-0.220293,0
2.10294,-0.221399,-0.328977
2.11664,-0.118709,0.0123213
2.08309,-0.322852,-0.0122515
2.10018,-0.221108,-0.227474
2.06373,-0.423999,-0.19667
2.09924,-0.22101,-0.147605
2.0841,-0.323008,-0.172167
2.10779,-0.118213,0.0614392
2.12031,-0.118915,-0.136102
2.0692,-0.425122,-0.123022
2.09684,-0.220757,0.12279
2.09812,-0.220891,-0.0982737
2.08027,-0.322415,-0.110324
2.11492,-0.118613,-0.0862994
2.1038,-0.22149,-0.0492248
2.11992,-0.126318,-0.0370689
2.07716,-0.329361,-0.0612065
2.08768,-0.227163,0
2.10215,-0.228738,-0.328977
2.09276,-0.331835,-0.269709
2.11222,-0.125859,0.012298
2.10335,-0.228868,-0.227903
2.05834,-0.430385,-0.196298
2.09846,-0.228336,-0.147605
2.0869,-0.330906,-0.172493
2.11535,-0.126045,0.0616719
2.12387,-0.126553,-0.136357
2.09336,-0.227781,-0.0980876
2.07914,-0.329675,-0.110324
2.11449,-0.125994,-0.0862994
2.09904,-0.228399,-0.0491318
2.11547,-0.133465,-0.0369991
2.07994,-0.33725,-0.0613228
2.0829,-0.234002,0
2.1092,-0.236957,-0.330207
2.10253,-0.236209,-0.227903
2.05683,-0.437568,-0.196298
2.09368,-0.235214,-0.147326
2.08573,-0.338188,-0.172493
2.11091,-0.133177,0.0615556
2.06618,-0.439558,-0.123022
2.09525,-0.23539,0.12279
2.09255,-0.235087,-0.0980876
2.08192,-0.33757,-0.110534
2.11404,-0.133375,-0.0862994
2.1022,-0.236171,-0.0492248
2.07487,-0.343492,-0.0612065
2.08608,-0.241368,0
2.10055,-0.243042,-0.328977
2.1153,-0.140498,0.0123213
2.10174,-0.24318,-0.227903
2.05926,-0.445228,-0.19667
2.09289,-0.242156,-0.147326
2.08067,-0.344452,-0.172167
2.10646,-0.139911,0.0614392
2.07938,-0.344239,0.0367897
2.12296,-0.141007,-0.136357
2.09573,-0.242484,-0.0982737
2.08078,-0.344472,-0.110534
2.10561,-0.139854,-0.0859738
2.1185,-0.14814,-0.0370689
2.07366,-0.350733,-0.0612065
2.08523,-0.248648,0
2.09969,-0.250373,-0.328977
2.08923,-0.353367,-0.269709
2.10682,-0.147323,0.0122748
2.09693,-0.250044,-0.227474
2.06158,-0.453268,-0.197041
2.08807,-0.248988,-0.147047
2.08338,-0.352378,-0.172493
2.10198,-0.146984,0.0613228
2.11051,-0.147581,-0.13559
2.06704,-0.454469,-0.123255
2.08963,-0.249173,0.122557
2.09884,-0.250271,-0.0984599
2.07957,-0.351733,-0.110534
2.10511,-0.147204,-0.0859738
2.11396,-0.15561,-0.0369991
2.0763,-0.359012,-0.0613228
2.0843,-0.256289,0
2.09876,-0.258067,-0.328977
2.08792,-0.361022,-0.269709
2.10627,-0.155044,0.0122748
2.096,-0.257728,-0.227474
2.05991,-0.460821,-0.197041
2.09111,-0.257126,-0.147326
2.08208,-0.360011,-0.172493
2.1094,-0.155275,0.0615556
2.11393,-0.155608,-0.135846
2.05757,-0.460298,-0.12279
2.08998,-0.256987,-0.0980876
2.07827,-0.359353,-0.110534
2.10456,-0.154918,-0.0859738
2.06328,-0.363813,-0.0609738
2.07947,-0.262699,0
2.09789,-0.265025,-0.328977
2.10574,-0.162028,0.0122748
2.07988,-0.366739,-0.0122748
2.09513,-0.264677,-0.227474
2.05448,-0.466767,-0.19667
2.09478,-0.264632,0.0491318
2.08628,-0.263559,-0.147047
2.0848,-0.367606,-0.172818
2.10488,-0.161962,0.0614392
2.10942,-0.162311,-0.13559
2.06382,-0.468888,-0.123255
2.08784,-0.263756,0.122557
2.08911,-0.263916,-0.0980876
2.07706,-0.366242,-0.110534
2.10802,-0.162203,-0.0861366
2.09875,-0.265133,-0.0492248
2.11285,-0.169996,-0.0369991
2.062,-0.371013,-0.0609738
2.07854,-0.269956,0
2.09695,-0.272346,-0.328977
2.09025,-0.271476,-0.227046
2.0606,-0.475728,-0.197413
2.08535,-0.27084,-0.147047
2.07565,-0.373469,-0.172167
2.10032,-0.168988,0.0613228
2.11282,-0.169994,-0.135846
2.06217,-0.47609,-0.123255
2.08422,-0.270692,-0.0979015
2.0797,-0.374198,-0.110743
2.10345,-0.16924,-0.0859738
2.09384,-0.271943,-0.0491318
2.06849,-0.380013,-0.0612065
2.0815,-0.278102,0
2.09202,-0.279507,-0.328362
2.08403,-0.382867,-0.269709
2.10851,-0.177427,0.012298
2.07327,-0.38089,-0.0122515
2.08924,-0.279136,-0.227046
2.05497,-0.482367,-0.197041
2.09283,-0.279615,0.0491318
2.0883,-0.27901,-0.147326
2.07819,-0.381794,-0.172493
2.09969,-0.176685,0.0613228
2.10821,-0.177402,-0.13559
2.05652,-0.482732,-0.123022
2.09113,-0.279388,-0.0982737
2.07046,-0.380374,-0.110324
2.10282,-0.176948,-0.0859738
2.11161,-0.184742,-0.0369991
2.07508,-0.388341,-0.0614392
2.07661,-0.28446,0
2.095,-0.286979,-0.328977
2.08275,-0.389775,-0.269709
2.10393,-0.18407,0.0122748
2.08437,-0.285523,-0.226617
2.06111,-0.491025,-0.197785
2.07946,-0.28485,-0.146768
2.08083,-0.389417,-0.172818
2.10307,-0.183995,0.0614392
2.10761,-0.184392,-0.13559
2.08623,-0.285779,-0.0980876
2.07311,-0.387973,-0.110534
2.09426,-0.183224,-0.0856481
2.10697,-0.191749,-0.0369293
2.06586,-0.394083,-0.0612065
2.07956,-0.292264,0
2.09398,-0.29429,-0.328977
2.07747,-0.396299,-0.269204
2.10327,-0.191413,0.0122748
2.08729,-0.29335,-0.227046
2.04777,-0.495407,-0.19667
2.08635,-0.293218,-0.147326
2.07163,-0.395184,-0.172167
2.09844,-0.190973,0.0613228
2.11093,-0.19211,-0.135846
2.08522,-0.293059,-0.0980876
2.07567,-0.395956,-0.110743
2.10554,-0.19162,-0.0861366
2.09088,-0.293854,-0.0491318
2.06447,-0.401292,-0.0612065
2.08249,-0.300091,0
2.09686,-0.302161,-0.329592
2.10657,-0.19913,0.012298
2.09019,-0.301201,-0.227474
2.08532,-0.300498,-0.147326
2.07024,-0.402413,-0.172167
2.09378,-0.19792,0.0612065
2.10627,-0.199101,-0.13559
2.08419,-0.300336,-0.0980876
2.07036,-0.402436,-0.110534
2.10088,-0.198592,-0.0859738
2.08984,-0.301151,-0.0491318
2.06306,-0.408496,-0.0612065
2.09188,-0.308902,-0.328977
2.07466,-0.410793,-0.269204
2.10188,-0.206092,0.0122748
2.0852,-0.307915,-0.227046
2.08031,-0.307193,-0.147047
2.06882,-0.409637,-0.172167
2.09705,-0.205618,0.0613228
2.10556,-0.206452,-0.13559
2.07917,-0.307026,-0.0979015
2.0611,-0.408109,-0.110115
2.10018,-0.205924,-0.0859738
2.0577,-0.414905,-0.0610901
2.07243,-0.313426,0
2.08688,-0.315611,-0.328362
2.0771,-0.418817,-0.269709
2.10115,-0.213427,0.0122748
2.08804,-0.315786,-0.227474
2.08317,-0.315049,-0.147326
2.06738,-0.416856,-0.172167
2.09632,-0.212937,0.0613228
2.1088,-0.214204,-0.135846
2.08204,-0.314879,-0.0980876
2.05966,-0.415301,-0.110115
2.09547,-0.21285,-0.085811
2.08769,-0.315733,-0.0491318
2.10409,-0.221149,-0.0369293
2.07528,-0.32127,0
2.09358,-0.324103,-0.329592
2.10039,-0.22076,0.0122748
2.07906,-0.321856,-0.226617
2.07811,-0.321709,-0.147047
2.06591,-0.42407,-0.172167
2.09556,-0.220253,0.0613228
2.09613,-0.220312,-0.135078
2.07698,-0.321534,-0.0979015
2.06603,-0.424095,-0.110534
2.09471,-0.220163,-0.085811
2.08205,-0.329764,0
2.08853,-0.33079,-0.328977
2.09563,-0.227659,0.0122515
2.08578,-0.330356,-0.227474
2.07698,-0.328961,-0.147047
2.06832,-0.432094,-0.172493
2.09478,-0.227566,0.0613228
2.09932,-0.228059,-0.135334
2.07585,-0.328782,-0.0979015
2.06844,-0.432121,-0.110743
2.09393,-0.227474,-0.085811
2.08148,-0.329675,-0.0490387
2.10257,-0.235098,-0.0369293
2.0731,-0.335027,0
2.09138,-0.337981,-0.329592
2.09491,-0.234241,0.0122515
2.07688,-0.335638,-0.226617
2.07987,-0.336121,-0.147326
2.07085,-0.439417,-0.172818
2.09406,-0.234146,0.0613228
2.09462,-0.234209,-0.135078
2.0748,-0.335301,-0.0979015
2.05926,-0.436958,-0.110324
2.10115,-0.234939,-0.0861366
2.08439,-0.33685,-0.0491318
2.06792,-0.34197,0
2.08233,-0.344354,-0.328362
2.09801,-0.242377,0.0122748
2.08349,-0.344546,-0.227474
2.07469,-0.34309,-0.147047
2.06533,-0.446163,-0.172493
2.09319,-0.24182,0.0613228
2.10168,-0.242801,-0.13559
2.0775,-0.343556,-0.0980876
2.05374,-0.44366,-0.110115
2.09234,-0.241722,-0.085811
2.07919,-0.343835,-0.0490387
2.06665,-0.349547,0
2.08916,-0.249118,0.0122283
2.07829,-0.351516,-0.227046
2.07342,-0.350692,-0.147047
2.05589,-0.452017,-0.171842
2.08435,-0.248543,0.0610901
2.09285,-0.249557,-0.135078
2.07229,-0.350501,-0.0979015
2.056,-0.452042,-0.110324
2.0835,-0.248442,-0.0854853
2.09991,-0.257836,-0.0369293
2.06936,-0.35744,0
2.09622,-0.257384,0.0122748
2.08097,-0.359446,-0.227474
2.07218,-0.357928,-0.147047
2.05819,-0.460061,-0.172167
2.08743,-0.256305,0.0612065
2.09197,-0.256861,-0.135078
2.07499,-0.358413,-0.0980876
2.05051,-0.458344,-0.110115
2.09055,-0.256688,-0.085811
2.07668,-0.358705,-0.0490387
2.09512,-0.263932,-0.0368595
2.0761,-0.365326,0
2.08747,-0.262968,0.0122283
2.07591,-0.365292,-0.227046
2.07105,-0.364436,-0.147047
2.06063,-0.467406,-0.172493
2.09058,-0.263361,0.0613228
2.09511,-0.263931,-0.135334
2.07385,-0.36493,-0.0980876
2.06465,-0.468318,-0.110952
2.08974,-0.263254,-0.085811
2.0716,-0.364534,-0.0489456
2.06694,-0.371157,0
2.07462,-0.372536,-0.227046
2.06976,-0.371663,-0.147047
2.05898,-0.474596,-0.172493
2.09362,-0.27117,0.0614392
2.09022,-0.27073,-0.135078
2.0647,-0.370755,-0.0977154
2.0888,-0.270547,-0.085811
2.07819,-0.373176,-0.0491318
2.08926,-0.278025,-0.0367897
2.06453,-0.378166,-0.146768
2.05343,-0.480872,-0.172167
2.07681,-0.276367,0.0609738
2.08926,-0.278024,-0.135078
2.06733,-0.378679,-0.0979015
2.08785,-0.277837,-0.085811
2.07687,-0.380428,-0.0491318
2.08851,-0.285719,0.0122515
2.068,-0.386641,-0.226617
2.07489,-0.387931,-0.147605
2.05553,-0.489318,-0.172493
2.0837,-0.285061,0.0612065
2.08823,-0.28568,-0.135078
2.06592,-0.386254,-0.0979015
2.08286,-0.284945,-0.0856481
2.07547,-0.388038,-0.0491318
2.07963,-0.291533,0.012205
2.07061,-0.394241,-0.227046
2.07359,-0.394809,-0.147605
2.0539,-0.496132,-0.172493
2.07878,-0.291414,0.0610901
2.09122,-0.293157,-0.135334
2.06856,-0.39385,-0.0980876
2.08586,-0.292406,-0.085811
2.07417,-0.394918,-0.0491318
2.09048,-0.300498,0.0122748
2.07612,-0.402805,-0.147884
2.04828,-0.502348,-0.172167
2.08171,-0.299238,0.0612065
2.09413,-0.301023,-0.13559
2.05932,-0.399546,-0.0977154
2.08087,-0.299116,-0.0856481
2.06885,-0.401394,-0.0490387
2.08942,-0.307793,0.0122748
2.06391,-0.407916,-0.226617
2.07079,-0.409276,-0.147605
2.05812,-0.512384,-0.173144
2.0767,-0.30592,0.0610901
2.08517,-0.307168,-0.135078
2.05792,-0.406732,-0.0977154
2.08377,-0.30696,-0.085811
2.06744,-0.408614,-0.0490387
2.08805,-0.315042,-0.0368595
2.08437,-0.314488,0.0122515
2.06247,-0.415118,-0.226617
2.06935,-0.416502,-0.147605
2.06771,-0.311974,0.0608574
2.08409,-0.314445,-0.135078
2.05648,-0.413913,-0.0977154
2.07873,-0.313636,-0.0856481
2.07931,-0.321151,0.0122283
2.0649,-0.423113,-0.227046
2.06788,-0.423723,-0.147605
2.07509,-0.320499,-0.134567
2.05503,-0.421089,-0.0977154
2.07367,-0.32028,-0.0854853
2.07823,-0.328044,0.0122283
2.06646,-0.430578,-0.147605
2.07401,-0.327378,-0.134567
2.05753,-0.428716,-0.0979015
2.08049,-0.328401,-0.085811
2.08564,-0.550272,-1.00583
2.08463,-0.33689,-0.0368595
2.08097,-0.336297,0.0122515
2.06878,-0.438977,-0.147884
2.07674,-0.335615,-0.134823
2.05985,-0.437084,-0.0980876
2.07928,-0.336024,-0.085811
2.0835,-0.343801,-0.0368595
2.07984,-0.343196,0.0122515
2.06341,-0.444994,-0.147605
2.07955,-0.343149,-0.135078
2.05449,-0.44307,-0.0979015
2.07421,-0.342267,-0.0856481
2.07074,-0.349124,0.012205
2.06276,-0.452395,-0.227474
2.05794,-0.451339,-0.147326
2.08228,-0.35107,-0.135334
2.05293,-0.450239,-0.0979015
2.073,-0.349505,-0.0856481
2.06951,-0.35635,0.012205
2.06893,-0.461323,-0.228331
2.06025,-0.459388,-0.147605
2.07711,-0.357659,-0.135078
2.06694,-0.460881,-0.098646
2.07177,-0.356739,-0.0856481
2.07613,-0.364957,0.0122515
2.05474,-0.465695,-0.147326
2.07192,-0.364216,-0.134823
2.06657,-0.363277,-0.0854853
2.07931,-0.58721,-1.00752
2.05699,-0.47376,-0.147605
2.07456,-0.372151,-0.135078
2.06923,-0.371194,-0.0856481
2.05533,-0.480937,-0.147605
2.07718,-0.380109,-0.135334
2.07185,-0.379134,-0.085811
2.07585,-0.387359,-0.0368595
2.04975,-0.487186,-0.147326
2.07191,-0.386625,-0.135078
2.06658,-0.385631,-0.0856481
2.05192,-0.495274,-0.147605
2.06663,-0.393109,-0.134823
2.0613,-0.392095,-0.0854853
2.06132,-0.399561,-0.134567
2.06384,-0.400049,-0.0856481
2.06875,-0.62341,-1.00752
2.06383,-0.407527,-0.134823
2.05851,-0.406476,-0.0854853
2.06638,-0.415155,-0.135078
2.06499,-0.414875,-0.085811
2.06101,-0.421566,-0.134823
2.05961,-0.421279,-0.0856481
2.05953,-0.428757,-0.134823
2.05422,-0.427652,-0.0854853
2.06687,-0.654061,-1.0109
2.05802,-0.435944,-0.134823
2.06053,-0.436476,-0.085811
2.05258,-0.442284,-0.134567
2.0657,-0.669593,-1.01259
2.05492,-0.450301,-0.134823
2.05724,-0.458339,-0.135078
2.05858,-0.691188,-1.01259
2.05399,-0.47269,-0.135078
2.05272,-0.697203,-1.0109
2.0601,-0.481675,-0.13559
2.05027,-0.704364,-1.0109
2.0478,-0.711517,-1.0109
2.05227,-0.720706,-1.01428
2.04633,-0.726652,-1.01259
2.05047,-0.736599,-1.01597
2.04461,-0.742157,-1.01428
2.04201,-0.74929,-1.01428
2.04604,-0.759292,-1.01766
2.03333,-0.762255,-1.01259
2.03405,-0.770632,-1.01428
2.03135,-0.777728,-1.01428
2.032,-0.786122,-1.01597
2.03262,-0.79453,-1.01766
2.01888,-0.838314,-1.01936
