2.05819,0.369587,-0.0608574
2.10626,0.272809,-0.0247257
2.06691,0.371151,-0.012205
2.08643,0.27024,0.0244928
2.05482,0.36898,0.0364406
2.09888,0.271853,-0.123255
2.05553,0.361707,-0.060741
2.05243,0.361161,-0.012112
2.09133,0.263455,0.0245394
2.06003,0.362498,0.0365104
2.06073,0.355208,-0.0608574
2.10812,0.258097,-0.0247257
2.06156,0.355353,-0.0121585
2.0962,0.256639,0.024586
2.06128,0.355305,0.0365104
2.10866,0.258163,-0.12372
2.10508,0.249898,-0.0246791
2.06285,0.347795,-0.0121585
2.10797,0.250241,-0.198157
2.10508,0.249898,0.0246791
2.06652,0.348413,0.0365802
2.11355,0.250904,-0.123952
2.0631,0.341173,-0.0608574
2.06788,0.341964,-0.0121818
2.12062,0.244988,-0.199272
2.0979,0.242364,0.024586
2.06365,0.341266,0.0365104
2.11433,0.244262,-0.123952
2.06226,0.341035,0.0851596
2.06902,0.342153,-0.109906
2.06822,0.334608,-0.0609738
2.03071,0.431271,0
2.11861,0.237266,-0.0248188
2.06906,0.334745,-0.0121818
2.10958,0.236255,-0.198157
2.10271,0.235486,0.0246325
2.06483,0.33406,0.0365104
2.1112,0.236436,-0.12372
2.07415,0.335567,-0.110115
2.07423,0.327783,-0.012205
2.11044,0.228521,-0.198157
2.10754,0.228207,0.0246791
2.07789,0.328362,0.0367199
2.12396,0.229986,-0.124418
2.06859,0.326893,0.0853225
2.07142,0.327339,-0.109906
2.07841,0.321383,-0.0612065
2.12419,0.222887,-0.0248654
2.07925,0.321514,-0.0122283
2.11514,0.221937,-0.198529
2.11226,0.221635,0.0247257
2.08292,0.322082,0.0367897
2.11677,0.222108,-0.123952
2.04487,0.41938,-0.0485734
2.07161,0.312932,-0.0609738
2.12098,0.215068,-0.0248188
2.08036,0.314255,-0.0122283
2.12383,0.215357,-0.199272
2.117,0.214664,0.0247722
2.08008,0.314212,0.0367199
2.12151,0.215121,-0.124185
2.07077,0.312805,0.0853225
2.0815,0.314426,-0.110324
2.03848,0.410661,-0.0483873
2.08066,0.306502,-0.0612065
2.08546,0.30721,-0.0122515
2.1246,0.207571,-0.199272
2.11379,0.206514,0.0247257
2.08122,0.306585,0.0367199
2.12228,0.207344,-0.124185
2.07586,0.305796,0.0854853
2.08264,0.306794,-0.110324
2.0439,0.403962,-0.0484804
2.0777,0.299031,-0.0610901
2.08647,0.300292,-0.0122515
2.12132,0.200149,-0.1989
2.12243,0.200254,0.0248188
2.08222,0.299682,0.0367199
2.11898,0.199929,-0.123952
2.08364,0.299886,-0.110324
2.08269,0.292334,-0.0612065
2.09542,0.294121,-0.012298
2.1271,0.193208,0.0248654
2.09118,0.293525,0.0368595
2.12364,0.192894,-0.124185
2.08185,0.292215,0.0856481
2.08863,0.293167,-0.110534
2.04267,0.389292,-0.0483873
2.08771,0.285238,-0.0613228
2.04464,0.381905,0
2.09252,0.285895,-0.0122748
2.1346,0.186002,-0.200016
2.12381,0.185061,0.0248188
2.0962,0.286398,0.0369293
2.12832,0.185454,-0.124418
2.08687,0.285122,0.085811
2.09365,0.286049,-0.110743
2.08865,0.278315,-0.0613228
2.13637,0.179021,-0.0249585
2.1352,0.178923,-0.200016
2.13637,0.179021,0.0249585
2.10236,0.280142,-0.173144
2.09714,0.279447,0.0369293
2.13688,0.179064,-0.124883
2.0878,0.278202,0.085811
2.09459,0.279106,-0.110743
2.04927,0.375743,-0.0484804
2.05113,0.368687,0
2.09442,0.271646,-0.0122748
2.13581,0.171468,-0.200016
2.06238,0.37071,0.0487595
2.12901,0.170922,0.0248654
2.10333,0.272801,-0.173144
2.09017,0.271095,0.0367897
2.13351,0.171284,-0.12465
2.09272,0.271426,0.0859738
2.09159,0.271279,-0.110534
2.05451,0.369295,-0.0485734
2.09054,0.263725,-0.0613228
2.05634,0.362218,0
2.09536,0.264333,-0.0122748
2.13243,0.163707,-0.199644
2.05579,0.36212,0.0485734
2.13756,0.164101,0.0249585
2.10427,0.265457,-0.173144
2.09904,0.264798,0.0369293
2.13808,0.16414,-0.124883
2.08969,0.263618,0.085811
2.10045,0.264975,-0.110952
2.10818,0.258478,-0.0123445
2.14093,0.156844,-0.200387
2.06492,0.356302,0.0487595
2.14211,0.156931,0.025005
2.10518,0.258111,-0.173144
2.10392,0.257957,0.0369991
2.1466,0.15726,-0.125348
2.09456,0.256809,0.0859738
2.06718,0.356692,-0.0977154
2.10136,0.257642,-0.110952
2.08935,0.25617,0.171842
2.06098,0.355622,-0.0486665
2.0963,0.249598,-0.0614392
2.05882,0.347854,0
2.10907,0.251118,-0.0123445
2.14941,0.149925,-0.201131
2.07404,0.350425,0.0489456
2.14265,0.149453,0.025005
2.10607,0.250761,-0.173144
2.10878,0.251084,0.0370689
2.14714,0.149766,-0.125348
2.09942,0.249969,0.0861366
2.06447,0.348809,-0.0975292
2.10225,0.250306,-0.110952
2.06221,0.348426,-0.0486665
2.10506,0.243564,-0.0616719
2.06786,0.342331,0
2.11386,0.244582,-0.0123678
2.14592,0.142532,-0.200759
2.0673,0.342239,0.0487595
2.15111,0.142877,0.0250982
2.10293,0.243317,-0.172818
2.1096,0.244089,0.0370689
2.15161,0.142909,-0.12558
2.10023,0.243005,0.0861366
2.06956,0.342613,-0.0977154
2.10703,0.243792,-0.111162
2.07124,0.342892,-0.0488526
2.1059,0.236215,-0.0616719
2.06509,0.334472,0
2.1147,0.237202,-0.0123678
2.15436,0.135541,-0.201503
2.07637,0.336299,0.0489456
2.14362,0.134865,0.025005
2.11565,0.237309,-0.173795
2.10249,0.235833,0.0369293
2.15209,0.135399,-0.12558
2.10901,0.236564,0.0864623
2.0668,0.334748,-0.0975292
2.11184,0.236881,-0.111371
2.09584,0.235087,0.172167
2.06848,0.335021,-0.0487595
2.03972,0.425749,-0.0363708
2.10277,0.228063,-0.0615556
2.16007,0.127953,-0.0251913
2.11556,0.229449,-0.0123678
2.15484,0.127643,-0.201503
2.08154,0.329311,0.0490387
2.11651,0.229552,-0.173795
2.11925,0.22985,0.0372085
2.15656,0.127745,-0.125813
2.10987,0.228832,0.0864623
2.06801,0.32717,-0.0975292
2.11269,0.229139,-0.111371
2.10065,0.227833,0.172493
2.07364,0.328061,-0.0488526
2.10749,0.221506,-0.0616719
2.07133,0.320658,0
2.16048,0.120789,-0.0251913
2.12029,0.22285,-0.012391
2.15525,0.120496,-0.201503
2.08262,0.322406,0.0490387
2.15249,0.120342,0.0250982
2.11726,0.222532,-0.173795
2.11204,0.221984,0.0370689
2.15697,0.120593,-0.125813
2.11061,0.221834,0.0864623
2.11344,0.222131,-0.111371
2.10933,0.221698,0.173144
2.07867,0.321794,-0.0489456
2.03865,0.411065,-0.036301
2.16488,0.113457,-0.0252379
2.12503,0.215853,-0.0124142
2.15963,0.113182,-0.201875
2.07978,0.314538,0.0489456
2.1529,0.112829,0.0250982
2.12199,0.215544,-0.17412
2.12076,0.21542,0.0372085
2.16137,0.113273,-0.126045
2.08077,0.314688,0.122557
2.11535,0.21487,0.0866251
2.07414,0.313685,-0.0977154
2.1142,0.214754,-0.111371
2.10612,0.213933,0.172818
2.07978,0.314538,-0.0489456
2.04407,0.404367,-0.0363708
2.11698,0.2072,-0.0619047
2.07753,0.306413,0
2.12979,0.208453,-0.0124375
2.16401,0.105461,-0.202246
2.16129,0.105328,0.0251913
2.0922,0.308578,-0.147884
2.1307,0.208542,-0.174771
2.16576,0.105545,-0.126278
2.07796,0.306477,0.122325
2.1201,0.207506,0.0867879
2.08318,0.307247,-0.0980876
2.1269,0.208171,-0.111999
2.11086,0.206601,0.173144
2.08488,0.307497,-0.0490387
2.05725,0.399516,-0.0365802
2.11769,0.199809,-0.0619047
2.08254,0.299728,0
2.16963,0.0981437,-0.0252844
2.12929,0.200903,-0.272234
2.1305,0.201017,-0.0124375
2.16437,0.0979055,-0.202246
2.08594,0.300217,0.0490387
2.16963,0.0981437,0.0252844
2.12347,0.200354,-0.17412
2.12225,0.200239,0.0372085
2.1701,0.0981648,-0.126511
2.08297,0.29979,0.122557
2.12479,0.200479,0.0869508
2.08424,0.299973,-0.0980876
2.12364,0.20037,-0.11179
2.11554,0.199605,0.173469
2.08594,0.300217,-0.0490387
2.04684,0.390086,-0.0363708
2.12236,0.192777,-0.062021
2.08358,0.292457,0
2.16996,0.0905691,-0.0252844
2.13517,0.19394,-0.0124607
2.16868,0.0905154,-0.202618
2.09093,0.293489,0.0491318
2.16996,0.0905691,0.0252844
2.12416,0.19294,-0.17412
2.12294,0.192829,0.0372085
2.17043,0.0905886,-0.126511
2.08401,0.292517,0.122557
2.1215,0.192698,0.0867879
2.08132,0.29214,-0.0979015
2.13228,0.193678,-0.112208
2.08301,0.292378,-0.0489456
2.04819,0.382939,-0.0363708
2.11904,0.18502,-0.0619047
2.08062,0.28464,0
2.17426,0.0831473,-0.025331
2.13584,0.186487,-0.0124607
2.16898,0.0829452,-0.202618
2.09194,0.286189,0.0491318
2.17027,0.0829945,0.0252844
2.09137,0.28611,-0.147605
2.12879,0.185871,-0.174445
2.13156,0.186113,0.0373482
2.17472,0.0831649,-0.126743
2.08897,0.285782,0.12279
2.12614,0.18564,0.0869508
2.08233,0.284873,-0.0979015
2.13295,0.186234,-0.112208
2.12085,0.185178,0.173795
2.08798,0.285647,-0.0490387
2.04945,0.376145,-0.0363708
2.12362,0.178326,-0.062021
2.08948,0.278796,0
2.17852,0.0760757,-0.0253776
2.13644,0.179402,-0.0124607
2.1772,0.0760295,-0.203362
2.10081,0.280308,0.0493179
2.17453,0.0759361,0.025331
2.0923,0.279173,-0.147605
2.13337,0.179144,-0.174771
2.13616,0.179378,0.037418
2.171,0.0758128,-0.126511
2.08991,0.278853,0.12279
2.13073,0.178922,0.0871136
2.09118,0.279023,-0.0982737
2.13355,0.179159,-0.112208
2.12145,0.178143,0.173795
2.09288,0.27925,-0.0491318
2.0665,0.371822,-0.0366501
2.12822,0.171233,-0.0621374
2.09441,0.272017,0
2.17478,0.0683456,-0.025331
2.14768,0.172798,-0.274255
2.05103,0.369039,0.012112
2.17745,0.0684297,-0.203362
2.17878,0.0684712,0.0253776
2.09722,0.272382,-0.147884
2.13001,0.171377,-0.174445
2.14075,0.172241,0.0374878
2.17923,0.0684855,-0.126976
2.09087,0.271557,0.12279
2.13134,0.171484,0.0871136
2.13815,0.172032,-0.112418
2.12206,0.170737,0.173795
2.05723,0.370155,-0.0851596
2.09781,0.272458,-0.0492248
2.06384,0.363912,-0.0365802
2.13678,0.164417,-0.0623701
2.09138,0.264203,0
2.179,0.0608659,-0.0253776
2.14431,0.164996,-0.27375
2.18962,0.0611626,-0.204477
2.179,0.0608659,0.0253776
2.10212,0.26556,-0.148163
2.13854,0.164553,-0.175096
2.05147,0.36173,0.0606247
2.13736,0.164461,0.037418
2.17946,0.0608786,-0.126976
2.09576,0.264757,0.123022
2.13989,0.164657,0.0874392
2.09308,0.264418,-0.0982737
2.14272,0.164874,-0.112627
2.13059,0.163941,0.174445
2.05851,0.362972,-0.0851596
2.09478,0.264633,-0.0491318
2.0651,0.356705,-0.0365802
2.13335,0.156664,-0.0622537
2.1042,0.258363,0
2.1792,0.0532588,-0.0253776
2.15279,0.158091,-0.27476
2.14618,0.157606,-0.0125072
2.18186,0.0533238,-0.203733
2.1792,0.0532588,0.0253776
2.10699,0.258706,-0.148442
2.14308,0.157378,-0.175422
2.0606,0.355928,0.0608574
2.14191,0.157292,0.0374878
2.17965,0.0532699,-0.126976
2.09668,0.25744,0.123022
2.14046,0.157186,0.0874392
2.09795,0.257596,-0.0984599
2.14726,0.157685,-0.112836
2.13513,0.156794,0.174771
2.0637,0.356464,-0.0853225
2.09966,0.257806,-0.0492248
2.06239,0.348827,-0.0365104
2.13388,0.149215,-0.0622537
2.19137,0.0459024,-0.0255173
2.14937,0.150298,-0.274255
2.05872,0.348207,0.0121353
2.14672,0.150113,-0.0125072
2.18203,0.0457068,-0.203733
2.11246,0.251895,0.049504
2.18737,0.0458186,0.0254707
2.10788,0.25135,-0.148442
2.14759,0.150174,-0.175747
2.06183,0.348732,0.0608574
2.14643,0.150093,0.0375576
2.17983,0.0456606,-0.126976
2.10153,0.250592,0.123255
2.137,0.149434,0.0872764
2.14382,0.14991,-0.112627
2.13566,0.14934,0.174771
2.06888,0.349924,-0.0854853
2.10452,0.250948,-0.0493179
2.07137,0.343655,-0.0366501
2.09792,0.24348,0
2.18751,0.038947,-0.0254707
2.15775,0.144074,-0.275265
2.06375,0.342393,0.0121585
2.18615,0.0389228,-0.204105
2.18751,0.038947,0.0254707
2.1047,0.244267,-0.148163
2.15203,0.143693,-0.176073
2.06686,0.342908,0.0609738
2.15088,0.143616,0.0376274
2.07925,0.344964,-0.135078
2.19194,0.0390259,-0.127673
2.10627,0.244449,0.123487
2.14544,0.143252,0.0876021
2.10358,0.244137,-0.098646
2.14428,0.143175,-0.112627
2.1401,0.142896,0.175096
2.06602,0.342769,-0.0853225
2.10927,0.244797,-0.0494109
2.0765,0.337064,-0.0367199
2.13882,0.135313,-0.0623701
2.11068,0.237497,0
2.19563,0.0314259,-0.0255638
2.15428,0.136291,-0.27476
2.06889,0.335828,0.0121818
2.15565,0.136378,-0.0125537
2.19822,0.0314629,-0.205221
2.18763,0.0313114,0.0254707
2.10554,0.236919,-0.148163
2.14854,0.135928,-0.175747
2.06015,0.33441,0.060741
2.15137,0.136107,0.0376274
2.11505,0.237989,0.123952
2.14593,0.135763,0.0876021
2.10442,0.236793,-0.098646
2.14875,0.135941,-0.112836
2.13661,0.135173,0.174771
2.06721,0.335555,-0.0853225
2.11806,0.238327,-0.049597
2.07772,0.329451,-0.0367199
2.14329,0.12771,-0.0624865
2.10756,0.229327,0
2.19573,0.0233777,-0.0255638
2.15872,0.12863,-0.275265
2.16013,0.128714,-0.012577
2.11916,0.230589,-0.229616
2.19434,0.0233629,-0.204849
2.19173,0.0233351,0.0255173
2.11433,0.230063,-0.148721
2.15699,0.128526,-0.176398
2.06926,0.328109,0.0609738
2.14786,0.127983,0.0375576
2.19615,0.0233823,-0.127906
2.10797,0.229371,0.123487
2.1504,0.128134,0.0877649
2.11322,0.229943,-0.0990182
2.15721,0.12854,-0.113255
2.14107,0.127578,0.175096
2.07237,0.328602,-0.0854853
2.11494,0.23013,-0.049504
2.07892,0.321834,-0.0367199
2.14774,0.120078,-0.0626028
2.11236,0.222019,0
2.1998,0.0153582,-0.0256104
2.15918,0.120717,-0.275265
2.07129,0.320653,0.0121818
2.16059,0.120796,-0.012577
2.19441,0.0153206,-0.204849
2.1918,0.0153024,0.0255173
2.11912,0.222729,-0.149
2.15744,0.12062,-0.176398
2.07045,0.320523,0.0609738
2.1603,0.12078,0.037767
2.07498,0.321224,-0.134567
2.19223,0.0153054,-0.127673
2.11673,0.222478,0.123952
2.15085,0.120252,0.0877649
2.11008,0.221778,-0.0988321
2.15766,0.120633,-0.113255
2.14948,0.120175,0.175747
2.07356,0.321004,-0.0854853
2.11179,0.221959,-0.0494109
2.08387,0.315901,-0.0367897
2.1481,0.11333,-0.0626028
2.11305,0.215382,0
2.20383,0.00846308,-0.0256569
2.16351,0.114143,-0.27577
2.16096,0.114008,-0.012577
2.11277,0.215353,-0.228759
2.19843,0.00844231,-0.205221
2.12044,0.216135,0.049597
2.19184,0.008417,0.0255173
2.11584,0.215667,-0.148721
2.08331,0.315815,0.0613228
2.15667,0.113782,0.0376972
2.08387,0.3159,-0.135078
2.20425,0.00846467,-0.128371
2.11742,0.215828,0.123952
2.15122,0.113495,0.0877649
2.11474,0.215554,-0.0990182
2.15404,0.113644,-0.113046
2.15383,0.113632,0.176073
2.08246,0.315687,-0.085811
2.12441,0.21654,-0.0496901
2.08892,0.30921,-0.0368595
2.15248,0.106027,-0.0627192
2.10981,0.207613,0
2.19985,0.000768224,-0.0256104
2.15993,0.106394,-0.275265
2.07337,0.306909,0.0121818
2.12538,0.209145,-0.230044
2.21039,0.000771904,-0.206336
2.19585,0.000766827,0.0255638
2.12055,0.20867,-0.149
2.16616,0.106701,-0.177049
2.08044,0.307955,0.0612065
2.08496,0.308624,-0.135078
2.20427,0.000769765,-0.128371
2.11816,0.208435,0.123952
2.16358,0.106574,0.0882534
2.11945,0.208562,-0.0992044
2.15842,0.10632,-0.113255
2.10989,0.20762,0.260313
2.15023,0.105917,0.175747
2.0796,0.30783,-0.0856481
2.12914,0.209514,-0.0497831
2.08603,0.301345,-0.0367897
2.15683,0.0986962,-0.0628356
2.1145,0.200625,0
2.20384,-0.00692279,-0.0256569
2.16425,0.099036,-0.27577
2.08235,0.300814,0.0122283
2.1261,0.201725,-0.230044
2.21038,-0.00694333,-0.206336
2.19584,-0.00689766,0.0255638
2.12922,0.202021,-0.149558
2.1705,0.0993219,-0.177375
2.07755,0.30012,0.0610901
2.16141,0.0989058,0.037767
2.08602,0.301345,-0.135078
2.20825,-0.00693663,-0.128604
2.12285,0.201417,0.124185
2.15995,0.0988389,0.0880906
2.12415,0.20154,-0.0993905
2.16277,0.0989679,-0.113464
2.15855,0.0987752,0.176398
2.0767,0.299998,-0.0854853
2.12189,0.201326,-0.049597
2.09102,0.294619,-0.0368595
2.16515,0.091504,-0.0630683
2.11519,0.193242,0
2.2038,-0.0146162,-0.0256569
2.16855,0.0916478,-0.276275
2.07943,0.292985,0.012205
2.17003,0.0917101,-0.0126235
2.12283,0.19394,-0.229616
2.21432,-0.014686,-0.206708
2.2118,-0.0146692,0.0257501
2.12991,0.194587,-0.149558
2.16685,0.0915759,-0.177049
2.08254,0.293423,0.0612065
2.16574,0.0915288,0.0378368
2.08311,0.293504,-0.134823
2.2122,-0.0146719,-0.128836
2.12752,0.194369,0.124418
2.16427,0.0914669,0.0882534
2.12484,0.194123,-0.0993905
2.1631,0.0914173,-0.113464
2.11129,0.192885,0.260313
2.15889,0.0912392,0.176398
2.08565,0.293862,-0.085811
2.13055,0.194645,-0.0497831
2.09997,0.288406,-0.0369991
2.16546,0.0839451,-0.0630683
2.12382,0.186557,0
2.21174,-0.0223903,-0.0257501
2.17282,0.0842307,-0.27678
2.08044,0.285724,0.012205
2.17033,0.0841341,-0.0126235
2.21824,-0.0224562,-0.207079
2.20774,-0.0223499,0.0257035
2.13057,0.18715,-0.149558
2.17114,0.0841655,-0.177375
2.09147,0.28724,0.0614392
2.16604,0.0839678,0.0378368
2.09598,0.287859,-0.13559
2.21613,-0.0224348,-0.129069
2.13216,0.18729,0.12465
2.16857,0.0840658,0.0884162
2.1255,0.186705,-0.0993905
2.17139,0.084175,-0.113883
2.11986,0.186209,0.261288
2.15919,0.0837022,0.176398
2.08667,0.286579,-0.085811
2.12723,0.186856,-0.0496901
2.09303,0.280014,-0.0368595
2.16174,0.0762452,-0.0629519
2.12047,0.178807,0
2.21564,-0.0301646,-0.0257966
2.17707,0.0767859,-0.277285
2.08539,0.278991,0.0122283
2.17461,0.0766992,-0.0126467
2.21417,-0.0301445,-0.206708
2.13584,0.180102,0.0498762
2.20765,-0.0300557,0.0257035
2.13121,0.179712,-0.149558
2.17939,0.0768678,-0.178025
2.09246,0.279938,0.0614392
2.17032,0.0765478,0.0379066
2.08906,0.279483,-0.135078
2.21604,-0.03017,-0.129069
2.12485,0.179175,0.124185
2.16885,0.076496,0.0884162
2.13012,0.17962,-0.0995766
2.17167,0.0765954,-0.113883
2.11654,0.178475,0.2608
2.16744,0.0764462,0.177049
2.09161,0.279824,-0.0859738
2.13186,0.179766,-0.0497831
2.09796,0.273223,-0.0369293
2.16999,0.0689533,-0.0631846
2.12507,0.171726,0
2.21553,-0.037898,-0.0257966
2.17732,0.0691865,-0.277285
2.08635,0.27171,0.0122283
2.21803,-0.0379409,-0.207079
2.20753,-0.0377612,0.0257035
2.12785,0.171951,-0.149279
2.17168,0.069007,-0.177375
2.08946,0.272116,0.0613228
2.17457,0.069099,0.0379764
2.1019,0.273736,-0.135846
2.21991,-0.0379731,-0.129301
2.13342,0.172401,0.12465
2.16511,0.0687984,0.0882534
2.13074,0.172184,-0.0995766
2.17192,0.0690148,-0.113883
2.12506,0.171726,0.261775
2.16371,0.0687538,0.176724
2.08862,0.272006,-0.085811
2.13646,0.172646,-0.0498762
2.09895,0.265531,-0.0369293
2.17422,0.0611112,-0.063301
2.12968,0.164244,0
2.21937,-0.0461017,-0.0258432
2.1736,0.0610937,-0.27678
2.1831,0.0613608,-0.0126932
2.13725,0.164828,-0.230901
2.22186,-0.0461534,-0.207451
2.21537,-0.0460186,0.0257966
2.13642,0.164764,-0.149837
2.1759,0.0611584,-0.1777
2.09441,0.264957,0.0614392
2.17881,0.0612402,0.0380462
2.10685,0.266531,-0.136102
2.22774,-0.0462756,-0.129766
2.13404,0.16458,0.12465
2.17733,0.0611987,0.0887419
2.13135,0.164373,-0.0995766
2.17615,0.0611655,-0.114092
2.12964,0.16424,0.262263
2.16394,0.0608224,0.176724
2.09356,0.26485,-0.0859738
2.14106,0.165122,-0.0499692
2.09977,0.258936,-0.0369293
2.1744,0.0542809,-0.063301
2.13018,0.157553,0
2.18171,0.0544633,-0.27779
2.09212,0.257992,0.0122515
2.14173,0.158407,-0.23133
2.22568,-0.0532281,-0.207823
2.21522,-0.0529778,0.0257966
2.13295,0.157757,-0.149558
2.18405,0.0545218,-0.178351
2.0992,0.258866,0.0615556
2.18299,0.0544952,0.0381161
2.09975,0.258934,-0.13559
2.22759,-0.0532736,-0.129766
2.13853,0.15817,0.124883
2.17751,0.0543586,0.0887419
2.14381,0.158561,-0.100135
2.18033,0.0544288,-0.114302
2.13014,0.15755,0.262263
2.16811,0.0541238,0.177049
2.09835,0.258761,-0.0861366
2.13758,0.1581,-0.0498762
2.10861,0.252556,-0.0370689
2.17858,0.0467757,-0.0634174
2.13471,0.150396,0
2.22701,-0.0610393,-0.0259363
2.18586,0.046932,-0.278295
2.09698,0.251163,0.0122748
2.1383,0.150649,-0.230901
2.22947,-0.0611066,-0.208195
2.1461,0.151199,0.0500623
2.22301,-0.0609297,0.0258898
2.14941,0.151432,-0.150674
2.18423,0.0468971,-0.178351
2.10406,0.252012,0.0616719
2.17917,0.0467884,0.0380462
2.10461,0.252077,-0.135846
2.22739,-0.0610496,-0.129766
2.13508,0.150423,0.12465
2.18169,0.0468425,0.0889047
2.14834,0.151357,-0.100321
2.1845,0.0469029,-0.114511
2.1386,0.15067,0.263238
2.17626,0.0467259,0.1777
2.09924,0.251434,-0.0861366
2.13812,0.150637,-0.0498762
2.17873,0.0391722,-0.0634174
2.1883,0.0393444,-0.437734
2.13522,0.142945,0
2.18601,0.0393032,-0.278295
2.10181,0.244305,0.012298
2.13881,0.143186,-0.230901
2.23322,-0.06901,-0.208567
2.22279,-0.0686876,0.0258898
2.14594,0.143663,-0.150395
2.19634,0.0394889,-0.179327
2.10493,0.244667,0.0616719
2.18731,0.0393267,0.0381859
2.10944,0.245191,-0.136102
2.23514,-0.0690694,-0.130231
2.14356,0.143504,0.125115
2.18583,0.0393,0.0890675
2.14885,0.143858,-0.100321
2.18465,0.0392787,-0.114511
2.13119,0.142676,0.262263
2.18039,0.0392022,0.178025
2.10805,0.245029,-0.0864623
2.1506,0.143975,-0.0501553
2.11429,0.238278,-0.0371387
2.18684,0.0316821,-0.0636501
2.23453,-0.0768592,-0.0260295
2.19407,0.0317867,-0.279305
2.1106,0.237862,0.0123445
2.19573,0.0318109,-0.012763
2.22899,-0.0766686,-0.208195
2.15508,0.13672,0.0502484
2.21854,-0.0763093,0.0258432
2.15042,0.136424,-0.150674
2.1845,0.0316482,-0.178351
2.10975,0.237765,0.0617883
2.19544,0.0318066,0.0383255
2.11425,0.238273,-0.136357
2.2309,-0.0767344,-0.129999
2.14006,0.135767,0.124883
2.18596,0.0316692,0.0890675
2.15333,0.136609,-0.100507
2.18877,0.0317099,-0.11472
2.13167,0.135235,0.262263
2.17653,0.0315327,0.1777
2.10095,0.236774,-0.0861366
2.15508,0.13672,-0.0502484
2.18294,0.0240038,-0.0635337
2.19637,0.0241515,-0.439303
2.23425,-0.0846593,-0.0260295
2.19416,0.0241272,-0.279305
2.11142,0.230492,0.0123445
2.19583,0.0241455,-0.012763
2.1477,0.128726,-0.231758
2.23666,-0.084751,-0.208938
2.15555,0.129196,0.0502484
2.21826,-0.0840535,0.0258432
2.1469,0.128677,-0.150395
2.18859,0.0240659,-0.178676
2.11056,0.230399,0.0617883
2.19153,0.0240983,0.0382557
2.1111,0.230458,-0.136102
2.23461,-0.0846731,-0.130231
2.15248,0.129012,0.12558
2.19005,0.024082,0.0892304
2.1538,0.129091,-0.100507
2.19685,0.0241568,-0.115139
2.14006,0.128268,0.263238
2.18061,0.0239782,0.178025
2.10573,0.229872,-0.0862994
2.15555,0.129196,-0.0502484
2.12386,0.224351,-0.0372783
2.18701,0.0164143,-0.0636501
2.19644,0.016485,-0.439303
2.14858,0.121254,0
2.23793,-0.0926227,-0.026076
2.19423,0.0164685,-0.279305
2.11221,0.223121,0.0123445
2.1999,0.016511,-0.0127862
2.15608,0.121677,-0.232615
2.22994,-0.0922919,0.0259829
2.1553,0.121633,-0.150953
2.19264,0.0164565,-0.179002
2.11135,0.223031,0.0617883
2.1916,0.0164487,0.0382557
2.11586,0.223507,-0.136357
2.15292,0.121498,0.12558
2.19412,0.0164676,0.0893932
2.16221,0.122023,-0.100879
2.19293,0.0164587,-0.11493
2.14049,0.120797,0.263238
2.18866,0.0164266,0.178676
2.11447,0.22336,-0.0866251
2.15199,0.121446,-0.0501553
2.12463,0.216936,-0.0372783
2.19105,0.00879555,-0.0637664
2.15698,0.114175,0
2.16292,0.114489,-0.336971
2.19825,0.00882441,-0.27981
2.11696,0.216153,0.0123678
2.20395,0.00884729,-0.0128095
2.15649,0.114149,-0.232615
2.24398,-0.100721,-0.209682
2.2336,-0.100255,0.0260295
2.16767,0.114741,-0.15179
2.19667,0.0088181,-0.179327
2.1161,0.216065,0.0619047
2.19565,0.00881398,0.0383255
2.1206,0.216525,-0.136613
2.24194,-0.10063,-0.130697
2.15333,0.113982,0.12558
2.19017,0.00879198,0.0892304
2.15464,0.114051,-0.100507
2.20496,0.00885135,-0.115558
2.14883,0.113744,0.264213
2.19269,0.0088021,0.179002
2.11524,0.215977,-0.0866251
2.1524,0.113933,-0.0501553
2.12935,0.209911,-0.0373482
2.19907,0.00115193,-0.0639992
2.24922,-0.108824,-0.0262157
2.15936,0.106744,-0.336356
2.20223,0.00115359,-0.280315
2.12566,0.209547,0.0124142
2.20396,0.00115449,-0.0128095
2.16482,0.107014,-0.233472
2.24759,-0.108745,-0.210054
2.16477,0.107012,0.0504345
2.23324,-0.108051,0.0260295
2.1561,0.106583,-0.150953
2.20467,0.00115486,-0.179978
2.12082,0.20907,0.062021
2.19567,0.00115015,0.0383255
2.12134,0.209122,-0.136613
2.24955,-0.10884,-0.131162
2.15771,0.106662,0.125813
2.19818,0.00115146,0.089556
2.16301,0.106925,-0.100879
2.20098,0.00115293,-0.115348
2.14922,0.106243,0.264213
2.19669,0.00115068,0.179327
2.12393,0.209377,-0.0869508
2.16078,0.106814,-0.0503414
2.13007,0.202476,-0.0373482
2.19906,-0.00652484,-0.0639992
2.15971,0.0992052,-0.336356
2.21016,-0.00655777,-0.281326
2.20395,-0.00653936,-0.0128095
2.15723,0.0990912,-0.232615
2.24322,-0.116384,-0.209682
2.16513,0.0994539,0.0504345
2.23684,-0.116053,0.026076
2.16443,0.0994216,-0.151511
2.20466,-0.00654145,-0.179978
2.12551,0.202043,0.0621374
2.19966,-0.00652661,0.0383953
2.12603,0.202093,-0.136869
2.25315,-0.1169,-0.131394
2.16205,0.0993126,0.126045
2.20216,-0.00653405,0.0897188
2.16337,0.0993731,-0.100879
2.19698,-0.00651866,-0.115139
2.14957,0.0987393,0.264213
2.19668,-0.00651779,0.179327
2.12465,0.201961,-0.0869508
2.16114,0.0992704,-0.0503414
2.19902,-0.0142005,-0.0639992
2.2524,-0.124745,-0.0262623
2.16005,0.0916662,-0.336356
2.21012,-0.0142722,-0.281326
2.12707,0.194702,0.0124142
2.21192,-0.0142838,-0.012856
2.16154,0.0917295,-0.233043
2.25075,-0.124654,-0.210425
2.16946,0.0920656,0.0505275
2.23642,-0.12386,0.026076
2.16476,0.0918662,-0.151511
2.20063,-0.0142109,-0.179653
2.12223,0.194258,0.062021
2.19962,-0.0142043,0.0383953
2.1307,0.195034,-0.137125
2.16638,0.0919348,0.126278
2.20612,-0.0142463,0.0898817
2.17169,0.0921602,-0.101252
2.20493,-0.0142386,-0.115558
2.1618,0.0917408,0.265675
2.19266,-0.0141594,0.179002
2.12136,0.19418,-0.0867879
2.16946,0.0920656,-0.0505275
2.13542,0.187952,-0.037418
2.20696,-0.0219555,-0.0642319
2.25195,-0.132606,-0.0262623
2.1643,0.0842799,-0.336971
2.20212,-0.0219074,-0.280315
2.12375,0.186926,0.012391
2.20785,-0.0219644,-0.0128327
2.16582,0.084339,-0.233472
2.25825,-0.132978,-0.211169
2.23997,-0.131901,0.0261226
2.16906,0.084465,-0.15179
2.20854,-0.0219713,-0.180304
2.13484,0.187901,0.0623701
2.20356,-0.0219217,0.0384651
2.12739,0.187246,-0.136869
2.26025,-0.133095,-0.131859
2.1587,0.0840618,0.125813
2.20606,-0.0219466,0.0898817
2.17599,0.084735,-0.101438
2.21285,-0.0220142,-0.115976
2.16608,0.0843491,0.266163
2.19658,-0.0218523,0.179327
2.12999,0.187475,-0.0871136
2.16178,0.0841815,-0.0503414
2.13208,0.18016,-0.0373482
2.20287,-0.029606,-0.0641155
2.16264,0.0766551,0
2.17249,0.077004,-0.3382
2.21394,-0.0297547,-0.281831
2.21176,-0.0297255,-0.012856
2.17008,0.0769186,-0.2339
2.2538,-0.140612,-0.210797
2.17405,0.0770594,0.0506206
2.24748,-0.140218,0.0262157
2.17731,0.0771751,-0.152348
2.21643,-0.0297882,-0.180955
2.12751,0.179774,0.0621374
2.20746,-0.0296677,0.0385349
2.12406,0.179482,-0.136613
2.25578,-0.140736,-0.131627
2.16297,0.0766669,0.126045
2.21396,-0.0297551,0.0902073
2.17228,0.0769967,-0.101252
2.20877,-0.0296853,-0.115767
2.16636,0.0767869,0.266163
2.20447,-0.0296274,0.179978
2.13462,0.180375,-0.0872764
2.17005,0.0769177,-0.0505275
2.13668,0.17304,-0.037418
2.20675,-0.0373624,-0.0642319
2.17089,0.0693616,0
2.17669,0.0695468,-0.338815
2.21779,-0.0375493,-0.282336
2.14095,0.173386,0.012484
2.21565,-0.0375131,-0.0128792
2.17033,0.0693436,-0.2339
2.25727,-0.14874,-0.211169
2.1783,0.0695982,0.0507136
2.25097,-0.148324,0.0262623
2.16959,0.06932,-0.15179
2.22029,-0.0375918,-0.18128
2.14008,0.173316,0.0624865
2.20735,-0.0373726,0.0385349
2.13661,0.173034,-0.137381
2.25926,-0.148871,-0.131859
2.16722,0.0692442,0.126278
2.20585,-0.0373473,0.0898817
2.16854,0.0692864,-0.101066
2.21265,-0.0374623,-0.115976
2.16662,0.0692249,0.266163
2.21232,-0.0374568,0.180629
2.13523,0.172923,-0.0872764
2.1743,0.0694705,-0.0506206
2.14123,0.166263,-0.0374878
2.16711,0.0620482,0
2.26642,-0.156893,-0.0264485
2.17691,0.0623287,-0.338815
2.21765,-0.0449031,-0.282336
2.14551,0.166596,0.0125072
2.22351,-0.0450217,-0.0129257
2.1785,0.0623743,-0.234757
2.26074,-0.156499,-0.211541
2.18251,0.0624892,0.0508067
2.25046,-0.155788,0.0262623
2.17779,0.0623539,-0.152348
2.22414,-0.0450346,-0.181606
2.14065,0.166218,0.0624865
2.21921,-0.0449346,0.0387443
2.13717,0.165948,-0.137381
2.26673,-0.156914,-0.132324
2.16744,0.0620575,0.126278
2.20971,-0.0447424,0.0900445
2.17675,0.0623241,-0.101438
2.2165,-0.0448799,-0.116186
2.1589,0.061813,0.265188
2.2082,-0.0447118,0.180304
2.13181,0.165532,-0.0871136
2.17452,0.0622603,-0.0506206
2.14578,0.159083,-0.0375576
2.21844,-0.0526672,-0.064581
2.17531,0.0546837,0
2.22145,-0.0527386,-0.282841
2.14208,0.158809,0.012484
2.22334,-0.0527835,-0.0129257
2.18268,0.0548689,-0.235185
2.26812,-0.164968,-0.212284
2.18272,0.0548698,0.0508067
2.25389,-0.163933,0.0263088
2.17001,0.0545505,-0.15179
2.22796,-0.0528932,-0.181931
2.14121,0.158745,0.0624865
2.21904,-0.0526814,0.0387443
2.13774,0.158487,-0.137381
2.17163,0.0545912,0.126511
2.21754,-0.0526458,0.0903702
2.18494,0.0549257,-0.10181
2.22432,-0.0528069,-0.116605
2.16704,0.0544756,0.266163
2.21202,-0.0525148,0.180629
2.13636,0.158385,-0.0872764
2.17872,0.0547694,-0.0507136
2.14633,0.151592,-0.0375576
2.22223,-0.0605201,-0.0646974
2.17549,0.0470895,0
2.26926,-0.173016,-0.0264951
2.18124,0.047214,-0.33943
2.21728,-0.0603851,-0.282336
2.13864,0.151048,0.0124607
2.23114,-0.0607624,-0.0129722
2.18683,0.0473351,-0.235614
2.26753,-0.172885,-0.212284
2.1869,0.0473364,0.0508998
2.25331,-0.1718,0.0263088
2.18615,0.0473202,-0.152906
2.23175,-0.0607791,-0.182256
2.14574,0.15155,0.0626028
2.21884,-0.0604276,0.0387443
2.13828,0.151023,-0.137381
2.26956,-0.173039,-0.132557
2.1758,0.0470963,0.126743
2.21734,-0.0603867,0.0903702
2.18911,0.0473844,-0.101996
2.21614,-0.0603539,-0.116186
2.17515,0.0470822,0.267138
2.21182,-0.0602364,0.180629
2.14487,0.151489,-0.0876021
2.1829,0.0472498,-0.0508067
2.15086,0.143991,-0.0376274
2.222,-0.0686645,-0.0646974
2.17965,0.0391875,0
2.1814,0.039219,-0.33943
2.22894,-0.0688792,-0.283851
2.15115,0.14401,0.0125305
2.2229,-0.0686925,-0.0129257
2.19105,0.0393926,0.0509928
2.26064,-0.180695,0.026402
2.1903,0.039379,-0.153185
2.23151,-0.0689584,-0.182256
2.1423,0.143418,0.0624865
2.2226,-0.0686831,0.0388142
2.14678,0.143718,-0.137892
2.27687,-0.181993,-0.133022
2.17995,0.039193,0.126976
2.2211,-0.0686367,0.090533
2.22788,-0.0688462,-0.116814
2.17134,0.0390382,0.26665
2.21955,-0.068589,0.18128
2.14541,0.143627,-0.0876021
2.18306,0.0392488,-0.0508067
2.14336,0.135976,-0.0374878
2.22175,-0.0764203,-0.0646974
2.17577,0.0315209,0
2.19338,0.0317761,-0.341275
2.23266,-0.0767956,-0.284356
2.15563,0.136754,0.0125537
2.23064,-0.0767264,-0.0129722
2.18712,0.0316853,-0.235614
2.18718,0.0316862,0.0508998
2.26398,-0.188918,0.0264485
2.19042,0.0317332,-0.153185
2.23524,-0.0768845,-0.182582
2.14677,0.136192,0.0626028
2.22634,-0.0765785,0.038884
2.14329,0.135971,-0.137637
2.27622,-0.189939,-0.133022
2.18008,0.0315833,0.126976
2.21685,-0.0762519,0.0903702
2.19739,0.0318341,-0.102368
2.23162,-0.0767599,-0.117023
2.18337,0.0316311,0.268113
2.22727,-0.0766104,0.181931
2.15388,0.136643,-0.0879277
2.18718,0.0316862,-0.0508998
2.15179,0.129347,-0.0376274
2.22547,-0.0839382,-0.0648137
2.18786,0.0244397,0
2.27529,-0.197462,-0.0265882
2.18952,0.0244582,-0.34066
2.23635,-0.0843485,-0.284861
2.15607,0.129605,0.0125537
2.23437,-0.0842738,-0.0129954
2.19516,0.0245212,-0.23647
2.19527,0.0245224,0.0510859
2.18652,0.0244247,-0.152906
2.23895,-0.0844466,-0.182907
2.14721,0.129072,0.0626028
2.23407,-0.0842624,0.0390236
2.15568,0.129581,-0.138404
2.27955,-0.197832,-0.133255
2.18816,0.024443,0.127441
2.22457,-0.0839041,0.0906958
2.18949,0.0244578,-0.101996
2.23135,-0.0841598,-0.117023
2.18347,0.0243906,0.268113
2.22302,-0.0838456,0.181606
2.15033,0.12926,-0.0877649
2.19127,0.0244777,-0.0509928
2.15223,0.121835,-0.0376274
2.22916,-0.0918707,-0.0649301
2.19194,0.0168332,0
2.27857,-0.205763,-0.0266348
2.24001,-0.0923177,-0.285366
2.24206,-0.0924022,-0.0130419
2.19921,0.0168891,-0.236899
2.27459,-0.205403,0.0265882
2.19458,0.0168535,-0.153464
2.23865,-0.0922615,-0.182907
2.14765,0.121576,0.0626028
2.22977,-0.0918956,0.0389538
2.15213,0.12183,-0.138148
2.2868,-0.206506,-0.13372
2.18823,0.0168047,0.127441
2.23225,-0.091998,0.0910215
2.19755,0.0168763,-0.102368
2.23902,-0.0922771,-0.117442
2.18751,0.0167992,0.2686
2.2267,-0.091769,0.181931
2.15077,0.121753,-0.0877649
2.19534,0.0168593,-0.0510859
2.14864,0.11411,-0.0375576
2.23282,-0.0998299,-0.0650464
2.19198,0.00918181,0
2.28581,-0.214462,-0.0267279
2.23571,-0.099959,-0.284861
2.15692,0.11455,0.0125537
2.23373,-0.0998705,-0.0129954
2.19926,0.00921229,-0.236899
2.20338,0.00922957,0.051272
2.19861,0.00920958,-0.153743
2.16004,0.114715,0.0629519
2.23742,-0.100036,0.0390934
2.15254,0.114317,-0.138148
2.28209,-0.214114,-0.133487
2.23192,-0.0997894,0.0910215
2.20559,0.00923881,-0.102741
2.24268,-0.100271,-0.117651
2.18755,0.00916326,0.2686
2.22238,-0.099363,0.181606
2.15118,0.114245,-0.0877649
2.19539,0.00919607,-0.0510859
2.15302,0.106807,-0.0376274
2.196,0.0015331,0
2.19756,0.00153419,-0.34189
2.24327,-0.108145,-0.285871
2.16131,0.107218,0.012577
2.24136,-0.108052,-0.0130419
2.2034,0.00153827,0.051272
2.2731,-0.221277,0.0265882
2.20262,0.00153772,-0.154022
2.24193,-0.10808,-0.183233
2.15643,0.106976,0.0628356
2.24106,-0.108038,0.0391632
2.15692,0.107,-0.138404
2.28531,-0.222466,-0.13372
2.18829,0.00152772,0.127441
2.23555,-0.107772,0.0911843
2.20161,0.00153702,-0.102555
2.24232,-0.108098,-0.117651
2.19948,0.00153553,0.270062
2.22998,-0.107504,0.182256
2.15157,0.106735,-0.0877649
2.19541,0.00153268,-0.0510859
2.16137,0.0996595,-0.037767
2.23606,-0.115622,-0.0651628
2.19999,-0.00614355,0
2.20151,-0.00614778,-0.342505
2.16966,0.100041,0.0126235
2.23697,-0.115669,-0.0130187
2.20325,-0.00615263,-0.237327
2.1994,-0.00614188,0.0511789
2.27629,-0.229612,0.0266348
2.19862,-0.00613972,-0.153743
2.25348,-0.116523,-0.184209
2.16478,0.0998167,0.0630683
2.24067,-0.11586,0.0391632
2.16127,0.0996545,-0.13866
2.29246,-0.231243,-0.134185
2.19228,-0.006122,0.127673
2.23516,-0.115575,0.0911843
2.2096,-0.00617037,-0.102927
2.24192,-0.115925,-0.117651
2.19947,-0.0061421,0.270062
2.22959,-0.115287,0.182256
2.15991,0.0995921,-0.0880906
2.1994,-0.00614188,-0.0511789
2.15771,0.091944,-0.0376972
2.24363,-0.123867,-0.0653955
2.19996,-0.0138229,0
2.20147,-0.0138324,-0.342505
2.16999,0.0924674,0.0126235
2.24454,-0.123918,-0.0130652
2.19923,-0.0138184,-0.236899
2.21136,-0.0138946,0.0514581
2.27548,-0.237556,0.0266348
2.20258,-0.0138394,-0.154022
2.24908,-0.124168,-0.183884
2.16112,0.0920893,0.0629519
2.24823,-0.124121,0.0393028
2.16958,0.0924495,-0.139172
2.29958,-0.240073,-0.13465
2.20023,-0.0138246,0.128138
2.23873,-0.123597,0.0913472
2.20956,-0.0138833,-0.102927
2.25347,-0.124411,-0.118279
2.19944,-0.0138197,0.270062
2.22918,-0.123069,0.182256
2.16025,0.092052,-0.0880906
2.20736,-0.0138694,-0.051365
2.17001,0.0848806,-0.0379066
2.24718,-0.131933,-0.0655119
2.20389,-0.0215412,0
2.1743,0.0850484,0.0126467
2.25208,-0.132221,-0.0131117
2.2111,-0.0216117,-0.238184
2.28657,-0.246785,0.0267745
2.21449,-0.0216447,-0.154859
2.25261,-0.132252,-0.184209
2.16543,0.0847013,0.0630683
2.24779,-0.131968,0.0393028
2.1659,0.0847197,-0.138916
2.20416,-0.0215438,0.128371
2.23829,-0.131411,0.0913472
2.21349,-0.021635,-0.103113
2.24904,-0.132042,-0.11807
2.19541,-0.0214582,0.269575
2.23272,-0.131084,0.182582
2.16055,0.0845107,-0.0880906
2.2033,-0.0215354,-0.051272
2.17429,0.0774477,-0.0379764
2.2467,-0.139776,-0.0655119
2.21181,-0.0293402,0
2.20923,-0.029306,-0.343735
2.17458,0.0774582,0.0126467
2.25161,-0.140081,-0.0131117
2.21101,-0.0293297,-0.238184
2.28966,-0.255209,0.0268211
2.21839,-0.0294275,-0.155138
2.25214,-0.140114,-0.184209
2.16571,0.0771421,0.0630683
2.2513,-0.140062,0.0393726
2.17017,0.0773009,-0.139172
2.20008,-0.0291847,0.128138
2.24978,-0.139967,0.0918356
2.2214,-0.0294674,-0.103485
2.26052,-0.140636,-0.118698
2.20326,-0.0292268,0.27055
2.23622,-0.139124,0.182907
2.16483,0.0771108,-0.0882534
2.20721,-0.0292792,-0.051365
2.17055,0.0697291,-0.0379066
2.25019,-0.14788,-0.0656282
2.21969,-0.0371947,0
2.21702,-0.0371499,-0.344964
2.17484,0.069867,0.0126467
2.2551,-0.148202,-0.0131349
2.2109,-0.0370474,-0.238184
2.21909,-0.0371846,0.0516442
2.29273,-0.263656,0.0268676
2.22226,-0.0372378,-0.155417
2.26755,-0.14902,-0.185511
2.17396,0.0698386,0.063301
2.25479,-0.148182,0.0394424
2.17043,0.0697251,-0.139172
2.20396,-0.0369311,0.128371
2.24928,-0.14782,0.0918356
2.22128,-0.0372214,-0.103485
2.264,-0.148787,-0.118907
2.21108,-0.0370505,0.271525
2.2397,-0.14719,0.183233
2.17308,0.0698103,-0.0885791
2.20709,-0.0369836,-0.051365
2.17478,0.0622665,-0.0379764
2.20755,-0.0446997,0
2.21292,-0.0448085,-0.344349
2.17907,0.0623894,0.01267
2.25856,-0.156349,-0.0131582
2.21871,-0.0449257,-0.239041
2.22294,-0.0450114,0.0517372
2.29974,-0.2726,0.0269608
2.22611,-0.0450755,-0.155696
2.26702,-0.156935,-0.185511
2.18218,0.0624785,0.0635337
2.25825,-0.156328,0.0395123
2.17465,0.0622628,-0.139427
2.20381,-0.0446241,0.128371
2.22114,-0.0449749,-0.103485
2.2555,-0.156138,-0.118489
2.21094,-0.0447684,0.271525
2.24315,-0.155283,0.183558
2.1773,0.0623388,-0.0887419
2.21095,-0.0447686,-0.0514581
2.17498,0.0546747,-0.0379764
2.22337,-0.052785,0
2.31069,-0.282079,-0.0271004
2.18727,0.0549837,0.0127165
2.26598,-0.164812,-0.0132047
2.21854,-0.0526702,-0.239041
2.22277,-0.0527707,0.0517372
2.29481,-0.280141,0.0269142
2.21796,-0.0526564,-0.155138
2.27043,-0.165136,-0.185836
2.18239,0.0548609,0.0635337
2.26567,-0.16479,0.0396519
2.18283,0.0548721,-0.139939
2.21163,-0.0525061,0.128836
2.25616,-0.164099,0.0921613
2.22895,-0.0529175,-0.103857
2.26689,-0.164879,-0.119117
2.21474,-0.05258,0.272012
2.25055,-0.16369,0.184209
2.17751,0.0547382,-0.0887419
2.21478,-0.0525809,-0.0515511
2.18715,0.047342,-0.0381859
2.25649,-0.172043,-0.065861
2.22318,-0.0605457,0
2.31366,-0.290642,-0.027147
2.18745,0.0473484,0.0127165
2.27336,-0.173329,-0.0132512
2.23027,-0.0607388,-0.240326
2.30572,-0.289645,0.0270539
2.22973,-0.0607241,-0.155975
2.26586,-0.172758,-0.185511
2.17857,0.0471561,0.0634174
2.2571,-0.17209,0.0395123
2.17902,0.0471658,-0.139683
2.21942,-0.0604433,0.129301
2.25558,-0.171973,0.0921613
2.23275,-0.0608064,-0.104044
2.2663,-0.172791,-0.119117
2.21454,-0.0603105,0.272012
2.24996,-0.171545,0.184209
2.17768,0.0471369,-0.0887419
2.22257,-0.0605293,-0.0517372
2.17931,0.0395619,-0.0380462
2.25986,-0.180237,-0.0659773
2.23095,-0.0685513,0
2.32056,-0.299741,-0.0272401
2.1876,0.0397125,0.0127165
2.26477,-0.180628,-0.0132047
2.22607,-0.0684014,-0.239897
2.3166,-0.299229,0.0271936
2.23349,-0.0686295,-0.156255
2.2732,-0.1813,-0.186162
2.18272,0.0396238,0.0635337
2.26446,-0.180603,0.0396519
2.17917,0.0395594,-0.139683
2.22318,-0.0683127,0.129534
2.26293,-0.180481,0.0924869
2.26967,-0.181018,-0.119326
2.22225,-0.0682842,0.272987
2.17783,0.0395351,-0.0887419
2.21835,-0.0681643,-0.0516442
2.18743,0.0320717,-0.0381859
2.26719,-0.188787,-0.0662101
2.23069,-0.0763384,0
2.32347,-0.308366,-0.0272867
2.19173,0.0321347,0.0127397
2.2721,-0.189196,-0.0132512
2.22979,-0.0763074,-0.240326
2.31157,-0.306787,0.027147
2.23722,-0.0765619,-0.156534
2.19084,0.0321216,0.0637664
2.27179,-0.18917,0.0397915
2.18329,0.0320109,-0.139939
2.21894,-0.0759361,0.129301
2.26627,-0.188711,0.0926498
2.23626,-0.076529,-0.10423
2.27698,-0.189603,-0.119745
2.22994,-0.0763125,0.273962
2.19394,0.0321672,-0.0893932
2.2221,-0.0760442,-0.0517372
2.19153,0.0244806,-0.0382557
2.26253,-0.196355,-0.0660937
2.23441,-0.0842753,0
2.32238,-0.316474,-0.0272867
2.19583,0.0245286,0.012763
2.27142,-0.197126,-0.0132512
2.23348,-0.0842402,-0.240754
2.30652,-0.314314,0.0271004
2.22897,-0.08407,-0.155975
2.19094,0.024474,0.0637664
2.27112,-0.197099,0.0397915
2.19137,0.0244788,-0.140451
2.23462,-0.0842832,0.130231
2.26162,-0.196275,0.0924869
2.228,-0.0840334,-0.103857
2.27631,-0.19755,-0.119745
2.22569,-0.0839464,0.273475
2.19005,0.0244641,-0.0892304
2.22581,-0.083951,-0.0518303
2.1876,0.0171817,-0.0381859
2.26585,-0.204215,-0.0662101
2.23812,-0.0918484,0
2.32924,-0.32528,-0.0273798
2.19989,0.0172783,0.0127862
2.27474,-0.205016,-0.0132744
2.23716,-0.0918093,-0.241183
2.24151,-0.0919875,0.0522025
2.31339,-0.323068,0.0271936
2.22868,-0.091461,-0.155975
2.191,0.0172085,0.0637664
2.27443,-0.204989,0.0398613
2.19543,0.0172432,-0.140707
2.23034,-0.0915293,0.129999
2.26891,-0.204491,0.0928126
2.24368,-0.0920766,-0.104602
2.27962,-0.205456,-0.119954
2.22937,-0.0914894,0.273962
2.19012,0.0172015,-0.0892304
2.23352,-0.0916596,-0.0520164
2.19964,0.00959781,-0.0383953
2.27309,-0.212869,-0.0664428
2.23778,-0.0996603,0
2.19594,0.00958166,0.012763
2.28198,-0.213701,-0.0133209
2.2408,-0.0997949,-0.241611
2.24117,-0.0998112,0.0522025
2.32017,-0.332275,0.0272867
2.2403,-0.0997726,-0.156813
2.19105,0.00956032,0.0637664
2.28167,-0.213672,0.0400009
2.19547,0.00957962,-0.140707
2.23001,-0.099314,0.129999
2.26819,-0.21241,0.0928126
2.24334,-0.0999079,-0.104602
2.28287,-0.213784,-0.120163
2.19416,0.00957388,-0.0893932
2.23718,-0.0996333,-0.0521094
2.19966,0.00191957,-0.0383953
2.28427,-0.221962,-0.0667919
2.24142,-0.107663,0
2.20396,0.00192332,0.0128095
2.2852,-0.222052,-0.0133442
2.24441,-0.107807,-0.242039
2.319,-0.340372,0.0272867
2.24393,-0.107784,-0.157092
2.19507,0.00191556,0.0638828
2.28489,-0.222022,0.0400707
2.1915,0.00191245,-0.140451
2.23364,-0.107289,0.130231
2.27936,-0.221486,0.0933011
2.25096,-0.108121,-0.104974
2.28608,-0.222138,-0.120373
2.19818,0.00191827,-0.089556
2.23282,-0.10725,-0.0520164
2.19566,-0.00574822,-0.0383255
2.2795,-0.229534,-0.0666755
2.24103,-0.115486,0
2.20796,-0.00578041,0.0128327
2.28441,-0.230028,-0.0133442
2.24005,-0.115436,-0.241611
2.24752,-0.115821,-0.157371
2.19906,-0.00575713,0.0639992
2.27614,-0.229195,0.0399311
2.19948,-0.00575823,-0.140962
2.23325,-0.115085,0.130231
2.28255,-0.229841,0.0934639
2.24259,-0.115567,-0.104602
2.29324,-0.230917,-0.120791
2.20616,-0.00577572,-0.0898817
2.23643,-0.115249,-0.0521094
2.19962,-0.0134369,-0.0383953
2.27869,-0.237489,-0.0666755
2.2446,-0.123528,0
2.20392,-0.0134632,0.0128095
2.29553,-0.239245,-0.0134139
2.24758,-0.123692,-0.242468
2.244,-0.123495,0.0522955
2.2471,-0.123666,-0.157371
2.19903,-0.0134333,0.0639992
2.29124,-0.238798,0.0402103
2.20743,-0.0134846,-0.141474
2.24081,-0.123319,0.130697
2.27776,-0.237393,0.0933011
2.25414,-0.124053,-0.10516
2.29242,-0.238921,-0.120791
2.21412,-0.0135255,-0.0902073
2.244,-0.123495,-0.0522955
2.20756,-0.0211917,-0.0385349
2.28182,-0.24587,-0.0667919
2.24017,-0.131129,0
2.21186,-0.021233,0.012856
2.25507,-0.132001,-0.243325
2.24666,-0.131509,-0.157371
2.20297,-0.0211476,0.0641155
2.28642,-0.246366,0.0401405
2.21136,-0.0212282,-0.14173
2.24435,-0.131374,0.130929
2.28487,-0.246199,0.0936268
2.25369,-0.131921,-0.10516
2.29554,-0.247349,-0.121001
2.21006,-0.0212157,-0.0900445
2.24754,-0.131561,-0.0523886
2.20747,-0.0288974,-0.0385349
2.2889,-0.254718,-0.0670246
2.24768,-0.139443,0
2.21577,-0.0290061,0.0128792
2.2546,-0.139872,-0.243325
2.25813,-0.140091,-0.158208
2.19888,-0.0287849,0.0639992
2.29349,-0.25523,0.0402802
2.21127,-0.0289472,-0.14173
2.25583,-0.139949,0.131627
2.29194,-0.255057,0.0939524
2.21797,-0.0290348,-0.0903702
2.25106,-0.139653,-0.0524816
2.21536,-0.0367354,-0.0386745
2.29196,-0.263163,-0.067141
2.25516,-0.147811,0
2.20766,-0.0366077,0.0128327
2.30084,-0.264182,-0.0134604
2.26161,-0.148234,-0.158487
2.20276,-0.0365266,0.0641155
2.28861,-0.262778,0.0402103
2.21515,-0.036732,-0.141986
2.25135,-0.147561,0.131394
2.29501,-0.263512,0.0941152
2.26468,-0.148435,-0.105719
2.22185,-0.0368431,-0.090533
2.25056,-0.14751,-0.0524816
2.21522,-0.0444682,-0.0386745
2.29103,-0.271161,-0.067141
2.25862,-0.155958,0
2.21952,-0.0445545,0.0129024
2.30388,-0.272682,-0.0134836
2.26506,-0.156402,-0.158766
2.21462,-0.0444562,0.0644646
2.2996,-0.272175,0.0404198
2.21501,-0.044464,-0.141986
2.25082,-0.155419,0.131394
2.29407,-0.271521,0.0941152
2.26016,-0.156064,-0.105533
2.21372,-0.0444381,-0.0902073
2.25801,-0.155915,-0.0526678
2.21905,-0.0522947,-0.0387443
2.25806,-0.163841,0
2.21935,-0.0523018,0.0129024
2.30688,-0.281207,-0.0135069
2.2645,-0.164308,-0.158766
2.21844,-0.0522805,0.064581
2.30657,-0.281168,0.0405594
2.21883,-0.0522896,-0.142242
2.25823,-0.163853,0.131859
2.26359,-0.164242,-0.105719
2.22554,-0.0524476,-0.0906958
2.25346,-0.163507,-0.0525747
2.23084,-0.0603648,-0.0389538
2.29702,-0.288145,-0.0673737
2.26546,-0.172329,0
2.22315,-0.0601566,0.0129257
2.31383,-0.290253,-0.0135534
2.27187,-0.172817,-0.159324
2.21425,-0.0599159,0.0644646
2.30161,-0.28872,0.0404896
2.22662,-0.0602504,-0.142753
2.26959,-0.172643,0.132557
2.27097,-0.172748,-0.106091
2.22933,-0.060324,-0.0908587
2.26484,-0.172282,-0.0528539
2.23062,-0.0681516,-0.0389538
2.31186,-0.298207,-0.0678391
2.26883,-0.180553,0
2.22293,-0.0679165,0.0129257
2.31677,-0.29884,-0.0135766
2.27126,-0.180746,-0.159324
2.21403,-0.0676447,0.0644646
2.31249,-0.298288,0.040699
2.22639,-0.0680224,-0.142753
2.26897,-0.180564,0.132557
2.27434,-0.180991,-0.106277
2.22512,-0.0679834,-0.0906958
2.26423,-0.180187,-0.0528539
2.2264,-0.0750242,-0.038884
2.27224,-0.18801,0
2.2307,-0.0751691,0.0129722
2.31978,-0.306641,-0.0135999
2.27068,-0.187881,-0.159324
2.2178,-0.0747346,0.064581
2.30757,-0.305027,0.0406292
2.23016,-0.0751509,-0.143009
2.27237,-0.188021,0.13279
2.23687,-0.0753773,-0.0911843
2.26764,-0.187629,-0.0529469
2.2341,-0.0834826,-0.0390236
2.2795,-0.197025,0
2.2344,-0.0834939,0.0129954
2.32261,-0.31568,-0.0136231
2.2819,-0.197233,-0.160161
2.2295,-0.0833106,0.0649301
2.31437,-0.31456,0.0407688
2.23386,-0.0834734,-0.143265
2.27167,-0.196348,0.13279
2.28101,-0.197156,-0.106649
2.23658,-0.0835753,-0.0911843
2.27092,-0.196283,-0.05304
2.23779,-0.0914438,-0.0390934
2.27482,-0.204623,0
2.2341,-0.0912929,0.0129954
2.32545,-0.324338,-0.0136464
2.27722,-0.204839,-0.159882
2.2292,-0.0910925,0.0649301
2.31325,-0.322637,0.0407688
2.24153,-0.0915965,-0.143777
2.27097,-0.204277,0.13279
2.28031,-0.205117,-0.106649
2.24426,-0.0917083,-0.09151
2.27818,-0.204926,-0.0532261
2.24147,-0.0990407,-0.0391632
2.27811,-0.212537,0
2.24177,-0.0990541,0.0130419
2.32832,-0.332613,-0.0136696
2.28448,-0.213131,-0.16044
2.23287,-0.0986608,0.0650464
2.31217,-0.330306,0.0407688
2.24121,-0.0990292,-0.143777
2.27425,-0.212177,0.133022
2.2836,-0.213049,-0.106835
2.28147,-0.212851,-0.0533191
2.28129,-0.221271,0
2.2374,-0.107079,0.0130187
2.33105,-0.341725,-0.0136929
2.2325,-0.106844,0.0650464
2.24083,-0.107243,-0.143777
2.28538,-0.221668,0.13372
2.28678,-0.221803,-0.107022
2.24357,-0.107374,-0.09151
2.28466,-0.221597,-0.0534122
2.2447,-0.115283,-0.039233
2.28051,-0.229233,0
2.245,-0.115298,0.0130652
2.2361,-0.114841,0.0651628
2.24443,-0.115269,-0.144032
2.28062,-0.229245,0.133487
2.29394,-0.230583,-0.107394
2.24717,-0.11541,-0.0916728
2.29183,-0.230371,-0.0535983
2.25229,-0.123163,-0.0393726
2.28769,-0.237621,0
2.24461,-0.122742,0.0130652
2.23571,-0.122256,0.0651628
2.24802,-0.122929,-0.144288
2.28919,-0.237776,-0.107208
2.25077,-0.123079,-0.0918356
2.28707,-0.237556,-0.0535052
2.24786,-0.130791,-0.0393028
2.27889,-0.244751,0
2.24816,-0.130809,0.0130884
2.29816,-0.246819,0.0537844
2.24325,-0.130524,0.0653955
2.25555,-0.131239,-0.1448
2.28437,-0.245339,-0.107022
2.2583,-0.131399,-0.0921613
2.29021,-0.245965,-0.0535983
2.25534,-0.139523,-0.0394424
2.28593,-0.253985,0
2.25166,-0.139295,0.0131117
2.24276,-0.138745,0.0653955
2.25904,-0.139752,-0.145056
2.29537,-0.255033,-0.10758
2.25781,-0.139676,-0.0921613
2.29326,-0.254799,-0.0536913
2.29695,-0.263329,0
2.25116,-0.147154,0.0131117
2.24226,-0.146573,0.0653955
2.25455,-0.147376,-0.1448
2.25332,-0.147295,-0.0919985
2.30428,-0.264169,-0.0539705
2.26631,-0.155694,-0.0396519
2.29607,-0.270945,0
2.25465,-0.154893,0.0131349
2.25373,-0.15483,0.0657446
2.25405,-0.154852,-0.1448
2.26877,-0.155862,-0.0926498
2.30339,-0.271809,-0.0539705
2.26972,-0.164288,-0.0397217
2.303,-0.280325,0
2.25805,-0.163444,0.0131582
2.25714,-0.163378,0.065861
2.25745,-0.1634,-0.145056
2.26419,-0.163888,-0.0924869
2.30635,-0.280733,-0.0540635
2.2652,-0.171116,-0.0396519
2.29814,-0.287063,0
2.2695,-0.171441,0.0132279
2.30942,-0.288473,0.0541566
2.2606,-0.170769,0.0659773
2.26489,-0.171093,-0.145567
2.30942,-0.288473,-0.0541566
2.27256,-0.179653,-0.0397915
2.30109,-0.295593,0
2.26888,-0.179362,0.0132279
2.26398,-0.178974,0.0660937
2.27501,-0.179846,-0.0929754
2.3084,-0.296532,-0.0541566
2.27983,-0.189038,-0.0399311
2.26419,-0.187742,0.0132047
2.31914,-0.306968,0.0544357
2.25929,-0.187335,0.0659773
2.27551,-0.18868,-0.146335
2.2743,-0.18858,-0.0929754
2.27517,-0.196651,-0.0398613
2.30679,-0.31353,0
2.27149,-0.196333,0.0132512
2.26659,-0.195909,0.0662101
2.27483,-0.196622,-0.146335
2.28159,-0.197206,-0.0933011
2.27845,-0.20495,-0.0399311
2.31361,-0.322686,0
2.27478,-0.204619,0.0132744
2.27784,-0.204894,0.0665591
2.27811,-0.204919,-0.146591
2.28089,-0.205169,-0.0933011
2.28576,-0.212848,-0.0400707
2.31258,-0.329953,0
2.28209,-0.212506,0.0133209
2.28116,-0.21242,0.0666755
2.28143,-0.212445,-0.146847
2.28899,-0.221211,-0.0401405
2.31537,-0.338602,0
2.2893,-0.221241,0.0133674
2.28041,-0.220382,0.0666755
2.29141,-0.221445,-0.0937896
2.32598,-0.348866,0
2.28847,-0.22963,0.0133674
2.27958,-0.228738,0.0666755
2.28661,-0.229443,-0.0936268
2.29136,-0.237598,-0.0402103
2.29167,-0.23763,0.0133907
2.28279,-0.236709,0.0667919
2.29379,-0.237849,-0.0939524
2.29048,-0.245994,-0.0402103
2.29079,-0.246028,0.0133907
2.28986,-0.245928,0.0670246
2.29687,-0.246682,-0.0941152
2.29755,-0.25487,-0.04035
2.29389,-0.254464,0.0134139
2.30091,-0.255242,0.0673737
2.29997,-0.255138,-0.0942781
2.30067,-0.262942,-0.0404198
2.30496,-0.263432,0.0134836
2.29607,-0.262417,0.0672573
2.30371,-0.271439,-0.0404896
2.30005,-0.271008,0.0134604
2.29514,-0.27043,0.0672573
2.31069,-0.280443,-0.0406292
2.30703,-0.279999,0.0135069
2.31361,-0.289406,-0.040699
2.30996,-0.288949,0.0135301
2.31259,-0.29748,-0.040699
2.3129,-0.297521,0.0135534
2.31561,-0.305267,-0.0407688
2.31881,-0.313927,0.0135999
2.32166,-0.32257,0.0136231
2.32838,-0.332207,0.0136696
