2.27437,0.437563,-0.134883
2.27588,0.429622,-0.134883
2.27744,0.421277,-0.134883
2.27104,0.411899,-0.134417
2.28025,0.405765,-0.134883
2.27772,0.397116,-0.13465
2.28296,0.390234,-0.134883
2.28431,0.382263,-0.134883
2.28176,0.373244,-0.13465
2.29093,0.366538,-0.135115
2.28215,0.357375,-0.21563
2.28819,0.358322,-0.134883
2.29131,0.350211,-0.216374
2.28949,0.349932,-0.134883
2.28852,0.342023,-0.216002
2.29458,0.342929,-0.135115
2.28576,0.333457,-0.21563
2.29182,0.33434,-0.134883
2.29086,0.326038,-0.216002
2.29297,0.326338,-0.134883
2.29198,0.318038,-0.216002
2.2941,0.318332,-0.134883
2.30289,0.311362,-0.0270539
2.30097,0.311103,-0.216746
2.29519,0.310321,-0.134883
2.2741,0.421478,-0.12121
2.30396,0.303323,-0.0270539
2.29809,0.302551,-0.216374
2.29626,0.302309,-0.134883
2.30309,0.295032,-0.216746
2.29334,0.293784,-0.13465
2.28092,0.406294,-0.121419
2.2962,0.286007,-0.216002
2.29832,0.286271,-0.134883
2.27052,0.396269,-0.120791
2.29713,0.27839,-0.216002
2.29529,0.278167,-0.13465
2.27182,0.388737,-0.120791
2.27525,0.381563,-0.067141
2.30595,0.271704,-0.216746
2.29993,0.270995,0.0269608
2.28833,0.383756,-0.189416
2.30016,0.271022,-0.134883
2.27703,0.381863,-0.121001
2.30886,0.263471,-0.0270539
2.29902,0.262348,-0.216002
2.30488,0.263017,0.0270073
2.28972,0.375367,-0.189416
2.30511,0.263043,-0.135115
2.28236,0.374161,-0.12121
2.29992,0.254321,-0.216002
2.30579,0.254969,0.0270073
2.28314,0.366109,-0.188766
2.29808,0.254116,-0.13465
2.28365,0.366191,-0.12121
2.30075,0.246692,-0.216002
2.30662,0.247321,0.0270073
2.29222,0.359772,-0.189416
2.30685,0.247345,-0.135115
2.28091,0.357996,-0.121001
2.28042,0.349361,-0.067141
2.3056,0.238668,-0.216374
2.30751,0.238866,0.0270073
2.30774,0.238889,-0.135115
2.30246,0.230222,-0.216002
2.31231,0.231207,0.0270539
2.29474,0.34336,-0.189416
2.30856,0.230831,-0.135115
2.28736,0.342256,-0.12121
2.30717,0.222969,-0.216374
2.31307,0.223538,0.0270539
2.29586,0.335749,-0.189416
2.30931,0.223175,-0.135115
2.28848,0.33467,-0.12121
2.30798,0.214511,-0.216374
2.31387,0.215059,0.0270539
2.29708,0.327332,-0.189416
2.30614,0.21434,-0.134883
2.2897,0.32628,-0.12121
2.30871,0.206453,-0.216374
2.31461,0.20698,0.0270539
2.29821,0.319311,-0.189416
2.31085,0.206644,-0.135115
2.29082,0.318285,-0.12121
2.30284,0.312585,-0.0135069
2.31332,0.199542,-0.216746
2.31525,0.199708,0.0270539
2.26753,0.42149,-0.161277
2.30315,0.312626,-0.189742
2.30751,0.199041,-0.134883
2.28785,0.31055,-0.121001
2.2912,0.302049,-0.0672573
2.30403,0.30374,-0.0135069
2.3101,0.19033,-0.216374
2.316,0.190816,0.0270539
2.27306,0.413494,-0.161556
2.30038,0.303259,-0.189416
2.31223,0.190507,-0.135115
2.27614,0.414055,-0.107766
2.29299,0.302285,-0.12121
2.29224,0.29405,-0.0672573
2.30111,0.295187,-0.0134836
2.31869,0.182892,-0.217117
2.31266,0.182417,0.0270073
2.27056,0.404857,-0.161277
2.30142,0.295228,-0.189416
2.3089,0.182121,-0.134883
2.27757,0.406107,-0.107766
2.29007,0.293771,-0.121001
2.28928,0.285552,-0.067141
2.32525,0.175245,-0.027147
2.31534,0.174499,-0.216746
2.32525,0.175245,0.027147
2.28375,0.398989,-0.162114
2.3064,0.287686,-0.189742
2.30953,0.17406,-0.134883
2.2711,0.39678,-0.107394
2.29901,0.286765,-0.121419
2.29027,0.277559,-0.067141
2.32585,0.167127,-0.027147
2.31196,0.166129,-0.216374
2.32186,0.16684,0.0271004
2.27726,0.389669,-0.161556
2.30739,0.279633,-0.189742
2.31809,0.166569,-0.135348
2.27247,0.388849,-0.107394
2.29999,0.278737,-0.121419
2.29113,0.270361,-0.067141
2.30795,0.272346,-0.0135069
2.32042,0.159411,-0.217117
2.32636,0.159819,0.027147
2.27847,0.382512,-0.161556
2.30825,0.272382,-0.189742
2.3186,0.159285,-0.135348
2.27762,0.382369,-0.10758
2.29689,0.271041,-0.12121
2.32696,0.150885,-0.027147
2.30898,0.263483,-0.0135069
2.32101,0.1505,-0.217117
2.32296,0.150627,0.0271004
2.27993,0.373761,-0.161556
2.30136,0.262614,-0.189091
2.30866,0.263447,0.0405594
2.32318,0.15064,-0.13558
2.27907,0.373621,-0.10758
2.29791,0.262221,-0.12121
2.29702,0.254,-0.0672573
2.33146,0.143007,-0.0271936
2.30988,0.255422,-0.0135069
2.32153,0.142398,-0.217117
2.32747,0.142762,0.027147
2.27728,0.365169,-0.161277
2.30622,0.255018,-0.189416
2.30559,0.254948,0.0404896
2.32369,0.142531,-0.13558
2.28431,0.366297,-0.107766
2.29881,0.254198,-0.12121
2.3319,0.135681,-0.0271936
2.31067,0.248163,-0.0135069
2.32196,0.135103,-0.217117
2.3279,0.135449,0.027147
2.28235,0.358632,-0.161556
2.31098,0.248196,-0.189742
2.31036,0.24813,0.0405594
2.32412,0.135229,-0.13558
2.28545,0.359118,-0.107766
2.30755,0.247828,-0.121629
2.30267,0.238771,-0.0673737
2.31157,0.239693,-0.0135069
2.32244,0.126592,-0.217117
2.32839,0.126917,0.027147
2.27971,0.349659,-0.161277
2.31125,0.239661,0.0405594
2.3246,0.12671,-0.13558
2.27885,0.349528,-0.107394
2.30446,0.238957,-0.121419
2.28466,0.350418,-0.0537844
2.30747,0.23113,-0.06749
2.32685,0.118687,-0.217489
2.32881,0.118788,0.027147
2.31208,0.231591,0.0405594
2.32902,0.118798,-0.135813
2.28006,0.34157,-0.107394
2.30528,0.230911,-0.121419
2.28982,0.343033,-0.0538774
2.30425,0.223091,-0.0673737
2.32723,0.11097,-0.217489
2.3292,0.111064,0.027147
2.28204,0.334133,-0.161277
2.31345,0.223982,-0.189742
2.31283,0.223922,0.0405594
2.28513,0.334586,-0.10758
2.30604,0.223264,-0.121419
2.29095,0.335437,-0.0538774
2.31297,0.21579,-0.0676064
2.33756,0.103287,-0.0272401
2.28347,0.326207,-0.248465
2.33556,0.103199,-0.218233
2.33356,0.103111,0.0271936
2.28319,0.326166,-0.161277
2.31819,0.216277,-0.190067
2.3136,0.215849,0.0405594
2.26933,0.438238,-0.148126
2.32978,0.102943,-0.135813
2.29024,0.327174,-0.107766
2.3068,0.215215,-0.121419
2.28419,0.326309,-0.0536913
2.30578,0.206597,-0.0673737
2.29787,0.319674,0
2.32796,0.0943148,-0.217489
2.33393,0.0945565,0.0271936
2.28437,0.317795,-0.161277
2.31896,0.207778,-0.190067
2.31836,0.207724,0.0406292
2.27092,0.429917,-0.148126
2.33014,0.0944029,-0.135813
2.30883,0.20687,0.0944409
2.28351,0.317676,-0.107394
2.30758,0.206758,-0.121419
2.28933,0.318485,-0.0537844
2.30251,0.198205,-0.0672573
2.28575,0.309859,-0.248465
2.33226,0.0863359,-0.217861
2.33025,0.0862615,0.027147
2.28546,0.30982,-0.161277
2.3157,0.199341,-0.189742
2.27241,0.421987,-0.148126
2.33444,0.0864169,-0.136045
2.30954,0.19881,0.0944409
2.28856,0.31024,-0.10758
2.30828,0.198702,-0.121419
2.27518,0.422503,-0.0942781
2.29042,0.310493,-0.0537844
2.30717,0.190495,-0.0673737
2.33853,0.0783943,-0.0272401
2.29076,0.302398,-0.248894
2.33254,0.0781937,-0.217861
2.33453,0.0782603,0.0271936
2.28653,0.30184,-0.161277
2.32374,0.191863,0.040699
2.27387,0.414052,-0.148126
2.33074,0.0781332,-0.135813
2.3142,0.191075,0.0946037
2.28567,0.301726,-0.107394
2.31294,0.190972,-0.121629
2.29942,0.303542,-0.0539705
2.30779,0.182842,-0.0673737
2.28914,0.294463,0
2.33877,0.0706384,-0.0272401
2.29175,0.294799,-0.248894
2.33279,0.0704576,-0.217861
2.33478,0.0705177,0.0271936
2.29148,0.294764,-0.161556
2.32037,0.183839,0.0406292
2.27523,0.406509,-0.148126
2.33897,0.0706442,-0.136278
2.3188,0.183715,0.0947666
2.29062,0.294654,-0.10758
2.31755,0.183615,-0.121838
2.27014,0.405599,-0.0939524
2.30042,0.295914,-0.0539705
2.3124,0.175088,-0.06749
2.3253,0.176065,-0.0135534
2.29671,0.287292,-0.249322
2.337,0.0624211,-0.218233
2.33901,0.0624746,0.0272401
2.28853,0.286269,-0.161277
2.321,0.175739,0.0406292
2.27663,0.398565,-0.148126
2.3392,0.0624798,-0.136278
2.31943,0.17562,0.0947666
2.29164,0.286657,-0.10758
2.31419,0.175223,-0.121629
2.27154,0.397673,-0.0939524
2.30144,0.287883,-0.0539705
2.30901,0.166727,-0.0673737
2.29114,0.278476,0
2.30165,0.279753,-0.24975
2.33721,0.0542635,-0.218233
2.29744,0.279242,-0.161835
2.31823,0.167394,-0.189742
2.3216,0.167637,0.0406292
2.27801,0.390616,-0.148126
2.33541,0.0542219,-0.136045
2.32402,0.167811,0.0949294
2.29659,0.279139,-0.107766
2.31877,0.167433,-0.121838
2.28079,0.391093,-0.0942781
2.30243,0.279848,-0.0539705
2.31357,0.158941,-0.06749
2.30004,0.271415,0
2.30261,0.271718,-0.24975
2.3334,0.0460268,-0.217861
2.34339,0.0462237,0.0272867
2.2984,0.271221,-0.161835
2.32278,0.159574,-0.190067
2.32217,0.159532,0.0406292
2.27936,0.382662,-0.148126
2.33958,0.0461487,-0.136278
2.31263,0.158877,0.0944409
2.32333,0.159612,-0.122047
2.28214,0.383129,-0.0942781
2.29545,0.270873,-0.0537844
2.31411,0.150864,-0.06749
2.297,0.262929,0
2.29564,0.262774,-0.248894
2.34151,0.0380101,-0.218604
2.34353,0.0380429,0.0272867
2.29537,0.262742,-0.161556
2.3273,0.151724,-0.190393
2.32271,0.151425,0.0406292
2.28462,0.37535,-0.148382
2.33573,0.0379163,-0.136045
2.31317,0.150802,0.0944409
2.29451,0.262644,-0.10758
2.3159,0.150981,-0.121629
2.27952,0.374512,-0.0941152
2.30035,0.263313,-0.0538774
2.30188,0.255351,0
2.34765,0.0299136,-0.0273333
2.32875,0.143657,-0.296983
2.3005,0.255198,-0.249322
2.34163,0.0298369,-0.218604
2.34765,0.0299136,0.0273333
2.29627,0.254729,-0.161556
2.32384,0.143354,-0.190067
2.32722,0.143563,0.040699
2.28592,0.367373,-0.148382
2.34384,0.0298651,-0.13651
2.31767,0.142974,0.0946037
2.30336,0.255515,-0.107952
2.31641,0.142896,-0.121629
2.28082,0.366553,-0.0941152
2.30921,0.256164,-0.0540635
2.31508,0.13511,-0.06749
2.34774,0.0221289,-0.0273333
2.33199,0.136097,-0.0135766
2.30133,0.247568,-0.249322
2.3457,0.0221096,-0.218976
2.31004,0.248505,0.0540635
2.34774,0.0221289,0.0273333
2.30107,0.24754,-0.161835
2.32828,0.13588,-0.190393
2.32369,0.135612,0.0406292
2.28318,0.359171,-0.148126
2.34392,0.0220929,-0.13651
2.32611,0.135753,0.0949294
2.30817,0.248303,-0.108138
2.32884,0.135912,-0.122257
2.28202,0.358988,-0.0941152
2.30607,0.248077,-0.0539705
2.31953,0.127246,-0.0676064
2.29959,0.239262,0
2.31156,0.240509,-0.361567
2.32967,0.127802,-0.296983
2.30218,0.239533,-0.249322
2.3378,0.0138736,-0.218233
2.3109,0.240439,0.0540635
2.3518,0.0139567,0.0273798
2.30589,0.239919,-0.162114
2.32415,0.1275,0.0406292
2.336,0.013863,-0.136045
2.32258,0.127413,0.0947666
2.30902,0.240244,-0.108138
2.32531,0.127563,-0.122047
2.28326,0.35102,-0.0941152
2.3109,0.240439,-0.0540635
2.28608,0.342882,-0.04035
2.31599,0.11854,-0.06749
2.33073,0.119294,-0.466759
2.29909,0.230697,-0.248894
2.34978,0.00533269,-0.219348
2.30778,0.231569,0.0539705
2.34784,0.00532828,0.0273333
2.29881,0.230669,-0.161556
2.32919,0.119216,-0.190393
2.3286,0.119185,0.040699
2.28569,0.342824,-0.148126
2.34003,0.00531057,-0.136278
2.30193,0.230982,-0.107766
2.32576,0.11904,-0.122047
2.28058,0.342057,-0.0939524
2.31574,0.232368,-0.0541566
2.29512,0.336458,-0.0404896
2.3272,0.111377,-0.465975
2.35184,-0.00246227,-0.0273798
2.30532,0.223602,-0.360337
2.3038,0.223455,-0.249322
2.34978,-0.00246012,-0.219348
2.30854,0.223914,0.0539705
2.34784,-0.00245809,0.0273333
2.30354,0.223429,-0.161835
2.33356,0.111681,-0.190718
2.32898,0.111462,0.040699
2.29077,0.335821,-0.148382
2.34403,-0.00245409,-0.13651
2.31942,0.111005,0.0946037
2.31064,0.224118,-0.108138
2.32614,0.111326,-0.122047
2.30024,0.32901,-0.0405594
2.32073,0.102949,-0.0676064
2.30197,0.215168,0
2.35182,-0.0106724,-0.0273798
2.31396,0.216289,-0.361567
2.33485,0.103575,-0.297488
2.33766,0.1037,-0.0135999
2.30061,0.215041,-0.248894
2.34578,-0.010645,-0.218976
2.31329,0.216226,0.0540635
2.35182,-0.0106724,0.0273798
2.3043,0.215386,-0.161835
2.32597,0.103181,-0.190067
2.28797,0.327256,-0.148126
2.348,-0.010655,-0.136743
2.32379,0.103084,0.0947666
2.31539,0.216422,-0.108324
2.33051,0.103382,-0.122257
2.28285,0.326524,-0.0939524
2.29741,0.320427,-0.0404896
2.32507,0.0950109,-0.0677228
2.33575,0.0954474,-0.467544
2.35576,-0.0189133,-0.0274264
2.3147,0.208211,-0.361567
2.33519,0.0954245,-0.297488
2.33801,0.0955395,-0.0135999
2.35369,-0.0188966,-0.21972
2.31403,0.20815,0.0540635
2.35576,-0.0189133,0.0274264
2.30504,0.207342,-0.161835
2.33428,0.0953871,-0.190718
2.3337,0.0953633,0.0407688
2.2891,0.319268,-0.148126
2.34395,-0.0188185,-0.13651
2.32812,0.0951356,0.0949294
2.31613,0.208339,-0.108324
2.33484,0.0954102,-0.122466
2.29455,0.311867,-0.0404198
2.3214,0.0867444,-0.0676064
2.31935,0.200469,-0.362182
2.33833,0.0873771,-0.0135999
2.30601,0.199317,-0.249322
2.34963,-0.0270672,-0.219348
2.31873,0.200415,0.0541566
2.35568,-0.0271369,0.0274264
2.30973,0.199638,-0.162114
2.3346,0.0872377,-0.190718
2.33402,0.0872159,0.0407688
2.28625,0.310738,-0.14787
2.33988,-0.0269549,-0.136278
2.32445,0.0868584,0.0947666
2.30888,0.199564,-0.107952
2.33516,0.0872588,-0.122466
2.32265,0.0867911,0.189742
2.28904,0.311117,-0.0941152
2.31873,0.200415,-0.0541566
2.29959,0.30438,-0.0404896
2.32169,0.0786412,-0.0676064
2.33244,0.0790056,-0.466759
2.35957,-0.0354192,-0.027473
2.31609,0.192046,-0.361567
2.31462,0.191924,-0.250179
2.34952,-0.0352682,-0.219348
2.31543,0.19199,0.0540635
2.35558,-0.0353591,0.0274264
2.31041,0.191575,-0.162114
2.33887,0.0792234,-0.191044
2.33431,0.0790687,0.0407688
2.29523,0.303804,-0.148382
2.34376,-0.0351819,-0.13651
2.31354,0.191834,-0.108138
2.33545,0.0791076,-0.122466
2.29011,0.303126,-0.0941152
2.31941,0.192321,-0.0541566
2.29667,0.295841,-0.0404198
2.32879,0.0707448,-0.465975
2.35944,-0.0436549,-0.027473
2.31675,0.18396,-0.361567
2.30095,0.296392,0.0134836
2.33888,0.0710515,-0.0135999
2.31131,0.183529,-0.24975
2.35336,-0.0435426,-0.21972
2.32007,0.184224,0.0541566
2.35544,-0.0435809,0.0274264
2.31106,0.183509,-0.162114
2.33914,0.0710592,-0.191044
2.34256,0.0711633,0.0409084
2.29628,0.29579,-0.148382
2.34762,-0.0434363,-0.136743
2.33299,0.0708724,0.0950922
2.31818,0.184074,-0.108324
2.33172,0.070834,-0.122257
2.29115,0.29513,-0.0941152
2.32007,0.184224,-0.0541566
2.30558,0.289218,-0.0405594
2.32616,0.0629443,-0.0677228
2.33685,0.0632334,-0.467544
2.32129,0.176576,-0.362182
2.29398,0.287764,0.0134371
2.31587,0.176164,-0.250179
2.34923,-0.0512601,-0.219348
2.31668,0.176225,0.0540635
2.35528,-0.0513923,0.0274264
2.31166,0.175844,-0.162114
2.33479,0.0631777,0.0407688
2.28932,0.28718,-0.14787
2.35545,-0.0513959,-0.137208
2.32921,0.0630268,0.0949294
2.33594,0.0632088,-0.122466
2.29212,0.28753,-0.0941152
2.30657,0.281168,-0.0405594
2.32637,0.0548234,-0.0677228
2.35908,-0.0597152,-0.027473
2.32189,0.168472,-0.362182
2.29894,0.280238,0.0134604
2.34331,0.0552227,-0.0136231
2.31251,0.167791,-0.24975
2.35699,-0.0596623,-0.220092
2.32526,0.168716,0.0542496
2.34709,-0.0594116,0.0273333
2.31226,0.167773,-0.162114
2.34355,0.0552284,-0.191369
2.335,0.0550268,0.0407688
2.29031,0.279186,-0.14787
2.35525,-0.0596183,-0.137208
2.31399,0.167898,0.135115
2.33342,0.0549895,0.0950922
2.31938,0.168289,-0.108324
2.34014,0.0551479,-0.122675
2.29311,0.279527,-0.0941152
2.29964,0.271774,-0.0404198
2.33055,0.0463766,-0.0678391
2.34116,0.0465877,-0.468328
2.36285,-0.0684767,-0.0275195
2.31855,0.159689,-0.361567
2.34461,0.0466564,-0.298498
2.29598,0.271341,0.0134371
2.3435,0.0466342,-0.0136231
2.31311,0.159314,-0.24975
2.35676,-0.0683002,-0.220092
2.32187,0.159918,0.0541566
2.35885,-0.0683608,0.027473
2.31684,0.159571,-0.162393
2.34374,0.046639,-0.191369
2.34318,0.0466278,0.0409084
2.29529,0.271259,-0.148126
2.35103,-0.0681341,-0.136976
2.3336,0.0464373,0.0950922
2.32796,0.160337,-0.108697
2.33633,0.0464916,-0.122466
2.29412,0.271121,-0.0941152
2.32586,0.160193,-0.0542496
2.30451,0.264603,-0.0404896
2.31104,0.151474,0
2.32301,0.152259,-0.362182
2.29687,0.263726,0.0134371
2.31759,0.151904,-0.250179
2.35652,-0.0761147,-0.220092
2.3184,0.151956,0.0540635
2.35461,-0.0760531,0.0274264
2.32134,0.152149,-0.162672
2.29991,0.264075,0.0673737
2.34332,0.0388578,0.0409084
2.30807,0.265012,-0.148893
2.35079,-0.0759296,-0.136976
2.3151,0.15174,0.135115
2.32975,0.0386327,0.0949294
2.3205,0.152094,-0.108324
2.33647,0.0387442,-0.122466
2.33192,0.0386688,0.190393
2.295,0.263512,-0.0941152
2.30939,0.256999,-0.0405594
2.33081,0.0305119,-0.0678391
2.34535,0.0307022,-0.469113
2.36632,-0.0847016,-0.0275661
2.32353,0.144148,-0.362182
2.29778,0.255707,0.0134371
2.34376,0.0306814,-0.0136231
2.32605,0.144305,-0.251036
2.3642,-0.0846256,-0.220835
2.3229,0.14411,0.0541566
2.36233,-0.0845585,0.0275195
2.32584,0.144292,-0.162951
2.34001,0.0306323,-0.191044
2.34744,0.0307296,0.0409782
2.30898,0.256953,-0.148893
2.3545,-0.0842783,-0.137208
2.31562,0.143658,0.135115
2.32102,0.143992,-0.108324
2.33659,0.0305876,-0.122466
2.29988,0.255941,-0.0942781
2.31425,0.249365,-0.0406292
2.33091,0.0223761,-0.0678391
2.34544,0.0225157,-0.469113
2.36601,-0.0929606,-0.0275661
2.32007,0.135806,-0.361567
2.30263,0.248113,0.0134604
2.32257,0.135952,-0.250607
2.35991,-0.0927208,-0.220463
2.32339,0.136001,0.0541566
2.36601,-0.0929606,0.0275661
2.32633,0.136173,-0.162951
2.34409,0.0225027,-0.191369
2.34354,0.0224974,0.0409084
2.30589,0.248465,-0.148637
2.35818,-0.0926528,-0.137441
2.3161,0.135574,0.135115
2.33396,0.0224054,0.0950922
2.32948,0.136357,-0.108697
2.34467,0.0225083,-0.122885
2.29679,0.247484,-0.0941152
2.30715,0.240456,-0.0404896
2.3455,0.0143278,-0.469113
2.36568,-0.10122,-0.0275661
2.34504,0.0143249,-0.298498
2.30348,0.240074,0.0134604
2.34792,0.0143425,-0.0136464
2.32303,0.127844,-0.250607
2.36355,-0.101129,-0.220835
2.32785,0.128109,0.0542496
2.36967,-0.101391,0.0276127
2.33077,0.12827,-0.16323
2.34814,0.0143439,-0.191695
2.30255,0.239976,0.0673737
2.3476,0.0143406,0.0409782
2.30675,0.240414,-0.148637
2.36582,-0.101226,-0.137906
2.31656,0.127488,0.135115
2.33802,0.0142821,0.095255
2.32994,0.128224,-0.108697
2.34074,0.0142987,-0.122675
2.29764,0.239464,-0.0941152
2.33184,0.128329,-0.0543427
2.31195,0.232802,-0.0405594
2.335,0.00611328,-0.0679555
2.34946,0.00615113,-0.469897
2.32092,0.119604,0
2.36531,-0.109476,-0.0275661
2.32886,0.120013,-0.362797
2.30033,0.231631,0.0134371
2.34795,0.00614718,-0.0136464
2.32346,0.119734,-0.250607
2.35921,-0.109194,-0.220463
2.32828,0.119983,0.0542496
2.3693,-0.109661,0.0276127
2.34818,0.00614778,-0.191695
2.30735,0.232338,0.06749
2.34763,0.00614635,0.0409782
2.31154,0.232761,-0.148893
2.35349,-0.108929,-0.137208
2.33038,0.120091,-0.108697
2.34477,0.00613886,-0.122885
2.29846,0.231443,-0.0941152
2.33227,0.120189,-0.0543427
2.31673,0.225117,-0.0406292
2.33501,-0.00203695,-0.0679555
2.34555,-0.00204615,-0.469113
2.32132,0.111502,0
2.3051,0.223987,0.0134604
2.35196,-0.00205174,-0.0136696
2.31989,0.111433,-0.250179
2.35881,-0.117428,-0.220463
2.32868,0.111855,0.0542496
2.36092,-0.117533,0.0275195
2.33161,0.111996,-0.16323
2.30417,0.223896,0.0673737
2.34764,-0.00204797,0.0409782
2.30837,0.224305,-0.148637
2.36107,-0.11754,-0.137673
2.32139,0.111505,0.135348
2.32679,0.111765,-0.108511
2.34079,-0.00204199,-0.122675
2.33623,-0.00203802,0.190718
2.31119,0.224579,-0.0946037
2.33268,0.112047,-0.0543427
2.34945,-0.0102514,-0.469897
2.33359,0.103927,-0.363412
2.35299,-0.0102668,-0.299508
2.31384,0.216685,0.0135069
2.32424,0.103511,-0.250607
2.37032,-0.126297,-0.221579
2.33306,0.103903,0.0543427
2.36449,-0.125986,0.0275661
2.328,0.103678,-0.162951
2.34817,-0.0102458,-0.191695
2.30095,0.215479,0.0672573
2.35562,-0.0102783,0.0411179
2.31311,0.216617,-0.148893
2.36065,-0.125782,-0.137673
2.33515,0.103997,-0.108883
2.34476,-0.0102309,-0.122885
2.30798,0.216136,-0.0944409
2.33306,0.103903,-0.0543427
2.31821,0.209343,-0.0406292
2.35332,-0.018072,-0.470682
2.36405,-0.133826,-0.0275661
2.32602,0.095863,-0.362182
2.35295,-0.0180691,-0.299508
2.30658,0.208292,0.0134604
2.35189,-0.018061,-0.0136696
2.32854,0.095967,-0.251036
2.36591,-0.133931,-0.221207
2.32939,0.096002,0.0542496
2.36805,-0.134052,0.0276127
2.33232,0.0961227,-0.16323
2.35211,-0.0180627,-0.19202
2.30564,0.208207,0.0673737
2.35557,-0.0180893,0.0411179
2.30984,0.208587,-0.148637
2.35623,-0.133383,-0.137441
2.34199,-0.017985,0.0954179
2.3275,0.0959239,-0.108511
2.34871,-0.0180366,-0.123094
2.3047,0.208123,-0.0942781
2.31093,0.200962,-0.0404896
2.34287,-0.0257612,-0.0681882
2.35325,-0.0258753,-0.470682
2.32633,0.0881498,0
2.36759,-0.141904,-0.0276127
2.30725,0.200642,0.0134604
2.35582,-0.0259036,-0.0136929
2.32487,0.0880946,-0.250607
2.33369,0.0884288,0.0543427
2.36759,-0.141904,0.0276127
2.33263,0.0883884,-0.16323
2.34805,-0.0258181,-0.191695
2.3103,0.200907,0.06749
2.3475,-0.0258121,0.0409782
2.31052,0.200927,-0.148637
2.36375,-0.141673,-0.137906
2.3224,0.0880007,0.135348
2.34591,-0.0257946,0.0955807
2.33579,0.0885082,-0.108883
2.34863,-0.0258246,-0.123094
2.30538,0.200479,-0.0942781
2.33769,0.0885802,-0.0544357
2.3156,0.193226,-0.0405594
2.35315,-0.0340902,-0.470682
2.32662,0.0800282,0
2.37107,-0.150421,-0.0276592
2.35277,-0.0340847,-0.299508
2.31591,0.193252,0.0135069
2.35171,-0.0340694,-0.0136696
2.32517,0.0799781,-0.250607
2.36892,-0.150285,-0.221579
2.33798,0.080419,0.0544357
2.37107,-0.150421,0.0276592
2.35591,-0.0341303,-0.192346
2.31099,0.192841,0.06749
2.35939,-0.0341807,0.0411877
2.31519,0.193191,-0.148893
2.36324,-0.149924,-0.137906
2.32668,0.0800301,0.13558
2.34581,-0.0339839,0.0955807
2.33608,0.0803536,-0.108883
2.34853,-0.0340233,-0.123094
2.34102,0.0805236,0.287612
2.34396,-0.033957,0.191369
2.32028,0.185056,-0.0406292
2.35693,-0.0427853,-0.471466
2.3229,0.0713779,0
2.37051,-0.15911,-0.0276592
2.33875,0.0718647,-0.364027
2.31262,0.184445,0.0134836
2.35557,-0.0427607,-0.0136929
2.32544,0.0714559,-0.250607
2.36438,-0.158699,-0.221207
2.33027,0.0716042,0.0542496
2.37051,-0.15911,0.0276592
2.3332,0.0716942,-0.16323
2.35179,-0.0426921,-0.19202
2.31168,0.18437,0.06749
2.35125,-0.0426824,0.0410481
2.31986,0.185022,-0.149149
2.36666,-0.158852,-0.138138
2.33237,0.0716687,-0.108697
2.34839,-0.0426304,-0.123094
2.34382,-0.0425473,0.191369
2.31074,0.184295,-0.0944409
2.34226,0.0719727,-0.0545288
2.32091,0.176955,-0.0406292
2.34246,-0.0507033,-0.0681882
2.35284,-0.050928,-0.470682
2.36994,-0.167384,-0.0276592
2.33899,0.0636999,-0.364027
2.31325,0.176371,0.0134836
2.35541,-0.0509836,-0.0136929
2.33363,0.0635541,-0.251464
2.37175,-0.167513,-0.22195
2.3345,0.0635778,0.0543427
2.36994,-0.167384,0.0276592
2.33742,0.0636574,-0.163509
2.3596,-0.0510742,-0.192671
2.31231,0.176299,0.06749
2.35509,-0.0509767,0.0411179
2.31651,0.176619,-0.148893
2.3621,-0.166831,-0.137906
2.32719,0.0633788,0.13558
2.3455,-0.0507692,0.0955807
2.3366,0.0636349,-0.108883
2.34423,-0.0507417,-0.122885
2.31137,0.176227,-0.0944409
2.3425,0.0637956,-0.0545288
2.32151,0.168852,-0.0406292
2.35657,-0.0592396,-0.471466
2.36934,-0.175656,-0.0276592
2.33524,0.0554408,-0.363412
2.36021,-0.0593309,-0.300518
2.31385,0.168294,0.0134836
2.36321,-0.0594065,-0.0137394
2.33781,0.0555019,-0.251892
2.37513,-0.176086,-0.222322
2.34271,0.055618,0.0545288
2.36934,-0.175656,0.0276592
2.33763,0.0554976,-0.163509
2.35542,-0.0592106,-0.192346
2.30892,0.167936,0.0673737
2.3589,-0.059298,0.0411877
2.31711,0.168532,-0.148893
2.36947,-0.175666,-0.138371
2.34531,-0.0589566,0.0955807
2.33681,0.055478,-0.108883
2.34803,-0.059025,-0.123094
2.32206,0.161153,-0.0406292
2.35005,-0.0668744,-0.0684209
2.36028,-0.0671655,-0.47225
2.3807,-0.184439,-0.0277989
2.34332,0.047858,-0.364642
2.36,-0.0671573,-0.300518
2.3104,0.160344,0.0134604
2.363,-0.0672429,-0.0137394
2.33401,0.0476679,-0.251464
2.37453,-0.183961,-0.222322
2.33888,0.0477674,0.0544357
2.37672,-0.18413,0.0277523
2.34179,0.0478269,-0.163788
2.36318,-0.0672479,-0.192997
2.31345,0.160555,0.06749
2.35869,-0.0671201,0.0411877
2.31766,0.160847,-0.148893
2.36888,-0.183523,-0.138371
2.33156,0.0476179,0.135813
2.3491,-0.0668473,0.0957435
2.34097,0.0478101,-0.109069
2.35182,-0.0669246,-0.123304
2.31251,0.16049,-0.0944409
2.33888,0.0477674,-0.0544357
2.31862,0.152783,-0.0405594
2.34581,-0.0749495,-0.0683046
2.36003,-0.075404,-0.47225
2.38005,-0.192748,-0.0277989
2.33952,0.0396111,-0.364027
2.36371,-0.0755215,-0.301023
2.32292,0.153067,0.0135301
2.36275,-0.0754909,-0.0137394
2.33814,0.0395877,-0.251892
2.38181,-0.192891,-0.223066
2.34303,0.0396706,0.0545288
2.37606,-0.192425,0.0277523
2.34593,0.0397198,-0.164067
2.36293,-0.0754965,-0.192997
2.314,0.152479,0.06749
2.35844,-0.075353,0.0411877
2.32219,0.153018,-0.149149
2.36822,-0.191791,-0.138371
2.33171,0.039479,0.135813
2.34885,-0.0750467,0.0957435
2.33314,0.0395031,-0.108697
2.35956,-0.0753887,-0.123722
2.31306,0.152417,-0.0944409
2.33903,0.0396029,-0.0544357
2.32715,0.144781,-0.040699
2.34951,-0.0836892,-0.0684209
2.35974,-0.0840534,-0.47225
2.38331,-0.201808,-0.0278455
2.31948,0.144303,0.0135069
2.36246,-0.0841504,-0.0137394
2.33827,0.0310178,-0.251892
2.37315,-0.200948,-0.222322
2.33916,0.0310296,0.0544357
2.37135,-0.200795,0.0277058
2.33808,0.0310153,-0.163509
2.36264,-0.0841566,-0.192997
2.32651,0.144741,0.0678391
2.36614,-0.0842813,0.0413273
2.32672,0.144754,-0.149405
2.37546,-0.201143,-0.138836
2.33184,0.0309326,0.135813
2.35256,-0.0837975,0.0959064
2.34126,0.0310574,-0.109069
2.35128,-0.0837521,-0.123304
2.31759,0.144186,-0.0946037
2.34716,0.0311357,-0.0546219
2.32761,0.137063,-0.040699
2.34922,-0.09148,-0.0684209
2.37864,-0.209359,-0.0277989
2.33974,0.0232774,-0.364027
2.32394,0.136846,0.0135301
2.36617,-0.0921397,-0.0137626
2.34233,0.0233032,-0.252321
2.38041,-0.209515,-0.223066
2.34325,0.0233123,0.0545288
2.37466,-0.209009,0.0277523
2.34216,0.0233015,-0.163788
2.35836,-0.0918358,-0.192671
2.31501,0.13632,0.06749
2.36585,-0.0921273,0.0413273
2.32719,0.137038,-0.149405
2.3708,-0.208669,-0.138603
2.35226,-0.0915984,0.0959064
2.34135,0.0232934,-0.109069
2.35498,-0.0917042,-0.123513
2.31806,0.1365,-0.0946037
2.34725,0.0233521,-0.0546219
2.32808,0.128937,-0.040699
2.33195,0.0150593,0
2.3779,-0.217661,-0.0277989
2.3398,0.01511,-0.364027
2.36676,-0.100438,-0.301529
2.32041,0.128512,0.0135069
2.38363,-0.218186,-0.223438
2.34732,0.0151585,0.0546219
2.3779,-0.217661,0.0277989
2.34622,0.0151515,-0.164067
2.35404,-0.0998984,-0.192346
2.32345,0.128681,0.0677228
2.36151,-0.100215,0.0412575
2.33164,0.129134,-0.149661
2.38199,-0.218036,-0.139301
2.33599,0.0150854,0.136045
2.35193,-0.0998088,0.0959064
2.34141,0.0151204,-0.109069
2.35465,-0.099924,-0.123513
2.33442,0.0150752,0.286637
2.3265,0.12885,-0.0949294
2.33251,0.121017,-0.0407688
2.35252,-0.108062,-0.0685373
2.33599,0.00693104,0
2.37712,-0.22596,-0.0277989
2.34775,0.00696592,-0.365256
2.36243,-0.108517,-0.301023
2.31684,0.120204,0.0134836
2.36946,-0.10884,-0.0137859
2.33846,0.00693837,-0.251892
2.38682,-0.226882,-0.223809
2.34735,0.00696476,0.0546219
2.37314,-0.225582,0.0277523
2.35025,0.00697335,-0.164346
2.36563,-0.108664,-0.193322
2.3159,0.120155,0.06749
2.36115,-0.108458,0.0412575
2.32809,0.120788,-0.149405
2.37326,-0.225593,-0.138836
2.35556,-0.108201,0.0960692
2.33746,0.00693539,-0.108883
2.35428,-0.108143,-0.123513
2.32295,0.120521,-0.0947666
2.34735,0.00696476,-0.0546219
2.32894,0.112274,-0.040699
2.34,-0.00163363,0
2.37628,-0.234671,-0.0277989
2.34776,-0.00163904,-0.365256
2.36994,-0.117568,-0.302034
2.32926,0.11229,0.0135534
2.36505,-0.117325,-0.0137626
2.34245,-0.00163534,-0.252321
2.38597,-0.235628,-0.223809
2.34736,-0.00163877,0.0546219
2.38424,-0.235457,0.027892
2.35026,-0.00164079,-0.164346
2.36123,-0.117136,-0.192997
2.32032,0.111859,0.0676064
2.36473,-0.11731,0.0413273
2.32453,0.112062,-0.149149
2.37242,-0.23429,-0.138836
2.35515,-0.116834,0.0960692
2.34546,-0.00163744,-0.109255
2.35786,-0.116969,-0.123722
2.32736,0.112198,-0.0949294
2.35136,-0.00164156,-0.0547149
2.33328,0.105137,-0.0407688
2.33998,-0.00898493,0
2.38349,-0.242946,-0.027892
2.3656,-0.124804,-0.301529
2.3296,0.104972,0.0135534
2.36467,-0.124755,-0.0137626
2.34641,-0.00900961,-0.252749
2.38126,-0.242719,-0.223438
2.34735,-0.00901321,0.0546219
2.34625,-0.00900901,-0.164067
2.36881,-0.124973,-0.193647
2.33264,0.105109,0.0679555
2.36036,-0.124527,0.0412575
2.32487,0.104758,-0.149149
2.37564,-0.242147,-0.139069
2.35477,-0.124232,0.0960692
2.34944,-0.00902123,-0.109441
2.35748,-0.124376,-0.123722
2.33569,0.105246,-0.095255
2.35535,-0.00904392,-0.054808
2.33763,0.0971581,-0.0408386
2.33994,-0.0171529,0
2.38263,-0.251265,-0.027892
2.35165,-0.0172388,-0.365871
2.36911,-0.133283,-0.302034
2.32995,0.0968391,0.0135534
2.36822,-0.133233,-0.0137859
2.34636,-0.0172,-0.252749
2.38435,-0.251447,-0.223809
2.3553,-0.0172656,0.054808
2.34621,-0.0171989,-0.164067
2.36836,-0.133241,-0.193647
2.32501,0.0966337,0.0677228
2.37189,-0.13344,0.0414669
2.33319,0.096974,-0.149661
2.38273,-0.251276,-0.139534
2.33997,-0.0171532,0.136278
2.35831,-0.132676,0.096232
2.35339,-0.0172515,-0.109627
2.35703,-0.132604,-0.123722
2.32806,0.0967604,-0.0949294
2.3513,-0.0172362,-0.0547149
2.33985,-0.0261375,0
2.34366,-0.02618,-0.364642
2.37254,-0.142617,-0.302539
2.3303,0.087892,0.0135534
2.37567,-0.142805,-0.0138324
2.35026,-0.0262537,-0.253177
2.39129,-0.261467,-0.224553
2.35522,-0.0263091,0.054808
2.36784,-0.142334,-0.193647
2.32536,0.0877056,0.0677228
2.36737,-0.142306,0.0413971
2.33355,0.0880145,-0.149661
2.38175,-0.260423,-0.139534
2.34787,-0.0262271,0.136743
2.36177,-0.14197,0.0963948
2.34531,-0.0261985,-0.109255
2.36448,-0.142133,-0.124141
2.32841,0.0878207,-0.0949294
2.35522,-0.0263091,-0.054808
2.33825,0.0808362,-0.0408386
2.36228,-0.14945,-0.0688864
2.34376,-0.0335455,0
2.38081,-0.267893,-0.027892
2.35147,-0.0336558,-0.365871
2.37208,-0.15007,-0.302539
2.33057,0.0805707,0.0135534
2.37521,-0.150268,-0.0138324
2.34619,-0.0335802,-0.252749
2.39441,-0.269423,-0.224925
2.35512,-0.0337081,0.054808
2.35002,-0.0336351,-0.164346
2.37136,-0.150024,-0.193973
2.33362,0.0806761,0.0679555
2.36292,-0.14949,0.0413273
2.32983,0.0805451,-0.149405
2.38092,-0.267904,-0.139534
2.36132,-0.149389,0.0963948
2.34522,-0.0335663,-0.109255
2.36004,-0.149308,-0.123932
2.33267,0.0806434,-0.0950922
2.35512,-0.0337081,-0.054808
2.33854,0.0718574,-0.0408386
2.34761,-0.0426172,0
2.38374,-0.277495,-0.0279386
2.35132,-0.0426845,-0.365871
2.37149,-0.159177,-0.302539
2.33086,0.0716214,0.0135534
2.37462,-0.159387,-0.0138324
2.38545,-0.277694,-0.224181
2.35497,-0.0427508,0.054808
2.35785,-0.0428031,-0.164904
2.36678,-0.158861,-0.193647
2.32991,0.0715923,0.0678391
2.3703,-0.159098,0.0414669
2.33012,0.0715986,-0.149405
2.37987,-0.277044,-0.139534
2.36471,-0.158722,0.0965577
2.34907,-0.0426436,-0.109441
2.36343,-0.158636,-0.124141
2.33696,0.0718088,-0.095255
2.35098,-0.0426783,-0.0547149
2.33478,0.0635851,-0.0407688
2.34345,-0.0507251,0
2.3907,-0.286767,-0.0280317
2.37092,-0.167454,-0.302539
2.3351,0.0635937,0.0135766
2.37405,-0.167675,-0.0138324
2.34588,-0.0507776,-0.252749
2.38842,-0.286493,-0.224553
2.35881,-0.0510575,0.054901
2.34572,-0.0507742,-0.164067
2.37417,-0.167684,-0.194298
2.33814,0.0636767,0.0680718
2.36974,-0.167371,0.0414669
2.33434,0.0635732,-0.149661
2.38682,-0.286301,-0.139999
2.35146,-0.0508985,0.136976
2.34491,-0.0507566,-0.109255
2.37083,-0.167448,-0.12456
2.3332,0.063542,-0.0950922
2.35881,-0.0510575,-0.054901
2.34728,-0.0581861,0
2.35889,-0.0584739,-0.367101
2.37829,-0.175486,-0.303549
2.34328,0.0564501,0.0136231
2.38149,-0.175721,-0.0138789
2.35366,-0.0583442,-0.253606
2.39541,-0.294969,-0.225296
2.36263,-0.0585667,0.0549941
2.34954,-0.0582421,-0.164346
2.37761,-0.175435,-0.194624
2.33833,0.0563309,0.0680718
2.37319,-0.175109,0.0415367
2.33852,0.0563355,-0.149916
2.38591,-0.293798,-0.139999
2.35273,-0.0583211,-0.109627
2.36233,-0.174308,-0.124141
2.33738,0.056308,-0.095255
2.35464,-0.0583686,-0.054808
2.35106,-0.0664924,0
2.37767,-0.183786,-0.303549
2.33946,0.0481878,0.0135999
2.38086,-0.184033,-0.0138789
2.36139,-0.0667845,-0.254463
2.39042,-0.302828,-0.224925
2.35331,-0.066556,-0.164625
2.373,-0.183426,-0.194298
2.33452,0.0480859,0.0679555
2.37256,-0.183392,0.0415367
2.33471,0.04809,-0.149661
2.38883,-0.302626,-0.140231
2.34708,-0.0663799,0.136743
2.35251,-0.0665333,-0.109627
2.36569,-0.18286,-0.12435
2.33756,0.0481487,-0.095255
2.36242,-0.0668135,-0.0549941
2.3433,0.0400843,-0.0409084
2.34682,-0.0745717,0
2.35842,-0.0749405,-0.367101
2.37701,-0.192085,-0.303549
2.33962,0.0400213,0.0135999
2.37621,-0.19202,-0.0138556
2.34922,-0.074648,-0.253177
2.4012,-0.312713,-0.22604
2.36217,-0.0750595,0.0549941
2.36104,-0.0750237,-0.165183
2.37632,-0.192029,-0.194624
2.33467,0.0399366,0.0679555
2.36792,-0.19135,0.0414669
2.33487,0.03994,-0.149661
2.38776,-0.310963,-0.140231
2.35226,-0.0747447,-0.109627
2.36902,-0.191439,-0.12456
2.33772,0.0399888,-0.095255
2.35417,-0.0748055,-0.054808
2.33943,0.0314416,-0.0408386
2.35452,-0.083456,0
2.36208,-0.0837241,-0.367716
2.37629,-0.200796,-0.303549
2.34375,0.0314996,0.0136231
2.37549,-0.200728,-0.0138556
2.34893,-0.0832578,-0.253177
2.39214,-0.320454,-0.225296
2.36188,-0.0837168,0.0549941
2.36474,-0.0838181,-0.165462
2.37163,-0.200402,-0.194298
2.3348,0.0313794,0.0679555
2.37119,-0.200365,0.0415367
2.335,0.031382,-0.149661
2.3866,-0.319712,-0.140231
2.35596,-0.0835072,-0.109813
2.37228,-0.200457,-0.124769
2.34185,0.0314741,-0.0954179
2.36188,-0.0837168,-0.0549941
2.33953,0.0232753,-0.0408386
2.35422,-0.0916744,0
2.36573,-0.0921226,-0.368331
2.37953,-0.209437,-0.304054
2.33984,0.0232784,0.0135999
2.37876,-0.20937,-0.0138789
2.35657,-0.0917661,-0.254034
2.39101,-0.328802,-0.225296
2.36157,-0.0919607,0.0549941
2.35247,-0.0916063,-0.164625
2.37886,-0.209378,-0.194949
2.33889,0.023269,0.0680718
2.37047,-0.20864,0.0415367
2.34308,0.0233106,-0.150172
2.38943,-0.328585,-0.140464
2.35422,-0.0916747,0.137208
2.35566,-0.0917305,-0.109813
2.37156,-0.208736,-0.124769
2.33794,0.0232595,-0.095255
2.36557,-0.0921163,-0.0550871
2.34359,0.0155435,-0.0409084
2.36541,-0.0999671,-0.368331
2.38277,-0.217688,-0.304559
2.34391,0.0155456,0.0136231
2.38204,-0.217621,-0.0139021
2.35228,-0.0994123,-0.253606
2.36525,-0.0999603,0.0550871
2.35614,-0.0995753,-0.164904
2.37815,-0.217266,-0.194949
2.33496,0.0154863,0.0679555
2.34314,0.0155405,-0.150172
2.38832,-0.336507,-0.140464
2.35534,-0.0995417,-0.109813
2.34201,0.015533,-0.0954179
2.36125,-0.0997915,-0.0549941
2.35163,0.00697744,-0.0410481
2.35751,-0.108291,0
2.36503,-0.108636,-0.368331
2.38591,-0.226795,-0.305064
2.33995,0.00694278,0.0135999
2.38521,-0.226729,-0.0139253
2.35985,-0.108398,-0.254463
2.36487,-0.108629,0.0550871
2.36373,-0.108577,-0.165462
2.37337,-0.225603,-0.194624
2.335,0.0069281,0.0679555
2.34318,0.00695238,-0.150172
2.39498,-0.346402,-0.140929
2.3615,-0.108474,0.137673
2.35895,-0.108357,-0.11
2.37403,-0.225666,-0.124978
2.34205,0.00694901,-0.0954179
2.36487,-0.108629,-0.0550871
2.35164,-0.000410449,-0.0410481
2.37158,-0.232953,-0.0693518
2.35716,-0.115697,0
2.37729,-0.233514,-0.304054
2.34396,-0.000409109,0.0136231
2.3805,-0.23383,-0.0139021
2.35552,-0.115616,-0.254034
2.36851,-0.116254,0.0551802
2.36736,-0.116198,-0.165741
2.37662,-0.233448,-0.194949
2.33901,-0.000408244,0.0680718
2.33521,-0.000407581,-0.149661
2.35716,-0.115697,0.137441
2.37057,-0.116355,-0.110558
2.37728,-0.233513,-0.125188
2.34206,-0.000408776,-0.0954179
2.36451,-0.116058,-0.0550871
2.34763,-0.00901428,-0.0409782
2.37469,-0.242049,-0.0694682
2.36471,-0.124757,0
2.36818,-0.12494,-0.368946
2.38431,-0.24303,-0.305064
2.34794,-0.0090155,0.0136464
2.37963,-0.242553,-0.0139021
2.35905,-0.124459,-0.254463
2.36008,-0.124513,0.0549941
2.36692,-0.124874,-0.165741
2.37971,-0.242562,-0.195275
2.34299,-0.00899649,0.0681882
2.34318,-0.0089972,-0.150172
2.36071,-0.124546,0.137673
2.37013,-0.125043,-0.110558
2.38038,-0.24263,-0.125397
2.34604,-0.00900818,-0.0955807
2.36008,-0.124513,-0.0549941
2.34758,-0.0176187,-0.0409782
2.35625,-0.132973,0
2.35189,-0.0176511,0.0136696
2.38668,-0.252114,-0.0139486
2.37049,-0.133776,-0.255748
2.3636,-0.133387,0.0550871
2.36246,-0.133323,-0.165462
2.37881,-0.251282,-0.195275
2.34694,-0.0176139,0.0683046
2.34712,-0.0176153,-0.150428
2.35769,-0.133054,-0.11
2.37551,-0.250933,-0.125188
2.34998,-0.0176368,-0.0957435
2.36759,-0.133612,-0.0551802
2.3515,-0.0258571,-0.0410481
2.35977,-0.141436,0
2.37117,-0.142119,-0.369561
2.35582,-0.0259046,0.0136929
2.38579,-0.260443,-0.0139486
2.36207,-0.141574,-0.254891
2.36312,-0.141637,0.0550871
2.36597,-0.141808,-0.165741
2.38188,-0.260017,-0.1956
2.34287,-0.0257622,0.0681882
2.34704,-0.0258081,-0.150428
2.3978,-0.381061,-0.141394
2.36519,-0.141761,-0.110372
2.37859,-0.259657,-0.125397
2.34991,-0.0258396,-0.0957435
2.36312,-0.141637,-0.0550871
2.35541,-0.033301,-0.0411179
2.37604,-0.266936,-0.0695846
2.36729,-0.149352,0
2.37466,-0.149817,-0.370176
2.35572,-0.0333055,0.0136929
2.36559,-0.149245,-0.255319
2.36665,-0.149312,0.0551802
2.36949,-0.149491,-0.16602
2.38105,-0.267498,-0.1956
2.35477,-0.0332919,0.0685373
2.34695,-0.0331814,-0.150428
2.40053,-0.389231,-0.141627
2.36872,-0.149442,-0.110558
2.3857,-0.26802,-0.125816
2.34982,-0.0332219,-0.0957435
2.37064,-0.149564,-0.0552732
2.35528,-0.0415227,-0.0411179
2.36277,-0.157349,0
2.35559,-0.0415283,0.0136929
2.36902,-0.157765,-0.255748
2.3741,-0.158104,0.0553663
2.37294,-0.158026,-0.166299
2.38406,-0.276267,-0.195926
2.35464,-0.0415114,0.0685373
2.34682,-0.0413736,-0.150428
2.40703,-0.398914,-0.142092
2.37217,-0.157975,-0.110744
2.38475,-0.276346,-0.125816
2.35768,-0.041565,-0.0960692
2.37011,-0.157838,-0.0552732
2.35511,-0.0501549,-0.0411179
2.37352,-0.166805,-0.370176
2.35943,-0.0502469,0.0137161
2.36842,-0.166447,-0.255748
2.37749,-0.167084,0.0554593
2.37632,-0.167002,-0.166578
2.38699,-0.285477,-0.196251
2.35847,-0.0502265,0.0686537
2.35064,-0.0500599,-0.150684
2.36759,-0.166388,-0.110558
2.39165,-0.286034,-0.126234
2.35351,-0.050121,-0.0959064
2.36951,-0.166524,-0.0552732
2.35093,-0.0578661,-0.0410481
2.36161,-0.17384,0
2.35525,-0.0579723,0.0136929
2.36786,-0.1743,-0.255748
2.36895,-0.17438,0.0552732
2.3678,-0.174296,-0.16602
2.38603,-0.293391,-0.196251
2.36228,-0.0581455,0.06877
2.35046,-0.0578546,-0.150684
2.36702,-0.174239,-0.110558
2.35333,-0.0579252,-0.0959064
2.37294,-0.174674,-0.0553663
2.3547,-0.0665953,-0.0411179
2.36302,-0.0668305,0.0137394
2.36324,-0.182671,-0.255319
2.36431,-0.182754,0.0551802
2.36316,-0.182665,-0.165741
2.38494,-0.302134,-0.196251
2.35406,-0.0665772,0.0685373
2.35423,-0.0665819,-0.15094
2.36238,-0.182605,-0.110372
2.38167,-0.30172,-0.125816
2.34911,-0.0664372,-0.0957435
2.37228,-0.18337,-0.0553663
2.36246,-0.074656,-0.0412575
2.36433,-0.190645,0
2.36278,-0.0746662,0.0137394
2.38244,-0.192105,-0.257461
2.36767,-0.190914,0.0552732
2.37448,-0.191463,-0.166578
2.39183,-0.311069,-0.196902
2.35782,-0.0745095,0.0686537
2.35399,-0.0743885,-0.15094
2.3777,-0.191723,-0.111116
2.38462,-0.310131,-0.126025
2.35287,-0.0743531,-0.0959064
2.37564,-0.191557,-0.0554593
2.35419,-0.0826216,-0.0411179
2.36763,-0.199232,0
2.35051,-0.0824925,0.0136696
2.37383,-0.199753,-0.256605
2.38293,-0.200519,0.0556454
2.37777,-0.200085,-0.166857
2.39468,-0.319945,-0.197227
2.36155,-0.0828797,0.06877
2.34973,-0.082465,-0.150684
2.37303,-0.199686,-0.11093
2.38748,-0.318982,-0.126234
2.35659,-0.0827058,-0.0960692
2.37496,-0.199849,-0.0554593
2.36188,-0.0911472,-0.0412575
2.37489,-0.208194,0
2.3622,-0.0911595,0.0137394
2.37708,-0.208386,-0.257033
2.38103,-0.208732,-0.167137
2.3975,-0.328843,-0.197553
2.36124,-0.0911225,0.06877
2.34943,-0.0906666,-0.150684
2.3763,-0.208317,-0.111116
2.39031,-0.327857,-0.126444
2.36028,-0.0910855,-0.096232
2.37027,-0.207788,-0.0553663
2.36157,-0.098979,-0.0412575
2.3702,-0.215706,0
2.36189,-0.0989924,0.0137394
2.37242,-0.215907,-0.256605
2.38033,-0.216627,-0.167137
2.3964,-0.336792,-0.197553
2.36492,-0.0991196,0.0688864
2.35709,-0.0987914,-0.151196
2.38355,-0.21692,-0.111489
2.38921,-0.335781,-0.126444
2.36396,-0.0990794,-0.0963948
2.37753,-0.216372,-0.0555524
2.3652,-0.107403,-0.0413273
2.36552,-0.107418,0.0137626
2.37561,-0.224561,-0.257033
2.37956,-0.224934,-0.167137
2.38732,-0.344018,-0.196902
2.36057,-0.107193,0.06877
2.36072,-0.1072,-0.151451
2.38278,-0.225239,-0.111489
2.35961,-0.107149,-0.096232
2.37278,-0.224293,-0.0554593
2.36479,-0.116071,-0.0413273
2.37258,-0.233052,0
2.36112,-0.115891,0.0137394
2.37873,-0.233655,-0.257461
2.37872,-0.233654,-0.167137
2.35616,-0.115648,0.0686537
2.35632,-0.115656,-0.151196
2.37796,-0.233581,-0.111302
2.35521,-0.115601,-0.0960692
2.38786,-0.234552,-0.0558315
2.36437,-0.124325,-0.0413273
2.36469,-0.124342,0.0137626
2.38185,-0.24236,-0.25789
2.38186,-0.24236,-0.167416
2.36373,-0.124292,0.0688864
2.35989,-0.12409,-0.151451
2.38906,-0.243093,-0.111861
2.35878,-0.124031,-0.096232
2.37907,-0.242077,-0.0556454
2.36395,-0.132165,-0.0413273
2.3789,-0.250032,0
2.36427,-0.132183,0.0137626
2.38104,-0.250257,-0.25789
2.38501,-0.250674,-0.167695
2.37129,-0.132576,0.0691191
2.36744,-0.13236,-0.151963
2.38427,-0.250597,-0.111675
2.39613,-0.370941,-0.127072
2.36235,-0.132076,-0.0963948
2.38223,-0.250382,-0.0557385
2.36746,-0.140653,-0.0413971
2.38994,-0.25963,0
2.36379,-0.140435,0.0137626
2.3841,-0.258996,-0.258318
2.38015,-0.258567,-0.167416
2.36682,-0.140615,0.0690027
2.36298,-0.140387,-0.151707
2.38338,-0.258918,-0.111675
2.36586,-0.140558,-0.0965577
2.38134,-0.258696,-0.0557385
2.36294,-0.149078,-0.0413273
2.37125,-0.149602,0.0138091
2.37918,-0.267289,-0.25789
2.37919,-0.267289,-0.167416
2.3623,-0.149037,0.0688864
2.37041,-0.149549,-0.152219
2.38638,-0.268098,-0.111861
2.36533,-0.149229,-0.0965577
2.3764,-0.266976,-0.0556454
2.36642,-0.157178,-0.0413971
2.37074,-0.157464,0.0138091
2.38619,-0.276091,-0.258747
2.38621,-0.276094,-0.167974
2.36578,-0.157135,0.0690027
2.36194,-0.15688,-0.151707
2.38548,-0.27601,-0.111861
2.36084,-0.156807,-0.0963948
2.38742,-0.276234,-0.0559246
2.37384,-0.165995,-0.0415367
2.37416,-0.166018,0.0138324
2.38916,-0.28489,-0.259175
2.3892,-0.284895,-0.168253
2.36522,-0.165392,0.0690027
2.36934,-0.165681,-0.152219
2.38847,-0.284808,-0.112047
2.37223,-0.165883,-0.0968833
2.36527,-0.173695,-0.0413971
2.36958,-0.174011,0.0138091
2.39215,-0.293719,-0.168532
2.36862,-0.17394,0.0691191
2.36875,-0.17395,-0.152219
2.38746,-0.293144,-0.112047
2.36367,-0.173577,-0.0965577
2.38147,-0.292407,-0.0558315
2.37262,-0.182563,-0.0415367
2.37693,-0.182895,0.0138556
2.39111,-0.302068,-0.168532
2.37211,-0.182524,-0.152475
2.39832,-0.302978,-0.112605
2.37102,-0.18244,-0.0968833
2.3844,-0.30122,-0.0559246
2.37596,-0.191165,-0.0416065
2.37628,-0.191191,0.0138556
2.39004,-0.310412,-0.168532
2.36748,-0.190483,-0.152219
2.39328,-0.310833,-0.112419
2.37833,-0.191356,-0.097209
2.39919,-0.311601,-0.0562968
2.38325,-0.200127,-0.0417462
2.37161,-0.19915,0.0138324
2.3929,-0.319281,-0.168811
2.37475,-0.199414,-0.152731
2.39218,-0.319185,-0.112419
2.36969,-0.198988,-0.0968833
2.37855,-0.208096,-0.0416763
2.37887,-0.208124,0.0138789
2.39177,-0.327632,-0.168811
2.37404,-0.207702,-0.152731
2.39105,-0.327534,-0.112419
2.37296,-0.207607,-0.0970462
2.37789,-0.215568,-0.0416763
2.38219,-0.215958,0.0139021
2.39863,-0.336252,-0.169369
2.3694,-0.214799,-0.152475
2.39001,-0.335044,-0.112419
2.37628,-0.215422,-0.097209
2.38102,-0.225073,-0.0417462
2.38533,-0.22548,0.0139253
2.38942,-0.344321,-0.168811
2.38048,-0.225022,-0.153242
2.39662,-0.345358,-0.112791
2.37941,-0.22492,-0.0973718
2.38022,-0.233383,-0.0417462
2.38054,-0.233414,0.0139021
2.3961,-0.353826,-0.169369
2.37968,-0.23333,-0.153242
2.39935,-0.354305,-0.112978
2.37463,-0.232835,-0.097209
2.38735,-0.242498,-0.0418858
2.3988,-0.362784,-0.169648
2.37885,-0.241635,-0.153242
2.39415,-0.362081,-0.112791
2.37778,-0.241526,-0.0973718
2.3826,-0.24958,-0.041816
2.3937,-0.369709,-0.169369
2.37808,-0.249107,-0.153242
2.38099,-0.249411,-0.0975347
2.37774,-0.257465,-0.0417462
2.3772,-0.257407,-0.153242
2.3801,-0.257721,-0.0975347
2.38875,-0.267097,-0.0419556
2.38422,-0.26659,-0.153754
2.38713,-0.266916,-0.0978603
2.3878,-0.275433,-0.0419556
2.38724,-0.275369,-0.15401
2.39016,-0.275705,-0.0980231
2.3908,-0.284239,-0.0420254
2.3823,-0.283229,-0.153754
2.38521,-0.283575,-0.0978603
2.38526,-0.292028,-0.15401
2.38024,-0.291413,-0.0976975
2.38423,-0.300352,-0.15401
2.38714,-0.300719,-0.0980231
2.39108,-0.309698,-0.154521
2.39004,-0.309563,-0.098186
2.39394,-0.31857,-0.154777
2.3929,-0.318431,-0.0983488
2.38886,-0.326384,-0.154521
2.38782,-0.326241,-0.098186
2.38771,-0.33472,-0.154521
2.39062,-0.335129,-0.0983488
2.39735,-0.344609,-0.0986745
2.39716,-0.353127,-0.155289
2.39992,-0.361669,-0.155545
2.39865,-0.370044,-0.155545
2.3934,-0.377792,-0.155289
