2.03856,0.715091,-0.125813
2.04129,0.707258,-0.125813
2.03217,0.696956,-0.125115
2.04065,0.691516,-0.201131
2.03471,0.689502,-0.125115
2.03172,0.680594,-0.200016
2.0371,0.682396,-0.125115
2.03775,0.675104,-0.200387
2.03935,0.675637,-0.125115
2.04009,0.667988,-0.200387
2.0379,0.667272,-0.124883
2.04253,0.660505,-0.200387
2.03274,0.65734,-0.124418
2.03344,0.649735,-0.199272
2.03882,0.651456,-0.12465
2.0281,0.640235,-0.198529
2.03347,0.641931,-0.124185
2.02755,0.63229,-0.0247257
2.03032,0.633153,-0.198529
2.03951,0.636019,-0.124418
2.02871,0.624889,-0.198157
2.0379,0.62772,-0.124185
2.03447,0.619673,-0.198529
2.03604,0.620151,-0.123952
2.01864,0.606771,-0.0245394
2.02529,0.608772,-0.197413
2.03448,0.611534,-0.12372
2.02458,0.600861,-0.024586
2.02358,0.600567,-0.197041
2.02512,0.601021,-0.123022
2.03921,0.715322,-0.113255
2.0305,0.594914,-0.0246325
2.02185,0.592379,-0.19667
2.04149,0.708126,-0.176398
2.01335,0.582267,-0.0243997
2.02008,0.584212,-0.196298
2.01335,0.582267,0.0243997
2.03263,0.697116,-0.175422
2.04793,0.702364,-0.113464
2.01143,0.574488,-0.0243531
2.02583,0.578603,-0.19667
2.03493,0.690371,-0.175422
2.03134,0.689151,-0.112418
2.01644,0.567934,-0.195554
2.01737,0.568196,0.0243997
2.02989,0.680373,-0.174771
2.02562,0.570521,-0.122557
2.03006,0.680432,-0.112208
2.02319,0.562222,-0.0244463
2.01457,0.559826,-0.195183
2.01549,0.56008,0.0243531
2.03982,0.675792,-0.175422
2.02863,0.672085,-0.111999
2.0253,0.663142,-0.062021
2.02035,0.553843,-0.195554
2.00971,0.550926,0.02426
2.0308,0.664945,-0.174445
2.02717,0.663756,-0.11179
2.02311,0.547393,-0.0243997
2.01834,0.546101,-0.195183
2.01153,0.544259,0.02426
2.0292,0.656979,-0.17412
2.02936,0.657031,-0.11179
2.02124,0.538944,-0.0243531
2.02032,0.5387,-0.195183
2.00965,0.535853,0.0242135
2.0278,0.648324,-0.173795
2.03176,0.649589,-0.11179
2.03213,0.641898,-0.062021
2.01537,0.529851,-0.02426
2.01449,0.529618,-0.194439
2.0115,0.528834,0.0242135
2.03385,0.642442,-0.17412
2.01982,0.531021,-0.121627
2.0302,0.641289,-0.11158
2.02661,0.632772,-0.0617883
2.01712,0.523165,-0.02426
2.03397,0.635069,-0.271224
2.01238,0.521936,-0.194067
2.0055,0.520153,0.0241203
2.03597,0.635694,-0.17412
2.03232,0.634554,-0.11158
2.03263,0.626873,-0.0619047
2.01506,0.515131,-0.0242135
2.01419,0.514908,-0.194067
2.00343,0.512159,0.0240738
2.03437,0.627409,-0.173795
2.02689,0.625102,-0.111162
2.02333,0.616278,-0.0615556
2.00521,0.505162,0.0240738
2.0251,0.616818,-0.172818
2.02906,0.618022,-0.111162
2.02547,0.609212,-0.0615556
2.00696,0.49816,-0.0240738
1.99531,0.495269,0.0239341
2.03106,0.610894,-0.173144
2.0312,0.610936,-0.111162
2.01992,0.599861,-0.0613228
2.0048,0.490201,-0.0240272
2.01173,0.491896,-0.193324
2.00091,0.489251,0.0239806
2.04068,0.716235,-0.151232
2.03318,0.6038,-0.173144
2.02949,0.602704,-0.110952
2.01816,0.591682,-0.0612065
2.0305,0.595299,-0.012298
2.00956,0.483938,-0.192952
1.99872,0.481327,0.0239341
2.03562,0.706491,-0.150674
2.02763,0.594457,-0.172493
2.02775,0.594493,-0.110743
2.02022,0.584634,-0.0612065
2.00428,0.47527,-0.0239806
2.02488,0.585983,-0.0122515
2.00349,0.475082,-0.192208
1.99261,0.472501,0.0238409
2.02598,0.5863,-0.110534
2.02214,0.577931,-0.0612065
1.99416,0.465891,0.0238409
2.03661,0.691336,-0.150395
2.02779,0.579546,-0.172167
2.015,0.57589,0.0365802
2.03559,0.690989,-0.100135
2.02407,0.578481,-0.110324
2.02425,0.570517,-0.0612065
2.00755,0.461266,-0.0239806
1.99196,0.457684,0.0237944
2.03156,0.681329,-0.149837
2.02223,0.569947,-0.171516
2.03432,0.682253,-0.0999489
2.02233,0.569976,-0.110115
2.01852,0.561304,-0.0609738
2.00135,0.452491,-0.0238875
2.0232,0.562604,-0.012205
2.00447,0.453198,-0.191837
2.00525,0.453373,0.0239341
2.03393,0.674233,-0.149837
2.02036,0.561816,-0.171191
2.02292,0.562528,0.0366501
2.0291,0.672633,-0.0995766
2.01276,0.55214,-0.060741
1.9951,0.443766,-0.0237944
2.02515,0.555539,-0.012205
1.9912,0.442898,0.0237478
2.02489,0.663403,-0.149
2.02764,0.664303,-0.0993905
2.01856,0.55373,-0.109696
2.01458,0.545463,-0.060741
1.99657,0.437148,-0.0237944
2.02312,0.547775,-0.0121818
2.03169,0.658179,-0.230044
1.98875,0.435437,0.0237012
2.03088,0.657915,-0.149279
2.01898,0.546656,0.0365104
2.01267,0.544946,-0.109277
2.03529,0.659343,-0.0497831
2.01647,0.538427,-0.060741
1.99417,0.429334,-0.0237478
2.02115,0.539677,-0.0121585
2.03777,0.652295,-0.230473
1.98635,0.42765,0.0236547
2.02936,0.649604,-0.149
2.01834,0.538926,-0.17054
2.01315,0.537541,0.0363708
2.02831,0.649267,-0.0992044
2.01456,0.537916,-0.109277
2.01447,0.530366,-0.0606247
1.99957,0.423198,-0.0237944
2.01529,0.530582,-0.012112
2.02866,0.64158,-0.229188
1.99174,0.421542,0.0237012
2.02781,0.641313,-0.148721
2.01115,0.529491,0.036301
2.00979,0.529133,0.0846712
2.03056,0.642183,-0.0992044
2.02029,0.531897,-0.109487
2.00857,0.521322,-0.060392
1.98929,0.413772,-0.0236547
2.01638,0.52335,-0.265163
2.01326,0.522539,-0.0120888
2.02709,0.633309,-0.228759
1.99641,0.415253,-0.190349
1.9932,0.414587,0.0237012
2.02242,0.631851,-0.148163
2.01819,0.52382,-0.170214
2.00911,0.521464,0.0362312
1.99778,0.41554,-0.118836
2.02898,0.6339,-0.0990182
2.01038,0.514307,-0.060392
1.99464,0.407626,-0.0237012
2.01507,0.515508,-0.0120888
2.02549,0.625056,-0.228331
1.99072,0.406825,0.0236547
2.02462,0.624787,-0.148163
2.01615,0.515783,-0.169889
2.0148,0.515438,0.036301
2.02736,0.625634,-0.0988321
2.01234,0.51481,-0.108859
2.02519,0.624964,-0.0493179
2.00828,0.50631,-0.0602756
1.9882,0.399087,-0.0236081
2.01298,0.507493,-0.0120655
2.02385,0.616823,-0.227903
1.9882,0.399087,0.0236081
2.02297,0.616553,-0.147884
2.01407,0.507769,-0.169564
1.99972,0.50415,0.0840198
2.02571,0.617389,-0.098646
2.01025,0.506806,-0.108649
2.02353,0.616726,-0.0492248
2.01383,0.500612,-0.060392
2.02228,0.609024,0
1.98952,0.392492,-0.0236081
2.02969,0.611256,-0.228331
1.97774,0.39017,0.0234684
2.025,0.609842,-0.147884
2.008,0.499164,-0.168913
2.00661,0.498818,0.0360916
1.9975,0.496552,0.083857
2.02775,0.610669,-0.098646
2.00805,0.499174,-0.10844
2.0294,0.611166,-0.0493179
2.01168,0.492628,-0.0602756
1.98695,0.384784,-0.0235616
2.00862,0.491877,-0.012019
2.02038,0.600766,-0.227046
1.97909,0.383263,0.0234684
2.02329,0.601632,-0.147605
2.00446,0.490859,0.0360218
1.99156,0.385678,-0.118138
1.99922,0.489576,0.083857
2.02987,0.603587,-0.098646
2.00978,0.492161,-0.10844
2.02768,0.602938,-0.0492248
2.00181,0.482442,-0.0599265
2.01508,0.591159,0
2.00263,0.482638,-0.0119725
2.02638,0.594477,-0.227474
1.98442,0.376754,0.023515
2.02548,0.594213,-0.147605
2.00765,0.483848,-0.168587
2.00624,0.483509,0.0360218
2.02823,0.595018,-0.0984599
2.01837,0.592125,-0.0489456
1.9996,0.474527,-0.0598101
2.01713,0.584121,0
1.98179,0.369092,-0.0234684
2.0043,0.475644,-0.0119725
2.02081,0.585187,-0.226617
1.98509,0.369706,-0.188491
1.97785,0.368359,0.0234219
2.01605,0.583808,-0.146768
2.00545,0.475916,-0.168262
2.00014,0.474656,0.0358821
2.0312,0.697416,-0.137637
2.02262,0.585711,-0.0980876
2.00936,0.476845,-0.108231
2.01658,0.583963,-0.0488526
1.99337,0.466073,-0.0595774
2.01136,0.575229,0
1.983,0.362517,-0.0234684
2.00587,0.468994,-0.0119725
2.01509,0.576295,-0.225761
1.983,0.362517,0.0234684
2.02181,0.578216,-0.147047
2.0017,0.46802,0.0358821
2.0335,0.690676,-0.137637
1.98764,0.363365,-0.117673
1.99256,0.465884,0.0833685
2.01687,0.576803,-0.0977154
2.00315,0.468359,-0.107812
2.0262,0.579471,-0.0490387
1.99101,0.458563,-0.0594611
2.01326,0.568556,0
1.97632,0.354527,-0.0233753
2.01595,0.569317,-0.325902
2.00351,0.461443,-0.0119493
2.02082,0.57069,-0.226189
1.98025,0.355234,0.0234219
2.01987,0.570425,-0.146768
2.00467,0.46171,-0.167936
1.99934,0.460482,0.0358123
2.02821,0.681387,-0.137125
1.9902,0.458377,0.0832057
2.02646,0.572284,-0.0980876
2.0008,0.460818,-0.107603
2.02426,0.571663,-0.0489456
2.0004,0.453378,-0.0596938
2.01523,0.561526,0
1.98542,0.349012,-0.0234684
2.00511,0.454447,-0.0119493
2.01896,0.562566,-0.225761
1.97754,0.347627,0.0233753
2.02185,0.563371,-0.146768
2.00239,0.453829,-0.167611
1.99704,0.452617,0.0357425
2.03058,0.674303,-0.137125
1.9822,0.348445,-0.117208
1.98789,0.450544,0.0830429
2.02075,0.563062,-0.0977154
2.0024,0.453831,-0.107603
2.01854,0.562447,-0.0487595
1.99034,0.443435,-0.0593447
2.01727,0.554136,0
2.01616,0.553831,-0.325287
1.99896,0.445355,-0.0119028
2.01334,0.553056,-0.224904
1.9788,0.340377,0.0233753
2.02006,0.5549,-0.146489
1.99478,0.444425,0.0356727
2.02545,0.664369,-0.136613
1.98563,0.442386,0.08288
2.01509,0.553536,-0.0973431
2.00405,0.44649,-0.107603
2.00902,0.551868,-0.0484804
1.98789,0.435976,-0.0592283
2.00752,0.544303,0
2.0218,0.548176,-0.325902
2.019,0.547416,-0.225332
2.02241,0.548341,0.0487595
1.97598,0.333148,0.0233287
2.01803,0.547154,-0.14621
2.00161,0.438984,-0.167285
1.99624,0.437807,0.0356727
2.02764,0.657648,-0.136613
1.98708,0.435799,0.08288
2.02077,0.547896,-0.0975292
1.99381,0.437274,-0.106975
2.0147,0.546248,-0.0485734
1.9894,0.429034,-0.0592283
2.00554,0.536259,0
2.01607,0.539073,-0.324672
2.00194,0.431738,-0.0119028
2.01706,0.539339,-0.224904
2.02045,0.540246,0.0486665
1.97318,0.325597,0.0232822
2.01608,0.539076,-0.145931
1.99385,0.429994,0.0356029
2.02993,0.650566,-0.136613
1.98469,0.428018,0.0827172
2.01881,0.539807,-0.0973431
1.99533,0.430312,-0.106975
2.00886,0.537147,-0.0483873
1.99096,0.421739,-0.0592283
2.01136,0.529923,0
1.97041,0.317726,-0.0232356
2.01039,0.529666,-0.323443
2.01902,0.531942,-0.224904
2.01855,0.531817,0.0485734
1.97041,0.317726,0.0232356
2.01804,0.531682,-0.145931
1.9969,0.422998,-0.166634
1.9915,0.421854,0.0355331
2.02849,0.641917,-0.136357
1.99015,0.421568,0.08288
2.01691,0.531385,-0.097157
1.99689,0.422995,-0.106975
2.00695,0.528761,-0.0482943
1.98851,0.413973,-0.059112
2.0132,0.5229,0
1.97546,0.311469,-0.0232822
2.01222,0.522646,-0.323443
1.99673,0.415685,-0.259607
1.9854,0.413326,-0.0117866
2.01702,0.523891,-0.224475
1.97546,0.311469,0.0232822
1.99446,0.415212,-0.166309
1.98905,0.414085,0.0354633
2.0231,0.632451,-0.135846
1.97987,0.412175,0.0823915
2.01489,0.523338,-0.0969709
1.99444,0.415209,-0.106765
2.00491,0.520747,-0.0482012
2.02128,0.624917,-0.0369293
1.9898,0.407723,-0.059112
2.01483,0.516572,0
1.97248,0.304651,-0.0232356
2.0062,0.514358,-0.322213
1.99452,0.408692,-0.0118331
2.01095,0.515576,-0.223619
1.97588,0.305176,-0.186632
1.97248,0.304651,0.0232356
1.99576,0.408944,-0.166309
1.9825,0.406228,0.0353237
2.02508,0.626091,-0.135846
1.97717,0.305375,-0.116511
1.98116,0.405953,0.0823915
2.01652,0.517004,-0.0969709
2.00267,0.513453,-0.0481082
2.02749,0.618319,-0.0369991
1.97567,0.39693,-0.0586465
2.00904,0.506875,0
1.97363,0.297075,-0.0232356
2.00816,0.506651,-0.322213
1.99608,0.401031,-0.0118331
2.01291,0.507851,-0.223619
1.9731,0.296995,-0.18626
2.01238,0.507716,0.0482943
1.96572,0.295884,0.0231425
2.01189,0.507592,-0.145093
1.98405,0.398613,0.0353237
2.02365,0.617147,-0.13559
1.97438,0.297187,-0.116278
2.01074,0.507303,-0.0965986
1.99338,0.400488,-0.106556
1.97777,0.397352,0.164682
2.00075,0.504781,-0.0480151
2.02942,0.611947,-0.0369991
1.97691,0.390722,-0.0586465
2.00286,0.498629,0
1.9706,0.290291,-0.023189
2.0059,0.499385,-0.321598
1.98556,0.392431,-0.0117633
1.97008,0.290215,-0.185888
2.01008,0.500426,0.0482012
1.96664,0.289708,0.0231425
2.01347,0.50127,-0.145093
1.99074,0.393456,-0.165658
1.98529,0.392378,0.0353237
2.02558,0.610787,-0.13559
1.97135,0.290401,-0.116045
2.00335,0.49875,0.120232
1.9761,0.390563,0.0820659
2.00845,0.500019,-0.0964125
1.98679,0.392675,-0.106137
2.01657,0.608071,-0.085811
1.99844,0.497528,-0.0479221
2.02005,0.601435,-0.0367897
1.97433,0.383056,-0.0585302
2.00071,0.490681,0
1.96764,0.282841,-0.0231425
1.99996,0.490497,-0.320368
1.99052,0.386197,-0.258092
1.99084,0.38626,-0.0117866
1.96714,0.282769,-0.185516
2.00793,0.492453,0.0481082
1.96368,0.282272,0.0230959
2.00746,0.492337,-0.144535
1.98819,0.385745,-0.165333
1.98272,0.384684,0.0352539
2.02004,0.601434,-0.135078
1.97235,0.283518,-0.116045
1.97353,0.382901,0.0819031
2.01018,0.493005,-0.0964125
1.98423,0.384976,-0.105928
2.01485,0.599887,-0.0856481
2.00405,0.491501,-0.0480151
2.0185,0.592547,-0.0367199
1.97972,0.376219,-0.0586465
2.01035,0.48487,0
2.00183,0.482814,-0.320368
1.98419,0.377069,-0.257082
1.98838,0.377865,-0.0117633
1.97267,0.275837,0.023189
2.00934,0.484625,-0.144535
1.98574,0.377363,-0.165007
1.98025,0.376321,0.0351841
2.01468,0.591424,-0.134567
1.96947,0.275389,-0.115813
2.00307,0.483114,0.119999
1.97891,0.376066,0.0820659
2.00818,0.484345,-0.0962264
1.98569,0.377354,-0.105928
2.0133,0.59102,-0.0854853
1.99815,0.481926,-0.047829
2.02056,0.585499,-0.0367199
2.00814,0.476927,0
1.96966,0.26841,-0.0231425
2.0035,0.475824,-0.320368
1.98969,0.370923,-0.0117633
2.00433,0.476022,-0.221905
1.96916,0.268342,-0.185516
1.96966,0.26841,0.0231425
1.98704,0.370431,-0.165007
1.97369,0.367941,0.0350444
2.01673,0.584389,-0.134567
2.00086,0.475198,0.119766
1.97628,0.368425,0.0819031
2.01151,0.582878,-0.0853225
1.99593,0.474026,-0.047736
2.02239,0.579146,-0.0367199
1.98217,0.36308,-0.0586465
2.00184,0.46879,0
2.00499,0.469526,-0.320368
2.01497,0.577023,0.0121818
1.98691,0.363949,-0.0117401
1.9621,0.261102,-0.184773
2.00519,0.469575,0.0479221
1.96653,0.261692,0.0230959
1.97484,0.361738,0.0350444
2.01856,0.578049,-0.134567
1.96334,0.261267,-0.115348
1.99457,0.467087,0.119301
1.96957,0.360773,0.0815774
2.00745,0.470105,-0.0960402
1.98029,0.362736,-0.105509
2.01718,0.577654,-0.0854853
1.99351,0.46684,-0.0476429
2.02065,0.570644,-0.0366501
1.97561,0.354401,-0.0584138
2.00355,0.46145,0
1.96748,0.254483,-0.0230959
1.99899,0.460401,-0.319138
2.01707,0.569634,0.0121818
1.96304,0.25391,-0.184773
2.003,0.461326,0.047829
1.95954,0.253457,0.0230028
2.00256,0.461222,-0.143698
1.98559,0.356192,-0.164682
1.97615,0.354497,0.0350444
2.02066,0.570647,-0.134567
2.00016,0.46067,0.119534
1.97088,0.353552,0.0815774
2.00138,0.460951,-0.095668
1.97374,0.354066,-0.105091
2.01159,0.568085,-0.0851596
1.99911,0.460428,-0.047736
2.01107,0.560366,-0.0364406
2.00124,0.453569,0
2.00058,0.45342,-0.319138
1.98139,0.348302,-0.256072
2.0152,0.561515,0.0121585
1.98552,0.349029,-0.0117168
1.96392,0.247055,-0.184773
2.0046,0.45433,0.047829
1.95248,0.245616,0.0229097
2.00026,0.453346,-0.143419
1.97897,0.347877,-0.164031
1.97738,0.347597,0.0350444
2.01495,0.561447,-0.134055
2.00175,0.453685,0.119534
2.00297,0.453961,-0.095668
1.97497,0.347173,-0.105091
2.00971,0.559986,-0.0849968
1.9929,0.451679,-0.0475499
2.01292,0.553694,-0.0364406
1.97404,0.340266,-0.0582974
1.99103,0.444317,0
1.99436,0.445062,-0.317908
1.98253,0.34173,-0.256072
1.97879,0.341084,-0.0116703
2.00286,0.446959,-0.221048
2.0022,0.44681,0.047736
1.96122,0.240113,0.0230028
1.99786,0.445842,-0.14314
1.97619,0.340636,-0.163705
1.97063,0.339679,0.0349048
2.0091,0.552645,-0.133543
1.99155,0.444435,0.118836
1.96536,0.338771,0.0812517
1.98004,0.341301,-0.1053
2.0077,0.552259,-0.084834
1.99049,0.444197,-0.0474568
2.00712,0.54457,-0.036301
1.96733,0.332043,-0.0580647
1.99647,0.438223,0
1.9959,0.438098,-0.317908
1.97589,0.333487,-0.255062
2.00353,0.543597,0.0120655
1.98391,0.334841,-0.0116936
1.99664,0.43826,-0.220192
1.95764,0.232742,-0.184029
1.99984,0.438961,0.0476429
1.96205,0.233266,0.0230028
1.98129,0.3344,-0.164031
2.01043,0.54547,0.0606247
1.97181,0.332799,0.0349048
2.01102,0.545629,-0.133543
1.96283,0.233359,-0.115115
1.98529,0.435769,0.118371
1.97047,0.332574,0.0814146
2.00211,0.439461,-0.0954819
1.97334,0.333058,-0.104881
2.00962,0.545248,-0.084834
1.98812,0.436389,-0.0473638
2.0091,0.537211,-0.036301
1.96853,0.324831,-0.0580647
1.99415,0.430059,0
1.96289,0.226073,-0.0230028
1.9771,0.326243,-0.255062
2.00551,0.53625,0.0120655
1.97723,0.326265,-0.0116471
1.95848,0.225566,-0.184029
2.00143,0.431629,0.0476429
1.95892,0.225616,0.0229562
1.9971,0.430694,-0.142861
1.97857,0.326487,-0.163705
2.00469,0.536032,0.060392
1.97301,0.32557,0.0349048
2.00915,0.537224,-0.133288
1.98297,0.427648,0.118138
1.96774,0.324699,0.0812517
1.97455,0.325824,-0.104881
2.00388,0.535815,-0.0845083
1.9858,0.428257,-0.0472707
2.01096,0.530194,-0.036301
1.99173,0.422266,0
1.95969,0.218776,-0.0229562
1.99512,0.422984,-0.317293
1.97822,0.31934,-0.255062
2.0035,0.528226,0.0120423
1.97836,0.319361,-0.0116471
1.99584,0.423136,-0.219763
1.95926,0.218728,-0.184029
1.9951,0.422981,0.0474568
1.95174,0.217889,0.0228631
1.99859,0.42372,-0.142861
1.97576,0.318943,-0.16338
2.00269,0.528011,0.0602756
1.97019,0.318043,0.034835
2.01101,0.530206,-0.133288
1.96048,0.218864,-0.114883
1.98836,0.421551,0.118371
1.96491,0.317191,0.0810889
1.97173,0.318292,-0.104672
2.00574,0.528816,-0.0845083
1.98728,0.421322,-0.0472707
2.00488,0.521859,-0.0361614
1.96275,0.310518,-0.057832
1.97194,0.311972,-0.399295
1.98913,0.415189,0
1.96037,0.212619,-0.0229562
1.99257,0.415907,-0.316679
1.9753,0.312504,-0.254557
1.97935,0.313145,-0.0116471
1.95202,0.211713,-0.183286
1.99251,0.415894,0.0473638
1.95242,0.211756,0.0228631
1.996,0.416624,-0.142582
1.97282,0.312112,-0.163054
1.97118,0.311852,0.034835
2.00494,0.521875,-0.132776
1.98968,0.415303,0.118371
1.9659,0.311017,0.0810889
1.99871,0.417189,-0.0951096
1.96878,0.311472,-0.104463
1.96101,0.310243,0.162078
1.99965,0.520499,-0.0841827
1.98468,0.41426,-0.0471777
2.0029,0.513513,-0.0360916
1.96387,0.303322,-0.057832
1.98672,0.407093,0
1.99408,0.408601,-0.316679
1.97251,0.304655,-0.254052
1.9993,0.51259,0.0119958
1.94882,0.204141,-0.182914
1.99794,0.409391,0.0474568
1.99361,0.408504,-0.142303
1.96607,0.303661,-0.162403
1.99849,0.512381,0.0600429
1.96836,0.304014,0.0347652
1.99911,0.51254,-0.132264
1.95795,0.205098,-0.11465
1.98336,0.406404,0.117906
1.96703,0.303809,0.0810889
1.96991,0.304254,-0.104463
2.00155,0.513166,-0.0841827
1.98618,0.406983,-0.0471777
1.99684,0.504908,-0.035952
1.99198,0.401293,0
1.99155,0.401206,-0.316064
1.97351,0.298113,-0.254052
1.99711,0.504977,0.0119725
1.99222,0.401341,-0.218906
1.95345,0.19808,-0.183286
1.99144,0.401184,0.0472707
1.95385,0.198121,0.0228631
1.97101,0.297736,-0.162729
2.00018,0.505752,0.0600429
1.96935,0.297486,0.0347652
2.0008,0.505908,-0.132264
1.97687,0.398248,0.117441
1.96012,0.296091,0.0807633
1.98982,0.400858,-0.0945512
1.97485,0.298317,-0.104672
1.99937,0.505546,-0.0840198
1.97576,0.398025,-0.0468985
2.00635,0.499868,-0.0360916
1.95798,0.28878,-0.0575993
1.98552,0.392784,0
1.98906,0.393484,-0.315449
1.97061,0.290643,-0.253547
1.97461,0.291232,-0.0116006
1.98971,0.393612,-0.218478
1.9462,0.190484,-0.182542
1.98891,0.393454,0.0471777
1.95055,0.190909,0.0228165
1.99243,0.39415,-0.142024
1.96415,0.28969,-0.162078
1.99805,0.497799,0.0599265
1.97038,0.290609,0.0347652
1.99868,0.497956,-0.132008
1.95135,0.190988,-0.114185
1.97825,0.391345,0.117441
1.96509,0.289829,0.0809261
1.96403,0.289672,-0.104044
1.95626,0.288526,0.161427
2.00112,0.498564,-0.0840198
1.97714,0.391125,-0.0468985
2.00429,0.491559,-0.0360218
1.95507,0.281034,-0.0574829
1.9645,0.28239,-0.396941
1.97909,0.383981,0
1.95522,0.184134,-0.0228631
1.98661,0.385439,-0.314834
1.97166,0.283419,-0.253547
2.00067,0.490673,0.0119725
1.98723,0.38556,-0.21805
1.95085,0.183723,-0.182914
1.97856,0.383877,0.0468985
1.94725,0.183384,0.02277
1.98994,0.386085,-0.141745
1.9652,0.282489,-0.162078
1.96747,0.282817,0.0346954
2.00049,0.490627,-0.132008
1.98359,0.384852,0.117673
1.96219,0.282057,0.0807633
1.99264,0.386609,-0.0945512
1.96903,0.283041,-0.104253
1.99905,0.490274,-0.083857
1.98641,0.3854,-0.0470846
2.00202,0.48397,-0.035952
1.96391,0.275661,-0.0577156
1.98429,0.378165,0
1.98399,0.378109,-0.314219
1.97263,0.276885,-0.0115773
1.94351,0.176533,-0.18217
1.98375,0.378062,0.0469915
1.95183,0.177288,0.0228165
1.98729,0.378738,-0.141466
1.96612,0.275971,-0.162078
1.9684,0.276291,0.0346954
1.99822,0.483053,-0.131753
1.94866,0.177,-0.113952
1.98093,0.377525,0.117441
1.95915,0.274993,0.0806004
1.98999,0.379251,-0.0943651
1.96205,0.275399,-0.103835
1.99289,0.481765,-0.0835313
1.97589,0.376565,-0.0468054
1.99591,0.475126,-0.0358123
1.95694,0.267719,-0.0574829
1.96249,0.268479,-0.396157
1.9738,0.36903,0
1.96175,0.268378,-0.252031
1.9859,0.371293,-0.217621
1.94412,0.169747,-0.18217
1.98113,0.3704,0.0468985
1.94447,0.169777,0.0227234
1.9886,0.371798,-0.141466
1.95917,0.268025,-0.161427
1.96539,0.268876,0.0346256
1.99213,0.474226,-0.131241
1.94529,0.169849,-0.11372
1.96406,0.268694,0.0807633
1.95904,0.268007,-0.103625
1.99068,0.473879,-0.0833685
1.99764,0.467808,-0.0358123
1.94998,0.259491,-0.0572502
1.98301,0.363235,0
1.98665,0.363902,-0.314219
1.96666,0.26171,-0.252536
1.99012,0.466047,0.0118796
1.96266,0.261179,-0.0115076
1.98725,0.364012,-0.217621
1.94076,0.162289,-0.181799
1.98247,0.363137,0.0468985
1.9821,0.363069,-0.140908
1.96014,0.260843,-0.161427
1.9624,0.261144,0.0345558
1.98997,0.466011,-0.130985
1.94192,0.162386,-0.113487
1.95711,0.26044,0.0804376
1.98479,0.363562,-0.0939929
1.96397,0.261352,-0.103835
1.97213,0.361243,0.246176
1.98851,0.465669,-0.0832057
1.9746,0.361696,-0.0467124
1.99537,0.459933,-0.0357425
1.96436,0.254429,-0.396157
1.98033,0.355603,0
1.96753,0.25484,-0.0115308
1.98459,0.35637,-0.217193
1.94131,0.155513,-0.181799
1.98373,0.356214,0.0468985
1.94564,0.155859,0.0227234
1.98336,0.356148,-0.140908
1.96104,0.253999,-0.161427
1.99483,0.459809,0.0595774
1.95933,0.253778,0.034486
1.99547,0.459958,-0.131241
1.94248,0.155606,-0.113487
1.96912,0.35359,0.116511
1.95801,0.253606,0.0804376
1.98211,0.355924,-0.0938067
1.96091,0.253982,-0.103625
1.99402,0.459622,-0.0833685
1.97192,0.354094,-0.0466193
1.99696,0.452966,-0.0357425
1.95571,0.246371,-0.0573665
1.95746,0.246591,-0.394588
1.97368,0.347303,0
1.99333,0.452142,0.0118796
1.98191,0.348751,-0.216764
1.93787,0.148431,-0.181427
1.98102,0.348595,0.0468054
1.94218,0.148761,0.0226768
1.97673,0.34784,-0.14035
1.95796,0.246654,-0.161102
1.98862,0.451074,0.0593447
1.96417,0.247437,0.0345558
1.99707,0.45299,-0.131241
1.94301,0.148825,-0.113487
1.95888,0.24677,0.0804376
1.98334,0.349004,-0.0938067
1.95782,0.246636,-0.103416
1.95005,0.245658,0.160451
1.99171,0.451775,-0.0832057
1.97314,0.347209,-0.0466193
1.99845,0.446341,-0.0357425
1.94858,0.23891,-0.0571338
1.97876,0.341435,0
1.97861,0.341409,-0.312374
1.98701,0.443785,0.0118331
1.93438,0.141713,-0.181055
1.97428,0.340663,0.0466193
1.94266,0.142319,0.0226768
1.9818,0.341961,-0.140629
1.95481,0.239674,-0.160776
1.9862,0.443605,0.0592283
1.95704,0.239948,0.0344161
1.99077,0.444625,-0.130729
1.94349,0.14238,-0.113487
1.97148,0.340179,0.116511
1.95969,0.240272,0.0804376
1.95863,0.240142,-0.103416
1.9854,0.443425,-0.08288
1.97428,0.340663,-0.0466193
1.99218,0.437646,-0.0356029
1.94543,0.231635,-0.0570174
1.95909,0.233261,-0.394588
1.96811,0.332527,0
1.95826,0.233162,-0.251021
1.98855,0.436847,0.0118331
1.98032,0.33459,-0.216336
1.93884,0.135237,-0.181427
1.9794,0.334436,0.0467124
1.93517,0.134981,0.0225837
1.97512,0.333712,-0.140071
1.95564,0.23285,-0.160776
1.9539,0.232643,0.0343463
1.98451,0.43596,-0.130218
1.93999,0.135318,-0.113255
1.96478,0.331965,0.116045
1.95655,0.232958,0.0802748
1.95548,0.232832,-0.103207
1.99084,0.43735,-0.0830429
1.97152,0.333104,-0.0465263
1.98197,0.428156,-0.0353935
1.94623,0.224843,-0.0570174
1.9732,0.326308,0
1.97704,0.326944,-0.311759
1.95906,0.226325,-0.251021
1.99006,0.429904,0.0118331
1.96291,0.22677,-0.0114843
1.97362,0.326378,-0.215479
1.93533,0.128206,-0.181055
1.97267,0.32622,0.0465263
1.94361,0.128755,0.0226768
1.9802,0.327467,-0.14035
1.95644,0.226022,-0.160776
1.95073,0.225363,0.0342765
1.98602,0.429031,-0.130218
1.93647,0.128281,-0.113022
1.95338,0.225669,0.0801119
1.97501,0.326607,-0.0932484
1.95232,0.225547,-0.102997
1.94455,0.22465,0.1598
1.98844,0.429555,-0.08288
1.96478,0.324915,-0.0463402
1.98338,0.421581,-0.0353935
1.94299,0.217941,-0.0569011
1.95673,0.219483,-0.393804
1.97032,0.319123,0
1.95585,0.219385,-0.250516
1.98365,0.421638,0.0117866
1.97077,0.319195,-0.215051
1.92779,0.121287,-0.180312
1.96979,0.319037,0.0464332
1.93604,0.121806,0.0225837
1.96946,0.318984,-0.139513
1.94925,0.218644,-0.160125
1.98284,0.421467,0.0589956
1.95544,0.219338,0.0343463
1.98353,0.421612,-0.129962
1.94087,0.122109,-0.113255
1.96305,0.317945,0.115813
1.95014,0.218744,0.0799491
1.97608,0.320055,-0.0932484
1.95305,0.219071,-0.102997
1.96348,0.318014,0.244226
1.98986,0.422958,-0.08288
1.96584,0.318398,-0.0463402
1.98484,0.414655,-0.0353935
1.95359,0.212228,-0.393019
1.95957,0.310366,0
1.95661,0.212556,-0.250516
1.98511,0.414711,0.0117866
1.96402,0.311069,-0.214194
1.93218,0.114792,-0.180683
1.97089,0.312159,0.0464332
1.94045,0.115284,0.0226303
1.97451,0.312731,-0.139792
1.95,0.211838,-0.160125
1.95619,0.21251,0.0343463
1.98889,0.415501,-0.130218
1.94128,0.115333,-0.113255
1.9602,0.310466,0.11558
1.95089,0.211935,0.0799491
1.97324,0.31253,-0.0930622
1.94984,0.21182,-0.102788
1.9835,0.414374,-0.0825544
1.96694,0.311533,-0.0463402
1.98635,0.407378,-0.0353935
1.9445,0.204032,-0.0569011
1.95435,0.205066,-0.393019
1.97256,0.305016,0
1.93686,0.107949,-0.0225837
1.97255,0.305014,-0.310529
1.95343,0.204969,-0.250011
1.9827,0.406629,0.0117633
1.92861,0.107489,-0.180312
1.96807,0.304322,0.0463402
1.93287,0.107726,0.0225371
1.97564,0.305492,-0.139792
1.95077,0.20469,-0.160125
1.97798,0.405661,0.0587629
1.95696,0.205339,0.0343463
1.98258,0.406605,-0.129706
1.9377,0.107996,-0.113022
1.96133,0.303279,0.11558
1.94768,0.204366,0.0797863
1.97042,0.304685,-0.0928761
1.9506,0.204672,-0.102788
1.98109,0.406299,-0.0823915
1.96807,0.304322,-0.0463402
1.97593,0.398417,-0.0351841
1.94119,0.197179,-0.0567847
1.94722,0.197792,-0.39145
1.96169,0.296679,0
1.97355,0.298472,-0.310529
1.95015,0.19809,-0.249506
1.98011,0.399262,0.0117401
1.96221,0.296757,-0.213766
1.93293,0.101301,-0.180683
1.96907,0.297794,0.0463402
1.93721,0.101526,0.0225837
1.9648,0.297149,-0.138955
1.95143,0.19822,-0.160125
1.94569,0.197637,0.0341369
1.97609,0.398451,-0.129194
1.93406,0.101361,-0.11279
1.95837,0.296177,0.115348
1.95233,0.198311,0.0799491
1.97142,0.29815,-0.0928761
1.95127,0.198203,-0.102788
1.95885,0.296248,0.243251
1.98242,0.399728,-0.0823915
1.96512,0.297197,-0.0462471
1.98123,0.392294,-0.0352539
1.9479,0.190993,-0.39145
1.96667,0.290413,0
1.93356,0.0945669,-0.0225371
1.96676,0.290426,-0.3093
1.95083,0.191281,-0.249506
1.97757,0.39157,0.0117168
1.96717,0.290486,-0.214194
1.92134,0.0939694,-0.179568
1.9701,0.290919,0.0463402
1.93356,0.0945669,0.0225371
1.96978,0.290872,-0.139234
1.94021,0.190239,-0.159149
1.94637,0.190843,0.0341369
1.97747,0.39155,-0.129194
1.93042,0.0944133,-0.112557
1.95301,0.191494,0.0799491
1.9685,0.290682,-0.09269
1.94797,0.191001,-0.102578
1.95987,0.289409,0.243251
1.97989,0.392028,-0.0822287
1.96219,0.28975,-0.0461541
1.98258,0.385376,-0.0352539
1.93853,0.183246,-0.0566684
1.94074,0.183455,-0.389881
1.9558,0.281835,0
1.97167,0.284123,-0.309915
1.95148,0.18447,-0.249506
1.97893,0.384665,0.0117168
1.96423,0.283051,-0.213766
1.92564,0.0874432,-0.17994
1.96714,0.28347,0.0462471
1.92988,0.0876359,0.0224906
1.95893,0.282287,-0.138397
1.94086,0.183466,-0.159149
1.951,0.184425,0.0342067
1.98275,0.385407,-0.12945
1.93074,0.0876748,-0.112557
1.94968,0.1843,0.0797863
1.96159,0.28267,-0.0923178
1.94465,0.183824,-0.102369
1.97732,0.384353,-0.0820659
1.96714,0.28347,-0.0462471
1.97999,0.377703,-0.0351841
1.93518,0.176115,-0.056552
1.94528,0.177034,-0.390666
1.96073,0.275563,0
1.96482,0.276138,-0.308685
1.95212,0.177657,-0.249506
1.97633,0.377005,0.0116936
1.96127,0.275638,-0.213337
1.92593,0.0807204,-0.17994
1.96416,0.276045,0.0461541
1.92618,0.0807308,0.022444
1.96386,0.276002,-0.138676
1.94149,0.17669,-0.159149
1.94765,0.17725,0.0341369
1.98408,0.378483,-0.12945
1.93103,0.0809342,-0.112557
1.93837,0.176406,0.0792978
1.96652,0.276377,-0.0925039
1.93732,0.17631,-0.10195
1.97865,0.377448,-0.0820659
1.9602,0.275488,-0.046061
1.97743,0.369709,-0.0351142
1.93581,0.169022,-0.056552
1.9381,0.169221,-0.389097
1.9538,0.267291,0
1.96191,0.268399,-0.30807
1.94485,0.169811,-0.248496
1.9777,0.369759,0.0116936
1.92223,0.0735092,-0.179568
1.9612,0.268302,0.046061
1.92646,0.073671,0.022444
1.95695,0.267721,-0.138118
1.93815,0.169226,-0.158823
1.94829,0.170111,0.0341369
1.96976,0.368275,-0.128427
1.96237,0.268462,0.115348
1.93901,0.169301,0.0792978
1.96752,0.269167,-0.0925039
1.94194,0.169556,-0.10216
1.98002,0.370193,-0.0820659
1.96516,0.268844,-0.0461541
1.97471,0.362427,-0.0350444
1.94035,0.162935,-0.0566684
1.94647,0.163449,-0.390666
1.95468,0.26081,0
1.96278,0.261891,-0.30807
1.94145,0.163028,-0.247991
1.97498,0.362476,0.0116703
1.9592,0.261413,-0.212909
1.92247,0.0671339,-0.179568
1.96604,0.262326,0.0461541
1.9147,0.0668629,0.0223043
1.95387,0.260702,-0.137839
1.94268,0.163131,-0.159149
1.97024,0.361607,0.0582974
1.94884,0.163649,0.0341369
1.97489,0.362461,-0.128683
1.92357,0.0671724,-0.112092
1.94354,0.163204,0.0794606
1.9684,0.262641,-0.0925039
1.94249,0.163115,-0.10216
1.97731,0.362903,-0.0819031
1.96208,0.261797,-0.046061
1.96809,0.354116,-0.0349048
1.93692,0.155841,-0.056552
1.94311,0.15634,-0.389881
1.95558,0.253985,0
1.93092,0.0606818,-0.0224906
1.96369,0.255039,-0.30807
1.93805,0.155932,-0.247486
1.97229,0.354872,0.0116471
1.94967,0.156867,-0.0113681
1.96405,0.255086,-0.213337
1.91871,0.0602982,-0.179196
1.95901,0.254432,0.045968
1.92292,0.0604306,0.0223974
1.95873,0.254394,-0.138118
1.93926,0.15603,-0.158823
1.94143,0.156204,0.0339973
1.97615,0.355565,-0.128683
1.92379,0.0604579,-0.112092
1.95227,0.253556,0.11465
1.93215,0.155457,0.0789721
1.95742,0.254225,-0.0919455
1.94305,0.156334,-0.10216
1.97856,0.356,-0.0819031
1.95901,0.254432,-0.045968
1.96932,0.347244,-0.0349048
1.93346,0.148773,-0.0564356
1.93974,0.149255,-0.389097
1.94649,0.149775,-0.248496
1.97352,0.347986,0.0116471
1.95309,0.246733,-0.212052
1.91492,0.0534895,-0.178824
1.95989,0.247592,0.045968
1.91113,0.0533833,0.0222578
1.95168,0.246556,-0.13756
1.93979,0.14926,-0.158823
1.96878,0.34715,0.0581811
1.94196,0.149427,0.0339973
1.97345,0.347972,-0.128427
1.92399,0.0537426,-0.112092
1.95314,0.24674,0.11465
1.95433,0.24689,-0.0917594
1.93561,0.148938,-0.101741
1.97192,0.347703,-0.0815774
1.95989,0.247592,-0.045968
1.97052,0.340367,-0.0349048
1.92998,0.141729,-0.0563193
1.93634,0.142196,-0.388312
1.9615,0.240842,-0.307455
1.94305,0.142689,-0.247991
1.97472,0.341094,0.0116471
1.96183,0.240883,-0.212909
1.9151,0.0468043,-0.178824
1.96074,0.240749,0.045968
1.94857,0.239255,-0.137281
1.9403,0.142487,-0.158823
1.96604,0.339595,0.0580647
1.94646,0.142939,0.0340671
1.97071,0.340402,-0.128171
1.92816,0.0471234,-0.112325
1.9292,0.141672,0.0788093
1.95518,0.240066,-0.0917594
1.93612,0.14218,-0.101741
1.96918,0.340137,-0.0814146
1.96074,0.240749,-0.045968
1.97169,0.333486,-0.0349048
1.93446,0.13527,-0.0564356
1.94073,0.135709,-0.389097
1.95018,0.232545,0
1.92345,0.0402902,-0.0223974
1.9584,0.233525,-0.30684
1.97196,0.333532,0.0116238
1.96266,0.234033,-0.212909
1.91923,0.040202,-0.179196
1.96157,0.233903,0.045968
1.95336,0.232924,-0.13756
1.93283,0.135157,-0.158173
1.94296,0.135865,0.0339973
1.96402,0.332189,-0.127659
1.94689,0.232152,0.114185
1.93367,0.135215,0.0789721
1.95601,0.233239,-0.0917594
1.93661,0.135421,-0.101741
1.9743,0.333927,-0.0815774
1.9576,0.233429,-0.0458749
1.9689,0.325949,-0.034835
1.93093,0.128252,-0.0563193
1.93337,0.128414,-0.387528
1.94701,0.225277,0
1.94004,0.128857,-0.247486
1.97311,0.326647,0.0116238
1.94371,0.224896,-0.210767
1.91538,0.0334332,-0.178824
1.96237,0.227055,0.045968
1.95416,0.226104,-0.13756
1.93727,0.128674,-0.158498
1.96517,0.325331,-0.127659
1.92445,0.0335915,-0.112092
1.93413,0.128465,0.0789721
1.96078,0.22687,-0.0919455
1.93308,0.128395,-0.101532
1.96362,0.325076,-0.0810889
1.95046,0.225676,-0.0456888
1.93136,0.121511,-0.0563193
1.9338,0.121664,-0.387528
1.95176,0.218925,0
1.93652,0.121835,-0.246981
1.97424,0.319757,0.0116238
1.94844,0.218552,-0.211195
1.9115,0.026691,-0.178453
1.95918,0.219757,0.0458749
1.95097,0.218836,-0.137281
1.93373,0.12166,-0.158173
1.96554,0.318348,0.0579483
1.93987,0.122046,0.0339275
1.96235,0.317831,-0.127403
1.92455,0.0268732,-0.112092
1.94846,0.218554,0.114185
1.93058,0.121461,0.0788093
1.95362,0.219133,-0.0915733
1.93751,0.121897,-0.101741
1.96475,0.318219,-0.0810889
1.95123,0.218865,-0.0456888
1.96323,0.310945,-0.0346954
1.92778,0.114532,-0.0562029
1.94456,0.211248,0
1.92376,0.0201473,-0.0223974
1.93693,0.115076,-0.246981
1.96744,0.311613,0.0115773
1.94524,0.211321,-0.210767
1.9076,0.019978,-0.178081
1.95198,0.212054,0.0456888
1.95172,0.212026,-0.137281
1.93812,0.115147,-0.158498
1.96269,0.310861,0.057832
1.93629,0.115038,0.0338577
1.9595,0.310356,-0.127148
1.92064,0.0201146,-0.111859
1.94921,0.211753,0.114185
1.9504,0.211882,-0.0913871
1.93393,0.114898,-0.101532
1.96584,0.31136,-0.0810889
1.95596,0.212486,-0.0457819
1.96035,0.303478,-0.0346256
1.92817,0.107802,-0.0562029
1.94131,0.20404,0
1.91582,0.0133756,-0.0223043
1.95361,0.205333,-0.30561
1.93732,0.108313,-0.246981
1.96852,0.304743,0.0115773
1.94094,0.108516,-0.0112984
1.95387,0.205361,-0.211624
1.90766,0.0133186,-0.178081
1.95271,0.205239,0.0456888
1.94451,0.204377,-0.136723
1.93453,0.108158,-0.158173
1.95982,0.303396,0.0577156
1.93668,0.108278,0.0338577
1.96058,0.303514,-0.127148
1.9207,0.0134097,-0.111859
1.94199,0.204112,0.11372
1.95113,0.205072,-0.0913871
1.92634,0.1077,-0.101113
1.95902,0.303273,-0.0807633
1.95669,0.205657,-0.0457819
1.96139,0.296633,-0.0346256
1.92854,0.10107,-0.0562029
1.94201,0.197262,0
1.92976,0.101134,-0.245971
1.96166,0.296673,0.0115308
1.94666,0.197735,-0.210767
1.90769,0.00665908,-0.178081
1.9574,0.198825,0.0457819
1.94919,0.197991,-0.137002
1.93092,0.101195,-0.157847
1.95691,0.295955,0.0575993
1.92906,0.101098,0.033718
1.95768,0.296071,-0.126892
1.94667,0.197735,0.113952
1.95183,0.19826,-0.0913871
1.9307,0.101183,-0.101322
1.95612,0.295835,-0.0806004
1.95342,0.198421,-0.0456888
1.95836,0.289884,-0.0345558
1.92485,0.0948147,-0.0560866
1.93403,0.095267,-0.246476
1.96654,0.291095,0.0115541
1.93762,0.0954436,-0.0112751
1.94332,0.191229,-0.210339
1.90771,0.000666202,-0.178081
1.94583,0.191476,-0.136723
1.92724,0.0949326,-0.157522
1.95783,0.289806,0.0575993
1.92537,0.0948404,0.0336482
1.9586,0.289919,-0.126892
1.94331,0.191228,0.11372
1.95642,0.192518,-0.0915733
1.93101,0.0951179,-0.101322
1.96099,0.290273,-0.0807633
1.95403,0.192283,-0.0456888
1.9554,0.282475,-0.034486
1.91718,0.08773,-0.0558538
1.94327,0.184378,0
1.95165,0.185173,-0.304995
1.93435,0.0885157,-0.246476
1.96358,0.283657,0.0115308
1.94001,0.184069,-0.20991
1.95071,0.185084,0.0455958
1.93854,0.183929,-0.136165
1.92358,0.0880229,-0.157196
1.95883,0.28297,0.0575993
1.92569,0.0881194,0.0336482
1.95565,0.28251,-0.126636
1.91275,-0.00600841,-0.111394
1.93999,0.184067,0.113487
1.94515,0.184556,-0.0910149
1.93133,0.0883773,-0.101322
1.95803,0.282855,-0.0806004
1.94673,0.184706,-0.0455027
1.91748,0.0810367,-0.0558538
1.93594,0.176866,0
1.94835,0.178,-0.30438
1.9606,0.276243,0.0115076
1.93668,0.176934,-0.209482
1.8997,-0.0125993,-0.177337
1.94736,0.177909,0.0455027
1.93917,0.177161,-0.136165
1.92786,0.0814756,-0.157522
1.9598,0.27613,0.0575993
1.92998,0.0815653,0.033718
1.95662,0.275682,-0.126636
1.91272,-0.0126856,-0.111394
1.93664,0.17693,0.113255
1.94578,0.177765,-0.0910149
1.92763,0.0814659,-0.101113
1.95505,0.275461,-0.0804376
1.95134,0.178273,-0.0455958
1.95733,0.268816,-0.034486
1.91775,0.0743425,-0.0558538
1.93654,0.170106,0
1.94502,0.170851,-0.303765
1.93096,0.0748546,-0.245971
1.96155,0.269397,0.0115076
1.94125,0.17052,-0.20991
1.89566,-0.0191906,-0.176966
1.94797,0.17111,0.0455027
1.93978,0.17039,-0.136165
1.92017,0.0744362,-0.156871
1.95283,0.268199,0.0573665
1.92226,0.0745176,0.0335784
1.95362,0.268307,-0.12638
1.91266,-0.0193627,-0.111394
1.9452,0.170867,0.11372
1.94639,0.170971,-0.0910149
1.92391,0.0745815,-0.100904
1.956,0.268634,-0.0804376
1.95195,0.17146,-0.0455958
1.95429,0.261452,-0.0344161
1.91799,0.0676483,-0.0558538
1.93314,0.16301,0
1.94561,0.164061,-0.303765
1.93121,0.0681143,-0.245971
1.96248,0.262548,0.0115076
1.89558,-0.0258072,-0.176966
1.94856,0.16431,0.0455027
1.94036,0.163619,-0.136165
1.9244,0.0678741,-0.157196
1.95772,0.261912,0.0574829
1.95454,0.261486,-0.12638
1.94181,0.163741,0.113487
1.94299,0.163841,-0.0908288
1.92416,0.0678658,-0.100904
1.95297,0.261275,-0.0802748
1.94457,0.163974,-0.0454097
1.91822,0.0609532,-0.0558538
1.95545,0.254664,0.0114611
1.9305,0.156003,-0.208625
1.89946,-0.0324915,-0.177337
1.94912,0.157508,0.0455027
1.9449,0.157166,-0.136444
1.91665,0.0609035,-0.156545
1.95466,0.25456,0.0573665
1.94752,0.253631,-0.125868
1.93839,0.15664,0.113255
1.94355,0.157058,-0.0908288
1.92439,0.0611492,-0.100904
1.9499,0.253941,-0.0801119
1.94513,0.157185,-0.0454097
1.91442,0.0541444,-0.0557375
1.93423,0.149511,0
1.9467,0.150475,-0.303765
1.9237,0.0544068,-0.24496
1.9603,0.248339,0.0114843
1.935,0.149571,-0.209053
1.89536,-0.0390393,-0.176966
1.94965,0.150703,0.0455027
1.94145,0.150069,-0.136165
1.92084,0.0543258,-0.156871
1.95157,0.247234,0.0572502
1.95236,0.247334,-0.126124
1.90437,-0.0392249,-0.110929
1.94807,0.150581,-0.0910149
1.92459,0.0544318,-0.100904
1.94681,0.246631,-0.0799491
1.93769,0.149779,-0.0452235
1.9106,0.0473619,-0.0556211
1.93075,0.142464,0
1.92785,0.0477893,-0.245465
1.95718,0.241006,0.0114611
1.92738,0.0477776,-0.0112054
1.93155,0.142522,-0.208625
1.89123,-0.0455597,-0.176594
1.94618,0.143602,0.0454097
1.93401,0.142704,-0.135607
1.92102,0.04762,-0.156871
1.95639,0.240908,0.0573665
1.94925,0.240029,-0.125868
1.93264,0.142603,-0.0902704
1.92077,0.0476139,-0.100694
1.95163,0.240322,-0.0801119
1.94219,0.143308,-0.0453166
1.94977,0.233531,-0.0342765
1.91075,0.0410253,-0.0556211
1.92722,0.135778,0
1.9398,0.136664,-0.302536
1.92403,0.0413104,-0.24496
1.954,0.234038,0.0114378
1.92352,0.0412995,-0.0111821
1.93597,0.136395,-0.209053
1.89107,-0.0518315,-0.176594
1.94266,0.136866,0.0453166
1.93845,0.136569,-0.135886
1.91319,0.0410777,-0.15622
1.94924,0.233467,0.0571338
1.95003,0.233563,-0.125868
1.90805,-0.052297,-0.111162
1.93709,0.136474,-0.0904565
1.92092,0.0412436,-0.100694
1.94448,0.232897,-0.0797863
1.94266,0.136866,-0.0453166
1.95061,0.226383,-0.0342765
1.90689,0.033951,-0.0555047
1.92771,0.128714,0
1.93634,0.129291,-0.301921
1.96279,0.227797,0.0114843
1.92366,0.0342496,-0.0111821
1.93249,0.129034,-0.208625
1.89086,-0.0587618,-0.176594
1.93517,0.129212,0.0451305
1.93097,0.128932,-0.135328
1.90934,0.0339947,-0.155894
1.94611,0.225861,0.0570174
1.94295,0.225494,-0.125357
1.90385,-0.0591655,-0.110929
1.92961,0.128841,-0.0900843
1.91706,0.0341322,-0.100485
1.94532,0.225769,-0.0797863
1.93916,0.129479,-0.0452235
1.94344,0.218678,-0.0341369
1.91499,0.0274084,-0.0557375
1.93214,0.122237,0
1.94073,0.12278,-0.302536
1.92031,0.0274845,-0.244455
1.95165,0.219602,0.0114146
1.91177,0.0273623,-0.0111124
1.92499,0.121785,-0.207768
1.89861,-0.0656375,-0.177337
1.9396,0.122709,0.0452235
1.93141,0.122191,-0.135328
1.91344,0.0273862,-0.15622
1.95086,0.219513,0.0571338
1.90364,-0.0658114,-0.110929
1.93802,0.122609,-0.0904565
1.91717,0.0274396,-0.100485
1.93561,0.122456,-0.0451305
1.91108,0.0210144,-0.0556211
1.93652,0.116068,0
1.93718,0.116108,-0.301921
1.95237,0.21313,0.0114146
1.92142,0.115163,-0.20734
1.93999,0.116276,0.0452235
1.92782,0.115547,-0.135049
1.91352,0.0210412,-0.15622
1.9476,0.212609,0.0570174
1.94444,0.212264,-0.125357
1.89942,-0.0719721,-0.110697
1.93443,0.115943,-0.0902704
1.91326,0.0210384,-0.100276
1.94681,0.212523,-0.0797863
1.93999,0.116276,-0.0452235
1.94886,0.205866,-0.0342067
1.90714,0.0143137,-0.0555047
1.92494,0.108632,0
1.95708,0.206734,0.0114378
1.92975,0.108904,-0.208197
1.9324,0.109054,0.0450374
1.9322,0.109042,-0.135328
1.91757,0.014392,-0.156545
1.94435,0.20539,0.0569011
1.9412,0.205056,-0.125101
1.93482,0.10919,-0.0902704
1.91731,0.0143901,-0.100485
1.94357,0.205306,-0.0796234
1.94039,0.109504,-0.0452235
1.94161,0.198249,-0.0340671
1.90718,0.00765598,-0.0555047
1.93005,0.102163,-0.300691
1.95779,0.199901,0.0114378
1.92217,0.101746,-0.20734
1.93676,0.102518,0.0451305
1.9246,0.101875,-0.134769
1.91362,0.00768183,-0.15622
1.94506,0.198601,0.0569011
1.9419,0.198278,-0.125101
1.92721,0.102013,-0.0898981
1.90537,0.00764872,-0.099857
1.94029,0.198114,-0.0794606
1.93831,0.191078,-0.0339973
1.91119,0.00100113,-0.0556211
1.93039,0.0954256,-0.300691
1.91257,0.00100185,-0.243445
1.94653,0.191889,0.0113681
1.92252,0.0950363,-0.20734
1.93711,0.0957576,0.0451305
1.92494,0.0951562,-0.134769
1.90566,0.000998235,-0.155569
1.94176,0.191418,0.0567847
1.92356,0.095088,-0.089712
1.90938,0.00100018,-0.100066
1.937,0.190949,-0.0792978
1.94294,0.184689,-0.0340671
1.90718,-0.00565882,-0.0555047
1.91798,0.0881011,0
1.93071,0.0886862,-0.300691
1.91256,-0.00567477,-0.243445
1.94719,0.185092,0.0113681
1.91886,0.0881419,-0.206912
1.93743,0.0889948,0.0451305
1.92526,0.0884358,-0.134769
1.90565,-0.00565427,-0.155569
1.93844,0.18426,0.0566684
1.93529,0.183961,-0.124589
1.92787,0.0885557,-0.0898981
1.90937,-0.00566531,-0.100066
1.93344,0.0888113,-0.0450374
1.90315,-0.0122899,-0.0553884
1.92627,0.0817452,0
1.92706,0.081779,-0.300076
1.94384,0.17793,0.0113449
1.91916,0.0814437,-0.206912
1.91759,0.0813769,-0.134211
1.90961,-0.0123316,-0.155894
1.94305,0.177858,0.0567847
1.92418,0.0816567,-0.089712
1.90934,-0.0123298,-0.100066
1.9343,0.177057,-0.079135
1.93374,0.0820622,-0.0450374
1.92734,0.0750522,-0.300076
1.94843,0.171495,0.0113681
1.93136,0.0752087,-0.208197
1.92185,0.0748384,-0.13449
1.90955,-0.0189969,-0.155894
1.94366,0.171074,0.0567847
1.93255,0.170097,-0.124333
1.92046,0.0747845,-0.0895259
1.90929,-0.0189942,-0.100066
1.93491,0.170304,-0.079135
1.93001,0.0751565,-0.0449444
1.94079,0.163996,-0.0339973
1.92364,0.0681836,-0.299461
1.94504,0.164355,0.0113449
1.91571,0.0679025,-0.206483
1.9221,0.068129,-0.13449
1.90947,-0.0256628,-0.155894
1.94425,0.164288,0.0567847
1.93711,0.163685,-0.124589
1.91672,0.0679383,-0.0893398
1.90521,-0.0256055,-0.099857
1.93151,0.163212,-0.0789721
1.92227,0.0681352,-0.0447583
1.92386,0.0614688,-0.299461
1.9456,0.157565,0.0113449
1.91833,0.0612922,-0.134211
1.9014,-0.0321926,-0.155243
1.94082,0.157178,0.0566684
1.93369,0.156601,-0.124333
1.91295,0.0611201,-0.0891536
1.90112,-0.0321878,-0.0996477
1.93049,0.0616806,-0.0449444
1.9379,0.150134,-0.0339275
1.91123,0.054387,0
1.91616,0.0545275,-0.298231
1.94215,0.150463,0.0113216
1.91216,0.0544136,-0.206055
1.91455,0.0544815,-0.133932
1.89729,-0.0387486,-0.154918
1.93737,0.150093,0.056552
1.93024,0.149541,-0.124078
1.92114,0.0546691,-0.0895259
1.90099,-0.0388243,-0.0996477
1.92862,0.149415,-0.0788093
1.93043,0.142778,-0.0337879
1.9154,0.0478146,0
1.90844,0.0476407,-0.297001
1.94266,0.143682,0.0113216
1.91872,0.0478973,-0.134211
1.90113,-0.045467,-0.155243
1.93788,0.143329,0.056552
1.93474,0.143096,-0.124333
1.91333,0.0477628,-0.0891536
1.90484,-0.0455557,-0.099857
1.92913,0.142681,-0.0788093
1.92688,0.048101,-0.0448513
1.93092,0.136039,-0.0337879
1.91556,0.0411287,0
1.93916,0.13662,0.0112984
1.90852,0.0409775,-0.205626
1.91089,0.0410285,-0.133653
1.89697,-0.0519933,-0.154918
1.94236,0.136845,0.0566684
1.92726,0.135781,-0.123822
1.90949,0.0409984,-0.0889675
1.89668,-0.0519853,-0.0994383
1.9336,0.136228,-0.0789721
1.91904,0.0412034,-0.0446652
1.91969,0.0345138,0
1.93963,0.12985,0.0112984
1.90865,0.0343153,-0.205626
1.91102,0.034358,-0.133653
1.90077,-0.0587378,-0.155243
1.93086,0.129263,0.0563193
1.92772,0.129053,-0.123822
1.91362,0.0344046,-0.0891536
1.92609,0.128944,-0.0786465
1.93581,0.122809,-0.0338577
1.93208,0.122572,0.0112519
1.90478,0.027595,-0.205198
1.91113,0.027687,-0.133653
1.89258,-0.0650982,-0.154593
1.93529,0.122775,0.0564356
1.93214,0.122576,-0.124078
1.91372,0.0277246,-0.0891536
1.92425,0.115333,-0.0336482
1.93649,0.116066,0.0112751
1.91122,0.0210158,-0.133653
1.89633,-0.0718552,-0.154918
1.92772,0.115541,0.0562029
1.90981,0.0210003,-0.0889675
1.92295,0.115255,-0.0784836
1.91936,0.0211054,-0.0446652
1.93287,0.109418,0.0112519
1.90729,0.0146472,-0.133374
1.88811,-0.0778149,-0.154267
1.93209,0.109374,0.0563193
1.90588,0.0146364,-0.0887814
1.91543,0.0147097,-0.0445722
1.921,0.10202,-0.0335784
1.93724,0.102883,0.0112751
1.90334,0.00797272,-0.133095
1.89181,-0.0845832,-0.154593
1.93246,0.102629,0.0563193
1.92135,0.102039,-0.12331
1.90192,0.0079668,-0.0885953
1.92369,0.102163,-0.0784836
1.91546,0.00802353,-0.0445722
1.92134,0.095314,-0.0335784
1.93359,0.0959215,0.0112519
1.90734,0.00133158,-0.133374
1.92568,0.0955289,-0.123566
1.90194,0.0013278,-0.0885953
1.92004,0.0952495,-0.0783208
1.92566,0.0887909,-0.0336482
1.93391,0.0891714,0.0112519
1.90734,-0.00532629,-0.133374
1.92201,0.0886226,-0.12331
1.90992,-0.00533352,-0.0889675
1.92037,0.0885467,-0.0783208
1.90348,-0.00531552,-0.044293
1.91797,0.081728,-0.0335086
1.92222,0.0819094,0.0111821
1.9073,-0.0119841,-0.133374
1.91832,0.0817431,-0.123054
1.9059,-0.0119753,-0.0887814
1.91667,0.0816727,-0.078158
1.91824,0.0750326,-0.0335086
1.9225,0.0751991,0.0111821
1.90326,-0.0186028,-0.133095
1.91859,0.0750464,-0.123054
1.90185,-0.0185889,-0.0885953
1.91694,0.0749818,-0.078158
1.91849,0.0683362,-0.0335086
1.92675,0.0686302,0.0112054
1.89686,-0.0251624,-0.204341
1.89919,-0.0251934,-0.132816
1.92283,0.0684909,-0.12331
1.91719,0.06829,-0.078158
1.92272,0.0617674,-0.0335784
1.92697,0.0619042,0.0112054
1.8991,-0.0318226,-0.132816
1.91907,0.0616504,-0.123054
1.91342,0.061469,-0.0779952
1.91892,0.0549411,-0.0335086
1.91118,0.0547195,0.0111124
1.89498,-0.0383707,-0.132537
1.91129,0.0547227,-0.122543
1.89755,-0.0384228,-0.0884091
1.91111,0.0480414,-0.033369
1.91936,0.048249,0.0111589
1.89883,-0.0450799,-0.132816
1.91147,0.0480507,-0.122543
1.89741,-0.0450462,-0.0884091
1.90981,0.0480089,-0.0778323
1.91526,0.0414567,-0.0334388
1.89866,-0.0517078,-0.132816
1.91163,0.0413781,-0.122543
1.90997,0.0413421,-0.0778323
1.9074,0.0346258,-0.0332992
1.89448,-0.0582125,-0.132537
1.90777,0.0346326,-0.122287
1.9101,0.0346749,-0.0778323
1.9155,0.0280847,-0.0334388
1.89825,-0.0649616,-0.132816
1.91187,0.0280315,-0.122543
1.91021,0.0280071,-0.0778323
1.91959,0.0214429,-0.0335086
1.89004,-0.0712865,-0.132258
1.90797,0.0213131,-0.122287
1.9103,0.0213391,-0.0778323
1.91165,0.0146807,-0.033369
1.89376,-0.0780478,-0.132537
1.90404,0.0146222,-0.122031
1.90636,0.0146401,-0.0776695
1.89349,-0.0843274,-0.132537
1.90408,0.00830814,-0.122031
1.9064,0.00831829,-0.0776695
1.8892,-0.090745,-0.132258
1.90409,0.00166163,-0.122031
1.90242,0.00166018,-0.0775067
1.90409,-0.00498489,-0.122031
1.90242,-0.00498051,-0.0775067
1.90007,-0.011607,-0.121775
1.89839,-0.0115967,-0.0773438
1.90401,-0.0182777,-0.122031
1.90233,-0.0182616,-0.0775067
1.90393,-0.0249238,-0.122031
1.89826,-0.0248496,-0.0773438
1.89585,-0.0314373,-0.121519
1.89573,-0.0380548,-0.121519
1.89558,-0.0446719,-0.121519
1.89143,-0.0511805,-0.121264
1.89124,-0.0577825,-0.121264
1.89102,-0.0643838,-0.121264
