3.17482,0.928383,-0.0385087
3.1742,0.916187,-0.0384621
3.12538,0.878504,-0.189068
3.17436,0.928849,-0.173337
3.16891,0.915859,-0.0959988
3.15867,0.912899,-0.0191096
3.17358,0.917209,-0.173127
3.16456,0.902044,-0.095766
2.78451,0.556906,-0.265077
2.77462,0.545364,-0.263961
3.18717,0.945292,-0.154856
3.17127,0.928548,-0.153925
3.17001,0.92818,-0.0768614
3.17009,0.916799,0
3.17433,0.918026,-0.153925
3.17308,0.917661,-0.0768614
3.16574,0.90298,0
2.90036,0.676002,-0.243117
3.16488,0.902735,-0.0765823
2.83929,0.620624,-0.237259
2.81225,0.594685,-0.234655
2.8066,0.582753,-0.234004
2.80461,0.572645,-0.233679
3.17007,0.929396,-0.0576628
3.16177,0.914989,-0.0574533
3.1673,0.916592,-0.134334
3.16094,0.903399,-0.0573835
3.13192,0.895105,-0.208757
3.16648,0.904984,-0.134171
2.47557,0.284244,-0.0290096
2.78207,0.568548,-0.305869
2.78014,0.558052,-0.305441
2.44746,0.246447,-0.143255
2.42442,0.23558,-0.0283577
2.77817,0.547574,-0.305012
2.4021,0.216495,0.0280783
2.39882,0.208183,0.0280317
2.38355,0.198896,-0.0278455
2.39153,0.199561,0.0279386
2.38366,0.198905,-0.139301
2.38822,0.190893,-0.027892
2.38025,0.190256,0.0277989
2.37638,0.189947,-0.138836
2.37691,0.181642,-0.0277523
2.36893,0.181033,0.0276592
2.36907,0.181043,-0.138371
2.36157,0.17218,-0.0275661
2.35758,0.171889,0.0275195
2.3657,0.172481,-0.138138
2.36618,0.1638,-0.0276127
2.36801,0.163927,-0.221579
2.3582,0.163248,0.0275195
2.35038,0.162707,-0.137208
2.35473,0.155163,-0.027473
2.35473,0.155163,0.027473
2.34294,0.154386,-0.136743
2.35127,0.146694,-0.0274264
2.33727,0.145821,-0.218604
2.33131,0.145449,0.0271936
2.33948,0.145958,-0.13651
2.33981,0.137371,-0.0272867
2.32587,0.136552,-0.217489
2.33183,0.136902,0.0271936
2.33203,0.136914,-0.136045
2.32428,0.128726,-0.0271004
2.32233,0.128618,-0.217117
2.32029,0.128505,0.0270539
2.32449,0.128738,-0.13558
2.31673,0.120199,-0.0270073
2.31879,0.120306,-0.216746
2.31273,0.119992,0.0269608
2.31296,0.120004,-0.134883
2.31715,0.111708,-0.0270073
2.4245,0.236017,-0.0141578
2.31523,0.111615,-0.216374
2.30117,0.110937,0.0268211
2.3094,0.111334,-0.13465
2.4283,0.236387,0.444835
2.30154,0.102903,-0.0268211
2.29572,0.102643,-0.214515
2.28956,0.102367,0.0266814
2.29781,0.102736,-0.133952
2.41805,0.226871,-0.127281
2.2939,0.0945387,-0.0267279
2.41015,0.217645,-0.0140648
2.29208,0.0944639,-0.214143
2.27791,0.09388,0.0265417
2.40584,0.217256,0.042165
2.29416,0.0945497,-0.13372
2.2782,0.0867236,-0.0265417
2.40285,0.209378,-0.0140183
2.28441,0.0869601,-0.2134
2.28219,0.0868758,0.0265882
2.40253,0.20935,0.0420952
2.28248,0.0868866,-0.133022
2.39529,0.208719,0.438377
2.38267,0.199241,-0.0695846
2.27049,0.0784937,-0.0264485
2.3956,0.200322,-0.0139718
2.27674,0.0787097,-0.212656
2.2625,0.0782173,0.0263554
2.3873,0.199628,0.041816
2.27878,0.0787802,-0.13279
2.26678,0.0696528,-0.026402
2.3804,0.189851,-0.0138789
2.26906,0.069723,-0.211912
2.25878,0.0694071,0.0263088
2.3805,0.189858,-0.194949
2.38008,0.189825,0.0416763
2.2631,0.0695397,-0.131859
2.37718,0.189594,-0.124978
2.25899,0.06231,-0.0263088
2.38099,0.182371,-0.0138789
2.26131,0.0623739,-0.211169
2.25099,0.0620894,0.0262157
2.37668,0.182041,0.0416065
2.2633,0.062429,-0.131859
2.3698,0.181514,-0.12456
2.36988,0.18152,0.433355
2.2472,0.0541357,-0.0261692
2.36964,0.173184,-0.0138091
2.25355,0.0542887,-0.210425
2.2352,0.0538468,0.0260295
2.36182,0.172613,-0.193322
2.36932,0.173161,0.0414669
2.24754,0.054144,-0.130929
2.35448,0.172076,-0.123722
2.36657,0.17296,0.432638
2.34938,0.162637,-0.0685373
2.24339,0.0454263,-0.0261226
2.36231,0.163532,-0.0137626
2.24179,0.045394,-0.20931
2.23139,0.0451834,0.0259829
2.35849,0.163268,-0.192997
2.36199,0.16351,0.0413273
2.34715,0.162483,-0.123304
2.37114,0.164144,0.433355
2.3419,0.154728,-0.0683046
2.23552,0.0382408,-0.0260295
2.34684,0.155055,-0.0136696
2.23794,0.0382822,-0.208938
2.22752,0.038104,0.0259363
2.34308,0.154806,-0.191695
2.34254,0.15477,0.0409782
2.23588,0.038247,-0.130231
2.34095,0.154665,0.0955807
2.33968,0.154581,-0.122885
2.36379,0.156174,0.43192
2.32649,0.145147,-0.0678391
2.22365,0.0298851,-0.0258898
2.3434,0.146202,-0.0136464
2.22612,0.0299184,-0.207823
2.21565,0.0297776,0.0257966
2.33965,0.145968,-0.191369
2.3351,0.145684,0.0408386
2.22004,0.0298366,-0.129301
2.33625,0.145756,-0.122675
2.32299,0.136792,-0.0677228
2.21574,0.0220449,-0.0257966
2.33991,0.137788,-0.0136231
2.21825,0.0220698,-0.207079
2.21174,0.0220051,0.0257501
2.32821,0.137099,-0.190393
2.33959,0.137769,0.0409084
2.21614,0.0220488,-0.129069
2.32079,0.136662,-0.121838
2.31627,0.136396,0.189416
2.31547,0.128239,-0.06749
2.2078,0.0142581,-0.0257035
2.32839,0.128955,-0.0135534
2.21034,0.0142746,-0.206336
2.446,0.25579,0.0572273
2.2078,0.0142581,0.0257035
2.32469,0.12875,-0.190067
2.32408,0.128716,0.0406292
2.20422,0.014235,-0.128371
2.30655,0.127745,0.0941152
2.32125,0.12856,-0.121838
2.3079,0.120144,-0.0672573
2.20384,0.00692355,-0.0256569
2.31682,0.120609,-0.0134836
2.19843,0.00690655,-0.205221
2.19584,0.00689841,0.0255638
2.31316,0.120418,-0.189091
2.31651,0.120592,0.0404896
2.20026,0.0069123,-0.128138
2.43689,0.246671,-0.114094
2.31369,0.120445,-0.121419
2.30433,0.111492,-0.067141
2.42848,0.236831,0
2.19185,-0.00114719,-0.0255173
2.31725,0.112117,-0.0134836
2.19446,-0.00114855,-0.204849
2.42384,0.236379,0.056669
2.19185,-0.00114719,0.0255173
2.30961,0.111747,-0.188766
2.30096,0.111328,0.0402103
2.19229,-0.00114742,-0.127673
2.29142,0.110867,0.0934639
2.44573,0.238514,-0.114467
2.30214,0.111386,-0.120791
2.30067,0.104071,-0.0670246
2.18384,-0.00800335,-0.0254241
2.29362,0.103752,-0.0133442
2.1825,-0.00799843,-0.203733
2.18384,-0.00800335,0.0254241
2.30198,0.104131,-0.188115
2.2973,0.103919,0.0401405
2.18428,-0.00800498,-0.127208
2.27978,0.103126,0.0929754
2.41862,0.228202,-0.113164
2.30248,0.104153,-0.120791
2.28207,0.10323,0.186487
2.28105,0.0952057,-0.0664428
2.40609,0.218549,0
2.28754,0.0954765,-0.291427
2.29396,0.0957448,-0.0133442
2.17449,-0.0155603,-0.20299
2.1758,-0.0155697,0.025331
2.29436,0.0957615,-0.187464
2.28966,0.0955651,0.0400009
2.17626,-0.015573,-0.126743
2.40349,0.218312,-0.112419
2.28687,0.0954486,-0.119954
2.27046,0.094764,0.185511
2.27338,0.0869366,-0.0662101
2.39489,0.209104,0
2.16773,-0.0230799,-0.0252379
2.29029,0.0875833,-0.0133209
2.17044,-0.0231088,-0.202618
2.17173,-0.0231225,0.0252844
2.28273,0.0872944,-0.186487
2.28598,0.0874186,0.0399311
2.16421,-0.0230425,-0.126045
2.39628,0.209225,-0.112047
2.2832,0.0873121,-0.119745
2.26968,0.078466,-0.0660937
2.16363,-0.0309672,-0.0251913
2.28023,0.0788306,-0.290417
2.2746,0.0786361,-0.0132279
2.15441,-0.0308352,-0.201131
2.38304,0.199272,0.0556454
2.15963,-0.0309099,0.0251447
2.27507,0.0786522,-0.185836
2.27429,0.0786255,0.0397217
2.16012,-0.0309169,-0.125813
2.25278,0.0778818,0.0918356
2.38906,0.199776,-0.111675
2.27951,0.0788057,-0.119535
2.26194,0.0706886,-0.065861
2.26065,0.0706483,-0.287892
2.26686,0.0708423,-0.0131814
2.15032,-0.0379097,-0.200759
2.37571,0.190727,0.0554593
2.15552,-0.0380015,0.0250982
2.37852,0.190953,-0.166857
2.26336,0.0707332,-0.18486
2.26255,0.0707078,0.0395123
2.15202,-0.0379398,-0.125348
2.24504,0.0701606,0.09151
2.38175,0.191212,-0.111302
2.26379,0.0707464,-0.118698
2.3797,0.191047,-0.0555524
2.25019,0.0620675,-0.0655119
2.36906,0.181458,0
2.25296,0.0621438,-0.286881
2.2591,0.0623133,-0.0131349
2.14618,-0.0457055,-0.200387
2.36842,0.181408,0.0552732
2.37125,0.181625,-0.166299
2.25564,0.0622177,-0.184209
2.2508,0.0620843,0.0393028
2.14388,-0.0456565,-0.124883
2.37048,0.181566,-0.110744
2.25604,0.062229,-0.118279
2.36842,0.181408,-0.0552732
2.23441,0.0538267,-0.0650464
2.35771,0.172312,0
2.25316,0.0542786,-0.286881
2.24731,0.0541376,-0.0130652
2.13406,-0.0529013,-0.199272
2.35309,0.171973,0.054901
2.35595,0.172183,-0.165183
2.24787,0.0541511,-0.183558
2.24701,0.0541303,0.039233
2.35771,0.172311,0.137673
2.36313,0.172707,-0.110372
2.24427,0.0540643,-0.117651
2.22794,0.053671,0.181931
2.36106,0.172556,-0.0550871
2.24257,0.0465834,-0.0652792
2.35029,0.163936,0
2.23948,0.0465193,-0.0130187
2.12591,-0.0597536,-0.198529
2.35364,0.16417,0.054901
2.13101,-0.0598969,0.0248188
2.34456,0.163537,-0.164346
2.24006,0.0465314,-0.182907
2.23918,0.046513,0.0390934
2.34631,0.163659,0.136976
2.22168,0.0461495,0.090533
2.35173,0.164036,-0.109813
2.24044,0.0465393,-0.117442
2.34965,0.163892,-0.054808
2.21873,0.0383411,-0.064581
2.33887,0.154938,0
2.22967,0.0385302,-0.283851
2.23563,0.0386331,-0.0129954
2.11773,-0.066922,-0.197785
2.35021,0.155689,0.054808
2.1148,-0.0668294,0.0246325
2.34114,0.155088,-0.164067
2.22825,0.0385057,-0.181931
2.22733,0.0384897,0.038884
2.34289,0.155204,0.136743
2.21383,0.0382565,0.0902073
2.34431,0.155299,-0.109441
2.2326,0.0385808,-0.117023
2.35021,0.155689,-0.054808
2.21885,0.0302093,-0.064581
2.32745,0.145616,0
2.2179,0.0301962,-0.282336
2.22376,0.030276,-0.0129257
2.33879,0.146326,0.0545288
2.11454,-0.0745796,0.0246325
2.32974,0.14576,-0.16323
2.22439,0.0302847,-0.181606
2.21546,0.030163,0.0386745
2.33148,0.145868,0.136045
2.21396,0.0301426,0.0902073
2.34487,0.146706,-0.109441
2.22474,0.0302894,-0.116605
2.20446,0.0300133,0.179978
2.34278,0.146575,-0.0546219
2.21095,0.0227692,-0.0643483
2.32393,0.137661,0
2.21402,0.0228008,-0.281831
2.21585,0.0228197,-0.0128792
2.32644,0.13781,-0.251036
2.10527,-0.0812432,-0.19667
2.33927,0.13857,0.0545288
2.33022,0.138034,-0.16323
2.21252,0.0227854,-0.180629
2.21555,0.0228166,0.0386745
2.32398,0.137664,0.13558
2.19806,0.0226365,0.089556
2.3254,0.137748,-0.108511
2.21684,0.0228299,-0.116186
2.19259,0.0225802,0.179002
2.33128,0.138097,-0.0543427
2.19502,0.014942,-0.0638828
2.31241,0.12888,0
2.20791,0.0150297,-0.0128327
2.09702,-0.0882571,-0.195926
2.32776,0.129735,0.0542496
2.098,-0.0882984,0.0244463
2.32271,0.129454,-0.162672
2.21259,0.0150616,-0.180629
2.20361,0.0150005,0.0384651
2.32445,0.129551,0.13558
2.19413,0.0149359,0.0893932
2.31789,0.129185,-0.108138
2.20492,0.0150094,-0.115558
2.19266,0.0149259,0.179002
2.31179,0.128845,-0.0538774
2.19106,0.00726599,-0.0637664
2.18472,0.00724497,-0.436949
2.30885,0.120598,0
2.19825,0.00728983,-0.27981
2.30352,0.120319,-0.248465
2.32021,0.121191,0.0540635
2.08969,-0.0952575,0.0243531
2.31518,0.120929,-0.162114
2.19269,0.0072714,-0.179002
2.19565,0.00728122,0.0383255
2.31292,0.12081,0.134883
2.19017,0.00726304,0.0892304
2.31433,0.120884,-0.107952
2.19298,0.00727235,-0.11493
2.18472,0.00724496,0.178351
2.30823,0.120565,-0.0537844
2.16789,-4.72447e-07,-1.0109
2.18707,-4.76628e-07,-0.0636501
2.18473,-4.76118e-07,-0.436949
2.29725,0.112354,0
2.19033,-4.77337e-07,-0.2788
2.29993,0.112485,-0.248037
2.3166,0.1133,0.0539705
2.3076,0.11286,-0.161556
2.18075,-4.75249e-07,-0.178025
2.19167,-4.77629e-07,0.0382557
2.30533,0.112749,0.134417
2.18219,-4.75563e-07,0.0889047
2.30275,0.112623,-0.107394
2.185,-4.76176e-07,-0.114511
2.29203,0.112098,0.281762
2.18075,-4.75249e-07,0.178025
2.18006,-4.75099e-07,0.397481
2.29663,0.112324,-0.0535052
2.16425,-0.0075547,-1.00921
2.17906,-0.00760642,-0.0634174
2.17295,-0.00758508,-0.434596
2.28964,0.103972,0
2.17444,-0.00759028,-0.27678
2.18795,-0.00763743,-0.0127165
2.28839,0.103915,-0.246752
2.305,0.104669,0.0536913
2.07701,-0.108851,0.0242135
2.30001,0.104443,-0.160998
2.18073,-0.00761224,-0.178025
2.17965,-0.00760848,0.0380462
2.28976,0.103977,0.133487
2.17818,-0.00760333,0.0887419
2.29514,0.104222,-0.107022
2.177,-0.00759921,-0.114092
2.17276,-0.00758441,0.177375
2.29302,0.104125,-0.0534122
2.16058,-0.0154606,-1.00752
2.16703,-0.0155067,-0.0630683
2.29001,0.0955798,0
2.1744,-0.0155595,-0.27678
2.28081,0.0951959,-0.245895
2.07172,-0.11619,-0.193695
2.29338,0.0957207,0.0534122
2.06861,-0.116015,0.0241203
2.28841,0.0955134,-0.160161
2.17272,-0.0155474,-0.177375
2.17961,-0.0155968,0.0380462
2.27815,0.0950851,0.13279
2.16615,-0.0155004,0.0882534
2.28753,0.0954763,-0.106649
2.16897,-0.0155206,-0.113674
2.28087,0.0951985,0.2803
2.16474,-0.0154904,0.176724
2.2774,0.0950537,-0.05304
2.16777,-0.0227008,-1.0109
2.15097,-0.0225249,-0.0626028
2.27432,0.0873716,0
2.16243,-0.0226449,-0.275265
2.27316,0.0873271,-0.245038
2.06338,-0.122586,-0.192952
2.2817,0.087655,0.053133
2.06023,-0.122399,0.0240272
2.28074,0.0876183,-0.159603
2.16069,-0.0226267,-0.176398
2.16755,-0.0226985,0.0378368
2.27447,0.0873771,0.132557
2.15809,-0.0225994,0.0879277
2.28384,0.0877371,-0.106463
2.16092,-0.022629,-0.113255
2.15671,-0.0225849,0.176073
2.2777,0.0875015,-0.05304
2.16043,-0.0301669,-1.00752
2.14688,-0.0299778,-0.0624865
2.26662,0.0791524,0
2.0518,-0.129088,-0.0239341
2.15837,-0.0301382,-0.27476
2.26948,0.0792523,-0.24461
2.27799,0.0795497,0.05304
2.0558,-0.129339,0.0239806
2.27306,0.0793774,-0.159045
2.14864,-0.0300023,-0.175422
2.26678,0.0791579,0.132092
2.154,-0.0300772,0.0877649
2.27215,0.0793456,-0.105905
2.14884,-0.0300051,-0.112627
2.25766,0.0788395,0.277375
2.14466,-0.0299467,0.175096
2.26601,0.079131,-0.0527608
2.13876,-0.0377048,-0.0622537
2.2589,0.0705949,0
2.04733,-0.136341,-0.0238875
2.14635,-0.0378385,-0.273244
2.37631,0.190777,0.0138556
2.26578,0.07081,-0.244181
2.27028,0.0709505,0.0528539
2.04334,-0.136076,0.0238409
2.26536,0.0707969,-0.158487
2.13656,-0.037666,-0.174445
2.25907,0.0706002,0.131627
2.14589,-0.0378304,0.0874392
2.26843,0.0708929,-0.105719
2.14872,-0.0378803,-0.112627
2.25,0.0703167,0.2764
2.13656,-0.037666,0.174445
2.25429,0.0704509,-0.0524816
2.13862,-0.0451709,-0.0622537
2.25513,0.0625979,0
2.03886,-0.142928,-0.0237944
2.23623,0.0620731,-0.348039
2.13827,-0.0451635,-0.272234
2.25409,0.0625689,-0.242896
2.26252,0.0628028,0.0526678
2.03886,-0.142928,0.0237944
2.25363,0.0625561,-0.15765
2.1404,-0.0452085,-0.174771
2.24733,0.0623812,0.130929
2.14574,-0.0453213,0.0874392
2.26068,0.0627518,-0.105346
2.14058,-0.0452124,-0.112208
2.25023,0.0624617,0.2764
2.13243,-0.0450402,0.17412
2.24253,0.062248,-0.0522025
2.13045,-0.0524392,-0.062021
2.24334,0.0544343,0
2.03436,-0.149751,-0.0237478
2.23643,0.0542666,-0.348039
2.35365,0.172428,0.0137161
2.24236,0.0544106,-0.241611
2.25473,0.0547106,0.0524816
2.25383,0.0546889,-0.15765
2.13226,-0.0524837,-0.17412
2.13903,-0.0526502,0.0373482
2.03504,-0.149801,-0.118836
2.24354,0.0544391,0.130697
2.12959,-0.0524179,0.0867879
2.25289,0.0546661,-0.104974
2.13642,-0.0525861,-0.111999
2.24249,0.0544138,0.275425
2.12827,-0.0523856,0.173795
2.23474,0.0542255,-0.0520164
2.11827,-0.0595385,-0.0616719
2.23552,0.0464371,0
2.23661,0.0464597,-0.348039
2.12997,-0.0598674,-0.271224
2.23856,0.0465004,-0.241183
2.24291,0.0465906,0.0522025
2.02186,-0.155929,0.0236081
2.23805,0.0464897,-0.156534
2.12409,-0.0597023,-0.173469
2.34531,0.163588,0.0684209
2.23174,0.0463585,0.129999
2.11741,-0.0595144,0.0862994
2.24109,0.0465528,-0.104416
2.12424,-0.0597066,-0.111371
2.22679,0.0462559,0.273475
2.11612,-0.0594783,0.172818
2.23891,0.0465076,-0.0521094
2.33849,0.155322,-0.0409084
2.11406,-0.066437,-0.0615556
2.21966,0.0387443,0
2.22094,0.0387667,-0.345579
2.33881,0.155343,0.0136231
2.22678,0.0388686,-0.239897
2.23106,0.0389432,0.0519233
2.02133,-0.162632,0.0236081
2.2342,0.0389982,-0.156255
2.11591,-0.0664953,-0.172818
2.01805,-0.162368,-0.117906
2.2199,0.0387485,0.129301
2.10521,-0.066159,0.085811
2.23324,0.0389813,-0.104044
2.11605,-0.0664995,-0.110952
2.21106,0.0385941,0.271525
2.11193,-0.06637,0.172493
2.22306,0.0388037,-0.0517372
2.33104,0.146656,-0.0407688
2.11382,-0.0738161,-0.0615556
2.21978,0.030996,0
2.01278,-0.169018,-0.023515
2.21711,0.0309587,-0.344964
2.22292,0.0310399,-0.239469
2.22318,0.0310435,0.0517372
2.23034,0.0311434,-0.155975
2.1077,-0.0736025,-0.172167
2.11439,-0.0738361,0.0369293
2.01349,-0.169077,-0.117673
2.22002,0.0309994,0.129301
2.10497,-0.0735072,0.085811
2.22937,0.0311298,-0.103857
2.20721,0.0308204,0.271037
2.10372,-0.0734634,0.171842
2.21518,0.0309318,-0.0515511
2.32355,0.138044,-0.0406292
2.10555,-0.0808873,-0.0613228
2.21988,0.0232474,0
2.20535,0.0230952,-0.34312
2.21506,0.023197,-0.238612
2.10345,-0.0808062,-0.171842
2.11012,-0.0810627,0.0368595
2.31914,0.137783,-0.148893
2.20814,0.0231244,0.128604
2.09671,-0.0805476,0.0854853
2.22147,0.023264,-0.103485
2.10755,-0.0809639,-0.110534
2.2073,0.0231157,0.271037
2.08751,-0.0801941,0.17054
2.31799,0.137714,-0.0946037
2.20328,0.0230736,-0.051272
2.31204,0.129263,-0.0404198
2.20395,0.0153867,0
2.20146,0.0153694,-0.342505
2.10119,-0.0880658,-0.267689
2.30836,0.129057,0.0134371
2.10212,-0.0881049,-0.0122283
2.19922,0.0153537,-0.236899
2.21135,0.0154384,0.0514581
1.9996,-0.181978,0.0233753
2.20656,0.0154049,-0.154301
2.30742,0.129005,0.0672573
2.31164,0.129241,-0.148382
1.99635,-0.181682,-0.116743
2.19223,0.0153049,0.127673
2.08843,-0.0875313,0.0851596
2.20955,0.0154258,-0.102927
2.19546,0.0153274,0.269575
2.08722,-0.0874804,0.17054
2.31047,0.129175,-0.0942781
2.19535,0.0153267,-0.0510859
2.30449,0.120773,-0.0402802
2.08896,-0.0948592,-0.0608574
2.19199,0.00765151,0
2.1936,0.00765714,-0.341275
2.19529,0.00766303,-0.23647
2.19939,0.00767736,0.0511789
2.19862,0.00767466,-0.153743
2.09487,-0.0951273,-0.171191
2.09352,-0.0950663,0.0365802
2.30809,0.120962,-0.148126
1.99173,-0.188274,-0.116511
2.18429,0.00762463,0.127208
2.07614,-0.0942768,0.0846712
2.1976,0.00767112,-0.102368
2.18359,0.0076222,0.268113
2.07495,-0.094223,0.169564
2.29894,0.120482,-0.0937896
2.19139,0.00764944,-0.0509928
2.30489,0.112728,-0.0402802
2.08063,-0.10176,-0.0606247
2.18,-0,0
2.18571,-0,-0.340045
2.29722,0.112353,0.0133674
2.18735,-0,-0.235614
2.19541,-0,0.0510859
1.98236,-0.194372,0.023189
2.18666,-0,-0.152906
2.08656,-0.10205,-0.17054
2.29654,0.112319,-0.147358
1.98311,-0.194446,-0.116045
2.19229,-0,0.127673
2.0718,-0.101328,0.0845083
2.19362,-0,-0.102182
2.07866,-0.101663,-0.109068
2.17169,-0,0.26665
2.06665,-0.101076,0.168913
2.29136,0.112066,-0.0934639
2.18741,-0,-0.0508998
2.29325,0.104938,-0.0400707
2.07232,-0.10788,-0.060392
2.17199,-0.00682352,0
2.17384,-0.00682933,-0.3382
2.18336,-0.00685924,-0.235185
2.1794,-0.0068468,0.0507136
2.18266,-0.00685705,-0.152627
2.08087,-0.108325,0.0363708
2.2889,0.104739,-0.146847
1.97455,-0.199871,-0.11558
2.17231,-0.00682453,0.126511
2.0595,-0.107213,0.0840198
2.18562,-0.00686635,-0.10181
2.16771,-0.00681008,0.266163
2.05836,-0.107153,0.168262
2.28371,0.104502,-0.0931383
2.1834,-0.00685937,-0.0508067
2.28165,0.0956294,-0.0398613
2.07189,-0.115836,-0.060392
2.16795,-0.0151354,0
2.16984,-0.0151486,-0.337585
2.27397,0.0953074,0.0132279
2.06873,-0.11566,-0.0120423
2.17139,-0.0151594,-0.2339
2.17536,-0.0151871,0.0506206
2.17065,-0.0151542,-0.15179
2.06845,-0.115645,0.0361614
2.27732,0.0954482,-0.146079
1.96979,-0.207034,-0.115348
2.17227,-0.0151655,0.126511
2.06306,-0.115343,0.0841827
2.17759,-0.0152027,-0.101438
2.06992,-0.115727,-0.108649
2.1637,-0.0151057,0.265675
2.05395,-0.114834,0.167936
2.27212,0.09523,-0.0926498
2.17536,-0.0151871,-0.0506206
2.26998,0.0872038,-0.0396519
2.06349,-0.122594,-0.0601592
2.15988,-0.0226191,0
2.15792,-0.0225985,-0.335741
2.06368,-0.122605,-0.263143
2.26229,0.0869085,0.0131582
2.05634,-0.122169,-0.0119725
2.15939,-0.0226139,-0.232615
2.1633,-0.0226548,0.0503414
2.16659,-0.0226893,-0.151511
2.26967,0.0871918,-0.145567
1.96509,-0.213477,-0.115115
2.16421,-0.0226644,0.126045
2.05068,-0.121833,0.0836942
2.16553,-0.0226782,-0.100879
2.15966,-0.0226168,0.265188
2.04956,-0.121766,0.167611
2.26844,0.0871448,-0.0924869
2.17129,-0.0227386,-0.0505275
2.26625,0.0799311,-0.0395821
2.04314,-0.127827,-0.0595774
2.1478,-0.029241,0
2.16179,-0.0294315,-0.336356
2.05537,-0.128592,-0.262133
2.25456,0.0795189,0.0131117
2.05595,-0.128629,-0.0119725
2.15533,-0.0293436,-0.232186
2.15922,-0.0293964,0.0502484
2.15454,-0.0293328,-0.150674
2.25364,0.0794866,0.0656282
2.26594,0.0799203,-0.145312
1.96044,-0.219206,-0.114883
2.16014,-0.029409,0.125813
2.04231,-0.127776,0.0833685
2.15347,-0.0293182,-0.100321
2.05316,-0.128455,-0.107812
2.15164,-0.0292933,0.264213
2.04121,-0.127706,0.16696
2.26072,0.0797361,-0.0921613
2.16321,-0.0294509,-0.0503414
2.26251,0.0718929,-0.0395123
2.04268,-0.134958,-0.0595774
2.13569,-0.0365329,0
2.14192,-0.0366394,-0.333281
2.24683,0.0713945,0.0130652
2.0475,-0.135277,-0.011926
2.14329,-0.0366628,-0.230901
2.1551,-0.0368649,0.0501553
1.95093,-0.22504,0.0228631
2.14644,-0.0367168,-0.150116
2.04473,-0.135094,-0.167285
2.25822,0.0717566,-0.1448
2.15204,-0.0368125,0.125348
2.02989,-0.134113,0.08288
2.14536,-0.0366983,-0.0999489
2.04872,-0.135357,-0.107603
2.14359,-0.036668,0.263238
2.02881,-0.134042,0.165984
2.249,0.0714635,-0.0916728
2.1551,-0.0368649,-0.0501553
2.25076,0.0636556,-0.0393028
2.03023,-0.141255,-0.0592283
2.12355,-0.0437404,0
2.13782,-0.0440345,-0.332666
2.13917,-0.0440622,-0.230473
2.14696,-0.0442227,0.0499692
2.14231,-0.0441269,-0.149837
2.03629,-0.141677,-0.166634
2.23851,0.0633093,-0.143521
2.14391,-0.0441599,0.124883
2.02542,-0.140921,0.0827172
2.14522,-0.0441868,-0.0999489
2.04425,-0.142231,-0.107393
2.13551,-0.0439867,0.262263
2.02038,-0.14057,0.165333
2.24124,0.0633866,-0.0913472
2.14297,-0.0441404,-0.0498762
2.23897,0.0555013,-0.0390934
2.03371,-0.148633,-0.0593447
2.12338,-0.0511527,0
2.1258,-0.051211,-0.330821
2.03055,-0.148402,-0.0118331
2.13105,-0.0513374,-0.229616
2.13417,-0.0514125,-0.149279
2.0318,-0.148493,-0.166309
2.03028,-0.148382,0.0355331
2.23872,0.055495,-0.143521
2.13975,-0.0515471,0.12465
2.02093,-0.147699,0.0825544
2.13706,-0.0514823,-0.0995766
2.13137,-0.0513451,0.261775
2.0159,-0.147331,0.165007
2.22947,0.0552656,-0.0908587
2.1348,-0.0514278,-0.0496901
2.23115,0.0475152,-0.0389538
2.01724,-0.154509,-0.0588792
2.12719,-0.0586747,0
2.11771,-0.0584132,-0.329592
2.22346,0.0473513,0.0129257
2.02204,-0.154878,-0.0117866
2.11893,-0.0584469,-0.228331
2.12999,-0.0587518,-0.149
2.02332,-0.154976,-0.165658
2.02974,-0.155468,0.0355331
2.22693,0.0474251,-0.142753
2.01243,-0.154142,0.0822287
2.12888,-0.0587213,-0.0992044
2.02727,-0.155278,-0.106556
2.12324,-0.0585658,0.2608
2.00742,-0.153758,0.164356
2.22165,0.0473128,-0.090533
2.13061,-0.0587691,-0.049597
2.23131,0.0397267,-0.0389538
2.01668,-0.16155,-0.0588792
2.11898,-0.0658512,0
2.10959,-0.0655595,-0.328362
2.21561,0.0394473,0.0128792
2.02149,-0.161935,-0.0117866
2.11076,-0.0655959,-0.227474
1.92777,-0.249689,0.0226303
2.12179,-0.0659386,-0.148442
2.02277,-0.162038,-0.165658
2.21871,0.0395024,0.064581
2.21909,0.0395093,-0.142242
2.0079,-0.160846,0.0820659
2.11668,-0.0657798,-0.098646
2.02274,-0.162035,-0.106347
2.11509,-0.0657303,0.259825
2.01085,-0.161083,0.164682
2.2218,0.0395575,-0.090533
2.21944,0.0313787,-0.0387443
2.10673,-0.0732004,0
2.10144,-0.0730166,-0.327132
2.20774,0.0312133,0.0128327
2.10256,-0.0730556,-0.226617
2.11815,-0.0735972,0.0493179
1.91891,-0.255696,0.0225371
2.10957,-0.0732993,-0.147605
2.01024,-0.168452,-0.164682
2.20285,0.0311441,0.0641155
2.00865,-0.168318,0.0351841
2.21523,0.0313192,-0.141986
1.99933,-0.167537,0.0817402
2.00621,-0.168113,-0.105509
2.11483,-0.073482,0.259825
1.99833,-0.167453,0.163705
2.20995,0.0312445,-0.0900445
2.11815,-0.0735972,-0.0493179
2.21153,0.023932,-0.0386047
2.00356,-0.174584,-0.0585302
2.10248,-0.080034,0
2.10513,-0.0801351,-0.327747
2.20383,0.0238487,0.0128095
2.00836,-0.175002,-0.0117168
2.10231,-0.0800276,-0.226617
1.91012,-0.260975,0.022444
2.10533,-0.0801427,-0.147326
1.99776,-0.174079,-0.163705
2.19494,0.0237525,0.0638828
2.0041,-0.174631,0.0351142
2.20734,0.0238867,-0.141474
1.99876,-0.174166,0.0817402
2.10819,-0.0802513,-0.0982737
2.00166,-0.174418,-0.1053
2.10268,-0.0800416,0.258363
2.19405,0.0237429,-0.0893932
2.1099,-0.0803166,-0.0491318
2.20361,0.0161536,-0.0384651
2.09819,-0.0872065,0
2.1919,0.0160678,0.0127397
1.99977,-0.181289,-0.0116703
2.09009,-0.0868701,-0.225332
1.90524,-0.267086,0.0223974
2.10105,-0.0873255,-0.147047
1.9892,-0.180331,-0.163054
2.19101,0.0160613,0.0637664
1.99153,-0.180542,0.0349048
2.19145,0.0160644,-0.140451
2.09464,-0.087059,0.122092
1.99018,-0.18042,0.0814146
2.09991,-0.0872779,-0.0979015
1.9891,-0.180322,-0.104672
2.10238,-0.0873808,0.258363
2.18613,0.0160254,-0.0890675
2.09762,-0.0871829,-0.0488526
2.19165,0.00841538,-0.0382557
1.9784,-0.186318,-0.057832
2.18795,0.00840116,0.0127165
1.99116,-0.187518,-0.0116238
2.08183,-0.0938073,-0.224475
1.89638,-0.272597,0.0223043
1.98062,-0.186526,-0.162403
2.18306,0.00838239,0.0635337
1.99089,-0.187493,0.0349048
2.1835,0.0083841,-0.139939
2.08634,-0.0940106,0.121627
1.98158,-0.186617,0.0810889
2.09161,-0.0942477,-0.0975292
1.99244,-0.187639,-0.104881
2.17818,0.00836364,-0.0887419
2.08931,-0.0941444,-0.0486665
2.18367,0.00114336,-0.0381161
1.97778,-0.192877,-0.057832
2.18396,0.00114352,0.0126932
2.08548,-0.100903,-0.224904
2.08845,-0.101046,-0.14621
2.18308,0.00114305,0.0635337
1.98627,-0.193706,0.034835
2.17953,0.00114119,-0.139683
2.08602,-0.100929,0.121627
1.97697,-0.192799,0.0809261
2.08729,-0.10099,-0.0973431
1.98385,-0.19347,-0.104463
2.08588,-0.100922,0.256413
2.1702,0.00113631,-0.0884162
2.081,-0.100686,-0.0484804
2.17566,-0.00683506,-0.0379764
1.9691,-0.199319,-0.0575993
2.07319,-0.107926,0
2.18395,-0.00686112,0.0126932
2.07318,-0.107925,-0.223619
2.0801,-0.108285,-0.145652
2.16707,-0.00680808,0.0630683
1.97759,-0.200179,0.0346954
2.17553,-0.00683464,-0.139427
2.07766,-0.108158,0.121162
1.9683,-0.199239,0.0806004
2.07893,-0.108224,-0.0969709
1.96326,-0.198728,-0.103416
2.07263,-0.107897,-0.0482943
2.16762,-0.0147547,-0.0378368
1.96438,-0.206118,-0.0574829
2.07278,-0.115524,0
2.17191,-0.014784,0.0126235
2.07277,-0.115523,-0.223619
2.07172,-0.115464,-0.145093
2.15904,-0.0146963,0.0628356
1.97287,-0.207009,0.0346256
2.15952,-0.0146996,-0.138404
1.95961,-0.205617,0.0802748
2.07054,-0.115399,-0.0965986
1.95855,-0.205506,-0.103207
2.15416,-0.0146632,-0.0877649
2.07222,-0.115492,-0.0482943
2.15956,-0.0214849,-0.0376972
1.9518,-0.210999,-0.0571338
2.06442,-0.121565,0
2.15586,-0.021448,0.0125305
2.06049,-0.121333,-0.222334
2.15498,-0.0214393,0.0627192
1.96028,-0.211916,0.0344161
2.14749,-0.0213647,-0.137637
2.06492,-0.121594,0.120464
1.9669,-0.212632,0.0806004
1.95789,-0.211658,-0.103207
2.14611,-0.0213511,-0.0874392
2.05189,-0.120827,-0.047829
2.15148,-0.0289155,-0.0375576
1.9431,-0.216924,-0.0569011
2.15977,-0.0290269,0.0125537
2.05609,-0.128277,-0.221905
2.15489,-0.0289614,0.0627192
1.95555,-0.218314,0.0343463
2.14341,-0.0288071,-0.137381
2.05253,-0.128055,0.119766
1.94628,-0.217279,0.0797863
2.05776,-0.128382,-0.0960402
1.9492,-0.217604,-0.102788
2.13803,-0.0287348,-0.0871136
2.04746,-0.127739,-0.047736
2.14737,-0.0363577,-0.0374878
1.94233,-0.223705,-0.0569011
2.05155,-0.135185,0
2.14766,-0.0363626,0.012484
2.05166,-0.135192,-0.221477
2.04302,-0.134623,0.0476429
2.05054,-0.135118,-0.143698
2.14678,-0.0363479,0.0624865
1.95081,-0.224681,0.0342765
2.13531,-0.0361537,-0.136869
2.05207,-0.135219,0.119766
1.94551,-0.224071,0.0797863
1.94049,-0.223493,-0.102369
2.13392,-0.0361301,-0.0869508
2.04302,-0.134623,-0.0476429
2.14723,-0.0438532,-0.0374878
1.9336,-0.229541,-0.0566684
2.03511,-0.141238,0
2.14352,-0.0437774,0.0124607
2.04324,-0.141802,-0.22062
2.04253,-0.141753,0.0476429
2.03811,-0.141446,-0.142861
2.13465,-0.0435964,0.0621374
2.13517,-0.043607,-0.136869
2.03565,-0.141275,0.118836
1.94075,-0.23039,0.0796234
2.04087,-0.141638,-0.0952957
1.94367,-0.230736,-0.102578
2.12579,-0.0434155,-0.0866251
2.03057,-0.140923,-0.0473638
2.13107,-0.0509656,-0.0372085
1.92882,-0.235804,-0.056552
2.12736,-0.0508769,0.0123678
2.03362,-0.148269,-0.142582
2.12649,-0.0508562,0.0619047
1.94125,-0.237324,0.0341369
2.11905,-0.0506782,-0.135846
2.03116,-0.14809,0.118604
2.11764,-0.0506445,-0.0862994
2.02208,-0.147428,-0.0471777
2.12288,-0.058185,-0.0370689
1.92402,-0.242036,-0.0564356
2.02609,-0.154832,0
2.11917,-0.0580833,0.0123213
2.02953,-0.155095,0.0473638
2.02911,-0.155063,-0.142303
2.11431,-0.0579501,0.0615556
2.11487,-0.0579653,-0.13559
2.01868,-0.154266,0.117906
2.11345,-0.0579266,-0.0861366
2.02554,-0.15479,-0.0472707
2.11467,-0.0653478,-0.0369293
1.91919,-0.248238,-0.0563193
2.01757,-0.161266,0
2.10696,-0.0651096,0.0122515
2.1141,-0.0653301,0.0615556
2.10268,-0.0649774,-0.134823
2.01813,-0.161312,0.117906
2.11324,-0.0653036,-0.0861366
2.01303,-0.160904,-0.0469915
2.11043,-0.0725915,-0.0368595
1.90642,-0.253355,-0.0559702
2.00503,-0.16731,0
2.10672,-0.0724638,0.0122515
2.00847,-0.167597,0.0468985
2.01208,-0.167898,-0.141187
2.10187,-0.0722969,0.0612065
2.10643,-0.0724539,-0.135078
1.99766,-0.166695,0.116743
2.01481,-0.168126,-0.094179
2.09702,-0.0721302,-0.0854853
2.00449,-0.167265,-0.0468054
2.10617,-0.0798064,-0.0367897
1.90949,-0.260549,-0.0560866
2.00444,-0.174308,0
2.09446,-0.0793629,0.0121818
2.00389,-0.174261,0.0468054
2.00353,-0.174229,-0.140629
2.09361,-0.0793306,0.0609738
2.10218,-0.0796551,-0.134823
1.99707,-0.173667,0.116743
2.09276,-0.0792984,-0.0853225
1.99593,-0.173568,-0.0466193
2.1019,-0.0866256,-0.0367199
1.99986,-0.180594,0
2.0822,-0.0858138,0.012112
1.99932,-0.180545,0.0467124
1.99897,-0.180513,-0.14035
2.08535,-0.0859435,0.060741
2.08993,-0.0861326,-0.134055
1.99648,-0.180289,0.116743
2.00168,-0.180758,-0.0936206
2.0845,-0.0859087,-0.0849968
1.99534,-0.180186,-0.0466193
2.09357,-0.0939702,-0.0365802
1.98724,-0.1868,0
2.06988,-0.0929067,0.0120423
1.99466,-0.187498,0.0466193
1.99432,-0.187465,-0.140071
2.08102,-0.0934068,0.0606247
2.07764,-0.0932551,-0.133288
1.98388,-0.186484,0.116045
2.08018,-0.0933689,-0.084834
1.98272,-0.186375,-0.0463402
2.08524,-0.100891,-0.0364406
1.98259,-0.193347,0
2.07354,-0.100325,0.0120655
1.8916,-0.278316,-0.0111124
1.98604,-0.193683,0.0464332
1.98174,-0.193263,-0.139234
2.0687,-0.100091,0.0602756
2.06933,-0.100121,-0.132776
1.97527,-0.192632,0.11558
1.9884,-0.193913,-0.0930622
2.07585,-0.100436,-0.0846712
1.98206,-0.193295,-0.0463402
2.07291,-0.107186,-0.0362312
1.97796,-0.199519,0
2.06121,-0.106581,0.0119958
1.88276,-0.283396,-0.0110659
1.97743,-0.199465,0.0462471
1.97711,-0.199434,-0.138955
2.06101,-0.10657,-0.132264
1.97064,-0.198781,0.115348
1.97184,-0.198902,-0.0923178
2.06752,-0.106907,-0.0843455
1.97345,-0.199064,-0.0461541
2.07253,-0.114421,-0.0362312
1.96532,-0.205176,0
2.05683,-0.113554,0.0119725
1.96479,-0.205121,0.045968
2.04801,-0.113068,0.0596938
2.06063,-0.113764,-0.132264
1.96597,-0.205244,0.115115
1.96716,-0.205369,-0.0921316
2.05915,-0.113683,-0.0840198
1.96876,-0.205536,-0.046061
2.06413,-0.121186,-0.0360916
1.96061,-0.211606,0
2.05642,-0.120733,0.0119725
1.96008,-0.211549,0.0458749
2.04361,-0.119981,0.0595774
2.05225,-0.120488,-0.131753
1.96644,-0.212234,-0.0921316
2.04677,-0.120167,-0.0835313
1.96804,-0.212407,-0.046061
2.05172,-0.127645,-0.0358821
1.95191,-0.217562,0
2.03603,-0.126669,0.0118563
2.0352,-0.126618,0.0593447
2.04385,-0.127155,-0.131241
1.95774,-0.218212,-0.0917594
2.04235,-0.127063,-0.0833685
1.95933,-0.218389,-0.0458749
2.0353,-0.133757,-0.0356029
1.95114,-0.224374,0
2.03557,-0.133775,0.0118563
1.95459,-0.224771,0.0457819
2.03475,-0.133721,0.0593447
2.03144,-0.133504,-0.130473
1.94903,-0.224131,-0.0913871
2.03791,-0.133929,-0.0832057
1.95061,-0.224314,-0.0456888
2.03881,-0.141137,-0.0356727
1.93446,-0.2293,0
2.02711,-0.140328,0.0118098
2.02629,-0.140271,0.059112
2.02698,-0.140318,-0.130218
1.9403,-0.229993,-0.0910149
2.02946,-0.14049,-0.08288
1.94188,-0.23018,-0.0455027
2.02634,-0.147383,-0.0354633
1.92967,-0.235567,0
2.02661,-0.147403,0.0118098
1.94106,-0.236957,0.0455027
2.0218,-0.147053,0.0589956
2.0225,-0.147103,-0.129962
1.92362,-0.234828,-0.0902704
2.02497,-0.147283,-0.0827172
1.94106,-0.236957,-0.0455027
2.02182,-0.154151,-0.0353935
1.91693,-0.240806,0
2.01412,-0.153564,0.0117401
2.0133,-0.153501,0.0587629
2.01799,-0.153859,-0.129706
2.0085,-0.153135,-0.0820659
1.93229,-0.242734,-0.0453166
2.0133,-0.160572,-0.0352539
1.91608,-0.247496,0
2.01357,-0.160593,0.0117401
2.00478,-0.159892,0.0585302
2.0055,-0.15995,-0.128938
2.00795,-0.160145,-0.0820659
1.91953,-0.247941,-0.0450374
2.00476,-0.166935,-0.0351142
1.91124,-0.253656,0
2.00503,-0.166957,0.0116936
1.99624,-0.166226,0.0582974
1.99698,-0.166287,-0.128427
1.99942,-0.16649,-0.0817402
1.91865,-0.25464,-0.0450374
1.98822,-0.172548,-0.034835
1.90638,-0.259786,0
1.99646,-0.173263,0.0116471
1.99167,-0.172847,0.0581811
1.99241,-0.172912,-0.128171
1.99484,-0.173123,-0.0815774
1.91379,-0.260796,-0.0449444
1.98363,-0.179128,-0.0347652
1.89358,-0.264777,0
1.99585,-0.180231,0.0116471
1.98707,-0.179439,0.0580647
1.98782,-0.179506,-0.127915
1.98228,-0.179007,-0.0810889
1.89703,-0.265259,-0.0445722
1.97502,-0.185304,-0.0346256
1.89264,-0.271385,0
1.98724,-0.18645,0.0116006
1.97449,-0.185253,0.0577156
1.97128,-0.184952,-0.126892
1.97767,-0.185552,-0.0809261
1.9664,-0.191422,-0.034486
1.88773,-0.277409,0
1.98259,-0.192998,0.0115773
1.96985,-0.191757,0.0575993
1.96268,-0.191059,-0.12638
1.97303,-0.192067,-0.0807633
1.96572,-0.198285,-0.034486
1.97395,-0.199114,0.0115308
1.96519,-0.198231,0.0574829
1.962,-0.197909,-0.12638
1.96042,-0.197749,-0.0802748
1.9571,-0.203973,-0.0343463
1.96532,-0.20483,0.0114843
1.96055,-0.204332,0.0573665
1.95339,-0.203586,-0.125868
1.95578,-0.203835,-0.0801119
1.94842,-0.209946,-0.0342067
1.96459,-0.211689,0.0114843
1.95585,-0.210746,0.0572502
1.95108,-0.210232,-0.0799491
1.94768,-0.216746,-0.0342067
1.95589,-0.21766,0.0114378
1.94715,-0.216688,0.0570174
1.93842,-0.215715,-0.0794606
1.93499,-0.222175,-0.0339973
1.9432,-0.223118,0.0113681
1.94241,-0.223027,0.0569011
1.92971,-0.221569,-0.079135
1.9342,-0.228928,-0.0339973
1.93844,-0.229429,0.0113449
1.93765,-0.229336,0.0567847
1.92496,-0.227834,-0.0789721
1.92545,-0.23471,-0.0338577
1.93365,-0.23571,0.0113216
1.92096,-0.234163,0.0563193
1.92415,-0.234552,-0.0789721
1.92462,-0.24143,-0.0338577
1.92885,-0.241961,0.0112984
1.9241,-0.241365,0.0564356
1.91583,-0.247123,-0.033718
1.91609,-0.247157,0.0112286
1.91099,-0.253284,-0.0336482
1.90729,-0.252793,0.0111821
1.90217,-0.258874,-0.0335086
1.90639,-0.259449,0.0111821
1.90126,-0.265513,-0.0335086
1.90152,-0.265549,0.0111589
1.89636,-0.271581,-0.0334388
