1.72902,0.424048,-0.166184
1.73049,0.418011,-0.166184
1.77084,0.369302,-0.105348
1.7564,0.360219,-0.104418
1.7621,0.348267,-0.167671
1.73071,0.424782,-0.14548
1.7742,0.331712,-0.105115
1.77457,0.325375,-0.168415
1.77142,0.324796,-0.104883
1.77962,0.319884,-0.168786
1.77254,0.318612,-0.104883
1.7768,0.312979,-0.168415
1.78254,0.307898,-0.105348
1.78282,0.301541,-0.168786
1.7836,0.301674,-0.105348
1.78784,0.295654,-0.169158
1.7847,0.295134,-0.105348
1.78886,0.289412,-0.169158
1.75563,0.36677,-0.228293
1.78957,0.28344,0.0210936
1.7569,0.360639,-0.228293
1.79866,0.278448,-0.169902
1.80343,0.279185,-0.106278
1.79962,0.272168,-0.169902
1.79649,0.271694,-0.105813
1.76326,0.349136,-0.228798
1.8045,0.266466,-0.170274
1.80138,0.266005,-0.106046
1.76837,0.343736,-0.229303
1.8133,0.261301,-0.171017
1.8023,0.259715,-0.106046
1.77735,0.339049,-0.230313
1.81026,0.254416,-0.170645
1.80217,0.253278,0.0211868
1.76617,0.336916,-0.146782
1.8111,0.254534,-0.106511
1.80304,0.246986,-0.0211868
1.77462,0.332112,-0.229808
1.80719,0.247555,-0.170274
1.81594,0.248752,-0.106743
1.76968,0.324797,-0.052363
1.77577,0.325916,-0.229808
1.81594,0.242299,-0.171017
1.81679,0.242412,-0.106743
1.81265,0.235422,-0.0212799
1.7808,0.320417,-0.230313
1.82468,0.236984,-0.171761
1.82555,0.237097,-0.107208
1.82146,0.23075,-0.171389
1.78237,0.314922,-0.147758
1.81836,0.230358,-0.106743
1.78289,0.3086,-0.230313
1.82225,0.22439,-0.171389
1.77953,0.308018,-0.147432
1.82708,0.224985,-0.107208
1.78396,0.302375,-0.230313
1.82698,0.218501,-0.171761
1.82786,0.218606,-0.107208
1.78892,0.296795,-0.230818
1.83169,0.212582,-0.172132
1.7895,0.296893,-0.148083
1.82861,0.212225,-0.107208
1.82436,0.20528,-0.021373
1.79386,0.291184,-0.231323
1.84429,0.207523,-0.173248
1.82039,0.204833,0.0213265
1.79447,0.291283,-0.148409
1.78614,0.289931,-0.0948328
1.82904,0.199344,-0.0214196
1.79878,0.285543,-0.231828
1.78561,0.283453,-0.0105079
1.83709,0.200221,-0.172504
1.79547,0.285018,-0.148409
1.84195,0.200751,-0.107906
1.79108,0.284321,-0.0950421
1.81394,0.281461,-0.367132
1.83371,0.193378,-0.0214662
1.80369,0.279871,-0.232334
1.84174,0.194224,-0.172876
1.79252,0.278137,-0.148083
1.84661,0.194739,-0.108139
1.83434,0.187295,-0.0214662
1.80853,0.274483,-0.232839
1.85029,0.188924,-0.17362
1.79737,0.272789,-0.148409
1.84725,0.188614,-0.108139
1.83498,0.180892,-0.0214662
1.80948,0.268169,-0.232839
1.84302,0.181684,-0.172876
1.79831,0.266514,-0.148409
1.83563,0.174164,-0.0214662
1.81438,0.262101,-0.233344
1.84763,0.175303,-0.173248
1.83563,0.174164,0.0214662
1.76642,0.343997,-0.125841
1.80322,0.26049,-0.148734
1.85253,0.175767,-0.108371
1.7649,0.3437,-0.083756
1.84818,0.168849,-0.0216059
1.77028,0.33834,-0.280399
1.81135,0.255214,-0.232839
1.85617,0.169578,-0.173991
1.83623,0.167757,0.0214662
1.76761,0.33783,-0.125841
1.80807,0.254752,-0.14906
1.80589,0.254444,0.0318332
1.85711,0.169664,-0.108604
1.80368,0.254134,-0.0954608
1.84873,0.162718,-0.0216059
1.77527,0.333196,-0.281014
1.82398,0.250827,-0.234354
1.85275,0.163073,-0.17362
1.76872,0.331966,-0.125841
1.81285,0.249297,-0.149385
1.80276,0.247909,0.0317634
1.86164,0.163855,-0.108836
1.80452,0.248151,-0.0954608
1.84928,0.156264,-0.0216059
1.82878,0.244985,-0.234859
1.81178,0.242709,-0.0106242
1.78354,0.328307,-0.195345
1.85331,0.156604,-0.17362
1.84131,0.15559,0.0215127
1.81766,0.243496,-0.149711
1.85779,0.150454,-0.021699
1.78145,0.321496,-0.281629
1.82962,0.238601,-0.234859
1.86178,0.150777,-0.174363
1.77885,0.321027,-0.126399
1.81455,0.236635,-0.149385
1.86672,0.151176,-0.109069
1.81017,0.236064,-0.0956701
1.83662,0.232996,-0.370269
1.85831,0.143968,-0.021699
1.77867,0.314588,-0.281014
1.82651,0.231714,-0.234354
1.78188,0.315156,-0.194917
1.86627,0.144585,-0.174735
1.85033,0.14335,0.0216059
1.77603,0.314122,-0.12612
1.81932,0.230802,-0.149711
1.80922,0.229521,0.0318332
1.86723,0.14466,-0.109069
1.77451,0.313852,-0.0839422
1.86279,0.137775,-0.0217455
1.78365,0.309051,-0.281629
1.83518,0.226307,-0.235364
1.78297,0.308933,-0.194917
1.86676,0.138069,-0.174735
1.85481,0.137185,0.0216524
1.82803,0.225425,-0.150362
1.81398,0.223693,0.031903
1.87171,0.138435,-0.109301
1.77953,0.308337,-0.0841283
1.82366,0.224887,-0.0962982
1.86724,0.131553,-0.0217921
1.78861,0.303485,-0.282244
1.83596,0.2199,-0.235364
1.815,0.21739,-0.0106242
1.78795,0.303373,-0.195345
1.86723,0.131553,-0.174735
1.78605,0.30305,-0.126678
1.83276,0.219517,-0.150687
1.81872,0.217836,0.0319728
1.87616,0.132182,-0.109534
1.78059,0.302124,-0.0841283
1.82444,0.21852,-0.0962982
1.84285,0.214203,-0.371054
1.86769,0.125034,-0.0217921
1.83671,0.21349,-0.235364
1.79293,0.297781,-0.195773
1.86371,0.124767,-0.174363
1.83352,0.213118,-0.150687
1.81947,0.211485,0.0319728
1.87661,0.125631,-0.109534
1.78558,0.296561,-0.0843144
1.82122,0.211689,-0.0960888
1.86812,0.118514,-0.0217921
1.84534,0.207966,-0.236374
1.79395,0.291522,-0.195773
1.87208,0.118766,-0.175107
1.78812,0.290574,-0.126678
1.83425,0.206717,-0.150687
1.8202,0.205133,0.0319728
1.79055,0.290968,-0.0845005
1.83386,0.206673,-0.0967169
1.82438,0.199158,-0.0534102
1.87251,0.112232,-0.0218387
1.7956,0.285358,-0.282858
1.83816,0.200662,-0.235364
1.87248,0.11223,-0.175107
1.78912,0.28433,-0.126678
1.83496,0.200312,-0.150687
1.79944,0.285969,-0.0848728
1.8306,0.199836,-0.0965075
1.79052,0.278147,0
1.87689,0.105919,-0.0218852
1.79658,0.279088,-0.282858
1.85069,0.195494,-0.236879
1.82581,0.192866,-0.0106707
1.87684,0.105917,-0.175478
1.79405,0.278695,-0.126957
1.83961,0.194324,-0.151012
1.82556,0.19284,0.0320426
1.88181,0.106197,-0.109766
1.80043,0.279686,-0.0848728
1.83128,0.193445,-0.0965075
1.82974,0.186503,-0.0535266
1.88525,0.0994614,-0.0219784
1.79759,0.272502,-0.282858
1.84744,0.188308,-0.236374
1.87722,0.0990376,-0.175478
1.799,0.272716,-0.127236
1.84428,0.187985,-0.151338
1.79749,0.272487,-0.0846866
1.83595,0.187137,-0.0967169
1.88557,0.0932095,-0.0219784
1.8063,0.267698,-0.284088
1.80572,0.267611,-0.19663
1.88151,0.093009,-0.17585
1.85283,0.182651,-0.151989
1.83483,0.180876,0.0321822
1.80234,0.267111,-0.0848728
1.84054,0.18144,-0.0969262
1.79589,0.266155,-0.0422459
1.83495,0.174424,-0.0536429
1.86255,0.177047,-0.374192
1.88588,0.0866275,-0.0219784
1.83569,0.174494,-0.0107172
1.80664,0.261307,-0.19663
1.8858,0.0866238,-0.176222
1.80082,0.260465,-0.127236
1.84948,0.175805,-0.151663
1.80721,0.26139,-0.0850589
1.84116,0.175014,-0.0969262
1.80077,0.260458,-0.0423389
1.83953,0.168381,-0.0537593
1.80813,0.255082,-0.284088
1.85324,0.169636,-0.236879
1.83629,0.168085,-0.0107172
1.81148,0.255554,-0.197059
1.8861,0.0800401,-0.176222
1.80567,0.254734,-0.127515
1.85406,0.169711,-0.151989
1.83604,0.168062,0.0321822
1.81207,0.255638,-0.085245
1.84972,0.169314,-0.0973449
1.8401,0.161959,-0.0537593
1.80303,0.247946,0
1.89843,0.0739254,-0.0221181
1.81292,0.249306,-0.284703
1.86172,0.163861,-0.237889
1.80842,0.248687,-0.19663
1.89432,0.0737654,-0.176966
1.88644,0.0734585,0.0219784
1.8105,0.248973,-0.127794
1.85861,0.163587,-0.152314
1.84857,0.162704,0.0323917
1.89934,0.0739607,-0.110697
1.81295,0.24931,-0.085245
1.85428,0.163206,-0.0975542
1.86624,0.157697,-0.238394
1.84539,0.155936,-0.0107637
1.81322,0.242902,-0.197059
1.89059,0.0670127,-0.176594
1.80736,0.242118,0.042432
1.81531,0.243183,-0.128073
1.86314,0.157436,-0.15264
1.84913,0.156251,0.0323917
1.90358,0.0674731,-0.110929
1.80985,0.242451,-0.0850589
1.85484,0.156734,-0.0975542
1.80736,0.242118,-0.042432
1.85312,0.150401,-0.0541084
1.81458,0.236961,-0.284703
1.84989,0.150138,-0.0107869
1.8219,0.237918,-0.197915
1.8908,0.0607424,-0.176594
1.81212,0.23664,0.042525
1.8829,0.0604887,0.0219318
1.82006,0.237678,-0.128352
1.85968,0.150933,-0.152314
1.84964,0.150118,0.0323917
1.90379,0.0611597,-0.110929
1.81857,0.237483,-0.0854311
1.85534,0.150582,-0.0975542
1.81608,0.237158,-0.0426181
1.81343,0.230375,0
1.90709,0.0546021,-0.0222112
1.81932,0.231123,-0.285318
1.8504,0.14368,-0.0107869
1.83061,0.232558,-0.198772
1.89896,0.0543694,-0.177337
1.81293,0.230313,0.042525
1.8911,0.0541442,0.0220249
1.82484,0.231825,-0.128631
1.86417,0.144749,-0.15264
1.85812,0.14428,0.0325313
1.81939,0.231133,-0.0854311
1.85984,0.144413,-0.0977636
1.81293,0.230313,-0.042525
1.81422,0.224044,0
1.82011,0.224772,-0.285318
1.86776,0.138471,-0.238394
1.85887,0.137812,-0.0108334
1.82352,0.225193,-0.197915
1.90312,0.0478409,-0.177709
1.8177,0.224473,0.0426181
1.82168,0.224965,-0.128352
1.86466,0.138241,-0.15264
1.85463,0.137497,0.0324615
1.83208,0.22625,-0.0859895
1.86432,0.138216,-0.0979729
1.8177,0.224473,-0.0426181
1.85858,0.131268,-0.0542248
1.81896,0.218186,0
1.91142,0.0413733,-0.0222578
1.82481,0.218887,-0.285933
1.82824,0.219299,-0.198344
1.8993,0.0411108,-0.177337
1.89143,0.0409405,0.0220249
1.82245,0.218605,-0.128352
1.87706,0.132574,-0.153616
1.85909,0.131304,0.0325313
1.91231,0.0413925,-0.111394
1.82493,0.218901,-0.0856173
1.86877,0.131988,-0.0981823
1.82556,0.212517,-0.285933
1.86377,0.1251,-0.0108567
1.82505,0.212457,-0.197915
1.90341,0.0345544,-0.177709
1.89956,0.0344845,0.0221181
1.82321,0.212243,-0.128352
1.87752,0.126022,-0.153616
1.86751,0.125351,0.0326709
1.7838,0.296587,-0.115891
1.82568,0.212531,-0.0856173
1.86524,0.125198,-0.0979729
1.81922,0.211779,-0.0426181
1.85945,0.118291,-0.0542248
1.88675,0.120027,-0.378114
1.82044,0.205482,0
1.83415,0.20703,-0.287163
1.79241,0.291591,0.0105544
1.8642,0.118593,-0.0108567
1.82578,0.206085,-0.197915
1.91547,0.0280847,-0.178824
1.82789,0.206324,0.0428042
1.83187,0.206772,-0.12891
1.87397,0.119214,-0.153291
1.92054,0.0281591,-0.111859
1.83435,0.207053,-0.0859895
1.86965,0.118939,-0.0981823
1.82789,0.206324,-0.0428042
1.86784,0.112279,-0.0544575
1.91975,0.0214447,-0.0223509
1.8686,0.112324,-0.0108799
1.83835,0.201007,-0.199201
1.91555,0.0213978,-0.178824
1.83258,0.200376,0.0428972
1.91175,0.0213553,0.0222578
1.82861,0.199942,-0.128631
1.87835,0.112911,-0.153616
1.87633,0.112789,0.0328105
1.78977,0.284753,-0.116147
1.92462,0.021499,-0.112092
1.83903,0.201082,-0.0861756
1.88202,0.113131,-0.0988103
1.8286,0.199942,-0.0428042
1.87221,0.105984,-0.0545738
1.89145,0.107074,-0.378899
1.82581,0.193189,0
1.92381,0.0147745,-0.0223974
1.83948,0.194636,-0.287778
1.87297,0.106027,-0.0109032
1.83113,0.193752,-0.198344
1.92358,0.0147727,-0.179568
1.83327,0.193979,0.0428972
1.90781,0.0146516,0.0222112
1.8412,0.194818,-0.129468
1.87873,0.106354,-0.153616
1.87671,0.106239,0.0328105
1.83972,0.194662,-0.0861756
1.8824,0.106561,-0.0988103
1.83724,0.194399,-0.0429903
1.87257,0.0994479,-0.0545738
1.89573,0.100678,-0.379683
1.92385,0.00805852,-0.0223974
1.84015,0.188213,-0.287778
1.86933,0.0992762,-0.0108799
1.83575,0.187763,-0.198772
1.91565,0.00802418,-0.178824
1.82995,0.187171,0.0428042
1.92385,0.00805852,0.0223974
1.88705,0.100217,-0.154267
1.88106,0.099899,0.0328803
1.84039,0.188238,-0.0861756
1.88675,0.100201,-0.0990196
1.83393,0.187578,-0.0428972
1.8729,0.0929112,-0.0545738
1.89607,0.0940606,-0.379683
1.84079,0.181789,-0.287778
1.87766,0.0931472,-0.0109264
1.83639,0.181355,-0.198772
1.91567,0.00133765,-0.178824
1.83458,0.181175,0.0428972
1.91587,0.00133779,0.0223043
1.85046,0.182744,-0.130026
1.88739,0.09363,-0.154267
1.88539,0.0935309,0.0329501
1.7966,0.266581,-0.116403
1.92873,0.00134677,-0.112325
1.84501,0.182206,-0.0863618
1.8831,0.0934169,-0.0988103
1.79484,0.26632,-0.0739244
1.83458,0.181175,-0.0428972
1.79698,0.26023,-0.0316936
1.87721,0.0865575,-0.0546902
1.83569,0.174818,0
1.84929,0.176112,-0.289008
1.88596,0.0869612,-0.0109729
1.84889,0.176075,-0.200057
1.93159,-0.0053934,-0.180312
1.8352,0.174771,0.0428972
1.83917,0.175149,-0.129189
1.88771,0.0870416,-0.154267
1.88571,0.0869494,0.0329501
1.80147,0.260881,-0.116659
1.93272,-0.00539653,-0.112557
1.84564,0.175765,-0.0863618
1.8874,0.0870275,-0.0990196
1.79972,0.260627,-0.0740873
1.83918,0.17515,-0.0429903
1.8815,0.080174,-0.0548066
1.90452,0.0811552,-0.381252
1.84595,0.169295,-0.288393
1.89425,0.0807175,-0.0110194
1.85346,0.169983,-0.200486
1.93156,-0.0121364,-0.180312
1.84774,0.169459,0.0431764
1.92783,-0.0121129,0.022444
1.85169,0.169821,-0.130026
1.888,0.0804512,-0.154267
1.886,0.080366,0.0329501
1.93668,-0.0121685,-0.11279
1.83319,0.168124,0.107208
1.8542,0.170051,-0.086734
1.89169,0.0806082,-0.099229
1.85173,0.169824,-0.0432694
1.88974,0.0742478,-0.0550393
1.84481,0.163022,0
1.84651,0.163172,-0.288393
1.90316,0.0747751,-0.242435
1.89051,0.0742779,-0.0109961
1.84609,0.163135,-0.199629
1.9355,-0.0185804,-0.180683
1.84431,0.162978,0.0430833
1.92378,-0.0184679,0.0223974
1.84827,0.163327,-0.129747
1.90021,0.074659,-0.155243
1.89025,0.0742679,0.03302
1.83771,0.162395,0.107441
1.85475,0.163901,-0.086734
1.89194,0.0743342,-0.099229
1.84033,0.162626,-0.0429903
1.88599,0.0675083,-0.0549229
1.84138,0.156244,0
1.9397,-0.0253921,-0.0225837
1.85888,0.157728,-0.290237
1.88676,0.0675357,-0.0109729
1.84664,0.15669,-0.199629
1.9394,-0.0253882,-0.181055
1.84487,0.156539,0.0430833
1.86473,0.158225,-0.130863
1.89647,0.0678833,-0.154918
1.8945,0.0678127,0.0330898
1.80802,0.242848,-0.116914
1.93655,-0.0253509,-0.11279
1.85531,0.157426,-0.086734
1.90017,0.0680158,-0.0996477
1.81023,0.243144,-0.0744129
1.84487,0.156539,-0.0430833
1.9131,0.061793,-0.382821
1.8459,0.15014,0
1.85942,0.151239,-0.290237
1.89498,0.0612079,-0.0110194
1.93532,-0.0320913,-0.180683
1.85338,0.150747,0.0432694
1.9396,-0.0321623,0.0225837
1.85732,0.151068,-0.130305
1.90467,0.0615208,-0.155569
1.89872,0.0613287,0.0331596
1.80886,0.236535,-0.116914
1.94045,-0.0321763,-0.113022
1.85983,0.151273,-0.0869201
1.89641,0.061254,-0.0994383
1.81107,0.236824,-0.0744129
1.84939,0.150423,-0.0431764
1.89441,0.0545711,-0.0551557
1.9133,0.0551151,-0.382821
1.94748,-0.0390927,-0.0226768
1.86387,0.145054,-0.290852
1.80939,0.230184,0.0106009
1.89918,0.0547084,-0.0110426
1.85166,0.144104,-0.200057
1.94714,-0.039086,-0.181799
1.85389,0.144277,0.0432694
1.93948,-0.0389322,0.0225837
1.86181,0.144894,-0.130584
1.90487,0.0548723,-0.155569
1.81759,0.231228,-0.117426
1.84727,0.143763,0.107906
1.86035,0.14478,-0.0869201
1.9006,0.0547494,-0.0996477
1.81188,0.230501,-0.0744129
1.86186,0.144898,-0.0434555
1.82184,0.225308,-0.0320426
1.89859,0.0480587,-0.055272
1.91348,0.0484356,-0.382821
1.95133,-0.0459852,-0.0227234
1.86043,0.138254,-0.290237
1.91592,0.0484974,-0.24395
1.90336,0.0481794,-0.0110659
1.86405,0.138523,-0.201342
1.94699,-0.0458831,-0.181799
1.85438,0.137805,0.0432694
1.93933,-0.0457025,0.0225837
1.86628,0.138689,-0.130863
1.90904,0.0483231,-0.155894
1.9031,0.0481729,0.0332294
1.95215,-0.0460046,-0.11372
1.84777,0.137313,0.107906
1.86483,0.138581,-0.0871063
1.90478,0.0482153,-0.099857
1.87034,0.13899,-0.0436417
1.89874,0.0414305,-0.055272
1.85935,0.131649,0
1.95515,-0.052905,-0.02277
1.86484,0.132038,-0.290852
1.91608,0.0418088,-0.24395
1.90751,0.0416219,-0.0110891
1.86055,0.131734,-0.200914
1.9508,-0.0527873,-0.18217
1.86283,0.131895,0.0434555
1.95115,-0.0527969,0.0227234
1.87074,0.132455,-0.131142
1.90919,0.0416585,-0.155894
1.90326,0.041529,0.0332294
1.81916,0.218532,-0.117426
1.95198,-0.0528191,-0.11372
1.88998,0.0412394,0.0770182
1.86929,0.132353,-0.0872924
1.90893,0.0416527,-0.100066
1.81742,0.218322,-0.0745757
1.86682,0.132178,-0.0435486
1.92554,0.0352915,-0.385174
1.86378,0.125426,0
1.88107,0.126589,-0.293312
1.81964,0.21215,0.0106474
1.90765,0.0349636,-0.0110891
1.861,0.125239,-0.200914
1.95857,-0.0598394,-0.182914
1.86727,0.125661,0.0435486
1.87517,0.126193,-0.131421
1.90933,0.0349944,-0.155894
1.82388,0.212643,-0.117682
1.95178,-0.0596321,-0.11372
1.86974,0.125827,-0.0872924
1.91705,0.0351359,-0.100485
1.82214,0.21244,-0.0747386
1.87126,0.125929,-0.0436417
1.90698,0.0282924,-0.0555047
1.92565,0.0285694,-0.385174
1.87361,0.119519,-0.292082
1.91576,0.0284226,-0.0111356
1.8654,0.118995,-0.201342
1.95835,-0.0666763,-0.182914
1.87169,0.119396,0.0436417
1.95473,-0.0665533,0.02277
1.8756,0.119646,-0.131421
1.91741,0.0284471,-0.156545
1.9155,0.0284188,0.0334388
1.82461,0.206275,-0.117682
1.95954,-0.066717,-0.114185
1.85707,0.118464,0.108371
1.86618,0.119045,-0.0871063
1.92115,0.0285026,-0.100694
1.82287,0.206078,-0.0747386
1.87568,0.119651,-0.0437347
1.90707,0.021637,-0.0555047
1.92181,0.0218042,-0.38439
1.86062,0.112172,0
1.96248,-0.0736749,-0.0228631
1.8819,0.113455,-0.293312
1.91584,0.0217365,-0.0111356
1.8658,0.112484,-0.201342
1.9581,-0.0735104,-0.182914
1.87609,0.113104,0.0437347
1.9465,-0.0730748,0.0226768
1.876,0.113099,-0.131421
1.92148,0.0218005,-0.156871
1.91559,0.0217336,0.0334388
1.82929,0.20034,-0.117938
1.96329,-0.0737051,-0.114418
1.86545,0.112463,0.108836
1.87456,0.113012,-0.0874785
1.91325,0.0217071,-0.100276
1.82755,0.20015,-0.0749014
1.87209,0.112863,-0.0436417
1.83345,0.194322,-0.0321822
1.90713,0.0149794,-0.0555047
1.88056,0.106786,-0.527289
1.92972,0.0151568,-0.385959
1.95822,-0.0803614,-0.0228165
1.87045,0.106212,-0.291467
1.92838,0.0151463,-0.245465
1.88603,0.107097,-0.203484
1.96977,-0.0808354,-0.184029
1.87248,0.106327,0.0436417
1.95822,-0.0803614,0.0228165
1.88436,0.107002,-0.131979
1.91756,0.0150613,-0.156545
1.91965,0.0150777,0.0335086
1.86583,0.10595,0.108836
1.90236,0.0149419,0.0775067
1.87893,0.106694,-0.0876646
1.9213,0.0150907,-0.100694
1.82824,0.193769,-0.0749014
1.87647,0.106554,-0.0437347
1.91917,0.008374,-0.0558538
1.89246,0.100836,-0.530524
1.93369,0.00843734,-0.386743
1.87334,0.0998171,0
1.96592,-0.0875528,-0.0229097
1.89449,0.100944,-0.295157
1.92395,0.00839486,-0.0111821
1.96948,-0.0877113,-0.184029
1.87284,0.0997901,0.0436417
1.96192,-0.0873748,0.0228631
1.88472,0.100423,-0.131979
1.92159,0.00838456,-0.156871
1.92369,0.00839372,0.0335784
1.83064,0.187564,-0.117938
1.86619,0.0994358,0.108836
1.9064,0.00831828,0.0776695
1.87929,0.100134,-0.0876646
1.92135,0.00838349,-0.100694
1.83685,0.1882,-0.0752271
1.87683,0.100003,-0.0437347
1.83476,0.181517,-0.0321822
1.91519,0.00167171,-0.0557375
1.88511,0.0938465,-0.528368
1.9337,0.00168787,-0.386743
1.86968,0.0930788,0
1.9696,-0.0946061,-0.0229562
1.88694,0.0939376,-0.293927
1.93638,0.00169021,-0.246476
1.83103,0.181148,0.0106939
1.92797,0.00168287,-0.0112054
1.87879,0.0935322,-0.202628
1.96916,-0.0945851,-0.184029
1.88515,0.093849,0.0439208
1.9696,-0.0946061,0.0229562
1.88904,0.0940425,-0.132258
1.92161,0.00167732,-0.156871
1.92771,0.00168264,0.0336482
1.83923,0.181959,-0.118449
1.96241,-0.0942608,-0.114418
1.87051,0.0931199,0.109069
1.87963,0.093574,-0.0876646
1.92935,0.00168408,-0.101113
1.84148,0.182181,-0.0753899
1.88116,0.0936501,-0.0438278
1.83532,0.175752,-0.0321822
1.91518,-0.00434466,-0.0557375
1.89309,0.088283,-0.530524
1.94154,-0.00440446,-0.388312
1.87396,0.0873913,0
1.89512,0.0883778,-0.295157
1.83557,0.175776,0.0107172
1.93196,-0.00438273,-0.0112286
1.87908,0.0876297,-0.202628
1.96885,-0.100771,-0.184029
1.88145,0.0877402,0.0438278
1.88933,0.0881078,-0.132258
1.92559,-0.00436827,-0.157196
1.84377,0.176561,-0.118705
1.97407,-0.101037,-0.115115
1.87478,0.0874295,0.109301
1.87992,0.0876689,-0.0876646
1.92935,-0.00437679,-0.101113
1.87586,0.0874796,0.230577
1.84204,0.176395,-0.0753899
1.88544,0.0879265,-0.0439208
1.91916,-0.0110534,-0.0558538
1.88953,0.0815079,-0.529446
1.9376,-0.0111596,-0.387528
1.97292,-0.107885,-0.0230028
1.89147,0.0815912,-0.294542
1.87937,0.0810694,-0.202628
1.97644,-0.108078,-0.184773
1.88574,0.081344,0.0439208
1.97292,-0.107885,0.0230028
1.88564,0.0813398,-0.131979
1.92556,-0.0110903,-0.157196
1.84835,0.17049,-0.118961
1.9737,-0.107928,-0.115115
1.87508,0.0808842,0.109301
1.88819,0.0814501,-0.0880369
1.92932,-0.011112,-0.101113
1.88409,0.0812728,0.231552
1.84662,0.170331,-0.0755527
1.88973,0.0815163,-0.0440139
1.8445,0.16332,-0.0323219
1.9231,-0.0181247,-0.0559702
1.89367,0.0747342,-0.530524
1.94539,-0.0183347,-0.389097
1.87854,0.074137,0
1.9805,-0.115581,-0.0230959
1.8957,0.0748144,-0.295157
1.94423,-0.0183238,-0.247486
1.93588,-0.0182451,-0.0112519
1.98398,-0.115785,-0.185516
1.89002,0.07459,0.0440139
1.97251,-0.115115,0.0230028
1.88991,0.0745858,-0.132258
1.9295,-0.0181849,-0.157522
1.84896,0.163715,-0.118961
1.97728,-0.115394,-0.115348
1.87536,0.0740116,0.109301
1.91832,-0.0180796,0.078158
1.88848,0.0745294,-0.0880369
1.93326,-0.0182204,-0.101322
1.87247,0.0738975,0.230089
1.84723,0.163562,-0.0755527
1.89401,0.0747477,-0.0441069
1.84506,0.15688,-0.0323219
1.93102,-0.0249412,-0.0562029
1.90162,0.0684,-0.532681
1.94923,-0.0251764,-0.389881
1.88278,0.0677225,0
1.98407,-0.122741,-0.0231425
1.8999,0.0683383,-0.295772
1.94812,-0.025162,-0.247991
1.84531,0.156901,0.0107637
1.93981,-0.0250547,-0.0112751
1.98754,-0.122956,-0.185888
1.88627,0.0678479,0.0439208
1.97609,-0.122247,0.0230493
1.89415,0.0681313,-0.132537
1.93739,-0.0250235,-0.158173
1.93954,-0.0250513,0.0338577
1.84952,0.157259,-0.118961
1.98484,-0.122789,-0.115813
1.88758,0.067895,0.109999
1.89272,0.06808,-0.088223
1.93718,-0.0250208,-0.101532
1.84779,0.157113,-0.0755527
1.89027,0.0679917,-0.0440139
1.92693,-0.0312802,-0.0560866
1.90183,0.0620931,-0.532681
1.89499,0.0618697,0
1.98765,-0.129581,-0.023189
1.90802,0.062295,-0.297001
1.84582,0.150781,0.0107637
1.94371,-0.0315526,-0.0112984
1.98712,-0.129547,-0.185888
1.89847,0.0619834,0.0442
1.98365,-0.129321,0.0231425
1.90234,0.0621096,-0.133095
1.9373,-0.0314485,-0.158173
1.84507,0.15072,0.0538757
1.93545,-0.0314185,0.0337879
1.85003,0.151125,-0.118961
1.97645,-0.128851,-0.115348
1.89294,0.0618026,-0.088223
1.93709,-0.0314451,-0.101532
1.85229,0.151309,-0.0757155
1.89048,0.0617224,-0.0440139
1.8501,0.144306,-0.0323917
1.9308,-0.0384217,-0.0562029
1.9059,0.0552341,-0.533759
1.95293,-0.038862,-0.390666
1.99115,-0.137139,-0.0232356
1.90823,0.0553018,-0.297001
1.84636,0.144015,0.0107637
1.94358,-0.038676,-0.0112984
1.99458,-0.137376,-0.186632
1.89469,0.0549093,0.0441069
1.97918,-0.136315,0.0230959
1.89856,0.0550216,-0.132816
1.94514,-0.0387071,-0.158823
1.84561,0.143956,0.0538757
1.94732,-0.0387504,0.0339973
1.85853,0.144964,-0.119473
1.98393,-0.136642,-0.115813
1.88402,0.0545999,0.109766
1.93002,-0.0384061,0.0786465
1.89715,0.0549804,-0.0884091
1.94495,-0.0387032,-0.10195
1.8608,0.145141,-0.0760412
1.90269,0.055141,-0.044293
1.85059,0.137847,-0.0323917
1.93465,-0.0452552,-0.0563193
1.90608,0.0485804,-0.533759
1.9567,-0.045771,-0.39145
1.89538,0.0483078,0
1.99066,-0.144089,-0.0232356
1.90842,0.0486399,-0.297001
1.95568,-0.0457471,-0.249001
1.85483,0.138163,0.0108102
1.95143,-0.0456478,-0.0113449
1.99012,-0.144051,-0.18626
1.89487,0.0482948,0.0441069
1.98667,-0.143801,0.023189
1.90672,0.0485968,-0.133374
1.945,-0.0454972,-0.158823
1.85009,0.13781,0.053992
1.85903,0.138475,-0.119473
1.98742,-0.143855,-0.116045
1.88819,0.0481244,0.109999
1.92987,-0.0451434,0.0786465
1.90531,0.0485609,-0.0887814
1.9448,-0.0454926,-0.10195
1.8613,0.138644,-0.0760412
1.90686,0.0486004,-0.0443861
1.85904,0.131953,-0.0325313
1.93848,-0.0521151,-0.0564356
1.91394,0.0420965,-0.535916
1.95653,-0.0526005,-0.39145
1.89554,0.0416919,0
1.99014,-0.151037,-0.0232356
1.90857,0.0419785,-0.297001
1.95154,-0.0524664,-0.248496
1.89657,0.0417144,-0.204341
1.99755,-0.151599,-0.187003
1.90302,0.0418564,0.044293
1.98615,-0.150734,0.023189
1.91486,0.0421168,-0.133932
1.94483,-0.0522857,-0.158823
1.947,-0.0523442,0.0339973
1.8595,0.131986,-0.119473
1.99886,-0.151698,-0.116743
1.89633,0.0417091,0.110464
1.9337,-0.0519866,0.0788093
1.90148,0.0418224,-0.0885953
1.94463,-0.0522804,-0.10195
1.85778,0.131864,-0.0758784
1.90702,0.0419444,-0.0443861
1.86348,0.125732,-0.0326011
1.93828,-0.0588814,-0.0564356
1.91793,0.0354866,-0.536994
1.95634,-0.0594297,-0.39145
1.89968,0.0351489,0
1.99758,-0.158616,-0.0233287
1.92056,0.0355354,-0.298846
1.95928,-0.0595192,-0.249506
1.95507,-0.0593911,-0.0113681
2.00495,-0.159201,-0.187747
1.9896,-0.157983,0.0232356
1.91101,0.0353586,-0.133653
1.94463,-0.0590741,-0.158823
1.94281,-0.0590188,0.0339275
1.86393,0.125763,-0.119729
1.99831,-0.158674,-0.116743
1.90045,0.0351633,0.110697
1.94149,-0.0589788,0.079135
1.9096,0.0353326,-0.0889675
1.95641,-0.059432,-0.102578
1.88948,0.0349604,0.232039
1.87019,0.126185,-0.0763669
1.91116,0.0353613,-0.0444791
1.86788,0.119808,-0.0326709
1.91803,0.0291264,-0.536994
1.96789,-0.0663131,-0.393804
1.90378,0.0289099,0
1.99704,-0.165239,-0.0233287
1.91672,0.0291064,-0.298231
1.96304,-0.0661497,-0.250011
1.86015,0.119312,0.0108334
1.95886,-0.0660087,-0.0113914
2.00441,-0.165849,-0.187747
1.91126,0.0290235,0.0444791
1.98907,-0.16458,0.0232356
1.9151,0.0290819,-0.133932
1.95239,-0.065791,-0.159474
1.95459,-0.0658651,0.0341369
1.8723,0.120092,-0.12024
1.99778,-0.1653,-0.116743
1.89657,0.0288004,0.110464
1.93729,-0.0652821,0.0789721
1.9137,0.0290606,-0.0891536
1.9602,-0.0660539,-0.102788
1.9015,0.0288753,0.233502
1.8706,0.119983,-0.0763669
1.91126,0.0290235,-0.0444791
1.8683,0.112961,-0.0326709
1.91813,0.0220962,-0.536994
1.96763,-0.0735254,-0.393804
2.00838,-0.173591,-0.0234684
1.92472,0.0221721,-0.299461
1.96675,-0.0734923,-0.250516
1.86456,0.112735,0.0108567
1.9626,-0.0733372,-0.0114146
1.90883,0.0219891,-0.205626
2.00379,-0.173194,-0.187747
1.91535,0.0220643,0.0445722
1.99244,-0.172213,0.0232822
1.91919,0.0221084,-0.134211
1.95612,-0.0730953,-0.1598
1.85982,0.112448,0.0542248
1.95833,-0.0731779,0.0342067
1.87672,0.11347,-0.120496
2.00511,-0.173309,-0.117208
1.90864,0.0219869,0.111162
1.94103,-0.0725314,0.079135
1.90581,0.0219543,-0.0887814
1.95196,-0.0729396,-0.102369
1.87502,0.113367,-0.0765297
1.91535,0.0220643,-0.0445722
1.87268,0.106666,-0.0327407
1.92975,0.0154933,-0.540229
1.97128,-0.0805534,-0.394588
2.00776,-0.1806,-0.0234684
1.92874,0.0154852,-0.300076
1.86894,0.106453,0.0108799
1.96233,-0.0801875,-0.0114146
1.9089,0.0153259,-0.205626
2.01507,-0.181258,-0.188862
1.91942,0.0154104,0.0446652
1.91526,0.015377,-0.133932
1.95586,-0.079923,-0.1598
1.95807,-0.0800133,0.0342067
1.88109,0.107145,-0.120752
1.9127,0.0153565,0.111394
1.94476,-0.0794697,0.0792978
1.90987,0.0153337,-0.0889675
1.95568,-0.0799159,-0.102578
1.8754,0.106821,-0.0765297
1.91942,0.0154104,-0.0446652
1.87302,0.100456,-0.0327407
1.95327,-0.0863062,-0.0569011
1.93749,0.00913029,-0.542386
1.97492,-0.0872631,-0.395372
1.90798,0.00899121,0
2.01113,-0.187629,-0.023515
1.92482,0.00907058,-0.299461
1.97413,-0.087228,-0.251526
1.86928,0.100255,0.0108799
1.91291,0.00901446,-0.206055
2.01049,-0.187569,-0.188491
1.91946,0.0090453,0.0446652
1.92328,0.00906332,-0.13449
1.96355,-0.0867604,-0.160451
1.96578,-0.0868592,0.0343463
1.88143,0.100907,-0.120752
1.91274,0.00901363,0.111394
1.9139,0.00901912,-0.0891536
1.95541,-0.0864007,-0.102578
1.87575,0.100602,-0.0765297
1.87736,0.0941173,-0.0328105
1.95695,-0.0933142,-0.0570174
1.93366,0.00236242,-0.541307
1.912,0.00233595,0
1.9367,0.00236613,-0.301306
1.96985,-0.0939295,-0.251021
1.96973,-0.0939237,-0.0114611
2.02172,-0.195738,-0.189606
1.92729,0.00235464,-0.134769
1.9712,-0.0939937,-0.161102
1.86886,0.0936914,0.0544575
1.96147,-0.09353,0.0342765
1.87778,0.0941388,-0.120496
2.01515,-0.195102,-0.117906
1.90876,0.002332,0.111162
1.95216,-0.093086,0.0796234
1.92591,0.00235295,-0.089712
1.96706,-0.0937966,-0.103207
1.88008,0.0942537,-0.0766925
1.93148,0.00235975,-0.0449444
1.87769,0.0872358,-0.0328105
1.95659,-0.100486,-0.0570174
1.93366,-0.00472483,-0.541307
1.986,-0.101997,-0.397726
1.91999,-0.00469144,0
2.01769,-0.202815,-0.0236081
1.97742,-0.101556,-0.252031
1.87395,0.087062,0.0109032
1.96937,-0.101143,-0.0114611
2.01306,-0.20235,-0.188862
1.91947,-0.00469017,0.0446652
1.93128,-0.00471901,-0.135049
1.9788,-0.101627,-0.161753
1.87718,0.0872121,0.0546902
1.96511,-0.100924,0.0343463
1.88609,0.0876262,-0.121008
1.91675,-0.00468351,0.111627
1.9558,-0.100445,0.0797863
1.91791,-0.00468636,-0.0893398
1.97069,-0.10121,-0.103416
1.8844,0.0875477,-0.0768554
1.93147,-0.00471949,-0.0449444
1.88195,0.0815095,-0.0328803
1.92978,-0.010778,-0.540229
1.98567,-0.108235,-0.397726
1.91997,-0.0107232,0
2.01705,-0.209153,-0.0236081
1.94062,-0.0108386,-0.301921
1.98501,-0.108199,-0.253042
1.87821,0.0813475,0.0109264
1.97304,-0.107547,-0.0114843
1.92086,-0.0107282,-0.206912
2.0243,-0.209905,-0.189978
1.92745,-0.010765,0.0448513
1.93524,-0.0108086,-0.135328
1.97449,-0.107626,-0.161427
1.87744,0.0813144,0.0546902
1.96079,-0.106879,0.0342765
1.88636,0.0817005,-0.121008
2.02569,-0.210049,-0.118604
1.92072,-0.0107274,0.111859
1.95547,-0.106589,0.0797863
1.92189,-0.0107339,-0.0895259
1.97037,-0.107401,-0.103416
1.89265,0.0819732,-0.077181
1.93145,-0.0107873,-0.0449444
1.89021,0.075258,-0.03302
1.9892,-0.115393,-0.39851
1.91992,-0.0174251,0
1.93662,-0.0175767,-0.301306
1.88647,0.075109,0.0109729
1.98064,-0.114896,-0.0115308
2.02355,-0.21697,-0.189978
1.9314,-0.0175293,0.0449444
1.92721,-0.0174913,-0.134769
1.98206,-0.114979,-0.162078
1.87772,0.0747604,0.0546902
1.97638,-0.114649,0.0345558
1.89062,0.0752741,-0.121264
2.02891,-0.217545,-0.118836
1.92067,-0.0174319,0.111859
1.93382,-0.0175513,-0.0900843
1.97397,-0.11451,-0.103625
1.89293,0.0753661,-0.077181
1.9394,-0.0176019,-0.0451305
1.89049,0.0679995,-0.03302
1.99265,-0.123272,-0.399295
1.94444,-0.0251147,-0.302536
1.98813,-0.122992,-0.253547
1.88675,0.067865,0.0109729
1.98417,-0.122748,-0.0115541
1.93266,-0.0249625,-0.208197
2.02666,-0.225178,-0.190349
1.92732,-0.0248935,0.0448513
1.93511,-0.0249942,-0.135328
1.97365,-0.122097,-0.161427
1.97193,-0.12199,0.034486
1.89488,0.0681576,-0.121519
1.92857,-0.0249097,0.112325
1.93374,-0.0249765,-0.0900843
1.97351,-0.122088,-0.103625
1.88921,0.0679535,-0.0770182
1.94331,-0.0251001,-0.0452235
1.89069,0.0620601,-0.03302
1.97499,-0.128409,-0.0575993
1.99226,-0.129532,-0.399295
1.92375,-0.0308924,0
1.94436,-0.0312233,-0.302536
1.98773,-0.129238,-0.253547
1.88295,0.061806,0.0109496
1.98378,-0.128981,-0.0115541
1.93655,-0.0310979,-0.208625
2.03386,-0.232448,-0.191093
1.93922,-0.0311409,0.0451305
1.943,-0.0312016,-0.135886
1.98519,-0.129072,-0.162403
1.89018,0.0620433,0.0550393
1.97553,-0.128444,0.0345558
1.8911,0.0620734,-0.121264
2.03528,-0.232611,-0.119301
1.92848,-0.0309684,0.112325
1.93765,-0.0311156,-0.0902704
1.97711,-0.128547,-0.103835
1.8974,0.0622803,-0.0773438
1.93922,-0.0311409,-0.0451305
1.89091,0.0551299,-0.03302
1.92763,-0.038022,0
1.95213,-0.0385054,-0.303765
1.9912,-0.136794,-0.254052
1.98329,-0.136251,-0.0115541
1.93244,-0.038117,-0.208197
2.03695,-0.240368,-0.191465
1.9351,-0.0381694,0.0450374
1.94288,-0.0383228,-0.135886
1.99266,-0.136894,-0.163054
1.8904,0.055115,0.0550393
1.97903,-0.135958,0.0346256
1.89929,0.0553744,-0.121775
2.03441,-0.240069,-0.119301
1.92836,-0.0380364,0.112325
1.93752,-0.0382172,-0.0902704
1.98459,-0.13634,-0.104253
1.89762,0.0553256,-0.0773438
1.9431,-0.0383271,-0.0452235
1.90309,0.0485047,-0.0332294
1.99465,-0.144378,-0.254557
1.89535,0.0483075,0.0110194
1.98677,-0.143808,-0.0115773
1.94024,-0.0453855,-0.209053
2.04001,-0.248313,-0.191837
1.94294,-0.0454487,0.0452235
1.94272,-0.0454436,-0.135886
1.89858,0.0483897,0.055272
1.9865,-0.143788,0.0347652
1.90747,0.0486162,-0.122287
1.94018,-0.0453841,0.113022
1.94536,-0.0455052,-0.0906426
1.98408,-0.143613,-0.104253
1.9058,0.0485737,-0.0776695
1.94694,-0.0455422,-0.0453166
1.90324,0.0425258,-0.0332294
1.89949,0.0424422,0.0110426
1.99428,-0.150651,-0.0116238
1.94009,-0.0514807,-0.209053
2.04317,-0.255215,-0.192208
1.95079,-0.0517645,0.0454097
1.95055,-0.0517583,-0.136444
1.99566,-0.150755,-0.16338
1.89872,0.0424249,0.055272
1.99003,-0.150329,0.034835
1.90761,0.0426235,-0.122287
1.94003,-0.0514791,0.113022
1.9492,-0.0517225,-0.0908288
1.98362,-0.149845,-0.104253
1.90195,0.042497,-0.0775067
1.95079,-0.0517645,-0.0454097
1.91137,0.0360327,-0.033369
1.98496,-0.156917,-0.0579483
1.95953,-0.0588422,-0.304995
2.00156,-0.158229,-0.255567
1.89963,0.0358114,0.0110426
1.99375,-0.157612,-0.0116238
1.95182,-0.0586107,-0.210339
2.04622,-0.262852,-0.19258
1.9466,-0.0584537,0.0453166
1.94637,-0.0584469,-0.136165
1.98717,-0.157092,-0.162729
1.89486,0.0357215,0.0551557
1.98949,-0.157275,0.034835
1.90775,0.0359644,-0.122287
1.95181,-0.0586103,0.11372
1.94901,-0.0585261,-0.0908288
1.99105,-0.157398,-0.104672
1.90608,0.035933,-0.0776695
1.95859,-0.0588138,-0.0455958
1.90748,0.0292992,-0.0332992
1.98839,-0.164174,-0.0580647
1.94291,-0.0651319,0
2.0089,-0.165868,-0.256577
1.89974,0.0291803,0.0110426
1.99318,-0.16457,-0.0116238
1.94763,-0.0652903,-0.20991
2.04924,-0.270515,-0.192952
1.95437,-0.0655162,0.0455027
1.95413,-0.065508,-0.136723
1.99853,-0.165011,-0.163705
1.89897,0.0291684,0.055272
1.91185,0.0293662,-0.122543
1.94361,-0.0651555,0.113255
1.95678,-0.0655968,-0.091201
1.99447,-0.164676,-0.104881
1.91419,0.0294021,-0.0779952
1.95437,-0.0655162,-0.0455027
1.90358,0.0222609,-0.0332294
1.98777,-0.171461,-0.0580647
1.94665,-0.0724012,0
1.97091,-0.0733034,-0.30684
2.01223,-0.173571,-0.257082
1.90384,0.0222639,0.0110659
1.99655,-0.172218,-0.0116471
1.95136,-0.0725761,-0.210339
2.04823,-0.278024,-0.192952
1.95412,-0.0726789,0.0455027
1.95387,-0.0726698,-0.136723
2.00983,-0.173363,-0.164682
1.90706,0.0223016,0.0555047
1.91195,0.0223588,-0.122543
2.05366,-0.27876,-0.120697
1.94735,-0.0724272,0.113487
1.96052,-0.0729168,-0.0913871
1.99385,-0.171985,-0.104881
1.91428,0.0223861,-0.0779952
1.96211,-0.0729761,-0.0456888
1.91164,0.0156817,-0.033369
1.94639,-0.0791959,0
2.00766,-0.180239,-0.256577
1.9079,0.015651,0.0110891
1.99594,-0.179186,-0.0116471
1.95904,-0.0797105,-0.211195
2.04725,-0.285172,-0.192952
1.95785,-0.0796622,0.0455958
1.9576,-0.0796519,-0.137002
2.00524,-0.180021,-0.164356
1.91113,0.0156774,0.0556211
1.92,0.0157502,-0.123054
2.05267,-0.285927,-0.120697
1.9431,-0.0790619,0.113255
1.95626,-0.0795974,-0.091201
2.00517,-0.180015,-0.105509
1.91435,0.0157038,-0.0779952
1.96185,-0.0798248,-0.0456888
1.91968,0.00938144,-0.0335086
1.9985,-0.186099,-0.0584138
1.91994,0.00938271,0.0111589
2.0033,-0.186546,-0.0116936
1.96274,-0.0863813,-0.211624
2.05023,-0.292522,-0.193324
1.95757,-0.0861542,0.0455958
1.96131,-0.0863185,-0.137281
2.01257,-0.187409,-0.165007
1.91517,0.00935936,0.0557375
1.92403,0.00940267,-0.12331
2.06357,-0.294424,-0.121394
1.96796,-0.0866112,-0.0917594
2.00457,-0.186664,-0.105509
1.91439,0.00935556,-0.0779952
1.96556,-0.0865058,-0.0457819
1.91971,0.00234535,-0.0335086
2.00179,-0.193808,-0.0585302
1.97398,-0.0941266,-0.307455
2.02215,-0.19578,-0.258597
1.91597,0.00234078,0.0111356
2.00658,-0.194272,-0.0117168
1.97035,-0.0939534,-0.212481
2.05703,-0.301188,-0.194067
1.96124,-0.093519,0.0456888
1.96098,-0.0935065,-0.137281
2.01187,-0.194784,-0.165007
1.91519,0.00233983,0.0557375
1.92006,0.00234578,-0.123054
2.05853,-0.301407,-0.121162
1.97162,-0.0940139,-0.0919455
2.00784,-0.194394,-0.105719
1.91841,0.00234377,-0.078158
1.96523,-0.0937094,-0.0457819
1.9237,-0.00369324,-0.0335784
2.00913,-0.200892,-0.0587629
1.95348,-0.0993007,0
1.98157,-0.100729,-0.308685
2.02548,-0.202526,-0.259102
1.91996,-0.00368607,0.0111589
2.0179,-0.201769,-0.0117866
1.97005,-0.100143,-0.212481
2.06395,-0.308828,-0.194811
1.96493,-0.0998829,0.0457819
1.97662,-0.100477,-0.138397
2.01521,-0.2015,-0.165333
1.91519,-0.00367689,0.0557375
1.92405,-0.00369391,-0.12331
2.06547,-0.309055,-0.121627
1.97531,-0.10041,-0.0921316
2.01517,-0.201496,-0.106137
1.9224,-0.00369075,-0.0783208
1.96892,-0.100086,-0.0458749
1.92368,-0.0104082,-0.0335784
2.00444,-0.207492,-0.0586465
1.95711,-0.106336,0
2.02476,-0.209595,-0.259102
1.92794,-0.0104313,0.0112054
1.97366,-0.107235,-0.212909
2.06286,-0.31603,-0.194811
1.97256,-0.107175,0.045968
1.97227,-0.107159,-0.138118
2.02243,-0.209355,-0.165984
1.92316,-0.0104054,0.0559702
1.92802,-0.0104317,-0.123566
1.97494,-0.107305,-0.0921316
2.01446,-0.208529,-0.106137
1.92238,-0.0104012,-0.0783208
1.96856,-0.106958,-0.0458749
1.92363,-0.0174588,-0.0335784
2.00764,-0.215263,-0.0587629
1.9607,-0.11374,0
1.98475,-0.115135,-0.3093
2.03187,-0.217861,-0.260113
1.92389,-0.0174611,0.0111821
1.97325,-0.114468,-0.212909
1.96816,-0.114173,0.0458749
1.97983,-0.11485,-0.138676
2.02561,-0.217191,-0.166309
1.9311,-0.0175266,0.0562029
1.92797,-0.0174981,-0.123566
1.97454,-0.114543,-0.0921316
2.01368,-0.215911,-0.106137
1.93032,-0.0175195,-0.0786465
1.97215,-0.114404,-0.045968
1.93155,-0.0242739,-0.033718
2.02277,-0.224031,-0.0592283
1.96429,-0.120829,0
1.98828,-0.122305,-0.309915
1.93581,-0.0243274,0.0112519
1.98475,-0.122088,-0.214194
1.97573,-0.121533,0.046061
1.97942,-0.12176,-0.138676
2.03277,-0.225138,-0.16696
1.92703,-0.0242171,0.0560866
1.93188,-0.024278,-0.123822
1.9821,-0.121925,-0.0925039
2.01688,-0.223379,-0.106347
1.92625,-0.0242072,-0.0784836
1.97972,-0.121779,-0.0461541
1.93546,-0.0307425,-0.0337879
2.02202,-0.230737,-0.0592283
1.96787,-0.127601,0
1.99181,-0.129153,-0.310529
2.03822,-0.232586,-0.261123
1.93572,-0.0307467,0.0112519
1.99227,-0.129183,-0.215051
1.97931,-0.128343,0.0461541
1.99095,-0.129098,-0.139513
2.02805,-0.231425,-0.166634
1.92694,-0.0306072,0.0560866
1.93578,-0.0307477,-0.124078
1.98966,-0.129014,-0.0928761
2.0201,-0.230518,-0.106556
1.93415,-0.0307217,-0.0788093
1.97931,-0.128343,-0.0461541
1.93134,-0.0374209,-0.033718
2.0212,-0.237794,-0.0592283
1.9714,-0.134742,0
1.99134,-0.136105,-0.310529
2.04134,-0.240163,-0.261628
1.9396,-0.0375809,0.0112751
1.98387,-0.135594,-0.214194
1.98284,-0.135524,0.0462471
1.9865,-0.135775,-0.139234
2.03515,-0.239435,-0.167285
1.93482,-0.0374882,0.0563193
1.94365,-0.0376593,-0.124589
1.98521,-0.135686,-0.09269
2.02722,-0.238502,-0.106975
1.93803,-0.0375504,-0.0789721
1.98284,-0.135524,-0.0462471
1.93119,-0.0444994,-0.033718
2.03222,-0.246646,-0.0595774
1.97488,-0.142254,0
2.04438,-0.248122,-0.262133
1.93945,-0.0446897,0.0112751
1.98336,-0.142865,-0.214194
1.97834,-0.142503,0.0461541
1.99395,-0.143628,-0.139792
2.04217,-0.247853,-0.167936
1.93467,-0.0445794,0.0563193
1.9435,-0.0447829,-0.124589
1.99267,-0.143536,-0.0930622
2.04219,-0.247856,-0.107812
1.94187,-0.0447455,-0.079135
1.98233,-0.14279,-0.0462471
1.93503,-0.0510086,-0.0337879
1.97839,-0.149103,0
2.00217,-0.150895,-0.312374
2.03961,-0.254408,-0.261628
1.94729,-0.0513317,0.0113216
1.99081,-0.150039,-0.215051
1.98551,-0.14964,-0.139234
2.04529,-0.255117,-0.168262
1.9425,-0.0512055,0.056552
1.94334,-0.0512275,-0.124589
1.99617,-0.150443,-0.0932484
2.03343,-0.253638,-0.107393
1.94971,-0.0513954,-0.0794606
1.98583,-0.149664,-0.0463402
1.94283,-0.0583406,-0.0339275
2.00554,-0.158544,-0.312989
1.95109,-0.0585886,0.0113449
1.99421,-0.157648,-0.215479
1.9929,-0.157545,-0.139792
2.0483,-0.26312,-0.168587
1.9463,-0.0584448,0.0566684
1.94713,-0.0584696,-0.124845
1.9956,-0.157758,-0.0932484
2.04041,-0.262107,-0.107812
1.94551,-0.058421,-0.0792978
1.98925,-0.157256,-0.0464332
1.94661,-0.0652559,-0.0339973
2.00104,-0.165218,-0.312374
1.95487,-0.0655328,0.0113681
2.00157,-0.165263,-0.216336
2.00427,-0.165485,-0.140629
2.04737,-0.270268,-0.168587
1.94608,-0.0652383,0.0566684
1.95489,-0.0655335,-0.125357
2.003,-0.165381,-0.0936206
2.04344,-0.26975,-0.108021
1.94529,-0.0652118,-0.0792978
1.99666,-0.164857,-0.0466193
1.94638,-0.0717108,-0.0339973
1.99266,-0.171182,0
2.00835,-0.17253,-0.313604
1.95464,-0.072015,0.0113681
2.00497,-0.172239,-0.216764
1.99973,-0.171789,-0.14035
2.05041,-0.277591,-0.168913
1.95385,-0.0719858,0.0569011
1.94668,-0.0717218,-0.124845
2.04254,-0.276525,-0.108021
1.94507,-0.0716622,-0.0792978
1.98814,-0.170793,-0.0464332
1.95012,-0.0786657,-0.0340671
2.004,-0.179205,0
2.01168,-0.179891,-0.314219
1.96237,-0.07916,0.0114146
1.99644,-0.178529,-0.215908
2.01105,-0.179835,-0.141187
2.05338,-0.285295,-0.169238
1.95758,-0.0789667,0.0570174
1.9544,-0.0788384,-0.125357
2.04552,-0.284203,-0.108231
1.95279,-0.0787735,-0.0796234
1.9955,-0.178444,-0.0466193
1.95384,-0.0853065,-0.0341369
1.99942,-0.18548,0
2.01107,-0.186561,-0.314219
1.9581,-0.0854925,0.0113914
2.00772,-0.18625,-0.217193
2.00646,-0.186134,-0.140908
2.05242,-0.292103,-0.169238
1.9613,-0.0856322,0.0571338
1.95811,-0.0854931,-0.125613
2.00521,-0.186017,-0.0938067
1.9605,-0.0855975,-0.0799491
1.99489,-0.185061,-0.0466193
1.96152,-0.092503,-0.0342765
2.00274,-0.192842,0
2.01041,-0.19358,-0.314219
1.96978,-0.0928924,0.0114611
2.01893,-0.194401,-0.218478
2.01375,-0.193902,-0.141466
2.05928,-0.300416,-0.169889
1.96099,-0.0924779,0.0571338
1.96578,-0.0927037,-0.126124
2.01648,-0.194165,-0.0943651
1.9562,-0.0922521,-0.0797863
2.0022,-0.192789,-0.0468054
1.96119,-0.0993494,-0.0342765
2.01758,-0.201382,-0.315449
1.96545,-0.0995652,0.0114378
2.01428,-0.201052,-0.21805
2.021,-0.201722,-0.142024
2.06216,-0.308192,-0.170214
1.96065,-0.0993225,0.0571338
1.96146,-0.0993631,-0.125868
1.96385,-0.0994844,-0.0801119
2.00947,-0.200572,-0.0469915
1.96906,-0.106985,0.0114611
2.01353,-0.208433,-0.21805
2.02025,-0.209128,-0.142024
2.06496,-0.316352,-0.17054
1.96028,-0.106508,0.0571338
1.96905,-0.106985,-0.12638
1.96746,-0.106898,-0.0802748
2.0127,-0.208347,-0.0470846
1.96444,-0.113269,-0.0343463
1.97269,-0.113745,0.0114843
2.02074,-0.215955,-0.218906
2.0639,-0.323198,-0.17054
1.96391,-0.113238,0.0572502
1.97267,-0.113743,-0.126636
1.97109,-0.113652,-0.0804376
2.012,-0.21502,-0.0470846
1.96802,-0.120369,-0.0344161
1.97627,-0.120874,0.0115076
2.02788,-0.22388,-0.219763
2.0785,-0.332922,-0.171842
1.96749,-0.120337,0.0573665
1.97226,-0.120629,-0.126636
2.02151,-0.223177,-0.0947374
1.97866,-0.12102,-0.0807633
2.01918,-0.22292,-0.0472707
1.97156,-0.127841,-0.034486
1.9838,-0.128634,0.0115541
2.03099,-0.231762,-0.220192
1.97501,-0.128065,0.0575993
1.97977,-0.128373,-0.127148
2.02862,-0.231491,-0.0951096
1.98219,-0.12853,-0.0809261
2.03027,-0.231679,-0.0475499
1.97937,-0.13494,0.0115308
2.03416,-0.238959,-0.22062
2.03302,-0.238825,-0.14314
2.03578,-0.239149,-0.0954819
1.98175,-0.135102,-0.0809261
1.98261,-0.142115,-0.0346954
1.98687,-0.142421,0.0115773
2.03332,-0.246059,-0.22062
1.97885,-0.141846,-0.127148
1.98526,-0.142305,-0.0810889
1.98609,-0.149335,-0.0347652
1.98636,-0.149355,0.0115773
2.03245,-0.253155,-0.22062
2.04318,-0.254492,-0.143977
1.99427,-0.14995,-0.128171
2.03802,-0.253849,-0.095668
1.98475,-0.149234,-0.0810889
1.99353,-0.156894,-0.0349048
1.98981,-0.156602,0.0116006
2.03944,-0.261258,-0.221477
2.04624,-0.26213,-0.144256
1.99373,-0.15691,-0.128171
2.04109,-0.26147,-0.0958541
1.99617,-0.157102,-0.0815774
1.98899,-0.163524,-0.034835
1.99324,-0.163874,0.0116238
2.03852,-0.268376,-0.221477
2.04927,-0.269791,-0.144535
1.99715,-0.164196,-0.128427
2.04413,-0.269114,-0.0960402
1.99162,-0.163741,-0.0814146
2.12802,-0.394406,-1.00921
1.9884,-0.170466,-0.034835
1.99266,-0.170831,0.0116238
2.04939,-0.277088,-0.222762
2.04832,-0.276943,-0.144535
1.99657,-0.171166,-0.128427
2.05505,-0.277854,-0.0965986
1.99502,-0.171034,-0.0815774
2.12663,-0.401831,-1.00921
2.00373,-0.178828,-0.0351142
2.05629,-0.285334,-0.223619
2.05919,-0.285737,-0.145372
1.99993,-0.178489,-0.128683
2.00237,-0.178707,-0.0819031
2.12878,-0.409938,-1.0109
2.00309,-0.185821,-0.0351142
2.06213,-0.293485,-0.145652
2.00327,-0.185838,-0.128938
2.0097,-0.186434,-0.0822287
2.12029,-0.4156,-1.00752
2.00247,-0.192463,-0.0351142
2.0572,-0.299746,-0.145372
2.00662,-0.192862,-0.129194
2.01702,-0.193862,-0.0825544
2.12238,-0.423709,-1.00921
2.00974,-0.200245,-0.0352539
2.06798,-0.308693,-0.14621
2.01388,-0.200657,-0.129706
2.0044,-0.199713,-0.0820659
2.01304,-0.207318,-0.0353237
2.06695,-0.315549,-0.14621
2.00923,-0.206925,-0.12945
2.01168,-0.207177,-0.0823915
2.01227,-0.214695,-0.0353237
2.06578,-0.323123,-0.14621
2.01243,-0.214711,-0.129706
2.02681,-0.216245,-0.0830429
2.01964,-0.222257,-0.130218
2.02608,-0.222965,-0.0830429
2.02674,-0.23056,-0.130729
2.03386,-0.238563,-0.131241
2.03237,-0.238389,-0.0833685
2.02905,-0.245182,-0.130985
2.03549,-0.245961,-0.0835313
2.03214,-0.252756,-0.131241
2.04255,-0.254052,-0.083857
2.03525,-0.26,-0.131497
2.04566,-0.26133,-0.0840198
2.04616,-0.269018,-0.132264
2.05312,-0.277228,-0.132776
2.05214,-0.284393,-0.132776
2.05123,-0.290838,-0.132776
2.06195,-0.300439,-0.133543
2.06484,-0.308224,-0.133799
