2.18826,-0.261709,-0.0256569
2.1913,-0.269834,-0.0257035
2.1913,-0.269834,0.0257035
2.18633,-0.27736,-0.0256569
2.1903,-0.277864,0.0257035
2.18931,-0.285508,-0.0257035
2.18931,-0.285508,0.0257035
2.19227,-0.293679,-0.0257501
2.1883,-0.293148,0.0257035
2.19128,-0.300947,-0.0257501
2.19524,-0.301492,0.0257966
2.18626,-0.308037,-0.0257035
2.19814,-0.309711,0.0258432
2.19699,-0.317765,-0.0258432
2.18807,-0.323496,-0.0257501
2.19994,-0.325251,0.0258898
2.19873,-0.333312,-0.0258898
2.18464,-0.222679,-0.012763
2.19873,-0.333312,0.0258898
2.18965,-0.339758,-0.0257966
2.19755,-0.340985,0.0258898
2.20036,-0.348896,0.0259363
2.19123,-0.355295,-0.0258432
2.19018,-0.246056,-0.0128095
2.18767,-0.354718,-0.129069
2.19781,-0.364633,-0.0259363
2.18927,-0.254081,-0.0128095
2.19781,-0.364633,0.0259363
2.1903,-0.363387,-0.129301
2.18475,-0.369916,-0.0257966
2.19239,-0.261814,-0.0128327
2.20053,-0.372587,0.0259829
2.19696,-0.371982,-0.129766
2.18739,-0.378221,-0.0258432
2.18749,-0.268977,-0.0128095
2.19922,-0.380266,0.0259829
2.19564,-0.379648,-0.129766
2.18993,-0.386932,-0.0258898
2.19046,-0.277496,-0.0128327
2.19387,-0.387628,0.0259363
2.19016,-0.277458,0.0385349
2.18863,-0.394192,-0.0258898
2.18952,-0.284758,-0.0128327
2.20044,-0.396319,0.0260295
2.19687,-0.395675,-0.129999
2.19118,-0.402552,-0.0259363
2.19905,-0.403997,0.0260295
2.19548,-0.403341,-0.129999
2.18976,-0.410198,-0.0259363
2.19541,-0.301124,-0.0128792
2.20155,-0.412407,0.026076
2.19798,-0.411738,-0.130231
2.19232,-0.418207,-0.0259829
2.19836,-0.308959,-0.0129024
2.20017,-0.419706,0.026076
2.19268,-0.418276,-0.129999
2.19657,-0.308708,0.0903702
2.19077,-0.426239,-0.0259829
2.19721,-0.317014,-0.0129024
2.19862,-0.427767,0.026076
2.20087,-0.317543,0.0388142
2.19897,-0.427835,-0.130464
2.19319,-0.434661,-0.0260295
2.19213,-0.324097,-0.0128792
2.20496,-0.436994,0.0261692
2.19746,-0.435508,-0.130464
2.1967,-0.223132,0
2.19174,-0.441932,-0.0260295
2.195,-0.331963,-0.0129024
2.19209,-0.442003,-0.130231
2.1941,-0.450384,-0.026076
2.19778,-0.340235,-0.0129257
2.19802,-0.451188,0.0261226
2.19445,-0.450456,-0.130464
2.18691,-0.338552,-0.115976
2.18709,-0.23798,0
2.19243,-0.458423,-0.026076
2.19652,-0.348288,-0.0129257
2.19635,-0.459241,0.0261226
2.19355,-0.347816,-0.116395
2.18227,-0.245167,0
2.19082,-0.466073,-0.026076
2.19924,-0.356593,-0.0129489
2.20256,-0.46857,0.0262157
2.19894,-0.356545,0.038884
2.20289,-0.46864,-0.131162
2.19232,-0.355471,-0.116395
2.18137,-0.361124,-0.0643483
2.18145,-0.252402,0
2.19317,-0.474181,-0.0261226
2.19805,-0.363884,-0.0129489
2.2049,-0.476716,0.0262623
2.20169,-0.364488,0.0389538
2.19742,-0.475098,-0.130929
2.19901,-0.364044,-0.116814
2.1915,-0.481833,-0.0261226
2.19676,-0.371555,-0.0129489
2.20322,-0.48441,0.0262623
2.19965,-0.483623,-0.131162
2.19773,-0.371718,-0.116814
2.20152,-0.492098,-0.0262623
2.19939,-0.379901,-0.0129722
2.19095,-0.269015,0.051365
2.20152,-0.492098,0.0262623
2.20304,-0.380531,0.0390236
2.20155,-0.380273,0.0910215
2.18854,-0.378027,-0.116395
2.18809,-0.497121,-0.0261226
2.20369,-0.500666,0.0263088
2.19508,-0.387052,-0.116814
2.19396,-0.277162,-0.0514581
2.18168,-0.28335,0
2.19024,-0.505656,-0.0261692
2.20582,-0.509255,0.0263554
2.20033,-0.395901,0.0390236
2.20224,-0.508428,-0.131627
2.20277,-0.396341,0.0911843
2.19765,-0.395419,-0.117023
2.18464,-0.291493,0
2.19625,-0.515125,-0.0262623
2.19923,-0.403634,-0.0129954
2.20403,-0.516951,0.0263554
2.18805,-0.401583,-0.181606
2.20286,-0.404301,0.0390934
2.20045,-0.516112,-0.131627
2.19625,-0.403088,-0.117023
2.19594,-0.293001,-0.0515511
2.18768,-0.298896,0
2.20629,-0.524799,-0.026402
2.20188,-0.411276,-0.0130187
2.19501,-0.299898,0.0515511
2.2024,-0.523873,0.0263554
2.20271,-0.523946,-0.131859
2.20009,-0.410942,0.0911843
2.1989,-0.410719,-0.117233
2.19561,-0.418041,-0.0650464
2.20056,-0.531558,-0.0263554
2.20043,-0.418959,-0.0130187
2.19791,-0.308113,0.0516442
2.19667,-0.530618,0.0263088
2.20013,-0.418902,0.0390934
2.20475,-0.53257,-0.132092
2.20257,-0.419366,0.0913472
2.19745,-0.418392,-0.117233
2.20492,-0.419814,0.183233
2.18158,-0.313593,0
2.1948,-0.538283,-0.0263088
2.20257,-0.540188,0.026402
2.19953,-0.426749,-0.182907
2.20287,-0.540262,-0.132092
2.1999,-0.426821,-0.117442
2.1917,-0.42523,0.182256
2.18857,-0.433348,-0.0649301
2.18827,-0.323136,0
2.20436,-0.549609,-0.0264485
2.20048,-0.548642,0.026402
2.20179,-0.435966,-0.183233
2.20485,-0.436572,0.039233
2.20466,-0.549683,-0.132324
2.20336,-0.436277,0.09151
2.19433,-0.434489,-0.117233
2.19397,-0.434417,0.182582
2.19111,-0.44101,-0.0650464
2.18329,-0.329412,0
2.19875,-0.555552,-0.026402
2.20377,-0.443557,-0.0130652
2.2065,-0.557512,0.0264951
2.19905,-0.555628,-0.132092
2.2059,-0.443985,0.0916728
2.18883,-0.330247,-0.103113
2.19687,-0.442168,-0.117442
2.20431,-0.443667,0.183558
2.19456,-0.331113,-0.0516442
2.18608,-0.337642,0
2.20067,-0.564217,-0.0264485
2.20221,-0.451247,-0.0130652
2.2013,-0.339992,0.0518303
2.20454,-0.56521,0.0264951
2.20483,-0.565284,-0.132557
2.17976,-0.336666,-0.102741
2.19922,-0.450636,-0.117651
2.20666,-0.452159,0.183884
2.18798,-0.456296,-0.0650464
2.20256,-0.572902,-0.0264951
2.20453,-0.459748,-0.0130884
2.20643,-0.573909,0.0265417
2.20285,-0.572977,-0.132557
2.20666,-0.46019,0.0918356
2.18647,-0.34552,-0.103113
2.19764,-0.45831,-0.117651
2.20507,-0.459859,0.183884
2.18637,-0.463931,-0.0650464
2.18367,-0.352895,0
2.20441,-0.581607,-0.0265417
2.19031,-0.244909,0.0128095
2.19887,-0.355351,0.0518303
2.20441,-0.581607,0.0265417
2.19955,-0.466726,-0.183558
2.20653,-0.468207,0.0393726
2.20469,-0.581682,-0.13279
2.20504,-0.46789,0.0918356
2.18919,-0.353788,-0.103299
2.19993,-0.466808,-0.117861
2.19565,-0.465898,0.183233
2.19256,-0.473247,-0.0652792
2.18637,-0.361167,0
2.20237,-0.589299,-0.0265417
2.18547,-0.252095,0.0127862
2.20156,-0.363676,0.0519233
2.20237,-0.589299,0.0265417
2.20097,-0.475063,0.0393028
2.19843,-0.36316,0.129766
2.2073,-0.476428,0.0919985
2.19189,-0.362078,-0.103485
2.19439,-0.473641,-0.117651
2.19791,-0.474401,0.183558
2.19081,-0.48128,-0.0652792
2.19292,-0.370511,0
2.20405,-0.598415,-0.0265882
2.18453,-0.260103,0.0127862
2.19561,-0.482334,-0.0130652
2.20405,-0.598415,0.0265882
2.20005,-0.483309,-0.183884
2.20703,-0.484843,0.0394424
2.20818,-0.599536,-0.133255
2.19709,-0.371215,0.129766
2.20553,-0.484515,0.0919985
2.19054,-0.37011,-0.103485
2.20044,-0.483395,-0.11807
2.19226,-0.481598,0.183233
2.19627,-0.371077,-0.0518303
2.17939,-0.266824,-0.0383255
2.19168,-0.377781,0
2.20206,-0.605721,-0.0265882
2.19971,-0.490887,-0.286881
2.17969,-0.26686,0.012763
2.20571,-0.492225,-0.0131349
2.19897,-0.379037,0.0519233
2.20591,-0.606781,0.0266348
2.20232,-0.49147,-0.184209
2.20541,-0.492159,0.0394424
2.20233,-0.605796,-0.133022
2.19978,-0.379177,0.129999
2.20001,-0.490955,0.0918356
2.18931,-0.377372,-0.103485
2.20232,-0.49147,0.184209
2.18242,-0.274929,-0.0383953
2.18748,-0.496181,-0.0652792
2.18641,-0.384736,0
2.20378,-0.614478,-0.0266348
2.19065,-0.275966,0.0128327
2.20397,-0.499922,-0.0131349
2.20157,-0.387404,0.0520164
2.20378,-0.614478,0.0266348
2.18501,-0.38449,-0.155138
2.20758,-0.500739,0.0395123
2.2079,-0.615625,-0.133487
2.19844,-0.386853,0.129999
2.19191,-0.385704,-0.103671
2.1971,-0.498362,-0.11807
2.20059,-0.499155,0.184209
2.19763,-0.386711,-0.0519233
2.18541,-0.283059,-0.0384651
2.18963,-0.504712,-0.0653955
2.19293,-0.393779,0
2.20162,-0.622167,-0.0266348
2.19364,-0.284125,0.012856
2.20222,-0.507612,-0.0131349
2.20162,-0.622167,0.0266348
2.19544,-0.394231,-0.155975
2.20272,-0.507729,-0.184535
2.20573,-0.623328,-0.133487
2.20101,-0.395231,0.130231
2.20822,-0.508995,0.0923241
2.18662,-0.392647,-0.103485
2.19884,-0.506833,0.184209
2.2002,-0.395086,-0.0520164
2.18837,-0.291214,-0.0385349
2.19154,-0.401432,0
2.20713,-0.63205,-0.0267279
2.19445,-0.513895,-0.286881
2.18867,-0.291253,0.0128327
2.20433,-0.516208,-0.0131582
2.20328,-0.630949,0.0266814
2.20482,-0.516323,-0.18486
2.18778,-0.291135,0.0642319
2.20792,-0.51705,0.0395821
2.19961,-0.402911,0.130231
2.20643,-0.5167,0.0923241
2.19309,-0.401717,-0.103857
2.20523,-0.51642,-0.118698
2.20094,-0.515414,0.184535
2.17942,-0.297768,-0.0383953
2.19384,-0.521836,-0.0656282
2.19012,-0.409079,0
2.20491,-0.639751,-0.0267279
2.19264,-0.521552,-0.286881
2.18368,-0.29835,0.0128095
2.19862,-0.522974,-0.0131349
2.20875,-0.640865,0.0267745
2.19263,-0.409548,-0.155975
2.19863,-0.300394,0.064581
2.2061,-0.524754,0.0395821
2.20516,-0.639824,-0.13372
2.19819,-0.410587,0.130231
2.2085,-0.525324,0.0924869
2.19168,-0.40937,-0.103857
2.19912,-0.523094,0.184535
2.20132,-0.411171,-0.0521094
2.18238,-0.305548,-0.0384651
2.19268,-0.417087,0
2.20661,-0.648186,-0.0267745
2.19476,-0.529751,-0.287386
2.1906,-0.306699,0.012856
2.20465,-0.532139,-0.0131814
2.20867,-0.648791,-0.214887
2.20388,-0.419216,0.0522025
2.20277,-0.647059,0.0267279
2.1991,-0.418308,-0.156534
2.20513,-0.532255,-0.185186
2.18971,-0.306574,0.0643483
2.20824,-0.533005,0.0396519
2.20686,-0.648259,-0.133952
2.1929,-0.417128,0.129999
2.20286,-0.531707,0.0923241
2.19031,-0.416635,-0.103857
2.19738,-0.530384,0.184535
2.18882,-0.30645,-0.0900445
2.1852,-0.314114,-0.0385349
2.20422,-0.656269,-0.0267745
2.19665,-0.538737,-0.287892
2.19342,-0.315295,0.0128792
2.20657,-0.541169,-0.0132047
2.20039,-0.655128,0.0267279
2.18972,-0.424845,-0.155975
2.20316,-0.540333,-0.185186
2.19253,-0.315167,0.0644646
2.20627,-0.541095,0.0396519
2.2083,-0.657483,-0.134185
2.19919,-0.426684,0.130464
2.20866,-0.541681,0.0926498
2.18877,-0.42466,-0.103857
2.20358,-0.540436,-0.118907
2.19929,-0.539384,0.18486
2.18768,-0.31447,-0.0900445
2.18409,-0.32174,-0.0385349
2.18825,-0.544781,-0.0656282
2.19426,-0.66165,-0.0266814
2.19861,-0.54736,-0.288397
2.19626,-0.323532,0.0129024
2.20467,-0.548868,-0.0132047
2.20192,-0.66396,0.0267745
2.19214,-0.43326,-0.156255
2.20513,-0.548983,-0.185511
2.19141,-0.322818,0.0644646
2.19377,-0.433583,0.130231
2.20675,-0.549388,0.0926498
2.19903,-0.434622,-0.104416
2.20556,-0.54909,-0.119117
2.19739,-0.547057,0.18486
2.19052,-0.322687,-0.0902073
2.18697,-0.329577,-0.0386047
2.19419,-0.553992,-0.065861
2.1882,-0.440026,0
2.20735,-0.673592,-0.0268676
2.19293,-0.553676,-0.287892
2.18727,-0.329621,0.012856
2.20671,-0.557155,-0.0132279
2.20353,-0.672425,0.0268211
2.18678,-0.43974,-0.155975
2.19428,-0.330679,0.064581
2.20641,-0.557079,0.0397217
2.20015,-0.44243,0.130697
2.2088,-0.557681,0.0928126
2.2076,-0.557379,-0.119326
2.19943,-0.555317,0.185186
2.18944,-0.329949,-0.0902073
2.18581,-0.337209,-0.0386047
2.19611,-0.56264,-0.0659773
2.19448,-0.449266,0
2.20499,-0.681293,-0.0268676
2.19868,-0.563297,-0.288902
2.19401,-0.338474,0.0129024
2.197,-0.562869,-0.0131814
2.20117,-0.680113,0.0268211
2.19305,-0.448972,-0.156534
2.19312,-0.338336,0.064581
2.20833,-0.56577,0.0397915
2.20522,-0.681366,-0.134417
2.1986,-0.450107,0.130697
2.20296,-0.564396,0.0926498
2.19994,-0.450382,-0.104602
2.19362,-0.562002,0.18486
2.19618,-0.338809,-0.090533
2.20173,-0.450748,-0.0522955
2.18461,-0.344837,-0.0386047
2.18899,-0.456107,0
2.21405,-0.692568,-0.0270073
2.20054,-0.571967,-0.289407
2.19676,-0.346754,0.0129257
2.20664,-0.573553,-0.0132512
2.20014,-0.458431,0.0522955
2.2026,-0.688986,0.0268676
2.19928,-0.458252,-0.157092
2.19192,-0.34599,0.064581
2.21046,-0.691444,-0.134883
2.1931,-0.456965,0.130464
2.20485,-0.573087,0.0928126
2.19053,-0.456428,-0.10423
2.1955,-0.570658,0.185186
2.18314,-0.344603,-0.0900445
2.20014,-0.458431,-0.0522955
2.1834,-0.35246,-0.0386047
2.19213,-0.577958,-0.0659773
2.20399,-0.697878,-0.0269142
2.19469,-0.578633,-0.288902
2.19949,-0.355058,0.0129489
2.20076,-0.580233,-0.0132279
2.20244,-0.466937,0.0523886
2.20018,-0.696671,0.0268676
2.19376,-0.465098,-0.156813
2.1986,-0.354913,0.0648137
2.21184,-0.700361,-0.135115
2.19931,-0.466274,0.130929
2.2067,-0.581799,0.0929754
2.19735,-0.579335,0.185511
2.18587,-0.352859,-0.0902073
2.20244,-0.466937,-0.0523886
2.1861,-0.360731,-0.0386745
2.1901,-0.585607,-0.0659773
2.18966,-0.472221,0
2.20916,-0.708008,-0.0270073
2.19649,-0.587315,-0.289407
2.19429,-0.362082,0.0129257
2.20645,-0.589978,-0.0132744
2.18873,-0.47202,-0.241183
2.2047,-0.475465,0.0524816
2.20916,-0.708008,0.0270073
2.19603,-0.473594,-0.157092
2.1934,-0.361935,0.0646974
2.1859,-0.360697,-0.141986
2.20938,-0.708077,-0.135115
2.20547,-0.475631,0.131394
2.20852,-0.590531,0.0931383
2.19901,-0.474237,-0.104788
2.20732,-0.590211,-0.119745
2.19532,-0.587002,0.185511
2.18462,-0.360487,-0.0902073
2.2047,-0.475465,-0.0524816
2.18483,-0.368359,-0.0386745
2.19576,-0.59534,-0.0662101
2.1919,-0.480718,0
2.20668,-0.715716,-0.0270073
2.19443,-0.594979,-0.289407
2.18907,-0.369074,0.0129024
2.20051,-0.596629,-0.0132512
2.19872,-0.482213,-0.242468
2.20303,-0.483158,0.0524816
2.20287,-0.714482,0.0269608
2.19436,-0.481257,-0.157092
2.19212,-0.369589,0.0646974
2.18462,-0.368325,-0.141986
2.2077,-0.484183,0.131627
2.20124,-0.482766,-0.104974
2.20525,-0.597912,-0.119745
2.1971,-0.595704,0.185836
2.19517,-0.370103,-0.0906958
2.18353,-0.375984,-0.0386745
2.19367,-0.603001,-0.0662101
2.19021,-0.488367,0
2.20797,-0.724661,-0.0270539
2.19616,-0.603687,-0.289912
2.19565,-0.378071,0.0129489
2.20613,-0.606427,-0.0132977
2.19702,-0.489886,-0.242468
2.20797,-0.724661,0.0270539
2.19656,-0.489782,-0.157371
2.19082,-0.377239,0.0646974
2.20969,-0.607405,0.0400009
2.18332,-0.375948,-0.141986
2.21197,-0.725975,-0.13558
2.1982,-0.490148,0.131162
2.20434,-0.605935,0.0931383
2.19954,-0.490446,-0.104974
2.19885,-0.604427,0.186162
2.18599,-0.376407,-0.0903702
2.20133,-0.490845,-0.0524816
2.1954,-0.611728,-0.0663264
2.1963,-0.497777,0
2.20169,-0.613479,-0.290922
2.19826,-0.386425,0.0129722
2.204,-0.614124,-0.0132977
2.19918,-0.498431,-0.242896
2.21114,-0.734264,-0.217489
2.2035,-0.49941,0.0525747
2.20542,-0.732364,0.0270539
2.19873,-0.498329,-0.15765
2.20825,-0.615309,-0.187138
2.19343,-0.385576,0.0648137
2.21141,-0.616188,0.0400707
2.182,-0.383567,-0.141986
2.20942,-0.733692,-0.13558
2.19648,-0.497818,0.131162
2.20991,-0.615771,0.0934639
2.20561,-0.499888,-0.105346
2.19673,-0.612098,0.186162
2.18466,-0.384036,-0.0903702
2.2035,-0.49941,-0.0525747
2.18479,-0.391924,-0.0387443
2.19325,-0.619388,-0.0663264
2.19065,-0.504543,0
2.21044,-0.742605,-0.027147
2.19571,-0.620083,-0.290417
2.19689,-0.394096,0.0129722
2.2013,-0.506997,-0.243325
2.21234,-0.743246,-0.217861
2.20564,-0.507996,0.0526678
2.20285,-0.740058,0.0270539
2.19698,-0.506001,-0.15765
2.19994,-0.394642,0.0650464
2.20924,-0.623904,0.0400707
2.1885,-0.392591,-0.142497
2.20685,-0.741399,-0.13558
2.19862,-0.506378,0.131394
2.20775,-0.623481,0.0934639
2.19996,-0.506687,-0.10516
2.20271,-0.622058,-0.119954
2.19753,-0.506129,0.276887
2.18724,-0.392365,-0.090533
2.20175,-0.507099,-0.0525747
2.18734,-0.400268,-0.0388142
2.19492,-0.62814,-0.0664428
2.19666,-0.514009,0
2.20783,-0.750317,-0.027147
2.20116,-0.629927,-0.291427
2.20735,-0.631697,-0.0133442
2.19952,-0.514678,-0.243325
2.20973,-0.750964,-0.217861
2.20775,-0.516604,0.0527608
2.20404,-0.74903,0.0271004
2.1952,-0.513667,-0.15765
2.19461,-0.401599,0.0649301
2.19105,-0.400947,-0.142753
2.20461,-0.515869,0.131859
2.20556,-0.631184,0.0934639
2.20207,-0.515274,-0.105346
2.19962,-0.514701,0.277375
2.19656,-0.636912,-0.0665591
2.20264,-0.523524,0
2.21654,-0.76192,-0.0272867
2.19514,-0.636501,-0.290922
2.19802,-0.410157,0.0129954
2.20129,-0.638284,-0.0133209
2.19771,-0.522352,-0.243325
2.20898,-0.759319,0.0271936
2.19727,-0.522249,-0.157929
2.20935,-0.64062,-0.187789
2.1932,-0.409257,0.0649301
2.20867,-0.640426,0.0401405
2.18179,-0.407128,-0.142242
2.21295,-0.760682,-0.136278
2.2028,-0.523562,0.131859
2.21102,-0.641105,0.0937896
2.20025,-0.522957,-0.105346
2.20167,-0.523294,0.277862
2.18838,-0.408358,-0.0906958
2.20583,-0.647956,-0.0669082
2.19691,-0.530271,0
2.21009,-0.768339,-0.0272401
2.19671,-0.645278,-0.291427
2.19265,-0.41708,0.0129722
2.21056,-0.649346,-0.0133907
2.2036,-0.531887,-0.244181
2.21009,-0.768339,0.0272401
2.19932,-0.530852,-0.158208
2.19568,-0.417658,0.0650464
2.20643,-0.648131,0.0401405
2.18819,-0.416233,-0.142753
2.20273,-0.76578,-0.135813
2.19708,-0.530311,0.131627
2.2011,-0.646566,0.0934639
2.2023,-0.531572,-0.105533
2.20369,-0.531908,0.27835
2.19945,-0.646081,0.187138
2.18694,-0.415994,-0.0906958
2.20409,-0.532004,-0.0527608
2.19095,-0.424291,-0.0389538
2.19217,-0.651848,-0.0665591
2.19902,-0.538505,0
2.20753,-0.775663,-0.0272401
2.19836,-0.65369,-0.291932
2.19911,-0.42587,0.0130187
2.2084,-0.656673,-0.0133907
2.1941,-0.537299,-0.243325
2.21316,-0.777639,-0.218976
2.2062,-0.540261,0.0528539
2.21131,-0.776989,0.0272867
2.19754,-0.538142,-0.158208
2.19821,-0.425697,0.0651628
2.1868,-0.423487,-0.142753
2.21525,-0.778375,-0.136743
2.20306,-0.539493,0.132092
2.20277,-0.655001,0.0936268
2.19664,-0.537921,-0.105346
2.18947,-0.424004,-0.0908587
2.2062,-0.540261,-0.0528539
2.18554,-0.431163,-0.038884
2.20137,-0.662955,-0.0669082
2.19325,-0.545212,0
2.20481,-0.783364,-0.0272401
2.19987,-0.662504,-0.292437
2.20153,-0.434318,0.0130419
2.20992,-0.665532,-0.0134139
2.19993,-0.546874,-0.244181
2.21043,-0.78536,-0.218976
2.20818,-0.548924,0.0529469
2.20104,-0.782025,0.0271936
2.19565,-0.54581,-0.158208
2.19671,-0.433367,0.0651628
2.21345,-0.666595,0.04035
2.18531,-0.431118,-0.142753
2.20117,-0.54718,0.132092
2.20813,-0.664991,0.0939524
2.20251,-0.547514,-0.105719
2.21075,-0.665782,-0.121001
2.19617,-0.545937,0.277862
2.18406,-0.430871,-0.0906958
2.20818,-0.548924,-0.0529469
2.18794,-0.439577,-0.0389538
2.19909,-0.554822,0
2.21336,-0.795113,-0.0273798
2.20893,-0.673652,-0.293952
2.19608,-0.441212,0.0130187
2.20376,-0.672075,-0.0133907
2.19415,-0.553577,-0.243753
2.21142,-0.794417,-0.219348
2.21013,-0.557607,0.05304
2.20959,-0.79376,0.0273333
2.20534,-0.556399,-0.159045
2.19127,-0.440245,0.0650464
2.18771,-0.43953,-0.143009
2.20976,-0.793821,-0.136743
2.19924,-0.55486,0.132092
2.20579,-0.672695,0.0939524
2.20842,-0.673495,-0.121001
2.1981,-0.554571,0.27835
2.18646,-0.439279,-0.0908587
2.20625,-0.556628,-0.0529469
2.19031,-0.448013,-0.0390236
2.20433,-0.680667,-0.067141
2.20101,-0.563487,0
2.21057,-0.802834,-0.0273798
2.19519,-0.677846,-0.292437
2.19453,-0.448875,0.0130187
2.21287,-0.683304,-0.0134604
2.19991,-0.563205,-0.24461
2.20489,-0.800772,-0.218976
2.21057,-0.802834,0.0273798
2.19565,-0.562114,-0.158487
2.18972,-0.447891,0.0650464
2.21257,-0.683211,0.0404198
2.18616,-0.447164,-0.143009
2.21449,-0.804256,-0.137208
2.19729,-0.562534,0.132092
2.20343,-0.68039,0.0939524
2.2025,-0.563868,-0.105905
2.19999,-0.563226,0.278837
2.18491,-0.446909,-0.0908587
2.20817,-0.565318,-0.05304
2.18873,-0.455656,-0.0390236
2.20194,-0.688357,-0.067141
2.20678,-0.573178,0
2.21526,-0.813302,-0.027473
2.19585,-0.570339,-0.352958
2.1966,-0.686688,-0.292942
2.19686,-0.457348,0.0130419
2.21428,-0.692217,-0.0134836
2.19409,-0.569881,-0.244181
2.20956,-0.811209,-0.21972
2.20775,-0.810545,0.0273798
2.2014,-0.571782,-0.159045
2.19205,-0.456347,0.0651628
2.18849,-0.455606,-0.143265
2.21166,-0.811981,-0.137208
2.19918,-0.571204,0.132324
2.20867,-0.690463,0.0942781
2.20439,-0.572557,-0.106091
2.20954,-0.573896,0.2803
2.19116,-0.456162,-0.0911843
2.20231,-0.572017,-0.0529469
2.18713,-0.463293,-0.0390236
2.19952,-0.696039,-0.067141
2.20476,-0.580877,0
2.21241,-0.82103,-0.027473
2.20175,-0.696746,-0.293952
2.19916,-0.465842,0.0130652
2.21185,-0.699942,-0.0134836
2.20362,-0.580576,-0.245466
2.20672,-0.818917,-0.21972
2.20803,-0.581739,0.053133
2.20866,-0.819638,0.0274264
2.19827,-0.465653,0.0653955
2.19079,-0.464069,-0.143521
2.20882,-0.819697,-0.137208
2.20103,-0.579895,0.132557
2.19863,-0.695757,0.0939524
2.19465,-0.578212,-0.105719
2.20753,-0.581605,0.2803
2.19347,-0.464636,-0.0913472
2.20417,-0.58072,-0.05304
2.19708,-0.703713,-0.067141
2.19499,-0.586505,0
2.21327,-0.830152,-0.0275195
2.19945,-0.587695,-0.354188
2.20687,-0.706848,-0.294963
2.20144,-0.474359,0.0130884
2.20559,-0.706439,-0.0134604
2.19774,-0.587238,-0.245038
2.20757,-0.828013,-0.220092
2.20985,-0.590475,0.0532261
2.20953,-0.828748,0.027473
2.20121,-0.588166,-0.159324
2.20054,-0.474166,0.0655119
2.19306,-0.472555,-0.143777
2.20968,-0.828804,-0.137441
2.20671,-0.589636,0.133022
2.2038,-0.705865,0.0942781
2.20034,-0.587932,-0.106091
2.19781,-0.587257,0.279325
2.19183,-0.47229,-0.0913472
2.20213,-0.58841,-0.05304
2.18775,-0.479407,-0.0390934
2.19461,-0.711378,-0.067141
2.20065,-0.596255,0
2.2141,-0.839291,-0.0275661
2.20061,-0.713324,-0.294457
2.20367,-0.482896,0.0131117
2.21452,-0.717834,-0.0135301
2.19567,-0.594906,-0.245038
2.20839,-0.837126,-0.220463
2.21164,-0.599231,0.0533191
2.21036,-0.837873,0.0275195
2.203,-0.59689,-0.159603
2.19497,-0.480989,0.0653955
2.1953,-0.481061,-0.144032
2.20677,-0.836513,-0.137441
2.20464,-0.597335,0.133022
2.20512,-0.714786,0.0944409
2.20341,-0.597002,0.2803
2.18627,-0.479082,-0.0911843
2.20778,-0.598185,-0.0532261
2.19395,-0.488397,-0.039233
2.19603,-0.719897,-0.0672573
2.19481,-0.602491,0
2.21504,-0.848059,-0.0276127
2.18778,-0.60056,-0.352958
2.19823,-0.720617,-0.294457
2.19816,-0.489332,0.0130884
2.19753,-0.603237,-0.245466
2.20932,-0.845869,-0.220835
2.20757,-0.845198,0.0275195
2.20485,-0.605248,-0.159882
2.19726,-0.489133,0.0655119
2.21563,-0.726321,0.040699
2.1898,-0.487471,-0.143777
2.21518,-0.848109,-0.138138
2.2065,-0.6057,0.133255
2.20274,-0.722095,0.0944409
2.20784,-0.606069,-0.106649
2.20908,-0.606408,0.281274
2.19247,-0.488067,-0.09151
2.20964,-0.606562,-0.0533191
2.20869,-0.732593,-0.0677228
2.20425,-0.613365,0
2.21207,-0.855785,-0.0276127
2.19947,-0.729535,-0.294963
2.20034,-0.497885,0.0131117
2.20579,-0.731631,-0.0135069
2.20307,-0.613036,-0.246323
2.21007,-0.855013,-0.221207
2.21207,-0.855785,0.0276127
2.20657,-0.614011,-0.160161
2.19554,-0.4968,0.0655119
2.21688,-0.73531,0.0407688
2.19197,-0.495993,-0.144032
2.2122,-0.855836,-0.138138
2.19668,-0.611257,0.13279
2.20779,-0.732296,0.0947666
2.20956,-0.614843,-0.106835
2.20695,-0.614115,0.281274
2.2023,-0.730473,0.189416
2.19465,-0.496599,-0.0916728
2.20751,-0.614271,-0.0533191
2.2021,-0.621056,0
2.21652,-0.866414,-0.0277058
2.20443,-0.739733,-0.295973
2.19858,-0.505562,0.0131117
2.21081,-0.741872,-0.0135534
2.20092,-0.620722,-0.246323
2.20707,-0.862722,-0.221207
2.21652,-0.866414,0.0277058
2.20441,-0.621709,-0.160161
2.19769,-0.505357,0.0656282
2.19412,-0.504536,-0.144288
2.2092,-0.863553,-0.138138
2.20606,-0.622173,0.133487
2.20143,-0.738726,0.0946037
2.20356,-0.621468,-0.106649
2.21625,-0.625048,0.282737
2.20351,-0.739424,0.189742
2.20069,-0.506048,-0.0919985
2.2015,-0.620888,-0.0532261
2.18863,-0.511727,-0.039233
2.19582,-0.745807,-0.06749
2.21705,-0.876002,-0.0277523
2.20547,-0.749084,-0.296478
2.20451,-0.515439,0.0131582
2.21186,-0.751256,-0.0135766
2.20245,-0.629878,-0.246752
2.21501,-0.875196,-0.222322
2.21075,-0.632251,0.0535052
2.20961,-0.873062,0.0276592
2.19828,-0.628687,-0.159882
2.19972,-0.514319,0.0657446
2.19614,-0.513483,-0.144544
2.21345,-0.874579,-0.138603
2.20376,-0.630254,0.133487
2.20628,-0.749361,0.0949294
2.20895,-0.631737,-0.107022
2.21013,-0.632075,0.282249
2.19493,-0.5132,-0.0918356
2.2069,-0.631151,-0.0534122
2.19072,-0.520288,-0.0393028
2.20455,-0.757365,-0.0678391
2.1976,-0.636798,0
2.21398,-0.883735,-0.0277523
2.20284,-0.756778,-0.296478
2.20269,-0.523131,0.0131582
2.21301,-0.760272,-0.0135999
2.20024,-0.637563,-0.246752
2.21564,-0.884399,-0.222694
2.21237,-0.641077,0.0535983
2.21026,-0.882253,0.0277058
2.20374,-0.638578,-0.16044
2.19791,-0.521994,0.0657446
2.19434,-0.521146,-0.144544
2.21409,-0.883781,-0.138836
2.20922,-0.640166,0.133952
2.20743,-0.758356,0.0950922
2.20673,-0.639444,-0.107022
2.21172,-0.640891,0.282737
2.19313,-0.520859,-0.0918356
2.20468,-0.638851,-0.0534122
2.19287,-0.528486,-0.0393726
2.2058,-0.765983,-0.0679555
2.19931,-0.645208,0
2.21474,-0.892568,-0.0277989
2.19657,-0.762777,-0.295973
2.19706,-0.529495,0.0131349
2.20193,-0.645975,-0.24718
2.21023,-0.64841,0.0535983
2.21474,-0.892568,0.0277989
2.20927,-0.648129,-0.160998
2.21071,-0.76769,-0.191044
2.19617,-0.52928,0.0657446
2.21017,-0.767502,0.0408386
2.18872,-0.527485,-0.144288
2.21485,-0.892611,-0.139069
2.21092,-0.648613,0.134185
2.21245,-0.768294,0.0954179
2.20843,-0.647883,-0.107208
2.20959,-0.648222,0.282737
2.19527,-0.529065,-0.0919985
2.20255,-0.646159,-0.0534122
2.20311,-0.773678,-0.0679555
2.20088,-0.65402,0
2.21162,-0.900293,-0.0277989
2.20512,-0.774384,-0.297488
2.19908,-0.538112,0.0131582
2.20778,-0.775317,-0.0135999
2.19966,-0.653657,-0.24718
2.21532,-0.901801,0.0278455
2.20699,-0.655837,-0.160998
2.19819,-0.537893,0.065861
2.21503,-0.777863,0.0409782
2.18686,-0.535121,-0.144288
2.20433,-0.897325,-0.138603
2.19716,-0.652914,0.133487
2.20976,-0.776012,0.0954179
2.20616,-0.655588,-0.107208
2.19341,-0.536725,-0.0919985
2.20795,-0.656121,-0.0535983
2.18913,-0.543783,-0.0393726
2.2004,-0.781363,-0.0679555
2.20624,-0.664004,0
2.21586,-0.911049,-0.027892
2.20615,-0.783404,-0.297993
2.19719,-0.545785,0.0131582
2.20883,-0.784358,-0.0136231
2.19356,-0.660185,-0.246752
2.20948,-0.664977,0.0536913
2.21956,-0.91257,0.0279386
2.20851,-0.664687,-0.161277
2.20406,-0.547491,0.0660937
2.21607,-0.786928,0.0410481
2.18885,-0.543714,-0.144544
2.20487,-0.906533,-0.138836
2.19869,-0.66173,0.13372
2.20704,-0.783721,0.0954179
2.20385,-0.663285,-0.107208
2.21261,-0.66592,0.283712
2.19928,-0.546305,-0.0923241
2.20565,-0.663825,-0.0535983
2.1911,-0.552398,-0.0394424
2.20518,-0.791742,-0.0681882
2.20009,-0.670535,0
2.22005,-0.921846,-0.0279852
2.20713,-0.792441,-0.298498
2.19527,-0.553451,0.0131582
2.21361,-0.794767,-0.0136696
2.20265,-0.671317,-0.248037
2.21479,-0.675017,0.0538774
2.20897,-0.917245,0.0278455
2.20236,-0.671228,-0.160998
2.20213,-0.555181,0.0660937
2.21331,-0.794659,0.0410481
2.19081,-0.552327,-0.1448
2.20538,-0.915755,-0.139069
2.21164,-0.674058,0.13465
2.20805,-0.792771,0.0955807
2.20535,-0.672139,-0.107394
2.20647,-0.672482,0.283224
2.20255,-0.790798,0.191044
2.20511,-0.555933,-0.0926498
2.21097,-0.673851,-0.0537844
2.19303,-0.561035,-0.0395123
2.20241,-0.799434,-0.0681882
2.20156,-0.67939,0
2.21313,-0.928043,-0.0279386
2.20808,-0.801495,-0.299003
2.20495,-0.564085,0.0132279
2.21458,-0.803854,-0.0136929
2.20409,-0.680174,-0.248465
2.21313,-0.928043,0.0279386
2.20001,-0.678912,-0.160998
2.21477,-0.803922,-0.192346
2.19243,-0.560883,0.065861
2.21804,-0.805109,0.0411877
2.19661,-0.56195,-0.145312
2.20954,-0.926536,-0.139534
2.20928,-0.681774,0.13465
2.20903,-0.801837,0.0957435
2.21062,-0.682189,-0.107766
2.20411,-0.68018,0.283224
2.19154,-0.560655,-0.0921613
2.21242,-0.682744,-0.0538774
2.19493,-0.569691,-0.0395821
2.20711,-0.809872,-0.0684209
2.20299,-0.688264,0
2.21356,-0.937323,-0.0279852
2.19523,-0.569768,0.0131814
2.2055,-0.689049,-0.248894
2.21725,-0.938882,0.0280317
2.20905,-0.690157,-0.161835
2.21569,-0.813022,-0.192671
2.19433,-0.569537,0.0659773
2.21146,-0.811469,0.0411179
2.19077,-0.568611,-0.145056
2.21365,-0.937358,-0.139999
2.2107,-0.690672,0.134883
2.20997,-0.81092,0.0959064
2.21204,-0.691093,-0.107952
2.20552,-0.689053,0.283712
2.19344,-0.569305,-0.0923241
2.20052,-0.816181,-0.0683046
2.20439,-0.697156,0
2.21396,-0.946616,-0.0280317
2.20096,-0.579464,0.0132279
2.20891,-0.819295,-0.0136929
2.19929,-0.695545,-0.248465
2.21396,-0.946616,0.0280317
2.21043,-0.699067,-0.162114
2.21658,-0.822138,-0.192997
2.20007,-0.579229,0.0662101
2.21612,-0.821965,0.0412575
2.19649,-0.578288,-0.145567
2.20302,-0.941939,-0.139534
2.20446,-0.697181,0.13465
2.21087,-0.820019,0.0960692
2.20581,-0.697606,-0.107766
2.21716,-0.822353,-0.123932
2.20688,-0.697945,0.284199
2.19531,-0.577976,-0.0924869
2.20379,-0.696967,-0.0537844
2.19476,-0.586032,-0.0396519
2.2014,-0.825261,-0.0684209
2.20575,-0.706066,0
2.21431,-0.955924,-0.0280783
2.19892,-0.587143,0.0132279
2.20979,-0.828404,-0.0137161
2.20064,-0.70443,-0.248894
2.21277,-0.708313,0.0540635
2.21798,-0.957509,0.0281249
2.20189,-0.587936,0.0663264
2.19446,-0.585951,-0.145567
2.21438,-0.955954,-0.140464
2.20962,-0.707306,0.135115
2.20425,-0.826329,0.0959064
2.20336,-0.705301,-0.107766
2.21802,-0.831489,-0.124141
2.21199,-0.708065,0.285174
2.19714,-0.586667,-0.0926498
2.20515,-0.705875,-0.0538774
2.19656,-0.594735,-0.0397217
2.20225,-0.834357,-0.0685373
2.20327,-0.713761,0
2.21463,-0.965245,-0.0281249
2.20072,-0.595861,0.0132512
2.2181,-0.840364,-0.0137859
2.20195,-0.713333,-0.249322
2.21096,-0.963647,0.0280783
2.2055,-0.714482,-0.162114
2.19597,-0.594574,0.0662101
2.20011,-0.595694,-0.146079
2.21094,-0.716246,0.135348
2.21256,-0.838266,0.0963948
2.20469,-0.714219,-0.107952
2.20573,-0.714558,0.284687
2.20706,-0.83618,0.192671
2.20279,-0.596422,-0.0929754
2.21028,-0.716033,-0.0540635
2.2024,-0.603748,-0.0398613
2.20335,-0.842699,-0.0686537
2.20102,-0.720679,0
2.21158,-0.972198,-0.0281249
2.19884,-0.602772,0.0132512
2.21172,-0.8459,-0.0137626
2.19592,-0.719009,-0.248894
2.21524,-0.973808,0.0281714
2.20703,-0.722649,-0.162393
2.2018,-0.603584,0.0664428
2.19437,-0.601548,-0.145823
2.20868,-0.723188,0.135348
2.21739,-0.848068,0.0967205
2.20623,-0.722385,-0.108138
2.2148,-0.725191,0.286149
2.20091,-0.603339,-0.0929754
2.21182,-0.724217,-0.0541566
2.19621,-0.611128,-0.0397915
2.20383,-0.852596,-0.06877
2.20203,-0.730385,0
2.20783,-0.980683,-0.0281249
2.19651,-0.61121,0.0132512
2.21964,-0.858715,-0.0138324
2.20446,-0.731192,-0.250179
2.21149,-0.982306,0.0281714
2.20803,-0.732374,-0.162672
2.19947,-0.612034,0.0664428
2.21934,-0.858599,0.0415367
2.19589,-0.611039,-0.146079
2.21347,-0.734178,0.135813
2.21039,-0.855134,0.0965577
2.20344,-0.730851,-0.108138
2.21664,-0.857553,-0.12456
2.20823,-0.73244,0.285662
2.19857,-0.611785,-0.0929754
2.20903,-0.732705,-0.0541566
2.20456,-0.861739,-0.0688864
2.20326,-0.739339,0
2.2117,-0.991656,-0.028218
2.19821,-0.61996,0.0132744
2.21663,-0.866458,-0.0138324
2.2019,-0.738882,-0.250179
2.219,-0.994929,0.0283111
2.20924,-0.741346,-0.162951
2.21303,-0.865051,-0.193973
2.19347,-0.618622,0.0663264
2.19375,-0.618701,-0.146079
2.2071,-0.740629,0.13558
2.21111,-0.8643,0.0967205
2.20466,-0.739809,-0.108324
2.21735,-0.866739,-0.124769
2.20942,-0.741406,0.286149
2.19258,-0.618371,-0.0928126
2.21025,-0.741683,-0.0542496
2.19958,-0.628643,-0.0399311
2.20154,-0.869429,-0.0688864
2.20824,-0.749597,0
2.19603,-0.627629,0.0132744
2.21731,-0.875659,-0.0138556
2.20307,-0.747842,-0.250607
2.21143,-0.750679,0.0543427
2.20664,-0.749054,-0.162951
2.21742,-0.8757,-0.194624
2.19899,-0.628473,0.0665591
2.22073,-0.87701,0.0416763
2.19925,-0.628548,-0.146591
2.20829,-0.749613,0.135813
2.2118,-0.87348,0.0968833
2.20207,-0.747501,-0.108324
2.21434,-0.751667,0.287124
2.20629,-0.871307,0.193647
2.19809,-0.628218,-0.0931383
2.21143,-0.750679,-0.0543427
2.19737,-0.636317,-0.0399311
2.2022,-0.87859,-0.0690027
2.20183,-0.756002,0
2.20151,-0.637516,0.0133209
2.22168,-0.886359,-0.0139021
2.20045,-0.755528,-0.250607
2.20779,-0.758047,-0.16323
2.20446,-0.638369,0.0667919
2.21766,-0.884757,0.0416763
2.19704,-0.636221,-0.146591
2.20943,-0.758613,0.136045
2.21245,-0.882677,0.0970462
2.207,-0.757778,-0.108697
2.21867,-0.885159,-0.125188
2.20795,-0.758102,0.286637
2.20356,-0.63811,-0.0934639
2.21258,-0.759693,-0.0544357
2.19514,-0.643983,-0.0399311
2.20283,-0.887767,-0.0691191
2.20295,-0.764995,0
2.20311,-0.646323,0.0133442
2.20907,-0.767118,-0.251892
2.21747,-0.770035,0.0546219
2.20513,-0.765749,-0.16323
2.21495,-0.892649,-0.194949
2.19838,-0.644935,0.0666755
2.21827,-0.893987,0.0417462
2.20247,-0.646134,-0.147102
2.21432,-0.768941,0.13651
2.21306,-0.891888,0.097209
2.20812,-0.766788,-0.108883
2.21927,-0.894391,-0.125397
2.21279,-0.768409,0.287612
2.19749,-0.644673,-0.0933011
2.20461,-0.65429,-0.0401405
2.20431,-0.773236,0
2.20107,-0.653241,0.0133442
2.21945,-0.90258,-0.0139253
2.20289,-0.772738,-0.251464
2.21401,-0.776636,-0.164067
2.21582,-0.901105,-0.195275
2.20018,-0.652975,0.0667919
2.21915,-0.902458,0.041816
2.20043,-0.65305,-0.147102
2.20812,-0.774572,0.136278
2.21395,-0.900342,0.0973718
2.20947,-0.775044,-0.109069
2.22015,-0.902863,-0.125606
2.21785,-0.777986,0.288587
2.19928,-0.65271,-0.0934639
2.2016,-0.780926,0
2.19495,-0.659769,0.0133209
2.21629,-0.910322,-0.0139253
2.19644,-0.779093,-0.251036
2.20752,-0.783025,-0.163788
2.20171,-0.661802,0.0669082
2.21229,-0.908679,0.0417462
2.19814,-0.660727,-0.147102
2.20917,-0.78361,0.13651
2.21819,-0.911102,0.0976975
2.21428,-0.785423,-0.109441
2.22068,-0.912125,-0.125816
2.21138,-0.784395,0.288099
2.20465,-0.662684,-0.0937896
2.21231,-0.784725,-0.0546219
2.21002,-0.793043,0
2.20017,-0.67014,0.0133674
2.21294,-0.918439,-0.0139253
2.20105,-0.789825,-0.251892
2.21215,-0.793806,-0.164346
2.19927,-0.669868,0.0669082
2.22003,-0.921381,0.0419556
2.20334,-0.671105,-0.147614
2.21756,-0.795748,0.137208
2.21114,-0.917693,0.0975347
2.21139,-0.793533,-0.109441
2.22101,-0.92179,-0.126025
2.21597,-0.795177,0.289074
2.2022,-0.67076,-0.0937896
2.21319,-0.794179,-0.0547149
2.19763,-0.677341,-0.0401405
2.20362,-0.799004,0
2.20176,-0.67861,0.0133907
2.21357,-0.927318,-0.0139486
2.19842,-0.797119,-0.251892
2.20575,-0.799778,-0.164067
2.20468,-0.679512,0.067141
2.21696,-0.928738,0.0419556
2.19728,-0.677233,-0.147358
2.21491,-0.803097,0.137208
2.21546,-0.928109,0.0978603
2.20499,-0.7995,-0.109255
2.21426,-0.927606,-0.125816
2.20379,-0.679237,-0.0939524
2.21054,-0.801514,-0.0547149
2.20671,-0.688581,-0.04035
2.20574,-0.933101,-0.0697009
2.20081,-0.806691,0
2.20319,-0.687483,0.0134139
2.20309,-0.807526,-0.252749
2.20669,-0.808846,-0.164346
2.19848,-0.686013,0.0670246
2.21739,-0.938029,0.0420254
2.20253,-0.687276,-0.14787
2.21209,-0.810823,0.137208
2.21589,-0.937394,0.0980231
2.20593,-0.808567,-0.109441
2.21468,-0.936886,-0.126025
2.2014,-0.686925,-0.0939524
2.20799,-0.69787,-0.0404198
2.20598,-0.942751,-0.0698173
2.20534,-0.817533,0
2.19684,-0.694348,0.0133907
2.21791,-0.94785,-0.0140183
2.20385,-0.816978,-0.253177
2.20371,-0.816928,-0.164346
2.19595,-0.694066,0.0670246
2.21026,-0.944578,0.0419556
2.19619,-0.694142,-0.147614
2.21659,-0.821702,0.137673
2.21611,-0.94708,0.098186
2.20296,-0.816647,-0.109441
2.21491,-0.946567,-0.126234
2.20649,-0.697398,-0.0942781
2.20262,-0.824841,0
2.19834,-0.702848,0.0134139
2.21476,-0.955199,-0.0140183
2.1974,-0.822887,-0.252749
2.20847,-0.82703,-0.164904
2.20506,-0.704997,0.0673737
2.21078,-0.953486,0.0420254
2.20148,-0.703852,-0.148126
2.21759,-0.830448,0.137906
2.21663,-0.956007,0.0983488
2.20398,-0.825349,-0.109627
2.21543,-0.955488,-0.126444
2.21178,-0.707145,-0.0946037
2.21326,-0.828825,-0.0549941
2.19938,-0.711652,-0.04035
2.20721,-0.835356,0
2.19968,-0.711748,0.0134371
2.21508,-0.964521,-0.0140416
2.21303,-0.837559,-0.165462
2.20259,-0.71269,0.0673737
2.21844,-0.965987,0.0422348
2.2066,-0.71399,-0.148637
2.21095,-0.83677,0.137673
2.21694,-0.965334,0.0985116
2.20856,-0.835866,-0.11
2.21574,-0.96481,-0.126653
2.2055,-0.713631,-0.0944409
2.21783,-0.839377,-0.0551802
2.19688,-0.719325,-0.04035
2.20428,-0.843056,0
2.20478,-0.721912,0.0134836
2.21902,-0.975467,-0.0140881
2.20275,-0.842469,-0.254034
2.21009,-0.845279,-0.165462
2.21149,-0.724107,0.0677228
2.21872,-0.975335,0.0423046
2.2041,-0.721688,-0.148637
2.20801,-0.844483,0.137673
2.2099,-0.971458,0.0983488
2.20189,-0.842143,-0.109813
2.21439,-0.725057,-0.0949294
2.21863,-0.848542,-0.0552732
2.20182,-0.729889,-0.0404896
2.20491,-0.852572,0
2.20212,-0.729988,0.0134836
2.21908,-0.985217,-0.0141113
2.2107,-0.854812,-0.165741
2.20502,-0.730949,0.0676064
2.21878,-0.985083,0.0423744
2.20523,-0.731018,-0.148893
2.21608,-0.85689,0.138371
2.20998,-0.981173,0.0985116
2.20625,-0.853089,-0.110186
2.21171,-0.733168,-0.0949294
2.21923,-0.85811,-0.0553663
2.20697,-0.739728,-0.0406292
2.20579,-0.861334,0
2.2158,-0.99257,-0.0141113
2.2201,-0.866919,0.0554593
2.20785,-0.862139,-0.165741
2.20259,-0.738257,0.0676064
2.2155,-0.992436,0.0423744
2.20279,-0.738326,-0.148893
2.21322,-0.864235,0.138371
2.21457,-0.864761,-0.110744
2.20548,-0.739228,-0.0947666
2.2201,-0.866919,-0.0554593
2.20059,-0.746144,-0.0405594
2.20277,-0.869028,0
2.20089,-0.746245,0.0135069
2.20854,-0.871305,-0.16602
2.20378,-0.747225,0.0677228
2.20398,-0.747293,-0.149149
2.20648,-0.870489,0.138138
2.20411,-0.869554,-0.110372
2.21046,-0.749489,-0.0950922
2.22078,-0.876131,-0.0555524
2.20176,-0.755118,-0.0406292
2.20344,-0.878193,0
2.20205,-0.75522,0.0135301
2.22142,-0.885358,0.0556454
2.20549,-0.879009,-0.16602
2.20494,-0.75621,0.0678391
2.20891,-0.757572,-0.149661
2.21084,-0.881143,0.138603
2.20848,-0.880201,-0.110744
2.21539,-0.759793,-0.0954179
2.21399,-0.882397,-0.0554593
2.20275,-0.764494,-0.040699
2.20392,-0.887758,0
2.20305,-0.764597,0.0135534
2.21816,-0.893494,0.0556454
2.20966,-0.890068,-0.166578
2.20593,-0.765598,0.0679555
2.20235,-0.764354,-0.149405
2.21501,-0.892224,0.139069
2.20153,-0.886796,-0.110558
2.20411,-0.772733,-0.0407688
2.20064,-0.771515,0.0135534
2.22275,-0.90347,0.0558315
2.20315,-0.895503,-0.166299
2.20352,-0.772524,0.0679555
2.20747,-0.77391,-0.149916
2.21589,-0.900682,0.139301
2.20614,-0.896717,-0.11093
2.21017,-0.774855,-0.0954179
2.20517,-0.781759,-0.0408386
2.2017,-0.780528,0.0135766
2.22328,-0.912742,0.0559246
2.21588,-0.785555,0.0684209
2.20099,-0.780277,-0.149661
2.21643,-0.909928,0.139534
2.21039,-0.907448,-0.111302
2.21121,-0.783901,-0.0955807
2.20243,-0.789452,-0.0408386
2.19896,-0.788209,0.0135766
2.22008,-0.920497,0.0559246
2.20422,-0.913919,-0.166857
2.20183,-0.789238,0.0680718
2.20577,-0.790649,-0.150172
2.21324,-0.917659,0.139534
2.21459,-0.918219,-0.111675
2.21223,-0.792963,-0.0957435
2.22008,-0.920497,-0.0559246
2.2069,-0.80063,-0.0409782
2.21096,-0.802103,0.0136696
2.21653,-0.929015,0.0559246
2.20805,-0.92546,-0.167416
2.20647,-0.800474,-0.150428
2.2097,-0.926151,0.139534
2.20368,-0.923626,-0.111302
2.21668,-0.804178,-0.0960692
2.22022,-0.930561,-0.0560176
2.20062,-0.806184,-0.0409084
2.20843,-0.809045,0.0136696
2.21729,-0.937531,0.0560176
2.21504,-0.811467,0.0686537
2.21144,-0.810148,-0.15094
2.21414,-0.936199,0.139999
2.20812,-0.933657,-0.111675
2.22097,-0.939088,-0.0561107
2.2128,-0.819416,-0.0411877
2.20934,-0.818138,0.0136929
2.22136,-0.948405,0.0562037
2.21234,-0.819249,-0.151196
2.21085,-0.943922,0.139999
2.2122,-0.944497,-0.112047
2.21505,-0.820249,-0.096232
2.22136,-0.948405,-0.0562037
2.20992,-0.827135,-0.0411877
2.20273,-0.824443,0.0136696
2.2217,-0.957737,0.0562968
2.20183,-0.824108,0.0684209
2.20573,-0.825567,-0.15094
2.20889,-0.952213,-0.112047
2.21591,-0.829377,-0.0963948
2.2217,-0.957737,-0.0562968
2.21047,-0.837031,-0.0412575
2.20703,-0.835728,0.0137161
2.22168,-0.967857,0.0563898
2.20239,-0.833972,0.0685373
2.20628,-0.835444,-0.151196
2.20888,-0.962283,-0.112233
2.20897,-0.836464,-0.096232
2.21434,-0.964663,-0.0562037
2.20409,-0.842543,-0.0411877
2.21186,-0.845513,0.0137626
2.21863,-0.974832,0.0563898
2.21097,-0.84517,0.0688864
2.20737,-0.843797,-0.151451
2.20585,-0.969218,-0.112233
2.2138,-0.846254,-0.0965577
2.21496,-0.973224,-0.0562968
2.20487,-0.851672,-0.0412575
2.21636,-0.856112,0.0138091
2.21521,-0.982571,0.0563898
2.208,-0.852882,0.0688864
2.21558,-0.855812,-0.152219
2.20976,-0.980152,-0.112605
2.21456,-0.855417,-0.0967205
2.21521,-0.982571,-0.0563898
2.20918,-0.862658,-0.0413971
2.20948,-0.862774,0.0137859
2.21159,-0.990683,0.0563898
2.20486,-0.860969,0.0688864
2.20871,-0.862475,-0.151963
2.21513,-0.864981,-0.0968833
2.21889,-0.993953,-0.056576
2.20631,-0.869979,-0.0413971
2.20661,-0.870097,0.0137859
2.20943,-0.87121,0.0691191
2.20956,-0.871258,-0.152219
2.21597,-0.873788,-0.0970462
2.20682,-0.87954,-0.0414669
2.21084,-0.88114,0.0138324
2.21365,-0.882262,0.0693518
2.20635,-0.879351,-0.152219
2.20904,-0.880425,-0.0968833
2.21116,-0.890225,-0.0416065
2.20775,-0.888852,0.0138324
2.21056,-0.889984,0.0693518
2.21067,-0.890029,-0.152731
2.21337,-0.891116,-0.097209
2.20433,-0.896432,-0.0415367
2.21204,-0.899567,0.0138789
2.21485,-0.900707,0.0695846
2.20755,-0.89774,-0.152731
2.21765,-0.901847,-0.0975347
2.20521,-0.904871,-0.0416065
2.21661,-0.909549,0.0139253
2.20461,-0.904625,0.0693518
2.20841,-0.906186,-0.152986
2.20741,-0.905775,-0.097209
2.20557,-0.914479,-0.0416763
2.21326,-0.917667,0.0139253
2.20497,-0.914231,0.0694682
2.20508,-0.914274,-0.152986
2.21146,-0.916921,-0.0975347
2.21373,-0.926932,0.0139486
2.20914,-0.925011,0.0697009
2.20555,-0.923508,-0.153242
2.21193,-0.926179,-0.0976975
2.20666,-0.932584,-0.041816
2.21064,-0.934268,0.0139486
2.21343,-0.935444,0.0699336
2.21351,-0.935478,-0.15401
2.21253,-0.935065,-0.0978603
2.21824,-0.947076,0.0140183
2.20999,-0.943551,0.0699336
2.21276,-0.944737,-0.0980231
2.20744,-0.951132,-0.0419556
2.21509,-0.954426,0.0140183
2.21052,-0.952456,0.07005
2.20595,-0.950488,-0.0978603
2.21128,-0.962408,-0.0420952
2.20791,-0.960942,0.0139951
2.21068,-0.962147,0.0701664
2.21344,-0.963352,-0.0983488
2.2079,-0.970121,-0.0420952
2.21553,-0.973471,0.0140648
2.21007,-0.971072,-0.0983488
2.21182,-0.981065,-0.0422348
2.21211,-0.981198,0.0140648
2.21122,-0.980799,0.0703991
2.21032,-0.980401,-0.0985116
2.20855,-0.988395,-0.0422348
2.21615,-0.991796,0.0141113
2.21525,-0.991393,0.0706318
2.21238,-0.999391,-0.0423744
