1.88682,0.589124,-0.115115
1.88123,0.58018,-0.11465
1.88208,0.573256,-0.183657
1.88916,0.567853,-0.114883
1.89377,0.56204,-0.184401
1.89113,0.561256,-0.114883
1.89691,0.555774,-0.115115
1.89373,0.548028,-0.184029
1.89491,0.54837,-0.114883
1.89563,0.541415,-0.184029
1.89297,0.540656,-0.11465
1.90253,0.536211,-0.115115
1.90439,0.529567,-0.115115
1.9011,0.521867,-0.184029
1.90614,0.523249,-0.115115
1.90685,0.515935,-0.184401
1.9119,0.517301,-0.115348
1.90479,0.508249,-0.184029
1.90983,0.509596,-0.115115
1.90261,0.500916,-0.183657
1.91151,0.50326,-0.115115
1.9082,0.495272,-0.184029
1.91326,0.496584,-0.115115
1.90992,0.488609,-0.184029
1.91498,0.489903,-0.115115
1.91556,0.482578,-0.184401
1.91676,0.48288,-0.115115
1.92147,0.477296,-0.0230493
1.92102,0.477182,-0.184773
1.88589,0.567587,-0.160776
1.91448,0.475558,-0.114883
1.92701,0.471537,-0.0230959
1.91493,0.468581,-0.184029
1.92,0.469822,-0.115115
1.92087,0.462934,-0.0230028
1.91656,0.461894,-0.184029
1.92551,0.464053,-0.115348
1.92637,0.45715,-0.0230493
1.92203,0.456121,-0.184401
1.92712,0.457329,-0.115348
1.90693,0.552211,-0.104044
1.92795,0.450422,-0.0230493
1.92361,0.449409,-0.184401
1.93184,0.451332,0.0230959
1.89363,0.541202,-0.160776
1.92871,0.450599,-0.115348
1.93341,0.444585,-0.0230959
1.92905,0.443583,-0.184773
1.92638,0.442969,-0.115115
1.94267,0.43994,-0.023189
1.89599,0.527944,-0.250516
1.92274,0.435426,-0.184029
1.93097,0.437289,0.0230493
1.89727,0.5283,-0.160776
1.93173,0.437461,-0.115348
1.93631,0.431754,-0.0230959
1.90156,0.522705,-0.251021
1.93584,0.431647,-0.185145
1.93707,0.431922,-0.11558
1.9339,0.424135,-0.0230493
1.89954,0.515025,-0.250516
1.93344,0.424034,-0.184773
1.9339,0.424135,0.0230493
1.93076,0.423446,-0.115115
1.94326,0.418729,-0.0231425
1.90141,0.50806,-0.250516
1.93498,0.416945,-0.184773
1.94326,0.418729,0.0231425
1.90655,0.509432,-0.161102
1.94792,0.419732,-0.116045
1.90255,0.508364,-0.103207
1.94471,0.411943,-0.0231425
1.91085,0.503441,-0.251526
1.93643,0.410187,-0.184773
1.9408,0.411114,0.0230959
1.90446,0.501758,-0.160776
1.93765,0.410446,-0.115348
1.90818,0.502737,-0.103416
1.94614,0.405152,-0.0231425
1.9126,0.496769,-0.251526
1.93785,0.403426,-0.184773
1.94222,0.404337,0.0230959
1.91006,0.49611,-0.161102
1.94689,0.405308,-0.115813
1.94747,0.398697,-0.0231425
1.91039,0.489439,-0.251021
1.94698,0.398596,-0.185516
1.93964,0.397093,0.0230493
1.91555,0.490763,-0.161427
1.94431,0.39805,-0.11558
1.94892,0.391556,-0.0231425
1.91602,0.483404,-0.251526
1.94843,0.391456,-0.185516
1.95284,0.392344,0.023189
1.91348,0.482763,-0.161102
1.95359,0.392493,-0.116045
1.94628,0.384316,-0.0230959
1.90991,0.475131,-0.250516
1.9214,0.477991,-0.0115076
1.94581,0.384221,-0.185145
1.95021,0.38509,0.0231425
1.91507,0.476414,-0.161102
1.94704,0.384465,-0.11558
1.95939,0.379803,-0.0232356
1.91926,0.470351,-0.251526
1.94713,0.377427,-0.185145
1.95547,0.379042,0.023189
1.8855,0.561018,-0.13756
1.91672,0.469727,-0.161102
1.95229,0.378427,-0.115813
1.95291,0.371126,-0.0231425
1.92097,0.463314,-0.251526
1.88509,0.553383,-0.211624
1.94851,0.370288,-0.185145
1.94898,0.370379,0.0230959
1.9223,0.463634,-0.161427
1.94974,0.370523,-0.11558
1.89011,0.554855,-0.0917594
1.958,0.365723,-0.023189
1.92628,0.458194,-0.252031
1.92622,0.458181,-0.0115076
1.88682,0.547457,-0.211624
1.94966,0.364164,-0.185145
1.95014,0.364254,0.0230959
1.95482,0.365129,-0.115813
1.91973,0.456636,-0.103416
1.9632,0.359607,-0.0232356
1.93171,0.452367,-0.0115308
1.89254,0.541963,-0.212052
1.95484,0.358075,-0.185516
1.95533,0.358166,0.0231425
1.92145,0.449965,-0.161102
1.96001,0.359023,-0.116045
1.89759,0.543408,-0.0919455
1.96063,0.351361,-0.023189
1.92185,0.442283,-0.251021
1.92563,0.443152,-0.0114843
1.96012,0.351269,-0.185888
1.96063,0.351361,0.023189
1.89324,0.534308,-0.13756
1.92705,0.443479,-0.161427
1.93317,0.444886,0.0346256
1.95745,0.350791,-0.115813
1.89966,0.536118,-0.0919455
1.96185,0.344515,-0.023189
1.92726,0.436447,-0.251526
1.93497,0.438194,-0.0115308
1.95349,0.343047,-0.185145
1.96185,0.344515,0.023189
1.8951,0.527696,-0.13756
1.9247,0.435868,-0.161102
1.95866,0.343955,-0.115813
1.89767,0.528411,-0.0917594
1.92845,0.436719,-0.103625
1.96292,0.33835,-0.023189
1.93249,0.431255,-0.252031
1.93243,0.431243,-0.0115076
1.96633,0.338938,-0.18626
1.96292,0.33835,0.023189
1.93384,0.431557,-0.161753
1.93217,0.431184,0.0345558
1.97154,0.339835,-0.116511
1.92982,0.430659,-0.103625
1.96414,0.331153,-0.023189
1.93406,0.424169,-0.252031
1.93791,0.425013,-0.0115308
1.96756,0.331728,-0.18626
1.96414,0.331153,0.023189
1.89865,0.514784,-0.13756
1.93541,0.424465,-0.161753
1.93765,0.424956,0.0346256
1.96489,0.331279,-0.116045
1.90508,0.516527,-0.0919455
1.96134,0.323644,-0.0231425
1.93553,0.417415,-0.252031
1.93938,0.418247,-0.0115308
1.90564,0.509547,-0.212481
1.9687,0.324858,-0.18626
1.93912,0.41819,0.0346256
1.97392,0.325719,-0.116511
1.90301,0.508843,-0.0917594
1.93285,0.416838,-0.103625
1.93606,0.410815,-0.0575993
1.96635,0.317776,-0.023189
1.93302,0.410171,-0.251526
1.94076,0.411813,-0.0115308
1.9737,0.318963,-0.186632
1.96635,0.317776,0.023189
1.90596,0.502866,-0.137839
1.93435,0.410454,-0.161427
1.94049,0.411757,0.0346256
1.97104,0.318534,-0.116278
1.90855,0.503548,-0.0919455
1.93813,0.411255,-0.103835
1.90624,0.502937,-0.0458749
1.97535,0.312158,-0.0232822
1.94221,0.40504,-0.252536
1.9461,0.405852,-0.0115541
1.97874,0.312693,-0.187003
1.96745,0.310909,0.023189
1.91157,0.497214,-0.138118
1.93578,0.403699,-0.161427
1.938,0.404164,0.0345558
1.97609,0.312274,-0.116511
1.9103,0.496882,-0.0919455
1.93955,0.404487,-0.103835
1.98044,0.305526,-0.0233287
1.94368,0.397919,-0.252536
1.94365,0.397914,-0.0115308
1.972,0.304224,-0.18626
1.96858,0.303696,0.023189
1.93724,0.396602,-0.161427
1.97722,0.30503,-0.116511
1.9121,0.489878,-0.0919455
1.93711,0.396574,-0.103625
1.91366,0.490276,-0.045968
1.94025,0.390519,-0.0575993
1.97353,0.297764,-0.0232356
1.90835,0.482178,-0.306225
1.94888,0.392255,-0.253042
1.94888,0.392256,-0.0115541
1.90863,0.482249,-0.212052
1.98087,0.298872,-0.187003
1.97353,0.297764,0.0232356
1.91113,0.48288,-0.137839
1.94245,0.390962,-0.161753
1.95254,0.392992,0.0347652
1.98217,0.299068,-0.116743
1.91759,0.484514,-0.0921316
1.94233,0.390937,-0.103835
1.91527,0.483928,-0.045968
1.95095,0.385236,-0.397726
1.97461,0.290528,-0.0232356
1.94641,0.38434,-0.252536
1.95031,0.38511,-0.0115541
1.91424,0.47621,-0.212481
1.98195,0.291609,-0.187003
1.97856,0.29111,0.0232822
1.94612,0.384283,0.0346256
1.9793,0.291219,-0.116511
1.9448,0.384023,0.0807633
1.91936,0.477482,-0.0921316
1.94375,0.383815,-0.103835
1.92092,0.47787,-0.046061
1.94843,0.377677,-0.396941
1.98353,0.28477,-0.0233287
1.91943,0.470391,-0.307455
1.94774,0.377543,-0.252536
1.95164,0.378299,-0.0115541
1.9869,0.285254,-0.187375
1.97561,0.283633,0.0232356
1.9452,0.377052,-0.161753
1.95138,0.378248,0.0346954
1.98821,0.285442,-0.116976
1.95006,0.377992,0.0809261
1.92489,0.471729,-0.0923178
1.949,0.377787,-0.104044
1.91869,0.470209,-0.045968
1.9481,0.371267,-0.0577156
1.95346,0.372289,-0.397726
1.98441,0.278537,-0.0233287
1.92474,0.465287,-0.30807
1.95281,0.372166,-0.253042
1.94889,0.371418,-0.0115308
1.98384,0.278458,-0.187003
1.98045,0.277981,0.0232822
1.916,0.463174,-0.137839
1.95029,0.371685,-0.162078
1.95255,0.372116,0.0346954
1.9891,0.279195,-0.116976
1.9186,0.463802,-0.0919455
1.95018,0.371663,-0.104044
1.95475,0.365469,-0.397726
1.99726,0.273237,-0.0234684
1.9541,0.365348,-0.253042
1.95017,0.364614,-0.0115308
1.9848,0.271532,-0.187003
1.98537,0.27161,0.0233287
1.92148,0.457409,-0.138118
1.95158,0.364877,-0.162078
1.95384,0.3653,0.0346954
1.99006,0.272252,-0.116976
1.92409,0.458029,-0.0921316
1.95146,0.364855,-0.104044
1.92176,0.457476,-0.045968
1.95221,0.357594,-0.396941
1.98635,0.26433,-0.0233287
1.93187,0.452403,-0.308685
1.95933,0.358897,-0.253547
1.9633,0.359625,-0.0116006
1.92063,0.449772,-0.212481
1.99368,0.265305,-0.187747
1.98635,0.26433,0.0233287
1.92315,0.450362,-0.138118
1.9529,0.35772,-0.162078
1.96304,0.359576,0.034835
1.995,0.265481,-0.117208
1.95384,0.357892,0.0809261
1.92576,0.450972,-0.0921316
1.95279,0.357698,-0.104044
1.92343,0.450428,-0.045968
1.95188,0.350847,-0.0577156
1.95725,0.351812,-0.397726
1.99119,0.258257,-0.0233753
1.9295,0.445107,-0.30807
1.9566,0.351696,-0.253042
1.96448,0.353112,-0.0116006
1.92211,0.443401,-0.212481
1.98665,0.257668,-0.187003
1.99119,0.258257,0.0233753
1.92463,0.443982,-0.138118
1.958,0.351948,-0.162403
1.96028,0.352357,0.0347652
1.99587,0.258864,-0.117208
1.95502,0.351412,0.0809261
1.93113,0.445482,-0.0923178
1.95396,0.351221,-0.104044
1.92881,0.444946,-0.046061
1.95847,0.344978,-0.397726
1.99208,0.251305,-0.0233753
1.93105,0.438369,-0.30807
1.95391,0.344176,-0.252536
1.9657,0.346253,-0.0116006
1.99544,0.251729,-0.187747
1.95137,0.343728,-0.161753
1.9615,0.345513,0.0347652
1.99676,0.251896,-0.117208
1.96017,0.345279,0.0810889
1.93268,0.438739,-0.0923178
1.95517,0.344399,-0.104044
1.92645,0.437326,-0.045968
1.95828,0.33755,-0.057832
1.96358,0.338464,-0.39851
1.99695,0.244487,-0.0234219
1.93264,0.431288,-0.30807
1.96298,0.33836,-0.253547
1.96696,0.339046,-0.0116006
1.99635,0.244414,-0.187747
1.98901,0.243515,0.0233287
1.96047,0.337927,-0.162403
1.96669,0.339,0.034835
2.00164,0.245061,-0.117441
1.93037,0.430782,-0.0921316
1.96036,0.337908,-0.104253
1.92804,0.430261,-0.045968
1.96475,0.331608,-0.39851
1.99779,0.237516,-0.0234219
1.93799,0.425387,-0.308685
1.96024,0.330846,-0.253042
1.96419,0.331513,-0.0115773
1.92672,0.422912,-0.212481
1.99324,0.236974,-0.187375
1.99382,0.237043,0.0233753
1.93315,0.424323,-0.138397
1.96557,0.331746,-0.162729
1.96786,0.332133,0.034835
1.99852,0.237601,-0.117208
1.96259,0.331243,0.0810889
1.93186,0.424042,-0.0921316
1.96547,0.331729,-0.104463
1.92953,0.423529,-0.045968
1.96584,0.32509,-0.39851
1.99857,0.230889,-0.0234219
1.93939,0.418958,-0.308685
1.96915,0.325638,-0.254052
1.96922,0.325649,-0.0116006
1.92811,0.41652,-0.212481
2.00192,0.231276,-0.188119
1.93483,0.417972,0.046061
1.93064,0.417067,-0.138118
1.96273,0.324575,-0.162403
1.97685,0.32691,0.0349746
2.00326,0.231431,-0.117441
1.96368,0.324733,0.0810889
1.93717,0.418476,-0.0923178
1.96262,0.324557,-0.104253
1.97084,0.318853,-0.399295
1.99936,0.223912,-0.0234219
1.94085,0.412186,-0.308685
1.97028,0.318763,-0.254052
1.97824,0.320051,-0.0116471
1.93345,0.410614,-0.212909
1.99876,0.223844,-0.187747
1.94019,0.412047,0.0461541
1.99936,0.223912,0.0234219
1.93209,0.410325,-0.138118
1.97172,0.318996,-0.163054
1.97403,0.319369,0.0349048
1.90662,0.503395,-0.12638
2.00405,0.224437,-0.117441
1.96875,0.318515,0.0812517
1.94643,0.413372,-0.09269
1.96768,0.318342,-0.104463
1.94019,0.412047,-0.0461541
1.9667,0.311143,-0.0579483
1.97194,0.311972,-0.399295
2.00013,0.216932,-0.0234219
1.94227,0.405409,-0.308685
1.97138,0.311884,-0.254052
1.97145,0.311895,-0.0116006
1.93487,0.403863,-0.212909
2.00745,0.217725,-0.188491
1.94162,0.405272,0.0461541
2.00013,0.216932,0.0234219
1.93351,0.403579,-0.138118
1.96888,0.311489,-0.162729
1.97118,0.311852,0.034835
2.0088,0.217871,-0.117673
1.94004,0.404943,-0.0923178
1.96483,0.310848,-0.104253
1.97301,0.305086,-0.399295
1.93963,0.397796,0
2.00486,0.210365,-0.0234684
1.9398,0.397832,-0.30807
1.97245,0.305,-0.254052
1.97252,0.30501,-0.0116006
1.94016,0.397905,-0.213337
2.0082,0.210716,-0.188491
1.94694,0.399295,0.0462471
2.00486,0.210365,0.0234684
1.94272,0.39843,-0.138676
1.97784,0.305832,-0.16338
1.97621,0.30558,0.0349048
2.00954,0.210857,-0.117673
1.94144,0.398168,-0.0923178
1.96985,0.304598,-0.104463
1.9391,0.397688,-0.046061
1.97407,0.298198,-0.399295
2.00558,0.203366,-0.0234684
1.94506,0.391839,-0.308685
1.97743,0.298706,-0.254557
1.97358,0.298124,-0.0116006
1.93764,0.390345,-0.212909
2.001,0.202901,-0.187747
2.00558,0.203366,0.0234684
1.94019,0.390859,-0.138397
1.97495,0.298331,-0.163054
1.97726,0.298681,0.0349048
2.01027,0.203842,-0.117673
1.9389,0.3906,-0.0921316
1.97091,0.29772,-0.104463
1.9444,0.391707,-0.0461541
1.97122,0.290732,-0.39851
2.01026,0.196753,-0.023515
1.94641,0.385047,-0.308685
1.97846,0.291801,-0.254557
1.98648,0.292983,-0.0116703
1.94679,0.385122,-0.213766
2.00566,0.196303,-0.188119
2.0023,0.195974,0.0234219
1.94154,0.384083,-0.138397
1.97204,0.290853,-0.162729
1.97829,0.291776,0.0349048
2.01494,0.197212,-0.117906
1.94809,0.38538,-0.0925039
1.94183,0.384141,-0.046061
1.97871,0.285138,-0.0581811
1.97993,0.285313,-0.400079
2.0109,0.190086,-0.023515
1.94768,0.378591,-0.308685
1.97549,0.284673,-0.254052
1.98348,0.285824,-0.0116471
1.95196,0.379424,-0.214194
2.01423,0.190401,-0.188862
1.94702,0.378463,0.0461541
1.95064,0.379166,-0.138955
1.98088,0.28545,-0.16338
1.98321,0.285785,0.0349746
2.01558,0.190529,-0.117906
1.95328,0.37968,-0.09269
1.98079,0.285437,-0.104881
1.95095,0.379226,-0.0462471
1.97975,0.277884,-0.0581811
1.98097,0.278055,-0.400079
2.01557,0.183077,-0.0235616
1.94905,0.37145,-0.308685
1.97652,0.277431,-0.254052
1.98451,0.278553,-0.0116471
1.94943,0.371523,-0.213766
2.01888,0.183378,-0.189234
1.9484,0.371325,0.0461541
2.01557,0.183077,0.0235616
1.95593,0.372762,-0.139234
1.98191,0.278188,-0.16338
1.9882,0.279071,0.0350444
2.02025,0.183502,-0.118138
1.9829,0.278327,0.0815774
1.96251,0.374015,-0.0930622
1.97391,0.277065,-0.104463
1.95625,0.372822,-0.0463402
1.9767,0.270774,-0.0580647
1.98188,0.271484,-0.400079
1.95014,0.36496,0
2.02015,0.17674,-0.0236081
1.95416,0.365711,-0.3093
1.98922,0.27249,-0.255567
1.98543,0.27197,-0.0116471
1.94675,0.364324,-0.213337
2.01551,0.176334,-0.188862
1.95748,0.366332,0.0463402
2.01218,0.176043,0.023515
1.95324,0.365539,-0.138955
1.98283,0.271614,-0.16338
1.98516,0.271933,0.0349746
2.01687,0.176453,-0.117906
1.95589,0.366035,-0.09269
1.95355,0.365597,-0.0462471
1.9867,0.265082,-0.400864
2.02075,0.169687,-0.0236081
1.95154,0.358174,-0.308685
1.9823,0.264495,-0.254557
1.92376,0.451213,0.0114843
1.98636,0.265037,-0.0116471
1.95192,0.358244,-0.213766
2.02008,0.16963,-0.189234
2.01278,0.169018,0.023515
1.95843,0.359438,-0.139234
1.99562,0.266272,-0.164356
1.99006,0.26553,0.0350444
2.02145,0.169746,-0.118138
1.96108,0.359926,-0.0928761
1.97971,0.26415,-0.104672
1.95481,0.358775,-0.0462471
1.92506,0.444436,-0.034486
1.97983,0.257136,-0.399295
2.02532,0.162953,-0.0236547
1.95666,0.35206,-0.3093
1.98714,0.258085,-0.255062
1.99124,0.258617,-0.0116703
1.95316,0.351428,-0.213766
2.02066,0.162578,-0.189234
1.95605,0.351949,0.0462471
2.01336,0.161991,0.023515
1.95967,0.3526,-0.139234
1.98863,0.258278,-0.163705
1.99494,0.259097,0.0351142
2.02203,0.162689,-0.118138
1.95446,0.351663,-0.0925039
1.98062,0.257238,-0.104672
1.96392,0.353366,-0.0464332
1.9266,0.437714,-0.034486
1.98461,0.250715,-0.400079
2.02189,0.155576,-0.0236081
1.95399,0.344541,-0.308685
1.99197,0.251645,-0.255567
1.99213,0.251666,-0.0116703
1.95437,0.344609,-0.213766
2.02518,0.15583,-0.189606
1.95727,0.34512,0.0462471
1.95696,0.345065,-0.138955
1.98556,0.250835,-0.16338
1.99186,0.251631,0.0350444
1.95961,0.345533,-0.09269
1.98547,0.250824,-0.104881
1.96121,0.345814,-0.0463402
1.9321,0.431521,-0.0345558
1.99223,0.244263,-0.0584138
1.98552,0.243439,-0.400079
2.02643,0.148456,-0.0236547
1.95524,0.337377,-0.308685
1.98894,0.243859,-0.255062
1.93236,0.431579,0.0115076
1.99304,0.244362,-0.0116703
1.95954,0.338119,-0.214194
1.9664,0.339303,0.0464332
2.02244,0.148164,0.0236081
1.97001,0.339925,-0.139792
1.99438,0.244526,-0.164031
1.9888,0.243842,0.0349746
2.03111,0.148799,-0.118604
1.96874,0.339707,-0.0930622
1.99431,0.244517,-0.1053
1.96246,0.338623,-0.0463402
1.92961,0.424253,-0.034486
1.9941,0.237783,-0.401648
1.96016,0.331537,0
2.0309,0.142015,-0.0237012
1.96024,0.331551,-0.3093
1.99368,0.237732,-0.255567
1.99384,0.237752,-0.0116703
1.96065,0.33162,-0.214194
1.96752,0.332781,0.0464332
2.01893,0.141178,0.0235616
1.96325,0.33206,-0.139234
1.99518,0.237911,-0.164031
1.99357,0.237719,0.0350444
2.03159,0.142063,-0.118604
1.9738,0.333843,-0.0932484
1.99511,0.237903,-0.1053
1.96357,0.332114,-0.0463402
1.98988,0.230237,-0.0582974
1.99492,0.23082,-0.401648
1.96131,0.324692,0
2.0274,0.134659,-0.0236547
1.96139,0.324706,-0.3093
2.00238,0.231683,-0.256577
1.99466,0.23079,-0.0116703
1.96572,0.325423,-0.214623
1.96472,0.325257,0.0463402
1.9644,0.325204,-0.139234
1.99996,0.231403,-0.164356
2.03207,0.13497,-0.118604
1.97101,0.326298,-0.0930622
1.9999,0.231396,-0.105509
1.996,0.230945,0.164031
1.96077,0.324604,-0.0462471
1.98792,0.222981,-0.400079
2.02785,0.127582,-0.0236547
1.96251,0.317858,-0.3093
2.00317,0.224692,-0.256577
1.9367,0.411659,0.0115076
2.0034,0.224718,-0.0117168
1.96684,0.31856,-0.214623
2.03114,0.127789,-0.189978
2.02785,0.127582,0.0236547
1.96946,0.318984,-0.139513
2.00472,0.224865,-0.164682
2.00313,0.224688,0.0351841
2.03652,0.128127,-0.118836
1.96819,0.318778,-0.0928761
1.99275,0.223523,-0.105091
1.96584,0.318398,-0.0463402
1.93786,0.40484,-0.0345558
1.99541,0.216771,-0.0584138
1.99258,0.216464,-0.400864
2.03228,0.120739,-0.0237012
1.96361,0.311005,-0.3093
2,0.21727,-0.256072
1.93812,0.404895,0.0115076
2.00815,0.218155,-0.0117401
1.97187,0.312314,-0.215051
2.03952,0.12117,-0.190721
1.97089,0.312159,0.0464332
1.97056,0.312107,-0.139513
2.00549,0.217866,-0.164682
2.00788,0.218125,0.0352539
2.04094,0.121254,-0.119069
1.97718,0.313155,-0.0932484
1.99749,0.216997,-0.1053
1.96694,0.311533,-0.0463402
1.93926,0.398073,-0.0345558
2.00013,0.210222,-0.0585302
2.00113,0.210326,-0.402433
2.03668,0.113867,-0.0237478
1.96859,0.304753,-0.309915
2.00469,0.210701,-0.256577
2.0089,0.211143,-0.0117401
1.97295,0.305428,-0.215051
2.03993,0.114049,-0.190721
1.97197,0.305276,0.0464332
1.97164,0.305226,-0.139513
2.00227,0.210447,-0.164356
2.00067,0.210279,0.0351142
2.00329,0.210554,0.0820659
1.99824,0.210022,-0.1053
1.96802,0.304665,-0.0463402
2.00185,0.203341,-0.402433
1.9696,0.297875,0
2.04505,0.107177,-0.0238409
1.97355,0.298472,-0.310529
2.00936,0.204104,-0.257082
1.94483,0.392146,0.0115308
2.00962,0.204131,-0.0117401
1.974,0.298541,-0.215051
2.04032,0.106929,-0.190721
1.97302,0.298392,0.0464332
2.03307,0.106549,0.0237012
1.98059,0.299536,-0.140071
2.01093,0.204263,-0.165007
2.00935,0.204103,0.0352539
2.04572,0.107212,-0.119301
2.00402,0.203561,0.0820659
1.98722,0.30054,-0.0936206
2.00293,0.203451,-0.105509
1.96907,0.297794,-0.0463402
2.00155,0.196254,-0.0585302
2.00645,0.196734,-0.403217
1.97459,0.291582,0
2.04142,0.0998423,-0.0237944
1.97849,0.292158,-0.311144
2.01401,0.197476,-0.257587
2.01033,0.197114,-0.0117401
1.97897,0.292229,-0.215479
2.04068,0.099806,-0.190721
1.97405,0.291503,0.0464332
2.03743,0.0996469,0.0237478
1.98162,0.29262,-0.140071
2.00369,0.196464,-0.164356
2.01005,0.197088,0.0352539
1.94615,0.385347,-0.127148
2.03811,0.0996802,-0.118836
2.00472,0.196564,0.0820659
1.9764,0.29185,-0.0930622
2.0076,0.196847,-0.105719
1.94068,0.384265,-0.0806004
1.97405,0.291503,-0.0464332
1.94725,0.378508,-0.0346256
2.00222,0.189266,-0.0585302
2.00713,0.18973,-0.403217
1.97955,0.285258,0
2.04176,0.0927163,-0.0237944
1.97558,0.284686,-0.310529
2.01074,0.190072,-0.257082
2.011,0.190096,-0.0117401
1.97998,0.28532,-0.215479
2.03704,0.0925019,-0.190349
1.97902,0.285181,0.0465263
1.97868,0.285133,-0.139792
2.01231,0.19022,-0.165007
2.01073,0.19007,0.0352539
1.94356,0.377791,-0.126892
2.03844,0.0925657,-0.118836
1.98136,0.285519,-0.0932484
2.0043,0.189463,-0.105509
2.00834,0.189844,0.164682
1.97506,0.284611,-0.0464332
1.94843,0.372388,-0.0346256
2.00771,0.183423,-0.403217
2.04204,0.0863009,-0.0237944
1.98429,0.279581,-0.311759
2.01528,0.184114,-0.257587
1.9487,0.372439,0.0115308
2.01956,0.184505,-0.0117866
1.97692,0.278542,-0.215051
2.0413,0.0862695,-0.190721
1.98352,0.279471,-0.140071
2.00892,0.183533,-0.164682
2.01928,0.18448,0.0353935
2.05069,0.0866666,-0.119534
1.98621,0.27985,-0.0934345
2.00887,0.183528,-0.105719
1.9799,0.278962,-0.0465263
1.94972,0.365585,-0.0346256
2.0114,0.176683,-0.0587629
2.00834,0.176414,-0.403217
1.9814,0.272123,0
2.04632,0.0793277,-0.0238409
1.98526,0.272653,-0.311759
2.01196,0.176732,-0.257082
2.01222,0.176754,-0.0117401
1.98182,0.272182,-0.215479
2.04556,0.0792982,-0.191093
1.98086,0.27205,0.0465263
2.03833,0.0790178,0.0237478
1.98448,0.272546,-0.140071
2.01749,0.177218,-0.165333
2.01195,0.176731,0.0352539
2.05098,0.0795082,-0.119534
2.01058,0.176611,0.0822287
1.98717,0.272916,-0.0934345
2.01745,0.177214,-0.106137
1.98086,0.27205,-0.0465263
1.95098,0.358776,-0.0346256
2.01676,0.170061,-0.404786
2.05458,0.0724656,-0.0239341
1.9862,0.265721,-0.311759
2.01652,0.17004,-0.257587
1.95518,0.359548,0.0115541
2.01681,0.170065,-0.0117633
1.9867,0.265789,-0.215908
2.04981,0.0722972,-0.191465
1.98973,0.266193,0.0467124
1.98937,0.266146,-0.14035
2.02207,0.170509,-0.165658
2.01654,0.170042,0.0353237
2.04726,0.0722072,-0.119301
1.99207,0.266507,-0.0936206
2.01806,0.17017,-0.106137
1.9818,0.265133,-0.0465263
1.95616,0.352674,-0.0346954
2.01258,0.162636,-0.0587629
2.00952,0.162389,-0.403217
1.98722,0.2588,0
2.05882,0.0654208,-0.0239806
1.98711,0.258787,-0.311759
2.0171,0.163001,-0.257587
1.95642,0.352722,0.0115541
2.02138,0.163347,-0.0117866
1.98368,0.258339,-0.215479
2.04209,0.064889,-0.190721
2.04683,0.0650397,0.0238409
1.99029,0.259201,-0.14035
2.02663,0.163771,-0.165984
2.01712,0.163002,0.0353237
1.95245,0.352006,-0.127148
2.05947,0.0654414,-0.119999
1.98507,0.25852,-0.0932484
2.01864,0.163126,-0.106137
1.95484,0.352435,-0.0809261
1.98272,0.258214,-0.0465263
2.02111,0.156226,-0.0589956
2.0179,0.155977,-0.404786
2.05104,0.0580071,-0.0238875
1.99193,0.252345,-0.312374
2.02161,0.156264,-0.258092
1.96158,0.346586,0.0115773
2.02592,0.156597,-0.0118098
1.98851,0.251913,-0.215908
2.04628,0.0578725,-0.191093
2.05104,0.0580071,0.0238875
1.99118,0.252251,-0.14035
2.01924,0.156081,-0.165333
2.02166,0.156268,0.0353935
2.01631,0.155854,0.0823915
1.99785,0.253095,-0.0938067
2.02318,0.156385,-0.106347
1.99154,0.252296,-0.0467124
1.96252,0.339691,-0.0347652
2.01766,0.148876,-0.0588792
2.01843,0.148933,-0.404786
2.05923,0.0510459,-0.0239806
1.98887,0.244908,-0.311759
2.01423,0.148623,-0.257082
1.95884,0.339055,0.0115541
2.02646,0.149525,-0.0118098
1.99333,0.245456,-0.216336
2.05045,0.0508284,-0.191465
1.99241,0.245343,0.0467124
2.04723,0.0507486,0.0238409
1.99601,0.245787,-0.140629
2.01977,0.149032,-0.165333
2.02219,0.149211,0.0353935
1.95486,0.338366,-0.127148
2.05988,0.051062,-0.119999
1.99872,0.24612,-0.0938067
2.01973,0.149029,-0.106137
1.99385,0.245521,0.246664
1.99638,0.245832,-0.0468054
2.02215,0.142113,-0.0589956
2.01503,0.141612,-0.404002
2.05939,0.043858,-0.0239806
1.99756,0.238903,-0.312989
2.02265,0.142148,-0.258092
1.96395,0.332884,0.0115773
2.02298,0.142171,-0.0117866
1.99812,0.238969,-0.216764
2.05858,0.0438407,-0.192208
2.00119,0.239337,0.0468985
2.05539,0.0437728,0.0239341
1.99686,0.238819,-0.140629
2.03221,0.14282,-0.166309
2.0227,0.142151,0.0353935
1.95603,0.331541,-0.127148
2.00353,0.239617,-0.0939929
2.02422,0.142258,-0.106347
1.95842,0.331946,-0.0809261
1.98928,0.237912,-0.0466193
2.02264,0.135053,-0.0589956
1.99859,0.231951,0
2.06353,0.0367397,-0.0240272
1.99053,0.231017,-0.311759
2.02709,0.13535,-0.258597
1.96905,0.326681,0.0116006
2.03144,0.135641,-0.0118331
1.98709,0.230617,-0.215479
2.05872,0.0366541,-0.192208
1.99804,0.231889,0.0468054
2.05553,0.0365973,0.0239341
2.00561,0.232766,-0.141187
2.02872,0.135459,-0.165984
1.96431,0.325893,0.0579483
2.03117,0.135622,0.0355331
1.96505,0.326017,-0.127659
2.06417,0.0367512,-0.120232
2.02471,0.135191,-0.106347
2.02474,0.135193,0.165658
1.96351,0.325761,-0.0810889
1.99407,0.231428,-0.0467124
1.96991,0.319762,-0.034835
2.02771,0.128284,-0.406355
1.99541,0.224527,0
2.06765,0.0295941,-0.0240738
2.02755,0.128274,-0.258597
1.97018,0.319806,0.0116006
2.0359,0.128802,-0.0118563
2.05486,0.029411,-0.191837
1.99884,0.224913,0.0468054
2.00244,0.225318,-0.140908
1.96543,0.319035,0.0579483
2.02764,0.128279,0.0354633
1.96224,0.318517,-0.127403
2.06429,0.0295461,-0.120232
1.99325,0.224284,-0.0934345
2.03314,0.128627,-0.106765
1.99487,0.224466,-0.0467124
1.96707,0.312257,-0.0347652
2.02752,0.121167,-0.059112
2.02423,0.12097,-0.405571
1.99618,0.21756,0
2.07174,0.0224192,-0.0241203
1.99603,0.217543,-0.312374
2.03591,0.121669,-0.259607
1.97523,0.313553,0.0116238
2.03234,0.121455,-0.0118331
1.99261,0.21717,-0.215908
2.06689,0.0223668,-0.192952
2.00757,0.2188,0.0469915
2.05974,0.0222894,0.0239806
2.00322,0.218327,-0.140908
2.03359,0.12153,-0.166309
2.03606,0.121677,0.0356029
1.97122,0.312916,-0.127915
2.00196,0.21819,-0.0938067
2.0256,0.121052,-0.106347
1.99564,0.217501,-0.0467124
1.9721,0.306001,-0.034835
2.03991,0.114762,-0.0594611
2.02855,0.114124,-0.406355
1.99693,0.21059,0
2.0678,0.0151575,-0.0240738
2.00464,0.211403,-0.313604
2.03236,0.114338,-0.259102
1.97236,0.306043,0.0116006
2.03675,0.114584,-0.0118563
2.00126,0.211047,-0.216764
2.06696,0.0151513,-0.192952
2.00832,0.211791,0.0469915
2.0598,0.0150989,0.0239806
2.00397,0.211332,-0.140908
2.03401,0.11443,-0.166309
2.03647,0.114569,0.0356029
1.96441,0.304809,-0.127403
2.07243,0.0151914,-0.120697
2.00271,0.2112,-0.0938067
2.03,0.114205,-0.106556
1.99639,0.210533,-0.0467124
1.96915,0.298861,-0.0347652
2.0283,0.107365,-0.059112
2.02892,0.107397,-0.406355
2.00557,0.20478,0
2.07584,0.00833385,-0.0241669
2.00139,0.204354,-0.312989
2.03273,0.107599,-0.259102
2.03312,0.10762,-0.0118331
2.07098,0.00831432,-0.193324
2.00901,0.205131,0.0469915
2.06384,0.00828567,0.0240272
2.00863,0.205092,-0.141187
2.03836,0.107897,-0.166634
2.03284,0.107605,0.0355331
2.07647,0.00833634,-0.120929
2.03147,0.107532,0.08288
2.00738,0.204965,-0.0939929
2.03436,0.107685,-0.106765
2.00642,0.204867,0.247639
1.96781,0.298659,-0.0810889
2.03266,0.100481,-0.0592283
2.03712,0.100701,-0.407924
2.01026,0.19817,0
2.07986,0.00108929,-0.0242135
2.00603,0.197754,-0.313604
2.03706,0.100698,-0.259607
1.97836,0.293197,0.0116238
2.03748,0.100719,-0.0118563
2.00265,0.197421,-0.216764
2.071,0.00108465,-0.193324
2.01369,0.198509,0.0470846
2.07186,0.0010851,0.0241203
2.01727,0.198862,-0.141745
2.0427,0.100977,-0.16696
2.0372,0.100705,0.0356029
1.97039,0.292017,-0.127659
2.07648,0.00108752,-0.120929
2.01603,0.19874,-0.0943651
2.0427,0.100977,-0.107184
1.9728,0.292373,-0.0812517
2.00175,0.197332,-0.0468054
1.97524,0.28499,-0.034835
2.03303,0.0926756,-0.0592283
2.03749,0.0928791,-0.407924
2.00702,0.190073,0
2.07985,-0.00689627,-0.0242135
2.01464,0.190795,-0.314834
2.03743,0.0928762,-0.259607
1.97947,0.285599,0.0116238
2.04185,0.0930775,-0.0118796
2.01131,0.19048,-0.217621
2.067,-0.00685368,-0.192952
2.01444,0.190776,0.0470846
2.07185,-0.00686975,0.0241203
2.01405,0.190739,-0.141466
2.04706,0.0933151,-0.167285
2.04157,0.0930649,0.0356727
1.97545,0.285019,-0.127915
2.08046,-0.00689831,-0.121162
2.0076,0.190128,0.117441
2.02076,0.191374,-0.0945512
2.04307,0.0931334,-0.107184
1.97786,0.285367,-0.0814146
2.01046,0.190399,-0.0469915
1.98009,0.279341,-0.0349048
2.0413,0.0866266,-0.0594611
2.03777,0.0864771,-0.407924
2.00761,0.183767,0
2.07982,-0.0134309,-0.0242135
2.0113,0.184104,-0.314219
2.04167,0.0866426,-0.260113
1.98036,0.279379,0.0116238
2.04612,0.0868314,-0.0119028
2.0119,0.18416,-0.217621
2.07494,-0.0133994,-0.193695
2.01503,0.184446,0.0470846
2.07182,-0.0133792,0.0241203
2.05132,0.0870521,-0.167611
2.04585,0.0868197,0.0357425
1.98424,0.279927,-0.128427
2.01614,0.184548,0.117906
2.02135,0.185025,-0.0945512
2.04735,0.0868833,-0.107393
1.97875,0.279152,-0.0814146
2.00706,0.183717,-0.0468985
1.98501,0.272973,-0.0349746
2.04558,0.0796566,-0.0595774
2.04198,0.0795164,-0.408708
2.01222,0.177109,0
2.08775,-0.0207698,-0.0243066
2.01193,0.177083,-0.314219
2.04196,0.0795157,-0.260113
1.98132,0.272465,0.0116238
2.05441,0.0800003,-0.0119493
2.01649,0.177485,-0.21805
2.07886,-0.0206813,-0.194067
2.01964,0.177762,0.0471777
2.07176,-0.0206107,0.0241203
2.01527,0.177377,-0.141466
2.04365,0.0795813,-0.16696
2.04214,0.0795226,0.0356727
1.9773,0.271911,-0.127915
2.0128,0.177159,0.117673
2.02198,0.177968,-0.0945512
2.04364,0.0795812,-0.107184
1.97575,0.271699,-0.0812517
2.01168,0.177061,-0.0469915
1.98199,0.265511,-0.0349048
2.04185,0.0723745,-0.0594611
2.04225,0.0723885,-0.408708
2.08767,-0.0280569,-0.0243066
2.01253,0.170059,-0.314219
2.04223,0.0723879,-0.260113
1.98226,0.265547,0.0116238
2.05468,0.072829,-0.0119493
2.01314,0.170111,-0.217621
2.07877,-0.0279373,-0.194067
2.02424,0.171048,0.0472707
2.01985,0.170678,-0.141745
2.05188,0.07273,-0.167611
2.0464,0.0725358,0.0357425
1.97823,0.265008,-0.127915
2.08827,-0.028065,-0.121627
2.04502,0.0724867,0.0833685
2.02259,0.170909,-0.0945512
2.04391,0.0724475,-0.107184
1.98065,0.265332,-0.0814146
2.0083,0.169701,-0.0468985
2.04209,0.0652462,-0.0594611
2.04641,0.065384,-0.409493
2.02138,0.163702,0
2.08356,-0.0352769,-0.02426
2.01311,0.163033,-0.314219
2.04644,0.0653849,-0.260618
1.99111,0.25966,0.0116703
2.05492,0.0656559,-0.0119493
2.01768,0.163403,-0.21805
2.07866,-0.035194,-0.194067
2.02881,0.164304,0.0473638
2.08356,-0.0352769,0.02426
2.02441,0.163948,-0.142024
2.04814,0.0654393,-0.167285
2.05464,0.065647,0.0358821
1.97915,0.258101,-0.127915
2.08417,-0.0352872,-0.121394
2.01796,0.163425,0.117906
2.02716,0.16417,-0.0947374
2.04814,0.0654395,-0.107393
1.98553,0.258933,-0.0815774
2.01286,0.163012,-0.0469915
1.99173,0.252674,-0.0350444
2.0543,0.0584582,-0.0598101
2.0427,0.0581282,-0.408708
2.01795,0.156336,0
2.02155,0.156615,-0.315449
2.05458,0.0584663,-0.261628
1.98803,0.252204,0.0116471
2.05114,0.0583682,-0.011926
2.01824,0.156358,-0.21805
2.07853,-0.0424502,-0.194067
2.02538,0.156911,0.0472707
2.02497,0.15688,-0.142024
2.05234,0.0584024,-0.167611
2.05885,0.0585878,0.035952
1.984,0.251692,-0.128171
2.08803,-0.0426442,-0.121627
2.01852,0.15638,0.117906
2.02374,0.156784,-0.0945512
2.05235,0.0584028,-0.107603
1.99038,0.252503,-0.0817402
2.01342,0.155985,-0.0469915
1.99657,0.24621,-0.0351142
2.05449,0.0512874,-0.0598101
2.04289,0.0509979,-0.408708
2.08726,-0.0499177,-0.0243066
2.02209,0.149558,-0.315449
2.05081,0.0511955,-0.261123
2.05932,0.0514081,-0.0119725
2.01878,0.149313,-0.21805
2.07837,-0.049705,-0.194067
2.02592,0.149841,0.0472707
2.02551,0.149811,-0.142024
2.05253,0.0512385,-0.167611
2.06304,0.0515009,0.0360218
1.98882,0.245254,-0.128427
2.01905,0.149333,0.117906
2.02029,0.149424,-0.0943651
2.05254,0.0512388,-0.107603
2.01794,0.149251,-0.0470846
1.99345,0.238763,-0.0350444
2.05482,0.0441186,-0.411062
2.02299,0.142525,0
2.09107,-0.0573134,-0.0243531
2.02259,0.142498,-0.315449
2.05494,0.0441212,-0.261628
1.99372,0.238795,0.0116703
2.05549,0.044133,-0.0119493
2.02722,0.142823,-0.218906
2.08614,-0.0571783,-0.194811
2.03839,0.143611,0.0475499
2.03398,0.1433,-0.142582
2.05668,0.0441586,-0.167936
2.06721,0.0443846,0.0360916
1.99363,0.238785,-0.128683
2.09566,-0.0574391,-0.122092
2.02478,0.142652,-0.0945512
2.05271,0.0440732,-0.107603
1.98813,0.238126,-0.0815774
2.02244,0.142487,-0.0471777
2.00221,0.232728,-0.0351841
2.0588,0.037016,-0.0599265
2.05104,0.0368766,-0.410277
2.02746,0.135731,0
2.09486,-0.0647344,-0.0243997
2.02702,0.135702,-0.316064
2.05508,0.0369492,-0.261628
2.0158,0.134951,-0.217621
2.08991,-0.0645815,-0.195183
2.03888,0.136496,0.0475499
2.03049,0.135934,-0.142303
2.0648,0.0371239,-0.168587
2.06335,0.0370979,0.0360218
1.99049,0.231365,-0.128427
2.09146,-0.0646292,-0.121859
2.02403,0.135502,0.118138
2.03324,0.136118,-0.0949235
2.06084,0.0370527,-0.108021
1.99292,0.231647,-0.0817402
1.99506,0.224841,-0.0350444
2.05891,0.0298287,-0.0599265
2.05508,0.0297732,-0.411062
2.03591,0.129159,0
2.09862,-0.0721844,-0.0244463
2.02354,0.128375,-0.315449
2.0671,0.0299473,-0.263143
2.05975,0.0298408,-0.0119725
2.0242,0.128417,-0.218478
2.08569,-0.0717399,-0.194811
2.03935,0.129378,0.0475499
2.03493,0.129097,-0.142582
2.06093,0.0298579,-0.168262
2.06347,0.0298947,0.0360218
1.99922,0.225309,-0.128938
2.09122,-0.0719299,-0.121859
2.0337,0.129019,-0.0949235
2.06495,0.0299161,-0.108231
1.99371,0.224689,-0.0817402
2.02338,0.128365,-0.0471777
1.99981,0.218309,-0.0351142
2.05501,0.022597,-0.0598101
2.05517,0.0225989,-0.411062
2.03235,0.121812,0
2.08636,-0.0790557,-0.0243066
2.03187,0.121783,-0.316679
2.05926,0.0226438,-0.262133
2.00008,0.218338,0.0116936
2.06784,0.0227382,-0.012019
2.03257,0.121825,-0.219335
2.09339,-0.0793221,-0.195554
2.03979,0.122258,0.0475499
2.03139,0.121754,-0.142303
2.06899,0.0227508,-0.168913
2.07156,0.0227791,0.0361614
1.99602,0.217895,-0.128683
2.09494,-0.079381,-0.122092
2.02891,0.121606,0.118371
2.03414,0.121919,-0.0949235
2.06504,0.0227074,-0.108231
2.00641,0.219029,-0.0822287
2.02781,0.12154,-0.0472707
2.00053,0.211676,-0.0351142
2.05907,0.0158124,-0.0599265
2.03275,0.115071,0
2.09408,-0.0863039,-0.0243997
2.03226,0.115044,-0.316679
2.07123,0.0159058,-0.263648
2.00477,0.212125,0.0117168
2.0759,0.0159417,-0.0120655
2.04091,0.115533,-0.220192
2.09312,-0.0862642,-0.195554
2.04417,0.115718,0.0476429
2.03576,0.115242,-0.142582
2.06507,0.0158585,-0.168587
2.07162,0.0159088,0.0361614
2.0007,0.211694,-0.128938
2.10265,-0.0866571,-0.122557
2.04127,0.115554,0.119069
2.03453,0.115173,-0.0949235
2.0691,0.0158894,-0.10844
1.99917,0.211532,-0.0819031
2.0322,0.11504,-0.0473638
2.00921,0.205506,-0.0352539
2.06311,0.00864298,-0.0600429
2.02914,0.107764,0
2.0287,0.107741,-0.316064
2.0673,0.00866055,-0.263143
2.07595,0.00869676,-0.0120655
2.03336,0.107988,-0.219335
2.0928,-0.0935685,-0.195554
2.04856,0.108795,0.047736
2.04412,0.10856,-0.14314
2.0691,0.00866807,-0.168913
2.06767,0.00866207,0.0360916
1.99746,0.204304,-0.128683
2.10632,-0.0941731,-0.12279
2.03368,0.108006,0.118604
2.03891,0.108283,-0.0951096
2.06515,0.00865152,-0.108231
1.9999,0.204554,-0.0819031
2.03658,0.108159,-0.0474568
2.0139,0.198884,-0.0353237
2.07512,0.00144916,-0.060392
2.03749,0.101076,0
2.03301,0.100854,-0.316679
2.06732,0.00144371,-0.263143
2.00621,0.198125,0.0117168
2.07996,0.00145254,-0.0120888
2.04166,0.101283,-0.220192
2.09644,-0.101066,-0.195926
2.04893,0.101643,0.047736
2.0405,0.101226,-0.142861
2.0731,0.00144775,-0.169238
2.07168,0.00144676,0.0361614
1.99816,0.19733,-0.128683
2.10598,-0.101526,-0.12279
2.03804,0.101103,0.118836
2.04327,0.101363,-0.0952957
2.06916,0.001445,-0.10844
2.0006,0.197571,-0.0819031
2.03295,0.100851,-0.0473638
2.00661,0.191095,-0.0351841
2.07112,-0.00578277,-0.0602756
2.03783,0.0939641,0
2.03335,0.0937574,-0.316679
2.07128,-0.00578323,-0.263648
2.01087,0.1915,0.0117401
2.07196,-0.00578512,-0.0120423
2.03803,0.0939732,-0.219763
2.0921,-0.108177,-0.195554
2.04927,0.0944912,0.047736
2.04483,0.0942866,-0.14314
2.06911,-0.00577717,-0.168913
2.07568,-0.00579551,0.0362312
2.00281,0.190733,-0.128938
2.10561,-0.108876,-0.12279
2.03838,0.0939891,0.118836
2.04361,0.0942304,-0.0952957
2.07714,-0.0057996,-0.108859
2.01321,0.191724,-0.0823915
2.03728,0.0939386,-0.0474568
2.01125,0.184454,-0.0352539
2.03815,0.0868496,0
2.04157,0.0869951,-0.317908
2.07125,-0.0130139,-0.263648
2.01152,0.184479,0.0117401
2.07592,-0.0130433,-0.0120655
2.03835,0.086858,-0.219763
2.05358,0.0875071,0.047829
2.04515,0.0871477,-0.14314
2.07705,-0.0130503,-0.169564
2.01071,0.184404,0.0587629
2.07964,-0.0130666,0.036301
2.00744,0.184105,-0.129194
2.10921,-0.116446,-0.123022
2.04393,0.0870957,-0.0952957
2.07311,-0.0130256,-0.108649
2.00591,0.183965,-0.0820659
2.0376,0.0868261,-0.0474568
2.01985,0.178135,-0.0353935
2.06703,-0.0202037,-0.0601592
2.04186,0.0798676,-0.317908
2.07516,-0.0202831,-0.264153
2.01216,0.177456,0.0117401
2.08387,-0.0203682,-0.012112
2.04659,0.0800527,-0.22062
2.09924,-0.123248,-0.196298
2.04988,0.0801814,0.047736
2.04544,0.0800077,-0.14314
2.06902,-0.0202231,-0.168913
2.01205,0.177447,-0.12945
2.10879,-0.123808,-0.123022
2.04297,0.0799113,0.119069
2.0522,0.0802724,-0.095668
2.07306,-0.0202626,-0.108649
2.01052,0.177312,-0.0822287
2.04189,0.0798688,-0.0475499
2.02049,0.170731,-0.0353935
2.07493,-0.0278866,-0.060392
2.04272,0.0724044,0
2.04214,0.0723838,-0.317908
2.07904,-0.0279417,-0.264658
2.01279,0.170081,0.0117401
2.07978,-0.0279516,-0.0120888
2.04687,0.0725515,-0.22062
2.09878,-0.13094,-0.196298
2.05815,0.0729514,0.0479221
2.0497,0.072652,-0.143419
2.0769,-0.027913,-0.169564
2.00871,0.169735,-0.129194
2.11231,-0.131785,-0.123255
2.05922,0.0729892,0.119999
2.04849,0.072609,-0.0954819
2.07696,-0.0279138,-0.108859
2.01514,0.170279,-0.0823915
2.04616,0.0725264,-0.0476429
2.01706,0.163706,-0.0353237
2.07483,-0.0347677,-0.060392
2.05094,0.0658864,0
2.04236,0.0656108,-0.317908
2.07893,-0.0348364,-0.264658
2.01335,0.163404,0.0117401
2.08767,-0.0349829,-0.0121353
2.04312,0.0656351,-0.220192
2.10231,-0.138161,-0.19667
2.06238,0.0662538,0.0480151
2.05791,0.0661103,-0.143977
2.0768,-0.0348007,-0.169564
2.01324,0.163395,-0.12945
2.11584,-0.139051,-0.123487
2.05271,0.0659433,-0.095668
2.07686,-0.0348017,-0.108859
2.01968,0.163918,-0.0825544
2.04239,0.0656118,-0.0475499
2.01762,0.156665,-0.0353237
2.08269,-0.0421705,-0.0606247
2.05916,0.0589572,0
2.04653,0.0585958,-0.318523
2.08276,-0.042172,-0.265163
2.01789,0.156687,0.0117633
2.09154,-0.0423495,-0.0121585
2.03936,0.0583905,-0.219763
2.0546,0.0588268,0.047829
2.08862,-0.0422906,-0.17054
2.01707,0.156623,0.0588792
2.01777,0.156677,-0.129706
2.11136,-0.146159,-0.123255
2.05293,0.058779,-0.095668
2.0887,-0.0422922,-0.109487
2.02024,0.156869,-0.0825544
2.04661,0.0585979,-0.0476429
2.01815,0.149621,-0.0353237
2.07853,-0.0493458,-0.0605083
2.05135,0.0515675,0
2.04672,0.0514512,-0.318523
2.08657,-0.0495366,-0.265668
2.01843,0.149641,0.0117633
2.08338,-0.0494608,-0.012112
2.05148,0.0515707,-0.221048
2.10526,-0.153123,-0.197041
2.05879,0.0517545,0.0479221
2.06231,0.051843,-0.144256
2.08846,-0.0495815,-0.17054
2.02159,0.149876,0.0589956
2.02229,0.149928,-0.129962
2.11482,-0.153818,-0.123487
2.04913,0.0515116,-0.0954819
2.08854,-0.0495835,-0.109487
2.02874,0.150406,-0.08288
2.0468,0.051453,-0.0476429
2.02664,0.143138,-0.0354633
2.08235,-0.0567103,-0.0606247
2.05552,0.0444927,0
2.05084,0.0443914,-0.319138
2.08639,-0.0568204,-0.265668
2.02293,0.142876,0.0117866
2.09519,-0.0570601,-0.0121818
2.05165,0.0444089,-0.221048
2.06296,0.0446537,0.0480151
2.0545,0.0444706,-0.143698
2.08429,-0.0567633,-0.170214
2.0228,0.142867,-0.129962
2.11825,-0.161503,-0.12372
2.06128,0.0446174,-0.0960402
2.08437,-0.0567653,-0.109277
2.0173,0.142478,-0.0823915
2.05096,0.0443941,-0.047736
2.03511,0.136599,-0.0356029
2.08613,-0.0641015,-0.060741
2.05566,0.0373173,0
2.04703,0.0371607,-0.318523
2.09014,-0.0642247,-0.266173
2.02341,0.135814,0.0117866
2.06372,0.0374636,-0.222334
2.0711,0.0375975,0.0482012
2.06661,0.0375161,-0.144535
2.08807,-0.0641609,-0.17054
2.02259,0.135759,0.0589956
2.0193,0.135538,-0.129706
2.12166,-0.169214,-0.123952
2.06142,0.0374219,-0.0960402
2.08016,-0.0639181,-0.109068
2.02975,0.136239,-0.08288
2.05111,0.0372346,-0.047736
2.03158,0.12924,-0.0355331
2.08989,-0.0715199,-0.0608574
2.06378,0.0302587,0
2.0511,0.0300729,-0.319138
2.09387,-0.071656,-0.266678
2.02787,0.129004,0.0118098
2.05589,0.030143,-0.221477
2.07122,0.0303678,0.0482012
2.06673,0.030302,-0.144535
2.09181,-0.0715856,-0.170865
2.02704,0.128952,0.059112
2.02375,0.128742,-0.129962
2.11707,-0.176287,-0.12372
2.06154,0.030226,-0.0960402
2.0919,-0.0715887,-0.109696
2.03021,0.129153,-0.08288
2.05522,0.0301333,-0.047829
2.03601,0.122388,-0.0356029
2.05587,0.0229653,0
2.067,0.0230896,-0.321598
2.09361,-0.0789646,-0.266678
2.0283,0.121925,0.0118098
2.05598,0.0229664,-0.221477
2.07131,0.0231377,0.0482012
2.06682,0.0230876,-0.144535
2.09155,-0.078887,-0.170865
2.02419,0.121677,-0.129962
2.13634,-0.185402,-0.124883
2.06164,0.0230297,-0.0960402
2.09962,-0.0791915,-0.110115
2.03863,0.122545,-0.0832057
2.05532,0.022959,-0.047829
2.02844,0.114828,-0.0354633
2.05522,0.0157832,-0.319753
2.10125,-0.0865989,-0.267689
2.02872,0.114844,0.0118098
2.05605,0.0157896,-0.221477
2.06738,0.0158767,0.0481082
2.0629,0.0158423,-0.144256
2.09525,-0.0863515,-0.171191
2.02858,0.114836,-0.130218
2.0617,0.0158331,-0.0960402
2.09534,-0.0863556,-0.109906
2.03505,0.115202,-0.0830429
2.06738,0.0158767,-0.0481082
2.04079,0.108739,-0.0356727
2.05998,0.00898841,0
2.05526,0.0089678,-0.319753
2.09699,-0.0933899,-0.267184
2.05609,0.00897142,-0.221477
2.06342,0.00900343,0.0480151
2.06693,0.00901875,-0.144535
2.09495,-0.0932991,-0.171191
2.03226,0.108284,0.0592283
2.02895,0.108108,-0.130218
2.06574,0.00901355,-0.0962264
2.09904,-0.0934812,-0.110115
2.03143,0.10824,-0.08288
2.06342,0.00900343,-0.0480151
2.04915,0.102013,-0.0358123
2.0927,-0.10052,-0.0609738
2.068,0.00180467,0
2.05923,0.00179701,-0.320368
2.03345,0.101231,0.0118331
2.07201,0.00180817,-0.22319
2.07944,0.00181465,0.0483873
2.06695,0.00180376,-0.144535
2.10257,-0.100994,-0.171842
2.03661,0.101389,0.0593447
2.03331,0.101224,-0.130473
2.06975,0.0018062,-0.0964125
2.09072,-0.100424,-0.109696
2.03978,0.101546,-0.0832057
2.06744,0.00180418,-0.0481082
2.03752,0.0939489,-0.0356029
2.09631,-0.108396,-0.0610901
2.06399,-0.00576376,0
2.06712,-0.00577251,-0.321598
2.0338,0.0937774,0.0118331
2.06405,-0.00576393,-0.222334
2.07094,-0.00578315,-0.144814
2.09423,-0.108288,-0.171191
2.03697,0.0939234,0.0593447
2.03765,0.0939547,-0.130729
2.06975,-0.00577984,-0.0964125
2.1023,-0.108705,-0.110324
2.04014,0.0940694,-0.0832057
2.06343,-0.0057622,-0.0480151
2.04182,0.0873626,-0.0356727
2.09993,-0.115566,-0.0612065
2.06796,-0.0126326,0
2.06709,-0.0126273,-0.321598
2.068,-0.0126328,-0.222762
2.07888,-0.0126993,-0.145372
2.1058,-0.115889,-0.172167
2.04127,0.087339,0.0594611
2.04194,0.0873677,-0.130985
2.06972,-0.0126433,-0.0964125
2.10592,-0.115896,-0.110534
2.04443,0.0874744,-0.0833685
2.05011,0.0805489,-0.0358123
2.0719,-0.0198895,0
2.06309,-0.0198048,-0.320983
2.04239,0.0802457,0.0118796
2.06794,-0.0198514,-0.222762
2.08282,-0.0199942,-0.145652
2.10538,-0.123239,-0.172167
2.04156,0.0802131,0.0594611
2.04622,0.0803962,-0.131241
2.06966,-0.0198679,-0.0964125
2.10151,-0.123013,-0.110324
2.04472,0.0803374,-0.0833685
2.07134,-0.0198841,-0.0482012
2.04638,0.0732491,-0.0357425
2.07182,-0.0271216,0
2.063,-0.0270062,-0.320983
2.04266,0.073116,0.0118796
2.06786,-0.0270698,-0.222762
2.07875,-0.0272123,-0.145372
2.10494,-0.130587,-0.172167
2.04582,0.0732293,0.0595774
2.05048,0.0733959,-0.131497
2.07357,-0.0271446,-0.0965986
2.10506,-0.130595,-0.110534
2.04899,0.0733425,-0.0835313
2.08326,-0.0272713,-0.0484804
2.05462,0.0663637,-0.0358821
2.07971,-0.0344861,0
2.06685,-0.0342728,-0.321598
2.0469,0.0661144,0.0119028
2.07173,-0.0343537,-0.22319
2.08263,-0.0345344,-0.145652
2.04607,0.0660876,0.0595774
2.04673,0.066109,-0.131241
2.07746,-0.0344488,-0.0967847
2.10459,-0.137942,-0.110534
2.04524,0.0660607,-0.0833685
2.07915,-0.0344768,-0.0483873
2.05483,0.0591914,-0.0358821
2.07958,-0.0417455,0
2.07462,-0.0416459,-0.322828
2.04712,0.058969,0.0119028
2.07557,-0.041665,-0.223619
2.08249,-0.0418039,-0.145652
2.10795,-0.145554,-0.172493
2.04296,0.0588493,-0.130985
2.08132,-0.0417804,-0.0969709
2.11207,-0.145838,-0.110952
2.04945,0.0590362,-0.0835313
2.08302,-0.0418144,-0.0484804
2.05103,0.0519171,-0.0358123
2.08342,-0.0490986,0
2.05131,0.0519241,0.011926
2.08632,-0.049167,-0.145931
2.10743,-0.152911,-0.172493
2.05047,0.051903,0.0596938
2.05512,0.0520207,-0.131753
2.08516,-0.0491395,-0.097157
2.11553,-0.153499,-0.111162
2.05763,0.0520842,-0.083857
2.07886,-0.0489911,-0.0483873
2.06319,0.0450191,-0.0360218
2.09523,-0.0566953,0
2.05148,0.0447634,0.011926
2.08318,-0.0563693,-0.224475
2.08614,-0.0564493,-0.145931
2.11483,-0.160871,-0.173144
2.05864,0.0449197,0.0599265
2.05529,0.0448467,-0.131753
2.08098,-0.0563097,-0.0969709
2.111,-0.160579,-0.110952
2.0618,0.0449886,-0.0840198
2.08267,-0.0563555,-0.0484804
2.06334,0.0378169,-0.0360218
2.05962,0.0377487,0.0119725
2.08297,-0.0636406,-0.224475
2.08593,-0.0637309,-0.145931
2.11823,-0.168569,-0.173469
2.05478,0.0376601,0.0598101
2.05544,0.0376721,-0.131753
2.08077,-0.0635733,-0.0969709
2.05795,0.0377181,-0.083857
2.08646,-0.0637472,-0.0485734
2.05574,0.0304997,0.0119493
2.08671,-0.0710465,-0.224904
2.09367,-0.0712834,-0.146489
2.0589,0.0305467,0.0599265
2.05556,0.030497,-0.131753
2.08852,-0.0711081,-0.0973431
2.05807,0.0305343,-0.083857
2.09822,-0.0714381,-0.0488526
2.07155,0.023502,-0.0361614
2.05983,0.0233691,0.0119725
2.09043,-0.0784792,-0.225332
2.0974,-0.0787409,-0.146768
2.059,0.0233596,0.0599265
2.05166,0.0232763,-0.131497
2.08826,-0.078398,-0.0973431
2.06216,0.0233954,-0.0840198
2.09396,-0.0786118,-0.0487595
2.06362,0.016208,-0.0360218
2.0639,0.0162102,0.0119958
2.09312,-0.0858981,-0.146489
2.0637,0.0162086,-0.132264
2.09596,-0.0860146,-0.0977154
2.06223,0.016197,-0.0840198
2.08968,-0.0857566,-0.0486665
2.07166,0.00903939,-0.0361614
2.06395,0.00900571,0.0119958
2.08882,-0.0930264,-0.14621
2.06774,0.00902226,-0.13252
2.07426,0.00905072,-0.0845083
2.09735,-0.0934062,-0.0488526
2.07168,0.00180788,-0.0361614
2.07196,0.00180813,0.0120423
2.08949,-0.100365,-0.225332
2.09646,-0.1007,-0.146768
2.07175,0.00180794,-0.132776
2.09132,-0.100453,-0.0975292
2.07028,0.00180666,-0.0843455
2.09302,-0.100535,-0.0487595
2.07568,-0.00470959,-0.0362312
2.06796,-0.00469207,0.012019
2.09711,-0.107336,-0.226189
2.10012,-0.10749,-0.147047
2.07574,-0.00470972,-0.133032
2.09498,-0.107227,-0.0977154
2.07028,-0.00469733,-0.0843455
2.07565,-0.011955,-0.0362312
2.06793,-0.0119105,0.012019
2.09973,-0.11482,-0.147047
2.06772,-0.0119093,-0.13252
2.10258,-0.114976,-0.0980876
2.07824,-0.0119699,-0.0846712
2.07959,-0.0196003,-0.036301
2.07587,-0.0195652,0.0120655
2.10328,-0.122747,-0.147326
2.07565,-0.0195631,-0.133032
2.10613,-0.122914,-0.0982737
2.08218,-0.0196247,-0.084834
2.07951,-0.0268593,-0.036301
2.07979,-0.0268629,0.0120888
2.09982,-0.129902,-0.226617
2.1108,-0.130581,-0.147884
2.08355,-0.0269115,-0.133543
2.1017,-0.130018,-0.0980876
2.0861,-0.0269443,-0.0849968
2.09141,-0.0339498,-0.0365104
2.10637,-0.137321,-0.147605
2.07547,-0.0336911,-0.133032
2.082,-0.0337971,-0.084834
2.09127,-0.0412499,-0.0365104
2.10588,-0.144672,-0.147605
2.08332,-0.041093,-0.133543
2.10874,-0.144869,-0.0984599
2.08187,-0.0410644,-0.084834
2.09111,-0.0489146,-0.0365104
2.10932,-0.152678,-0.147884
2.08715,-0.0488219,-0.133799
2.12015,-0.153462,-0.0990182
2.0817,-0.0486945,-0.084834
2.09094,-0.0558487,-0.0365104
2.11676,-0.160274,-0.148442
2.09096,-0.0558494,-0.134055
2.08952,-0.0558109,-0.0851596
2.09471,-0.0636334,-0.0365802
2.11616,-0.168032,-0.148442
2.09074,-0.0635128,-0.134055
2.0933,-0.0635903,-0.0853225
2.0945,-0.0709456,-0.134311
2.09306,-0.0708969,-0.0853225
2.09824,-0.0776725,-0.0366501
2.09028,-0.0773776,-0.134055
2.09682,-0.0776199,-0.0854853
2.10194,-0.085525,-0.0367199
2.12226,-0.190527,-0.149
2.08998,-0.0850383,-0.134055
2.09253,-0.0851422,-0.0853225
2.08969,-0.0919685,-0.134055
2.09623,-0.0922565,-0.0854853
2.09334,-0.0994517,-0.134311
2.09989,-0.0997628,-0.0856481
2.09697,-0.106962,-0.134567
2.09953,-0.107092,-0.0856481
2.10451,-0.11545,-0.135078
2.10309,-0.115372,-0.085811
2.10011,-0.122563,-0.134823
2.10667,-0.122945,-0.0859738
2.10768,-0.12965,-0.135334
2.11824,-0.130299,-0.0864623
2.10719,-0.137374,-0.135334
2.11068,-0.145002,-0.13559
2.11417,-0.152288,-0.135846
2.1136,-0.160035,-0.135846
2.12377,-0.182818,-0.136613
2.12706,-0.190958,-0.136869
