2.1662,0.644948,-0.131627
2.16472,0.635879,-0.131394
2.16491,0.628147,-0.210425
2.16298,0.627585,-0.131162
2.15364,0.616732,-0.130464
2.15019,0.607226,-0.208567
2.14051,0.604493,-0.129534
2.14846,0.598649,-0.208195
2.12722,0.592732,-0.128604
2.13517,0.586923,-0.206708
2.12158,0.583185,-0.128138
2.13327,0.578796,-0.206336
2.12735,0.577192,-0.128371
2.1136,0.565152,-0.0254707
2.12768,0.568916,-0.205592
2.11788,0.566297,-0.127673
2.11536,0.558509,-0.0254707
2.10421,0.555563,-0.126743
2.10569,0.548098,-0.025331
2.11599,0.550779,-0.204105
2.10227,0.547208,-0.126511
2.10381,0.539384,-0.0252844
2.10642,0.540053,-0.20299
2.10039,0.538508,-0.126278
2.09792,0.530077,-0.0251913
2.10057,0.530745,-0.202246
2.09839,0.530195,-0.126045
2.08803,0.520217,-0.0250516
2.09845,0.522814,-0.201875
2.08803,0.520217,0.0250516
2.09238,0.521303,-0.12558
2.08206,0.511019,-0.0249585
2.08866,0.512638,-0.200759
2.08644,0.512093,-0.125115
2.07891,0.502174,-0.199644
2.16491,0.636346,-0.184209
2.08442,0.503504,-0.124883
2.16147,0.635335,-0.11807
2.06894,0.49251,-0.198529
2.07001,0.492765,0.0247722
2.17084,0.630275,-0.184535
2.07442,0.493814,-0.124185
2.15206,0.624822,-0.117442
2.06783,0.484624,-0.0247257
2.06677,0.484376,-0.198157
2.06393,0.483711,0.0246791
2.15003,0.616104,-0.182582
2.07224,0.485659,-0.123952
2.15422,0.617307,-0.117442
2.06457,0.476263,-0.197785
2.05392,0.473806,0.0245394
2.14449,0.606425,-0.181931
2.13715,0.604348,-0.116395
2.12982,0.593856,-0.0643483
2.05853,0.466931,-0.197041
2.05174,0.46539,0.0244928
2.13134,0.594279,-0.180629
2.1278,0.593293,-0.115767
2.04841,0.457498,-0.195926
2.12561,0.585092,-0.179978
2.05383,0.45871,-0.122557
2.13361,0.587294,-0.115976
2.11452,0.574107,-0.0637664
2.0461,0.44949,-0.195554
2.03533,0.447123,0.02426
2.13533,0.579758,-0.180629
2.04762,0.449824,-0.122092
2.12408,0.576702,-0.115348
2.10879,0.564654,-0.0635337
2.04377,0.441505,-0.195183
2.02514,0.437482,0.0241203
2.11809,0.567145,-0.179002
2.11451,0.566185,-0.11472
2.10688,0.556268,-0.0634174
2.11776,0.55914,-0.2788
2.1162,0.55873,-0.178676
2.10488,0.555741,-0.114092
2.0972,0.545889,-0.0630683
2.10434,0.547747,-0.27678
2.01249,0.420064,0.0239341
2.11042,0.549331,-0.178025
2.09908,0.546378,-0.113674
2.09125,0.536944,-0.0628356
2.1023,0.539779,-0.276275
2.0921,0.537162,-0.0125537
2.0287,0.416432,-0.193324
2.01779,0.414193,0.0239806
2.10065,0.539356,-0.177049
2.09701,0.538422,-0.113464
2.08933,0.528295,-0.0627192
2.01537,0.406004,-0.0239341
2.09657,0.530124,-0.275265
2.09018,0.528509,-0.0125305
2.0224,0.40742,-0.19258
2.01145,0.405214,0.0238875
2.10261,0.531652,-0.177049
2.0951,0.529752,-0.113255
2.07943,0.518461,-0.0623701
2.09831,0.523168,-0.275265
2.01593,0.399164,-0.191837
2.00494,0.396988,0.0237944
2.08889,0.520818,-0.175747
2.08522,0.519902,-0.112627
2.07735,0.510246,-0.0622537
2.08471,0.512055,-0.273244
1.99453,0.387698,0.0236547
2.16436,0.645223,-0.157929
2.08295,0.511622,-0.175096
2.08179,0.511338,0.037418
2.07926,0.510715,-0.112208
2.07523,0.502051,-0.0621374
1.99587,0.380733,-0.0236547
2.08649,0.504774,-0.273244
1.99194,0.379983,0.0236081
2.15511,0.634284,-0.157092
2.07698,0.502473,-0.174445
2.07579,0.502187,0.0372783
2.08103,0.503453,-0.112208
2.06919,0.492952,-0.0619047
1.99326,0.373029,-0.0236081
2.08052,0.49565,-0.272234
2.16114,0.627872,-0.157371
2.07484,0.494297,-0.17412
2.06975,0.493085,0.0371387
2.14873,0.624264,-0.10423
2.07112,0.49341,-0.11158
2.06311,0.483899,-0.0616719
1.98275,0.363902,-0.0234684
2.07837,0.487478,-0.271729
2.06395,0.484096,-0.0123213
2.15565,0.618124,-0.156813
2.06879,0.48523,-0.173469
2.05589,0.482204,0.0368595
1.98738,0.364753,-0.117673
2.14321,0.614557,-0.103857
2.06505,0.484353,-0.111162
2.06089,0.475795,-0.0615556
2.07233,0.478435,-0.270719
1.97613,0.355562,0.0233753
2.14244,0.606249,-0.155696
2.0627,0.476212,-0.172818
1.98471,0.357106,-0.117441
2.04838,0.472905,0.0856481
2.13766,0.604895,-0.103485
2.05505,0.474445,-0.110534
2.05085,0.465941,-0.0612065
2.06625,0.46944,-0.269709
2.14508,0.598916,-0.239897
1.97342,0.347968,0.0233287
2.1407,0.597694,-0.155417
2.06046,0.468126,-0.172493
2.0475,0.465181,0.0366501
2.04222,0.463981,0.0853225
2.1359,0.596356,-0.103299
2.05669,0.467269,-0.110534
1.96674,0.339715,-0.0232356
2.06013,0.460493,-0.268699
2.13948,0.589312,-0.239041
2.13123,0.587039,-0.15458
2.0543,0.459191,-0.171842
2.0335,0.454541,0.0363708
1.96748,0.339843,-0.116278
2.03212,0.454233,0.084834
2.13412,0.587835,-0.103113
2.05052,0.458344,-0.110115
2.12044,0.584065,-0.0511789
2.04233,0.449036,-0.0608574
2.05397,0.451595,-0.267689
2.04316,0.449219,-0.0121585
2.13002,0.578712,-0.237755
2.13327,0.579596,-0.15458
2.03898,0.448299,0.0364406
2.02589,0.445421,0.0845083
2.12074,0.576192,-0.102368
2.12246,0.57666,-0.0511789
2.03216,0.43937,-0.0605083
2.04778,0.442746,-0.266678
2.03299,0.439549,-0.0120888
2.1205,0.568186,-0.23647
1.9646,0.325239,-0.185888
2.11601,0.566983,-0.153185
2.02881,0.438644,0.0362312
1.96193,0.324796,-0.115813
2.02353,0.437503,0.0843455
2.12273,0.568786,-0.102368
2.04195,0.441486,-0.109487
2.1206,0.568214,-0.0510859
2.03354,0.432983,-0.0605083
2.03709,0.43374,-0.416553
2.10361,0.556584,0
2.02654,0.431493,-0.0120423
2.11843,0.560504,-0.236042
1.95775,0.317788,-0.185145
2.11392,0.559311,-0.152906
2.03935,0.434221,-0.170214
2.02235,0.430602,0.0360916
1.959,0.31799,-0.11558
2.01316,0.428646,0.083857
2.10906,0.558025,-0.101624
2.03161,0.432573,-0.108859
2.10691,0.557457,-0.0507136
2.01938,0.422607,-0.0600429
2.04243,0.42743,-0.417338
1.95143,0.309775,-0.0230028
2.03514,0.425904,-0.264658
2.02412,0.423598,-0.012019
2.11267,0.551099,-0.235185
1.95885,0.310953,-0.185145
1.94748,0.309148,0.0229562
2.10428,0.548908,-0.152069
2.02524,0.423834,-0.168913
2.01993,0.422721,0.0360218
1.95221,0.309898,-0.115115
2.00682,0.419979,0.0835313
2.10326,0.548643,-0.101252
2.02529,0.423843,-0.10844
2.1011,0.54808,-0.0505275
2.04007,0.419509,-0.416553
2.09583,0.538897,0
1.9446,0.301735,-0.0229097
2.03272,0.417999,-0.264153
2.01775,0.414919,-0.0119725
2.10303,0.54075,-0.2339
1.95205,0.302892,-0.184401
2.10231,0.540566,-0.15179
2.02671,0.416762,-0.168913
2.00964,0.413251,0.0358123
1.94144,0.301245,-0.114418
2.00828,0.412972,0.0835313
2.10517,0.541299,-0.101252
1.99937,0.411141,0.166634
2.09913,0.539747,-0.0504345
2.03383,0.410831,-0.414984
2.08994,0.529613,0
2.01861,0.407757,-0.262133
2.00742,0.405497,-0.0119028
2.08948,0.529497,-0.232186
1.94522,0.294882,-0.183657
2.09645,0.531263,-0.151232
2.00323,0.40465,0.0356727
1.94248,0.294466,-0.114418
1.99796,0.403585,0.0830429
2.09155,0.530021,-0.100507
2.02036,0.408111,-0.108021
1.98907,0.401791,0.165658
2.09325,0.530452,-0.0502484
2.00801,0.398324,-0.0595774
2.02756,0.402202,-0.413415
2.08013,0.519406,0
2.02002,0.400708,-0.262133
2.00098,0.39693,-0.0118563
2.07974,0.51931,-0.230901
1.93442,0.28634,-0.182542
1.93083,0.285809,0.0227234
2.08668,0.521041,-0.150395
1.99286,0.39532,0.0354633
1.93164,0.285929,-0.11372
1.99151,0.395052,0.0827172
2.08563,0.52078,-0.100135
2.0061,0.397947,-0.107184
1.99046,0.394845,0.165658
2.07957,0.519266,-0.0498762
2.00154,0.389785,-0.0593447
2.01355,0.392124,-0.410277
2.07028,0.509276,0
2.07768,0.511097,-0.230473
1.93147,0.279017,-0.18217
1.92786,0.278496,0.0226768
2.08074,0.511848,-0.149837
2.0114,0.391705,-0.167285
2.00208,0.38989,0.0356029
1.92868,0.278614,-0.113487
1.98896,0.387334,0.0825544
2.08744,0.513497,-0.100135
2.00356,0.390179,-0.106975
1.97618,0.384846,0.164356
2.08137,0.512004,-0.0498762
1.99503,0.381294,-0.059112
2.0072,0.38362,-0.408708
2.06816,0.501104,0
2.07815,0.503524,-0.332666
2.00328,0.382871,-0.259607
2.08332,0.504778,-0.230901
1.92454,0.271161,-0.181427
2.07863,0.503642,-0.149558
2.00492,0.383184,-0.166634
1.98379,0.379145,0.0352539
1.92964,0.27188,-0.113487
1.98637,0.379639,0.0823915
2.08145,0.504325,-0.0997627
1.99314,0.380932,-0.106347
1.97751,0.377945,0.164356
2.07149,0.50191,-0.049597
1.99242,0.373592,-0.0589956
2.00467,0.375889,-0.407924
2.06211,0.492027,0
2.0722,0.494434,-0.331436
1.99681,0.374415,-0.258597
2.06186,0.491966,-0.228331
1.92548,0.264443,-0.181427
1.91787,0.263398,0.0225371
2.07262,0.494532,-0.149
1.99449,0.37398,-0.165658
1.9851,0.372219,0.0352539
1.91871,0.263514,-0.11279
1.97983,0.371231,0.0820659
1.99446,0.373974,-0.106347
1.96706,0.368837,0.16338
2.06544,0.492821,-0.0494109
1.98978,0.365911,-0.0588792
1.99826,0.36747,-0.406355
2.06382,0.484825,0
2.06622,0.485389,-0.330207
1.9903,0.366007,-0.257587
1.98272,0.364613,-0.0117168
2.06356,0.484765,-0.228331
1.91454,0.256136,-0.180312
2.07044,0.486381,-0.148721
1.98794,0.365574,-0.165007
1.98245,0.364564,0.0351841
1.9117,0.255755,-0.112325
1.97718,0.363594,0.0819031
2.0538,0.482472,-0.0982737
1.98789,0.365565,-0.105928
1.96442,0.361247,0.163054
2.05937,0.483779,-0.0492248
1.98317,0.357544,-0.0586465
1.98409,0.357708,-0.403217
2.05381,0.474914,0
2.0679,0.478173,-0.330207
1.99156,0.359057,-0.257587
1.98004,0.35698,-0.0116936
2.05362,0.47487,-0.227046
1.90753,0.248422,-0.179568
2.06047,0.476454,-0.147884
1.98921,0.358632,-0.165007
1.97978,0.356931,0.0351142
1.91258,0.24908,-0.112325
1.96664,0.354562,0.0814146
2.05158,0.474399,-0.0980876
1.98129,0.357205,-0.105509
1.96567,0.354387,0.163054
2.1303,0.603617,-0.0902073
2.05325,0.474785,-0.0490387
1.9726,0.348533,-0.0582974
1.98146,0.350098,-0.402433
2.04765,0.465967,0
2.05414,0.467444,-0.327747
1.98108,0.350032,-0.256072
1.97734,0.34937,-0.0116703
2.05139,0.466817,-0.226617
1.90443,0.241262,-0.179196
1.90068,0.240786,0.0223043
2.05823,0.468374,-0.147605
1.97867,0.349605,-0.164031
1.96919,0.347931,0.0349048
2.12979,0.59545,-0.14173
1.90552,0.241399,-0.111859
1.96786,0.347696,0.0814146
2.04933,0.466349,-0.0979015
1.97073,0.348202,-0.104881
1.95511,0.345443,0.162078
2.051,0.466728,-0.0489456
2.12038,0.585246,-0.0383953
1.96586,0.340625,-0.0580647
1.97875,0.342856,-0.401648
2.04528,0.4583,0
2.04797,0.458902,-0.326517
1.9705,0.341428,-0.254557
2.04904,0.459143,-0.226189
1.90127,0.234458,-0.178824
1.89353,0.233503,0.0222112
2.05198,0.459801,-0.147047
1.96803,0.341,-0.163054
1.9664,0.340717,0.034835
2.12021,0.585198,-0.140962
1.96507,0.340486,0.0812517
2.04697,0.458677,-0.0977154
1.96794,0.340984,-0.104672
1.94839,0.337597,0.161427
2.04083,0.457302,-0.0486665
2.13013,0.579941,-0.0385349
1.9631,0.333091,-0.0579483
1.97606,0.335291,-0.400864
2.03906,0.449435,0
2.04184,0.450048,-0.325287
1.96386,0.33322,-0.253547
2.03898,0.449419,-0.224904
1.89812,0.227346,-0.178453
1.89036,0.226416,0.0221646
1.96528,0.333461,-0.162729
1.96363,0.333181,0.0347652
2.11068,0.574648,-0.140195
1.89918,0.227473,-0.111394
2.02781,0.446956,0.120929
1.9623,0.332956,0.0810889
2.04465,0.450669,-0.0975292
1.9573,0.332107,-0.104044
1.9417,0.329459,0.160776
2.03069,0.447592,-0.0483873
2.1051,0.565243,-0.0380462
1.94453,0.322961,-0.0573665
1.96561,0.326463,-0.39851
2.03181,0.440407,-0.323443
1.96892,0.327013,-0.254052
1.9611,0.325714,-0.0115541
2.03276,0.440614,-0.224047
1.88704,0.21934,-0.177337
1.9625,0.325946,-0.162403
1.95689,0.325015,0.0346256
2.10497,0.565206,-0.139683
1.89203,0.219921,-0.110929
2.02155,0.438184,0.120464
1.94768,0.323485,0.0804376
2.0384,0.441836,-0.097157
1.95845,0.325273,-0.104044
1.9389,0.322027,0.160451
2.02443,0.438807,-0.0482012
2.09952,0.55511,-0.0379066
1.9497,0.316132,-0.0574829
1.95524,0.31703,-0.396157
2.03735,0.433424,-0.324057
1.95842,0.317545,-0.252536
2.09981,0.555186,0.0126235
2.03055,0.431977,-0.223619
1.88391,0.211647,-0.176966
1.87607,0.210767,0.0219784
2.03732,0.433418,-0.145652
1.95193,0.316493,-0.161427
2.09554,0.554058,-0.138916
1.88096,0.211316,-0.110232
2.01931,0.429587,0.120232
1.94496,0.315364,0.0802748
2.03618,0.433174,-0.0969709
1.94785,0.315832,-0.103416
1.94406,0.315217,0.160776
2.10197,0.555756,-0.0885791
2.02219,0.430198,-0.0481082
2.09739,0.547501,-0.0378368
1.94279,0.30875,-0.0572502
1.94848,0.309654,-0.394588
2.02016,0.423137,0
2.01936,0.422969,-0.320983
1.95548,0.310768,-0.252031
2.0319,0.425596,-0.223619
1.8806,0.205295,-0.176594
1.87275,0.204437,0.0219318
2.03086,0.425379,-0.145093
1.94898,0.309733,-0.161102
2.09727,0.547472,-0.138916
2.01284,0.421603,0.119766
1.942,0.308624,0.0801119
2.02971,0.425136,-0.0965986
1.937,0.30783,-0.102788
1.93323,0.307231,0.1598
2.0921,0.546121,-0.0880906
2.0157,0.422203,-0.0479221
2.09154,0.538184,-0.0376972
1.932,0.300125,-0.0569011
1.94567,0.302249,-0.393804
2.01771,0.415277,0
1.87345,0.197899,-0.0219318
2.01308,0.414325,-0.319753
1.94872,0.302722,-0.251021
2.09182,0.538257,0.0125537
2.02168,0.416096,-0.222334
1.87735,0.198311,-0.176222
1.87345,0.197899,0.0219318
2.02452,0.416679,-0.144535
1.94217,0.301705,-0.160451
2.08371,0.536169,-0.137892
2.00647,0.412965,0.119301
1.93517,0.300617,0.0797863
2.02335,0.416438,-0.0962264
1.93412,0.300454,-0.102578
1.92641,0.299257,0.159149
2.08238,0.535828,-0.0876021
2.00933,0.413552,-0.047736
2.08565,0.528913,-0.0375576
1.93304,0.293379,-0.0569011
1.94283,0.294866,-0.393019
2.0113,0.406646,0
2.00677,0.405728,-0.318523
1.94191,0.294727,-0.250011
2.08206,0.528001,0.012484
2.01923,0.408247,-0.221905
1.87803,0.191756,-0.176222
1.85821,0.189733,0.0217455
2.02205,0.408818,-0.144256
1.93927,0.294325,-0.160125
1.93356,0.293459,0.0341369
2.07783,0.526929,-0.137381
1.87506,0.191453,-0.109766
2.00399,0.405166,0.119069
1.9362,0.29386,0.0797863
1.9312,0.293101,-0.102369
1.91956,0.291334,0.158498
2.08037,0.527572,-0.0874392
2.00292,0.404951,-0.0475499
2.07973,0.519692,-0.037418
1.92218,0.284873,-0.056552
1.93997,0.287509,-0.392235
1.86284,0.183639,-0.0217921
2.00817,0.398722,-0.318523
1.93508,0.286784,-0.249001
2.06836,0.516853,0.012391
2.00894,0.398874,-0.22062
1.87076,0.184419,-0.175478
2.01172,0.399427,-0.143419
1.9324,0.286386,-0.159474
2.07191,0.517739,-0.136869
1.99364,0.395837,0.118371
1.9214,0.284757,0.079135
2.01053,0.399191,-0.0954819
1.92826,0.285774,-0.10216
1.91662,0.284048,0.158173
2.07444,0.518371,-0.0871136
1.99648,0.3964,-0.0473638
2.06988,0.50956,-0.0372085
1.91921,0.277588,-0.0564356
1.93708,0.280174,-0.39145
2.00232,0.390299,0
2.00179,0.390197,-0.317293
1.92822,0.278891,-0.247991
2.07404,0.510585,0.0124142
2.00641,0.391098,-0.220192
1.86743,0.177511,-0.175107
1.85153,0.175999,0.0216524
2.00919,0.391639,-0.14314
1.93338,0.279639,-0.159474
2.07371,0.510503,-0.136869
1.85647,0.176469,-0.108604
1.98717,0.387347,0.117906
1.92238,0.278048,0.079135
2.00407,0.390641,-0.0951096
1.9253,0.278469,-0.10195
1.90971,0.276214,0.157522
2.07236,0.510171,-0.0869508
1.99785,0.389428,-0.0473638
2.07164,0.502331,-0.0372085
1.91225,0.26977,-0.0562029
1.93028,0.272314,-0.389881
1.99581,0.381804,0
1.85611,0.169899,-0.021699
1.99538,0.381721,-0.316064
1.92918,0.272158,-0.247991
2.06804,0.501457,0.0123678
1.99605,0.38185,-0.218906
1.85614,0.169902,-0.173991
1.99527,0.3817,0.0472707
1.84018,0.168441,0.0215127
1.99487,0.381623,-0.142024
1.91856,0.27066,-0.158173
2.05942,0.499369,0.0616719
2.06772,0.501379,-0.136357
1.85708,0.169988,-0.108604
1.98851,0.380408,0.117906
1.91147,0.26966,0.0786465
1.99757,0.382141,-0.0947374
1.9223,0.271188,-0.101741
1.90671,0.268989,0.157196
2.06636,0.50105,-0.0866251
1.98348,0.379446,-0.0469915
2.0656,0.493239,-0.0370689
1.90922,0.262549,-0.0560866
1.91956,0.263972,-0.387528
1.9932,0.374097,0
1.98893,0.373296,-0.314834
1.92618,0.264882,-0.247486
2.05421,0.490519,0.0122748
2.00128,0.375614,-0.219335
1.85672,0.163422,-0.173991
1.98873,0.373258,0.0470846
1.84076,0.162017,0.0215127
1.99619,0.374658,-0.142024
1.90764,0.262332,-0.157196
2.04949,0.489391,0.0613228
2.06557,0.493232,-0.136102
1.97805,0.371255,0.117208
1.90844,0.262442,0.0784836
1.91928,0.263933,-0.101532
1.89184,0.26016,0.155894
2.05643,0.491049,-0.0861366
1.9848,0.372521,-0.0469915
2.06342,0.48511,-0.0369991
1.91408,0.256413,-0.0562029
1.92047,0.257269,-0.387528
1.98662,0.365689,0
1.98244,0.36492,-0.313604
1.91923,0.257103,-0.246476
2.04423,0.480599,0.012205
1.98302,0.365025,-0.217193
1.85331,0.156604,-0.17362
1.83733,0.155253,0.0214662
1.98963,0.366243,-0.141466
1.90855,0.255671,-0.157196
2.03951,0.479489,0.0609738
2.05951,0.484191,-0.13559
1.8423,0.155674,-0.107673
1.97148,0.362901,0.116743
1.90538,0.255248,0.0783208
1.91227,0.25617,-0.101113
1.88879,0.253025,0.155569
2.05035,0.482038,-0.085811
1.97429,0.363418,-0.0467124
2.04554,0.473754,-0.0366501
1.90699,0.249029,-0.0559702
1.90965,0.249376,-0.385174
1.97995,0.357677,0
1.97975,0.357641,-0.312989
1.91614,0.250224,-0.245971
2.04192,0.472915,0.0121818
1.98031,0.357741,-0.216764
1.84985,0.150135,-0.173248
1.96761,0.355448,0.0465263
1.82986,0.148513,0.021373
1.90543,0.248825,-0.156871
2.04498,0.473625,0.0610901
1.90751,0.249097,0.0335784
2.04944,0.474657,-0.134823
1.84281,0.149564,-0.107673
1.96088,0.354232,0.116045
1.88641,0.246341,0.0775067
1.98174,0.358,-0.0938067
1.90915,0.249311,-0.100904
1.96129,0.354305,0.244714
1.88962,0.24676,0.155569
2.04804,0.474335,-0.0856481
1.97155,0.356158,-0.0466193
2.04344,0.465008,-0.0365802
1.9,0.2407,-0.0557375
1.91059,0.242041,-0.385174
1.96949,0.347984,0
1.8344,0.141793,-0.0214196
1.98501,0.350724,-0.313604
1.91315,0.242365,-0.245465
2.04372,0.465071,0.0121818
1.97775,0.349442,-0.216336
1.96896,0.347889,0.0465263
1.82643,0.141177,0.0213265
1.98041,0.349913,-0.140629
1.90637,0.241506,-0.156871
2.03509,0.463108,0.060741
2.04735,0.465898,-0.134567
1.84337,0.142486,-0.107673
1.9583,0.346005,0.115813
1.88734,0.239095,0.0775067
1.97917,0.349692,-0.0936206
1.8982,0.240472,-0.100276
1.95872,0.346081,0.244226
1.8866,0.239001,0.155243
2.04595,0.46558,-0.0854853
1.96502,0.347194,-0.0464332
2.04879,0.459462,-0.0366501
1.90075,0.23473,-0.0557375
1.90745,0.235557,-0.38439
1.95875,0.339744,0
1.82686,0.135439,-0.0213265
1.97831,0.343136,-0.312374
1.90996,0.235868,-0.24496
2.03736,0.456898,0.0121353
1.971,0.341868,-0.215479
1.83894,0.136334,-0.172132
1.81888,0.134847,0.0212333
1.96971,0.341644,-0.139792
1.90316,0.235028,-0.156545
2.02873,0.454962,0.0605083
2.03712,0.456844,-0.133799
1.8239,0.135219,-0.106511
1.94757,0.337805,0.115115
1.88411,0.232675,0.0773438
1.97238,0.342108,-0.0932484
1.89895,0.234507,-0.100276
1.94415,0.337212,0.242276
1.87151,0.231119,0.153942
2.03571,0.456527,-0.0849968
1.96216,0.340336,-0.0463402
2.04257,0.450584,-0.0365104
1.88965,0.226665,-0.0553884
1.90047,0.227963,-0.382821
1.95993,0.332905,0
1.81934,0.128498,-0.0212333
1.96391,0.333581,-0.309915
1.9029,0.228254,-0.24395
2.02332,0.446337,0.0120423
1.96042,0.332988,-0.214194
1.83146,0.129353,-0.171389
1.96334,0.333485,0.0463402
1.82333,0.12878,0.0212799
1.96302,0.333431,-0.139234
1.89606,0.227434,-0.155894
2.0264,0.447017,0.060392
2.03091,0.448011,-0.133288
1.95268,0.331673,0.115348
1.87698,0.225145,0.0770182
1.96568,0.333883,-0.0928761
1.89976,0.227878,-0.100276
1.95315,0.331753,0.243251
1.86439,0.223635,0.153291
2.02948,0.447697,-0.0846712
1.9594,0.332815,-0.0462471
2.02459,0.439212,-0.0361614
1.90125,0.221328,-0.382821
1.9453,0.323437,0
1.8118,0.12161,-0.0211402
1.96116,0.326075,-0.3093
1.89974,0.221151,-0.243445
2.01705,0.437575,0.0119958
1.8912,0.220157,-0.0110659
1.95372,0.324838,-0.213337
1.82792,0.122692,-0.171017
1.81579,0.121878,0.0211868
1.96417,0.326576,-0.139234
1.89288,0.220353,-0.155569
2.01623,0.437397,0.0600429
2.02466,0.439226,-0.132776
1.81683,0.121947,-0.106046
1.942,0.32289,0.11465
1.87378,0.21813,0.0768554
1.9629,0.326363,-0.09269
1.88864,0.219859,-0.0996477
1.94254,0.322979,0.241789
2.02322,0.438915,-0.0843455
1.94871,0.324005,-0.045968
2.0222,0.431308,-0.0360916
1.87927,0.212122,-0.0550393
1.90201,0.21469,-0.382821
1.81621,0.115539,-0.0211868
1.96229,0.319228,-0.3093
1.88867,0.213184,-0.24193
2.01856,0.430532,0.0119958
1.94307,0.316101,-0.212052
1.82039,0.115805,-0.170274
1.94983,0.317201,0.045968
1.81221,0.115285,0.0211402
1.95349,0.317796,-0.138397
1.88967,0.213297,-0.155243
2.01383,0.429523,0.0599265
2.02618,0.432156,-0.132776
1.82123,0.115859,-0.106278
1.93918,0.315468,0.114418
1.86659,0.210691,0.0765297
1.95614,0.318227,-0.0923178
1.94366,0.316197,0.241789
1.87779,0.211956,0.154267
2.01692,0.430183,-0.0840198
1.94983,0.317201,-0.045968
2.01587,0.422606,-0.035952
1.87602,0.205127,-0.0549229
1.88716,0.206345,-0.379683
1.9396,0.308592,0
1.95949,0.311755,-0.308685
1.8894,0.20659,-0.24193
2.00831,0.421022,0.011926
1.88076,0.205645,-0.0109961
1.95201,0.310567,-0.212909
1.81283,0.108973,-0.16953
1.94303,0.309137,0.0457819
1.80063,0.108239,0.0210005
1.94276,0.309094,-0.13756
1.88644,0.206267,-0.154918
2.01141,0.421671,0.0598101
2.01595,0.422624,-0.132008
1.80966,0.108782,-0.10558
1.93632,0.30807,0.114185
1.85539,0.202872,0.0760412
1.9454,0.309514,-0.0917594
1.88218,0.205801,-0.099229
1.92123,0.305668,0.238864
2.0145,0.42232,-0.083857
1.94303,0.309137,-0.0457819
2.00949,0.413952,-0.0358123
1.87672,0.198577,-0.0549229
1.87616,0.198517,-0.37733
1.92881,0.299975,0
1.80099,0.101953,-0.0210005
1.94104,0.301876,-0.30561
2.00977,0.414008,0.011926
1.9413,0.301917,-0.211624
1.80525,0.102194,-0.168786
1.94015,0.301738,0.0456888
1.80898,0.102405,0.0210936
1.93989,0.301697,-0.137281
1.87922,0.198841,-0.154267
1.9972,0.41142,0.0593447
2.00959,0.413973,-0.131497
1.80604,0.102239,-0.105348
1.93344,0.300695,0.113952
1.85609,0.196393,0.0760412
1.94252,0.302106,-0.0915733
1.87495,0.198388,-0.0988103
1.92228,0.298959,0.238864
2.00813,0.413672,-0.0835313
1.94015,0.301738,-0.0456888
2.00701,0.406142,-0.0357425
1.86547,0.190804,-0.0545738
1.88075,0.192367,-0.378114
1.92985,0.293241,0
1.80134,0.0956658,-0.0210005
1.94208,0.295099,-0.30561
1.99552,0.403817,0.0118331
1.94234,0.295139,-0.211624
1.80559,0.0958918,-0.168786
1.93723,0.294363,0.0455958
1.80134,0.0956658,0.0210005
1.93698,0.294325,-0.137002
1.87594,0.191875,-0.153942
1.99079,0.40286,0.059112
1.862,0.190449,0.0326709
2.0032,0.405373,-0.130985
1.8024,0.0957222,-0.105115
1.93448,0.293945,0.113952
1.85279,0.189507,0.0758784
1.93566,0.294124,-0.091201
1.86371,0.190624,-0.0981823
1.91546,0.291055,0.237889
2.00173,0.405075,-0.0832057
1.92933,0.293162,-0.0454097
1.99664,0.396795,-0.0355331
1.86613,0.184291,-0.0545738
1.8697,0.184643,-0.375761
1.91899,0.284741,0
1.79367,0.0889806,-0.0209074
1.93137,0.286577,-0.303765
1.98907,0.395289,0.0117866
1.92762,0.286022,-0.20991
1.80592,0.0895881,-0.168786
1.78968,0.0887824,0.0208608
1.9301,0.28639,-0.136444
1.86073,0.183758,-0.15264
1.98434,0.394349,0.0588792
1.85867,0.183555,0.0326011
1.98894,0.395265,-0.129962
1.79076,0.0888361,-0.104418
1.92759,0.286018,0.113487
1.84946,0.182645,0.0757155
1.93667,0.287365,-0.091201
1.86038,0.183724,-0.0979729
1.9204,0.284949,0.238376
1.98745,0.394969,-0.0825544
1.93429,0.287012,-0.0455027
1.98232,0.386759,-0.0352539
1.85084,0.176259,-0.0541084
1.87033,0.178115,-0.375761
1.91997,0.27804,0
1.79397,0.0827185,-0.0209074
1.92844,0.279267,-0.303151
1.87235,0.178308,-0.239405
1.98651,0.387577,0.0117633
1.85557,0.17671,-0.0108334
1.9168,0.277581,-0.208625
1.79031,0.0825494,-0.167299
1.93504,0.280222,-0.136723
1.86533,0.177639,-0.152965
1.98178,0.386654,0.0587629
1.8593,0.177065,0.0326011
1.99423,0.389084,-0.130218
1.78308,0.0822163,-0.103953
1.83815,0.175051,0.0752271
1.92185,0.278312,-0.0904565
1.86499,0.177607,-0.0981823
1.98882,0.388028,-0.0825544
1.91945,0.277965,-0.0451305
1.98365,0.379838,-0.0352539
1.85144,0.169799,-0.0541084
1.85532,0.170154,-0.372623
1.91697,0.270778,0
1.79025,0.0762868,-0.0208608
1.92549,0.271982,-0.302536
1.86506,0.171048,-0.238394
1.97999,0.379138,0.0117168
1.85618,0.170233,-0.0108334
1.91382,0.270334,-0.208197
1.78263,0.0759617,-0.166556
1.92041,0.271264,0.0451305
1.92415,0.271793,-0.135886
1.86197,0.170764,-0.15264
1.97919,0.378984,0.0586465
1.85194,0.169845,0.0324615
1.98381,0.379869,-0.12945
1.77937,0.0758229,-0.10372
1.91768,0.270879,0.11279
1.83477,0.16827,0.0750642
1.91489,0.270485,-0.0900843
1.85367,0.170003,-0.0975542
1.98231,0.379581,-0.0822287
1.91645,0.270705,-0.0450374
1.97711,0.371435,-0.0351142
1.84804,0.162983,-0.053992
1.85199,0.163332,-0.371838
1.90602,0.262448,0
1.78252,0.069724,-0.0207677
1.91468,0.263641,-0.300691
1.86169,0.164187,-0.237889
1.97737,0.371485,0.0116936
1.84879,0.163049,-0.0107869
1.78288,0.0697382,-0.166556
1.90928,0.262897,-0.134769
1.85461,0.163562,-0.151989
1.96871,0.369857,0.0582974
1.9812,0.372205,-0.129194
1.77164,0.0692986,-0.103255
1.91466,0.263638,0.112557
1.82739,0.161161,0.0747386
1.90791,0.262709,-0.089712
1.84231,0.162478,-0.0969262
1.97577,0.371183,-0.0819031
1.91738,0.264013,-0.0450374
1.97839,0.364531,-0.0351142
1.84063,0.155857,-0.0537593
1.84473,0.156204,-0.370269
1.90296,0.255262,0
1.78275,0.0635018,-0.0207677
1.90776,0.255906,-0.299461
1.8504,0.156684,-0.236374
1.97866,0.364581,0.0116936
1.84138,0.15592,-0.0107404
1.90778,0.255908,-0.20734
1.77515,0.0632312,-0.165812
1.90623,0.255701,-0.13449
1.84722,0.156415,-0.151338
1.96213,0.361534,0.0580647
1.83714,0.155562,0.0321822
1.97464,0.36384,-0.128683
1.77187,0.0631144,-0.103255
1.82794,0.154782,0.0747386
1.91278,0.256579,-0.0898981
1.84287,0.156046,-0.0969262
1.96919,0.362836,-0.0815774
1.91037,0.256256,-0.0448513
1.97178,0.356201,-0.0349746
1.83718,0.149107,-0.0536429
1.84918,0.150081,-0.371054
1.89194,0.247063,0
1.77097,0.0568927,-0.020628
1.90472,0.248733,-0.298846
1.84698,0.149902,-0.235869
1.96811,0.355538,0.0116238
1.82995,0.148521,-0.0106707
1.89683,0.247702,-0.206055
1.77138,0.0569061,-0.16544
1.90711,0.249045,-0.13449
1.84378,0.149643,-0.151012
1.95944,0.353972,0.0579483
1.83768,0.149148,0.0321822
1.97197,0.356235,-0.128427
1.76809,0.0568004,-0.103022
1.82448,0.148077,0.0745757
1.9097,0.249383,-0.089712
1.8434,0.149612,-0.0969262
1.96651,0.355249,-0.0814146
1.90332,0.24855,-0.0446652
1.9612,0.347224,-0.0347652
1.82972,0.142074,-0.0534102
1.83796,0.142714,-0.368701
1.89676,0.240961,0
1.90166,0.241584,-0.298231
1.84353,0.143147,-0.235364
1.9654,0.347968,0.0116006
1.82647,0.141822,-0.0106474
1.88979,0.240076,-0.205198
1.76759,0.050608,-0.165069
1.90401,0.241883,-0.134211
1.83237,0.14228,-0.150036
1.95673,0.346432,0.057832
1.83021,0.142112,0.0320426
1.95748,0.346565,-0.127403
1.76029,0.0503992,-0.102557
1.89751,0.241057,0.111394
1.83296,0.142325,0.0749014
1.8947,0.2407,-0.0889675
1.83196,0.142248,-0.0962982
1.95593,0.346292,-0.0809261
1.90021,0.2414,-0.0445722
1.95052,0.338666,-0.0345558
1.83018,0.136006,-0.0534102
1.83842,0.136619,-0.368701
1.8896,0.233688,0
1.8946,0.234306,-0.297001
1.82421,0.135562,-0.232839
1.95866,0.34008,0.0115541
1.82294,0.135468,-0.0106242
1.89058,0.233809,-0.205198
1.76376,0.0446457,-0.164697
1.89292,0.234099,-0.133374
1.83283,0.136203,-0.150036
1.94999,0.338574,0.0575993
1.82668,0.135746,0.0319728
1.95468,0.33939,-0.127148
1.75646,0.0444608,-0.102325
1.89433,0.234273,0.111162
1.89152,0.233926,-0.0887814
1.82844,0.135877,-0.0960888
1.95707,0.339804,-0.0809261
1.89703,0.234607,-0.0444791
1.9438,0.330515,-0.0344161
1.81469,0.128487,-0.0529448
1.88247,0.226137,0
1.88364,0.226278,-0.295157
1.82467,0.129194,-0.232839
1.95589,0.332571,0.0115308
1.81542,0.128539,-0.0105777
1.88743,0.226734,-0.20477
1.75993,0.0384023,-0.164325
1.89387,0.227507,0.0443861
1.89373,0.22749,-0.133374
1.82137,0.12896,-0.14906
1.94327,0.330425,0.0573665
1.82715,0.129369,0.0319728
1.95192,0.331896,-0.126892
1.7566,0.0383298,-0.102325
1.89233,0.227322,-0.0887814
1.81297,0.128365,-0.0952514
1.88593,0.226553,-0.0442
1.94494,0.323727,-0.0344161
1.81512,0.122152,-0.0529448
1.88049,0.219243,-0.294542
1.82511,0.122824,-0.232839
1.9531,0.325085,0.0115076
1.88031,0.219223,-0.203913
1.75209,0.0321123,-0.163582
1.88658,0.219954,-0.132816
1.82181,0.122601,-0.14906
1.94047,0.322983,0.0572502
1.80764,0.121648,0.0316238
1.94519,0.323769,-0.12638
1.75673,0.0321974,-0.102325
1.88517,0.219789,-0.0884091
1.8134,0.122036,-0.0952514
1.93968,0.322852,-0.0801119
1.89068,0.220431,-0.044293
1.94211,0.316294,-0.0343463
1.80756,0.115306,-0.052712
1.884,0.21299,0
1.81761,0.115947,-0.231828
1.94238,0.316336,0.0114378
1.81628,0.115862,-0.0105777
1.87316,0.211765,-0.203056
1.75219,0.0259966,-0.163582
1.88734,0.213367,-0.132816
1.81824,0.115988,-0.148734
1.93369,0.314923,0.0570174
1.80805,0.115337,0.0316238
1.75284,0.0260062,-0.102092
1.87684,0.212181,0.109999
1.8899,0.213657,-0.0885953
1.81382,0.115705,-0.0952514
1.9408,0.31608,-0.0801119
1.87157,0.211584,-0.0438278
1.93136,0.307625,-0.0341369
1.80396,0.108755,-0.0525957
1.87678,0.205541,0
1.87411,0.205249,-0.293312
1.81008,0.109124,-0.230818
1.93952,0.308925,0.0114146
1.80469,0.108799,-0.0105079
1.87389,0.205224,-0.203056
1.87617,0.205474,-0.131979
1.81068,0.10916,-0.148083
1.93083,0.307541,0.0569011
1.80046,0.108544,0.0314841
1.93164,0.30767,-0.125357
1.74493,0.0197964,-0.101627
1.8736,0.205193,0.109766
1.88269,0.206188,-0.088223
1.80624,0.108892,-0.0948328
1.934,0.308045,-0.0797863
1.86832,0.204614,-0.0437347
1.93637,0.301496,-0.0342067
1.79634,0.102003,-0.052363
1.87351,0.198566,0
1.86696,0.197872,-0.292082
1.81045,0.102804,-0.230818
1.94059,0.302152,0.0114146
1.80506,0.102498,-0.0105079
1.87064,0.198262,-0.202628
1.74038,0.0136687,-0.162466
1.87688,0.198924,-0.131979
1.81105,0.102838,-0.148083
1.92794,0.300184,0.0567847
1.80082,0.102258,0.0314841
1.92876,0.30031,-0.125101
1.74898,0.0137362,-0.10186
1.87148,0.198351,-0.0876646
1.92716,0.300062,-0.0794606
1.86902,0.198091,-0.0437347
1.92955,0.293196,-0.0340671
1.80469,0.0958432,-0.0525957
1.86626,0.190884,0
1.85981,0.190224,-0.290852
1.80289,0.0957476,-0.229808
1.93772,0.294437,0.0113914
1.80143,0.09567,-0.0104847
1.86344,0.190596,-0.201771
1.73644,0.00727347,-0.162094
1.87363,0.191637,-0.1317
1.79947,0.0955658,-0.147107
1.92903,0.293116,0.0567847
1.9259,0.29264,-0.124845
1.73305,0.00725929,-0.100929
1.86822,0.191084,-0.0874785
1.79101,0.0951168,-0.0939954
1.92035,0.291796,-0.079135
1.86178,0.190426,-0.0435486
1.92656,0.286208,-0.0339973
1.78503,0.0888644,-0.0520139
1.86291,0.184301,0
1.8565,0.183667,-0.290237
1.79527,0.0893742,-0.228798
1.92682,0.286247,0.0113216
1.79375,0.0892983,-0.0104382
1.86011,0.184024,-0.201342
1.73247,0.00151207,-0.161723
1.86234,0.184245,-0.130863
1.78783,0.0890037,-0.146131
1.91813,0.284955,0.0564356
1.91896,0.285079,-0.124333
1.73706,0.00151607,-0.101162
1.85975,0.183989,0.108836
1.86486,0.184495,-0.0872924
1.79132,0.0891774,-0.0939954
1.8624,0.184251,-0.0435486
1.92359,0.278908,-0.0339275
1.79332,0.083003,-0.0522466
1.85557,0.177038,0
1.79161,0.0829239,-0.228293
1.92385,0.278946,0.0112984
1.79405,0.0830368,-0.0104382
1.86074,0.177531,-0.201342
1.73246,-0.004535,-0.161723
1.859,0.177365,-0.130584
1.79211,0.0829472,-0.146456
1.91515,0.277685,0.0563193
1.91204,0.277234,-0.123822
1.72507,-0.00451565,-0.100464
1.84846,0.176359,0.108139
1.8655,0.177985,-0.0872924
1.78364,0.082555,-0.0935767
1.91042,0.276999,-0.0786465
1.84711,0.17623,-0.0431764
1.92059,0.271631,-0.0338577
1.78162,0.0762295,-0.0518975
1.85618,0.170559,0
1.84592,0.169617,-0.288393
1.91293,0.270547,0.0112286
1.78634,0.0764314,-0.0103917
1.85343,0.170306,-0.200486
1.72049,-0.0105099,-0.160607
1.85568,0.170513,0.0433625
1.85961,0.170874,-0.130584
1.78841,0.0765201,-0.146131
1.91611,0.270997,0.0563193
1.90509,0.269439,-0.12331
1.77993,0.0761572,-0.0933674
1.91138,0.270328,-0.0786465
1.84771,0.169781,-0.0431764
1.9136,0.263832,-0.033718
1.76988,0.0695386,-0.0515484
1.84481,0.163022,0
1.84651,0.163172,-0.288393
1.78025,0.0699459,-0.226778
1.9099,0.263322,0.0112054
1.7786,0.0698809,-0.0103452
1.84212,0.162785,-0.199201
1.71646,-0.0164777,-0.160236
1.85622,0.16403,-0.130305
1.78468,0.07012,-0.145805
1.90516,0.262669,0.0559702
1.90602,0.262787,-0.12331
1.84679,0.163197,-0.0863618
1.7722,0.0696295,-0.0929487
1.90835,0.263108,-0.0784836
1.84033,0.162626,-0.0429903
1.90659,0.256086,-0.0335784
1.77012,0.0633605,-0.0515484
1.77652,0.0635897,-0.226273
1.90288,0.255589,0.0111589
1.84664,0.15669,-0.199629
1.71241,-0.0224166,-0.159864
1.84485,0.156538,-0.129468
1.77695,0.063605,-0.145154
1.90211,0.255485,0.0558538
1.90297,0.255601,-0.123054
1.84735,0.15675,-0.0863618
1.76844,0.0633004,-0.0927393
1.89341,0.254317,-0.0778323
1.83292,0.155525,-0.0428042
1.90747,0.24943,-0.0335784
1.76633,0.0570525,-0.0514321
1.83394,0.149167,0
1.83184,0.148996,-0.285933
1.7688,0.0571323,-0.225263
1.90376,0.248945,0.0111589
1.84718,0.150243,-0.199629
1.7163,-0.0284596,-0.160236
1.83743,0.149451,-0.12891
1.76919,0.0571449,-0.144503
1.89506,0.247807,0.0556211
1.89594,0.247922,-0.122543
1.83594,0.149329,-0.0858034
1.76865,0.0571274,-0.0927393
1.89033,0.247188,-0.0776695
1.82548,0.148478,-0.0426181
1.89634,0.241918,-0.033369
1.75851,0.0512696,-0.0511993
1.82643,0.142781,0
1.8323,0.14324,-0.285933
1.765,0.051459,-0.224757
1.89263,0.241444,0.0110891
1.82782,0.142889,-0.197487
1.83789,0.143677,0.0428972
1.83391,0.143366,-0.128631
1.76537,0.0514698,-0.144178
1.89186,0.241346,0.0555047
1.89275,0.241459,-0.122287
1.84038,0.143872,-0.0859895
1.76083,0.0513375,-0.0923206
1.88713,0.240742,-0.0775067
1.82593,0.142742,-0.0426181
1.88928,0.233983,-0.0332294
1.75868,0.0448244,-0.0511993
1.83093,0.136383,0
1.82493,0.135936,-0.284703
1.76121,0.0448889,-0.224252
1.88953,0.234014,0.0110659
1.8323,0.136485,-0.197915
1.83043,0.136346,0.0427111
1.83443,0.136644,-0.128631
1.75758,0.0447963,-0.143527
1.8848,0.233428,0.055272
1.8857,0.233539,-0.121775
1.82894,0.136235,-0.0854311
1.76101,0.0448837,-0.0923206
1.888,0.233824,-0.0775067
1.81847,0.135455,-0.042432
1.88611,0.226908,-0.0331596
1.75084,0.0385089,-0.0509666
1.81942,0.129141,0
1.82145,0.129285,-0.284088
1.8824,0.226461,0.0110194
1.82086,0.129243,-0.19663
1.82292,0.129389,0.042525
1.82295,0.129391,-0.127794
1.75374,0.0385728,-0.143201
1.88163,0.226369,0.0551557
1.88254,0.226478,-0.121519
1.83339,0.130133,-0.0856173
1.88483,0.226755,-0.0773438
1.81893,0.129106,-0.042432
1.88288,0.220188,-0.0330898
1.81585,0.122837,0
1.75354,0.0327514,-0.223242
1.87916,0.219754,0.0109961
1.81731,0.122936,-0.196202
1.81536,0.122804,0.0423389
1.82337,0.123346,-0.127794
1.74987,0.0326829,-0.142876
1.88634,0.220593,0.055272
1.87535,0.219307,-0.121008
1.82584,0.123513,-0.085245
1.87367,0.219111,-0.0768554
1.81536,0.122804,-0.0423389
1.87573,0.212386,-0.0329501
1.8083,0.115671,0
1.74968,0.026265,-0.222737
1.86803,0.211515,0.0109264
1.82966,0.117036,-0.197487
1.80782,0.115639,0.0421528
1.81186,0.115898,-0.126957
1.74599,0.0262096,-0.142551
1.8633,0.210979,0.0545738
1.8682,0.211535,-0.120496
1.81831,0.116311,-0.0848728
1.74141,0.0261408,-0.0912739
1.87049,0.211793,-0.0766925
1.81181,0.115895,-0.0422459
1.87646,0.205837,-0.0329501
1.8047,0.109116,0
1.81087,0.109489,-0.282244
1.86081,0.20412,0.0108799
1.8102,0.109448,-0.195345
1.81226,0.109573,-0.126957
1.74209,0.0200684,-0.142225
1.86402,0.204473,0.0545738
1.86496,0.204576,-0.12024
1.8187,0.109962,-0.0848728
1.7375,0.0200155,-0.0910646
1.86327,0.20439,-0.0763669
1.80422,0.109086,-0.0420598
1.86917,0.198767,-0.0328105
1.80506,0.10313,0
1.80333,0.103032,-0.281014
1.86147,0.197948,0.0108799
1.80659,0.103218,-0.194917
1.80863,0.103334,-0.126678
1.74215,0.0142908,-0.142225
1.85674,0.197445,0.0543411
1.86166,0.197968,-0.119984
1.80709,0.103246,-0.0843144
1.73756,0.0142532,-0.0910646
1.86394,0.19821,-0.0763669
1.80058,0.102874,-0.0419667
1.85398,0.190282,-0.0325313
1.79743,0.096087,0
1.8037,0.0964218,-0.281014
1.85821,0.190716,0.0108567
1.79901,0.0961713,-0.19406
1.79704,0.096066,-0.125841
1.73421,0.00786964,-0.141574
1.85347,0.19023,0.0542248
1.86238,0.191144,-0.119984
1.80746,0.0966228,-0.0843144
1.7336,0.00786687,-0.0908552
1.8567,0.190561,-0.0760412
1.79695,0.096061,-0.0418737
1.85463,0.183809,-0.0325313
1.78577,0.0892138,0
1.79218,0.0895339,-0.279169
1.85488,0.183834,0.0108334
1.79139,0.0894945,-0.193203
1.79338,0.0895938,-0.125562
1.73423,0.00181643,-0.141574
1.85413,0.18376,0.0542248
1.85509,0.183855,-0.119473
1.79182,0.089516,-0.0835699
1.7456,0.00182834,-0.0914833
1.85337,0.183685,-0.0758784
1.79328,0.0895888,-0.0417806
1.85125,0.177277,-0.0324615
1.77807,0.0829192,0
1.79641,0.0837748,-0.279784
1.84752,0.17692,0.0107869
1.8036,0.0841097,-0.194488
1.78968,0.0834608,-0.125283
1.73423,-0.00393416,-0.141574
1.84677,0.176848,0.053992
1.84377,0.176561,-0.118705
1.7961,0.0837601,-0.083756
1.84204,0.176395,-0.0753899
1.78957,0.0834556,-0.0416875
1.83991,0.169712,-0.032252
1.77835,0.0767116,0
1.78485,0.0769921,-0.277939
1.84016,0.169735,0.0107404
1.79196,0.0772988,-0.193203
1.778,0.0766967,-0.124446
1.72224,-0.00991929,-0.140598
1.83543,0.169299,0.0536429
1.7884,0.0771451,-0.0833838
1.84264,0.169964,-0.0753899
1.78586,0.0770355,-0.0415945
1.85247,0.164026,-0.0324615
1.78512,0.0704502,-0.277939
1.8328,0.162284,0.0106939
1.78428,0.0704171,-0.192346
1.79023,0.070652,-0.125283
1.72618,-0.0162687,-0.140923
1.83604,0.162571,0.0536429
1.84101,0.163011,-0.118449
1.78867,0.0705902,-0.0833838
1.83927,0.162857,-0.0752271
1.77813,0.0701745,-0.0414084
1.83311,0.155864,-0.0321124
1.79325,0.0645022,-0.279169
1.83335,0.155885,0.0106939
1.77657,0.063902,-0.19149
1.77053,0.0636848,-0.123888
1.71814,-0.0221916,-0.140272
1.83261,0.155821,0.0535266
1.83361,0.155906,-0.117938
1.77293,0.0637712,-0.0826393
1.83585,0.156097,-0.0750642
1.77837,0.0639668,-0.0414084
1.82561,0.149452,-0.0319728
1.82985,0.149798,0.0106707
1.77072,0.0581226,-0.123888
1.71806,-0.0275889,-0.140272
1.82512,0.149411,0.0532939
1.83011,0.14982,-0.117682
1.76913,0.0580703,-0.0824532
1.82836,0.149677,-0.0747386
1.77456,0.0582487,-0.0413153
1.82617,0.14244,-0.0319728
1.81845,0.141838,0.0106009
1.78095,0.0516129,-0.191918
1.76295,0.0510915,-0.123329
1.72592,-0.0343446,-0.140923
1.81372,0.141469,0.0529448
1.82669,0.142481,-0.117426
1.76534,0.0511607,-0.082267
1.82095,0.142033,-0.0744129
1.77477,0.051434,-0.0413153
1.81893,0.135489,0.0106009
1.76919,0.0450914,-0.190633
1.75913,0.0448351,-0.12305
1.81022,0.13484,0.0528284
1.81524,0.135214,-0.116659
1.76551,0.0449978,-0.082267
1.81745,0.135379,-0.0742501
1.8154,0.128856,0.0105777
1.76138,0.0387411,-0.189776
1.75928,0.0386948,-0.12305
1.81172,0.128594,-0.116403
1.75767,0.0386594,-0.0818948
1.81393,0.128751,-0.0740873
1.80362,0.121694,-0.031554
1.80786,0.12198,0.0105312
1.75355,0.0324453,-0.188919
1.81614,0.122538,-0.116659
1.7498,0.0323759,-0.0815225
1.81437,0.122419,-0.0740873
1.80001,0.11577,-0.0314841
1.80823,0.116299,0.0105312
1.74967,0.0268751,-0.188491
1.74354,0.0267809,-0.121934
1.80456,0.116063,-0.115891
1.7459,0.0268172,-0.0813364
1.80842,0.109341,-0.0316238
1.80467,0.109114,0.0105079
1.74976,0.0201567,-0.188491
1.73964,0.0200401,-0.121655
1.738,0.0200212,-0.0809642
1.79282,0.102118,-0.0313445
1.79306,0.102131,0.0104382
1.73789,0.013953,-0.187206
1.74369,0.0139995,-0.121934
1.74605,0.0140185,-0.0813364
1.79737,0.0967128,0.0104614
1.73973,0.008502,-0.121655
1.78973,0.096302,-0.114868
1.78971,0.0900363,0.0104149
1.72999,0.00241553,-0.186349
1.73576,0.00242358,-0.121376
1.78607,0.0898535,-0.114612
1.78426,0.0897624,-0.0727846
1.78579,0.0832785,-0.0312049
1.72601,-0.0039162,-0.18592
1.73177,-0.00392926,-0.121097
1.77806,0.07701,-0.0310653
1.72376,-0.00962741,-0.120539
1.72771,-0.0156806,-0.120818
1.72365,-0.0219621,-0.120539
1.75012,0.0387989,-0.0713192
1.74634,0.0271288,-0.0711563
