2.41123,-0.0542971,-0.0280783
2.40702,-0.062609,-0.0280317
2.40302,-0.062505,0.0279852
2.39482,-0.0698215,-0.027892
2.39082,-0.069705,0.0278455
2.39055,-0.0784668,-0.0278455
2.38256,-0.0782043,0.0277523
2.38227,-0.0865212,-0.0277523
2.37827,-0.086376,0.0277058
2.37396,-0.0945176,-0.0276592
2.37396,-0.0945176,0.0276592
2.36962,-0.102631,-0.0276127
2.36562,-0.102458,0.0275661
2.36525,-0.110715,-0.0275661
2.35726,-0.110341,0.027473
2.35286,-0.118367,-0.0274264
2.34488,-0.117965,0.0273333
2.35702,-0.118576,-0.137441
2.35244,-0.12658,-0.0274264
2.34046,-0.125935,0.0272867
2.35659,-0.126803,-0.137441
2.34399,-0.134332,-0.0273333
2.33601,-0.133875,0.0272401
2.34019,-0.134114,-0.13651
2.33558,-0.141212,-0.0272401
2.3236,-0.140488,0.0271004
2.3278,-0.140742,-0.135813
2.41968,-0.0367448,-0.0140648
2.31908,-0.148749,0.0270539
2.32328,-0.149019,-0.13558
2.31455,-0.156572,-0.0270073
2.41154,-0.0450397,-0.0140183
2.30657,-0.156032,0.0269142
2.31478,-0.156587,-0.135115
2.30202,-0.163799,-0.0268676
2.40337,-0.0532806,-0.0139718
2.29404,-0.163231,0.0267745
2.3182,-0.16495,-0.135348
2.30543,-0.172132,-0.0269142
2.39517,-0.0614648,-0.0139253
2.28947,-0.170941,0.0267279
2.30567,-0.17215,-0.13465
2.40597,-0.0697264,-0.07005
2.29687,-0.179154,-0.0268211
2.39096,-0.0692913,-0.0139021
2.28889,-0.178532,0.0267279
2.38663,-0.069166,0.0416763
2.29314,-0.178863,-0.133952
2.28424,-0.186594,-0.0266814
2.38269,-0.077793,-0.0138556
2.28641,-0.186772,-0.214143
2.28424,-0.186594,0.0266814
2.38237,-0.0777825,0.0416065
2.28849,-0.186942,-0.13372
2.27162,-0.193548,-0.0265417
2.37441,-0.0858208,-0.0138091
2.28575,-0.194752,-0.214143
2.27162,-0.193548,0.0265417
2.37409,-0.0858091,0.0414669
2.28384,-0.19459,-0.133487
2.36849,-0.0856067,0.0965577
2.26299,-0.200374,-0.0264485
2.37411,-0.0936941,-0.0138091
2.27715,-0.201628,-0.2134
2.25502,-0.199669,0.0263554
2.3658,-0.093366,0.0413273
2.27523,-0.201458,-0.133022
2.36176,-0.101878,-0.0137394
2.27243,-0.209607,-0.213028
2.25029,-0.207565,0.0263088
2.35345,-0.101519,0.0411179
2.26255,-0.208695,-0.132324
2.3534,-0.109749,-0.0136929
2.25979,-0.216399,-0.211912
2.24956,-0.215419,0.0263088
2.35308,-0.109734,0.0411179
2.25783,-0.216211,-0.132092
2.33951,-0.109101,0.0954179
2.3582,-0.109972,-0.123722
2.34007,-0.117314,-0.0681882
2.24879,-0.22327,-0.0263088
2.34901,-0.117763,-0.0136696
2.2511,-0.223499,-0.211169
2.23685,-0.222084,0.0261692
2.34869,-0.117747,0.0410481
2.24514,-0.222907,-0.131394
2.33513,-0.117067,0.095255
2.34982,-0.117803,-0.123304
2.23212,-0.229093,-0.0261226
2.33662,-0.124911,-0.0135999
2.25034,-0.230963,-0.211169
2.22814,-0.228684,0.026076
2.3443,-0.125321,0.0409782
2.24439,-0.230351,-0.131394
2.32675,-0.124383,0.0949294
2.33745,-0.124955,-0.122675
2.32724,-0.132558,-0.0678391
2.44792,-0.0196536,0
2.22733,-0.23646,-0.026076
2.34017,-0.133294,-0.0136231
2.24556,-0.238396,-0.210797
2.21938,-0.235616,0.0259829
2.33586,-0.133049,0.0408386
2.23563,-0.237341,-0.130929
2.32231,-0.132277,0.0947666
2.33301,-0.132887,-0.122466
2.31878,-0.140198,-0.0676064
2.22649,-0.244234,-0.026076
2.32372,-0.140496,-0.0135301
2.2368,-0.245365,-0.210054
2.21457,-0.242925,0.0259363
2.33139,-0.14096,0.0407688
2.23479,-0.245144,-0.130929
2.30986,-0.139659,0.0942781
2.32855,-0.140788,-0.122257
2.3103,-0.147781,-0.0673737
2.2137,-0.250654,-0.0259363
2.31523,-0.148096,-0.0134836
2.22801,-0.252275,-0.20931
2.2137,-0.250654,0.0259363
2.3229,-0.148587,0.0406292
2.21804,-0.251146,-0.129999
2.30537,-0.147466,0.0941152
2.32007,-0.148406,-0.121838
2.30977,-0.155844,-0.0673737
2.41559,-0.0446946,0
2.21282,-0.25838,-0.0259363
2.3147,-0.156177,-0.0134836
2.21921,-0.259127,-0.208567
2.20487,-0.257452,0.0258432
2.31438,-0.156156,0.0404896
2.21319,-0.258424,-0.129766
2.29288,-0.154705,0.0936268
2.31157,-0.155965,-0.121419
2.30123,-0.16334,-0.067141
2.40742,-0.0529504,0
2.19999,-0.264669,-0.0257966
2.30217,-0.163406,-0.0134139
2.20643,-0.265444,-0.207451
2.19602,-0.264192,0.0257501
2.31844,-0.164561,-0.189742
2.30585,-0.163667,0.04035
2.20831,-0.265671,-0.129534
2.28435,-0.162142,0.0933011
2.30702,-0.163751,-0.12121
2.30068,-0.17097,-0.067141
2.19513,-0.271472,-0.0257501
2.29763,-0.170743,-0.0133907
2.20554,-0.27276,-0.207451
2.19116,-0.270982,0.0257035
2.30197,-0.171066,-0.18844
2.29333,-0.170424,0.0401405
2.19949,-0.272012,-0.129069
2.27982,-0.16942,0.0931383
2.29452,-0.170512,-0.120582
2.40258,-0.0608157,-0.0559246
2.28811,-0.178069,-0.0667919
2.38701,-0.06876,0
2.18226,-0.277619,-0.0256104
2.28505,-0.177831,-0.0133209
2.19667,-0.279452,-0.206708
2.18226,-0.277619,0.0256104
2.29739,-0.178791,-0.188115
2.28474,-0.177807,0.0400009
2.19456,-0.279184,-0.128836
2.27523,-0.177067,0.0929754
2.29789,-0.17883,-0.120791
2.26162,-0.176007,0.185186
2.2795,-0.185407,-0.0665591
2.38276,-0.0769626,0
2.18128,-0.285235,-0.0256104
2.28442,-0.185806,-0.0133209
2.19173,-0.286601,-0.206336
2.38611,-0.0770709,0.0555524
2.18128,-0.285235,0.0256104
2.29278,-0.186486,-0.187789
2.28411,-0.185781,0.0400009
2.1817,-0.285289,-0.128138
2.26264,-0.184036,0.0924869
2.28929,-0.186203,-0.120373
2.25701,-0.183578,0.18486
2.38211,-0.0769418,-0.0554593
2.26686,-0.192744,-0.0662101
2.37446,-0.0854078,0
2.17229,-0.292161,-0.0255173
2.26778,-0.192822,-0.0132279
2.17093,-0.291978,-0.204477
2.36983,-0.0852409,0.0551802
2.16436,-0.291095,0.0254241
2.2881,-0.194551,-0.187464
2.27146,-0.193135,0.0397915
2.17668,-0.292751,-0.127906
2.25001,-0.191311,0.0919985
2.28063,-0.193915,-0.119954
2.24441,-0.190835,0.183884
2.37382,-0.0853847,-0.0552732
2.26617,-0.200656,-0.0662101
2.36616,-0.0933802,0
2.1673,-0.299195,-0.0254707
2.26709,-0.200737,-0.0132279
2.1699,-0.299554,-0.204477
2.36552,-0.0933549,0.0550871
2.16334,-0.298648,0.0254241
2.27153,-0.20113,-0.186162
2.26678,-0.20071,0.0397217
2.16378,-0.298709,-0.127208
2.24535,-0.198812,0.0918356
2.26402,-0.200466,-0.119117
2.37351,-0.0936703,-0.0552732
2.25355,-0.207072,-0.065861
2.35385,-0.100713,0
2.15837,-0.30526,-0.0253776
2.26412,-0.208043,-0.289407
2.26243,-0.207888,-0.0132047
2.16495,-0.306191,-0.204105
2.3652,-0.101199,0.0550871
2.15441,-0.3047,0.025331
2.26291,-0.207932,-0.185511
2.25416,-0.207128,0.0395123
2.16278,-0.305883,-0.127208
2.23671,-0.205525,0.09151
2.36327,-0.101117,-0.110186
2.25937,-0.207607,-0.118907
2.23115,-0.205014,0.182907
2.36919,-0.10137,-0.0551802
2.25281,-0.214937,-0.065861
2.15334,-0.312219,-0.025331
2.24975,-0.214645,-0.0131349
2.15598,-0.312603,-0.203362
2.36083,-0.109269,0.0549941
2.15334,-0.312219,0.025331
2.26217,-0.21583,-0.185511
2.24148,-0.213856,0.0393028
2.14589,-0.311139,-0.126278
2.23996,-0.213711,0.0916728
2.36291,-0.109365,-0.110186
2.25863,-0.215492,-0.118907
2.22248,-0.212043,0.182256
2.35284,-0.1089,-0.054808
2.24409,-0.222012,-0.0656282
2.3411,-0.116547,0
2.14828,-0.319146,-0.0252844
2.23306,-0.220921,-0.0130419
2.147,-0.318956,-0.202618
2.34446,-0.116714,0.0546219
2.2495,-0.222547,-0.184535
2.24072,-0.221679,0.0393028
2.14084,-0.318041,-0.126045
2.22727,-0.220348,0.0911843
2.35054,-0.117017,-0.109627
2.25389,-0.222982,-0.118698
2.34446,-0.116714,-0.0546219
2.23535,-0.229029,-0.0653955
2.33269,-0.124292,0
2.1432,-0.326041,-0.0252379
2.2283,-0.228307,-0.0130187
2.138,-0.325251,-0.201875
2.34005,-0.124684,0.0545288
2.13924,-0.32544,0.0251913
2.3549,-0.125476,-0.164904
2.24474,-0.229992,-0.184209
2.23197,-0.228684,0.0391632
2.13577,-0.324911,-0.125813
2.33672,-0.124507,0.136278
2.21456,-0.226899,0.0906958
2.24912,-0.230441,-0.118489
2.21301,-0.226741,0.181606
2.34005,-0.124684,-0.0545288
2.22261,-0.235566,-0.0650464
2.33224,-0.132434,0
2.13414,-0.33229,-0.0251447
2.24915,-0.23838,-0.287892
2.22749,-0.236084,-0.0130187
2.13292,-0.332099,-0.201503
2.3396,-0.132852,0.0545288
2.12624,-0.331059,0.0250516
2.236,-0.236986,-0.183558
2.23116,-0.236473,0.0391632
2.13067,-0.33175,-0.12558
2.3283,-0.13221,0.135813
2.21375,-0.234628,0.0906958
2.32573,-0.132064,-0.108511
2.23242,-0.236606,-0.117651
2.20824,-0.234044,0.18128
2.32762,-0.132172,-0.0542496
2.22177,-0.243323,-0.0650464
2.32378,-0.140093,0
2.23253,-0.244502,-0.285871
2.22267,-0.243422,-0.0129954
2.12781,-0.338916,-0.201131
2.12112,-0.33785,0.025005
2.33405,-0.140712,-0.163509
2.22723,-0.243921,-0.182907
2.2184,-0.242954,0.0389538
2.1295,-0.339185,-0.12558
2.32384,-0.140097,0.13558
2.201,-0.241049,0.0902073
2.32126,-0.139941,-0.108324
2.22363,-0.243528,-0.117233
2.19553,-0.240449,0.180304
2.33513,-0.140777,-0.0544357
2.213,-0.249793,-0.0648137
2.31532,-0.14729,0
2.22776,-0.251459,-0.285366
2.20993,-0.249446,-0.0129257
2.12274,-0.345331,-0.200759
2.11209,-0.343597,0.0249119
2.32163,-0.147692,-0.162672
2.21849,-0.250411,-0.182256
2.20963,-0.249412,0.0388142
2.11654,-0.344322,-0.124883
2.3114,-0.147041,0.134883
2.19622,-0.247898,0.0900445
2.3168,-0.147385,-0.108138
2.21091,-0.249556,-0.116605
2.19868,-0.248176,0.180629
2.31469,-0.147251,-0.0539705
2.20819,-0.256668,-0.0646974
2.31482,-0.154968,0
2.22298,-0.258387,-0.284861
2.20114,-0.255849,-0.0128792
2.11766,-0.351715,-0.200387
2.31818,-0.155193,0.0540635
2.10699,-0.349944,0.0248654
2.30918,-0.15459,-0.161835
2.20972,-0.256846,-0.181606
2.20482,-0.256276,0.0387443
2.11145,-0.350684,-0.12465
2.30293,-0.154172,0.134417
2.19142,-0.254718,0.0898817
2.30832,-0.154533,-0.107766
2.2061,-0.256425,-0.116395
2.19388,-0.255005,0.180304
2.30222,-0.154124,-0.0536913
2.18739,-0.262379,-0.0641155
2.29827,-0.162323,0
2.21414,-0.265588,-0.283851
2.19622,-0.263439,-0.012856
2.09672,-0.35614,-0.198529
2.30962,-0.163125,0.0538774
2.10175,-0.356994,0.0248188
2.30462,-0.162771,-0.161556
2.20481,-0.264469,-0.18128
2.19195,-0.262927,0.0385349
2.10621,-0.357752,-0.124418
2.29439,-0.162049,0.133952
2.1865,-0.262273,0.0897188
2.29977,-0.162429,-0.107394
2.19721,-0.263558,-0.115976
2.18106,-0.26162,0.179327
2.30563,-0.162843,-0.0537844
2.18249,-0.269523,-0.0639992
2.29769,-0.170345,0
2.10049,-0.364329,-0.0248188
2.20138,-0.271856,-0.282336
2.19132,-0.270613,-0.0128327
2.09154,-0.362776,-0.198157
2.30106,-0.170594,0.0536913
2.09655,-0.363645,0.0247722
2.29608,-0.170225,-0.160998
2.192,-0.270697,-0.180304
2.18705,-0.270086,0.0384651
2.09708,-0.363737,-0.123952
2.28983,-0.169762,0.13372
2.17764,-0.268924,0.0893932
2.29521,-0.17016,-0.107208
2.18835,-0.270247,-0.115558
2.18013,-0.269232,0.179327
2.29707,-0.170299,-0.0535983
2.18158,-0.276759,-0.0639992
2.28914,-0.177345,0
2.18866,-0.277656,-0.280821
2.18247,-0.276871,-0.0127862
2.09425,-0.370404,-0.198529
2.29251,-0.177606,0.0535052
2.08352,-0.368506,0.0246325
2.2955,-0.177838,-0.160998
2.18714,-0.277463,-0.179978
2.18218,-0.276834,0.0383953
2.09587,-0.370689,-0.123952
2.28527,-0.177046,0.133487
2.17277,-0.27564,0.0892304
2.29065,-0.177462,-0.107022
2.17952,-0.276496,-0.115139
2.16341,-0.274453,0.178025
2.29251,-0.177606,-0.0535052
2.38241,-0.0765351,-0.0416065
2.17659,-0.284235,-0.0638828
2.28449,-0.185411,0
2.18369,-0.285162,-0.280315
2.17351,-0.283833,-0.0127397
2.08896,-0.377369,-0.198157
2.08215,-0.37614,0.0246325
2.2829,-0.185282,-0.160161
2.17425,-0.283929,-0.179002
2.16925,-0.283276,0.0381859
2.08663,-0.376949,-0.123487
2.26868,-0.184128,0.132557
2.17174,-0.283602,0.0892304
2.28998,-0.185856,-0.107022
2.17057,-0.283448,-0.11472
2.15448,-0.281348,0.177375
2.2759,-0.184714,-0.053133
2.16771,-0.29039,-0.0636501
2.27988,-0.192649,0
2.07696,-0.382318,-0.024586
2.17487,-0.291348,-0.279305
2.37447,-0.0841631,0.0138091
2.16463,-0.289977,-0.0126932
2.07986,-0.382852,-0.197413
2.27527,-0.19226,0.053133
2.07696,-0.382318,0.024586
2.28625,-0.193187,-0.16044
2.17329,-0.291137,-0.179002
2.16037,-0.289406,0.0380462
2.07752,-0.38242,-0.123022
2.26408,-0.191314,0.132324
2.16287,-0.289741,0.0889047
2.27342,-0.192104,-0.106277
2.17357,-0.291175,-0.11493
2.15749,-0.28902,0.1777
2.2673,-0.191586,-0.0529469
2.15084,-0.295776,-0.0631846
2.26724,-0.199554,0
2.07562,-0.389566,-0.024586
2.16598,-0.297857,-0.278295
2.36217,-0.0919841,0.0137394
2.27004,-0.199801,-0.245466
2.06286,-0.387171,-0.195926
2.26662,-0.1995,0.0529469
2.06775,-0.38809,0.0244928
2.27364,-0.200117,-0.159603
2.16436,-0.297636,-0.178351
2.35721,-0.0917911,0.0686537
2.15538,-0.296401,0.0379764
2.07617,-0.38967,-0.123022
2.25147,-0.198166,0.131627
2.14601,-0.295111,0.0882534
2.26478,-0.199337,-0.105905
2.16067,-0.297128,-0.114302
2.14857,-0.295463,0.177049
2.13634,-0.293783,0.393177
2.25865,-0.198798,-0.0527608
2.35351,-0.100287,-0.0411179
2.14974,-0.303657,-0.0631846
2.25454,-0.206766,0
2.06632,-0.395666,-0.0244928
2.16487,-0.305794,-0.278295
2.36182,-0.100641,0.0137394
2.1625,-0.305459,-0.0126932
2.26137,-0.207393,-0.24461
2.06533,-0.395478,-0.196298
2.04667,-0.391905,0.02426
2.26097,-0.207356,-0.158766
2.15931,-0.305009,-0.178025
2.34887,-0.10009,0.0684209
2.15428,-0.304299,0.0379764
2.07081,-0.396526,-0.12279
2.2388,-0.205322,0.130929
2.14491,-0.302975,0.0882534
2.26403,-0.207637,-0.105905
2.15166,-0.303928,-0.113883
2.13957,-0.302221,0.176398
2.13136,-0.30106,0.392459
2.25393,-0.20671,-0.0526678
2.34918,-0.107498,-0.0410481
2.14086,-0.309266,-0.0629519
2.24591,-0.213092,0
2.05721,-0.400627,-0.0243997
2.15604,-0.311459,-0.277285
2.34551,-0.107329,0.0136464
2.25675,-0.214121,-0.244181
2.06017,-0.401203,-0.195926
2.24929,-0.213412,0.0525747
2.04543,-0.398333,0.02426
2.25633,-0.214081,-0.158487
2.15045,-0.310651,-0.177375
2.34056,-0.107103,0.0681882
2.14144,-0.30935,0.037767
2.06563,-0.402266,-0.122557
2.24211,-0.212732,0.131162
2.13999,-0.30914,0.0880906
2.25939,-0.214371,-0.105719
2.14279,-0.309544,-0.113464
2.13467,-0.308371,0.176073
2.12651,-0.307192,0.391742
2.24531,-0.213035,-0.0524816
2.34879,-0.115697,-0.0410481
2.13581,-0.316151,-0.0628356
2.24914,-0.221322,0
2.05188,-0.407027,-0.0243531
2.14709,-0.317821,-0.276275
2.14855,-0.318037,-0.0126235
2.25599,-0.221997,-0.244181
2.05485,-0.407617,-0.195554
2.24455,-0.220871,0.0524816
2.04011,-0.404692,0.0242135
2.24763,-0.221174,-0.157929
2.14935,-0.318155,-0.177375
2.33618,-0.115076,0.0680718
2.13639,-0.316237,0.0376972
2.05638,-0.40792,-0.122092
2.22944,-0.219384,0.130464
2.14285,-0.317194,0.0882534
2.25465,-0.221865,-0.105533
2.14169,-0.317022,-0.113464
2.23632,-0.220062,0.275912
2.12569,-0.314653,0.175422
2.34321,-0.115422,-0.0955807
2.12153,-0.314037,0.391024
2.24057,-0.220479,-0.0523886
2.33635,-0.124079,-0.0408386
2.12668,-0.323149,-0.0626028
2.14443,-0.325846,-0.433811
2.24031,-0.229143,0
2.14193,-0.325467,-0.27577
2.33667,-0.124095,0.0135999
2.2393,-0.229039,-0.242468
2.04156,-0.413135,-0.194439
2.23971,-0.229081,0.0523886
2.04246,-0.413316,0.02426
2.24676,-0.229803,-0.157929
2.14023,-0.325208,-0.176724
2.32773,-0.123621,0.0678391
2.12725,-0.323236,0.0375576
2.33591,-0.124055,-0.149916
2.05088,-0.415021,-0.121859
2.22063,-0.22713,0.129999
2.12582,-0.323018,0.0876021
2.24584,-0.229708,-0.10516
2.13256,-0.324043,-0.113046
2.22756,-0.227839,0.274937
2.12052,-0.322214,0.175096
2.11642,-0.321589,0.390307
2.22379,-0.227453,-0.0520164
2.32792,-0.131781,-0.040699
2.12159,-0.329956,-0.0624865
2.22757,-0.235699,0
2.041,-0.420443,-0.02426
2.13686,-0.332332,-0.275265
2.32823,-0.131799,0.0135534
2.13431,-0.331934,-0.0125537
2.23453,-0.236436,-0.242039
2.04011,-0.420259,-0.194439
2.23094,-0.236056,0.0522025
2.03317,-0.418829,0.0241669
2.23801,-0.236804,-0.157371
2.13514,-0.332064,-0.176398
2.32729,-0.131745,0.0678391
2.12611,-0.33066,0.0375576
2.32749,-0.131757,-0.149405
2.03769,-0.41976,-0.121162
2.21586,-0.23446,0.129766
2.12073,-0.329822,0.0874392
2.23707,-0.236705,-0.104788
2.12352,-0.330257,-0.112627
2.21096,-0.233942,0.272987
2.11151,-0.328388,0.174445
2.32634,-0.131692,-0.0949294
2.10362,-0.327161,0.388154
2.21901,-0.234794,-0.0519233
2.31951,-0.138617,-0.0405594
2.11659,-0.335992,-0.0623701
2.21488,-0.241396,0
2.03184,-0.425214,-0.0241669
2.12797,-0.337799,-0.274255
2.31982,-0.138635,0.0135069
2.22982,-0.243024,-0.241611
2.03098,-0.425034,-0.193695
2.21826,-0.241764,0.0519233
2.0201,-0.422756,0.0240272
2.23329,-0.243402,-0.157092
2.12228,-0.336895,-0.175422
2.3109,-0.138102,0.0673737
2.32707,-0.139068,-0.149405
2.03245,-0.425342,-0.120929
2.20717,-0.240555,0.129301
2.11573,-0.335856,0.0872764
2.23235,-0.243299,-0.104602
2.11458,-0.335674,-0.112208
2.20232,-0.240027,0.272012
2.10653,-0.334395,0.17412
2.21031,-0.240897,-0.0517372
2.31502,-0.14646,-0.0404896
2.10751,-0.342097,-0.0621374
2.12166,-0.344394,-0.429889
2.20608,-0.248231,0
2.02643,-0.431471,-0.0241203
2.12286,-0.344589,-0.27375
2.31134,-0.146227,0.0134604
2.22501,-0.250361,-0.241183
2.02559,-0.431291,-0.193324
2.21343,-0.249058,0.0518303
2.0147,-0.428972,0.0239806
2.21657,-0.249411,-0.155975
2.11322,-0.343024,-0.174771
2.30242,-0.145663,0.067141
2.11598,-0.343472,0.037418
2.31461,-0.146434,-0.148637
2.03486,-0.433265,-0.121162
2.21028,-0.248704,0.129534
2.10666,-0.341959,0.0869508
2.22354,-0.250196,-0.10423
2.1134,-0.343053,-0.112208
2.20147,-0.247713,0.272012
2.10141,-0.341108,0.173795
2.20946,-0.248611,-0.0517372
2.31447,-0.154944,-0.0404896
2.10624,-0.34982,-0.0621374
2.20118,-0.255853,0
2.02093,-0.438048,-0.0240738
2.11767,-0.351717,-0.273244
2.29882,-0.153896,0.0133907
2.21617,-0.257596,-0.240326
2.024,-0.438713,-0.193324
2.20853,-0.256707,0.0517372
2.0092,-0.435506,0.0239341
2.21167,-0.257073,-0.155696
2.11588,-0.35142,-0.175096
2.30187,-0.154101,0.067141
2.10681,-0.349914,0.0372783
2.02155,-0.438183,-0.120464
2.19349,-0.254959,0.128604
2.10145,-0.349023,0.0867879
2.10819,-0.350142,-0.111999
2.18872,-0.254405,0.27055
2.09228,-0.347501,0.173144
2.30094,-0.154038,-0.0939524
2.19661,-0.255322,-0.0514581
2.29798,-0.161497,-0.0402103
2.09325,-0.354798,-0.0617883
2.19635,-0.262676,0
2.11258,-0.358075,-0.272739
2.10593,-0.356947,-0.0124142
2.20741,-0.263999,-0.239469
2.01475,-0.443709,-0.19258
2.2037,-0.263555,0.0516442
1.99603,-0.439586,0.0237944
2.21477,-0.264879,-0.155975
2.10291,-0.356436,-0.17412
2.29337,-0.161173,0.0669082
2.30159,-0.16175,-0.14787
2.01229,-0.443166,-0.119999
2.1847,-0.261284,0.128138
2.09634,-0.355322,0.0866251
2.20984,-0.26429,-0.103671
2.10308,-0.356464,-0.11179
2.1918,-0.262133,0.271037
2.07933,-0.352439,0.172167
2.18781,-0.261655,-0.051272
2.29342,-0.169223,-0.0401405
2.08805,-0.36142,-0.0616719
2.18748,-0.269364,0
2.0101,-0.450046,-0.0239806
2.2007,-0.270992,-0.344964
2.09959,-0.363417,-0.271224
2.28176,-0.168363,0.0132977
2.20253,-0.271217,-0.239041
2.00542,-0.448999,-0.191837
2.19086,-0.26978,0.051365
1.99448,-0.446551,0.0237944
2.19403,-0.270171,-0.15458
2.10165,-0.363774,-0.17412
2.28083,-0.168294,0.0665591
2.0965,-0.362883,0.0371387
2.29305,-0.169196,-0.147358
2.00683,-0.449316,-0.119766
2.17981,-0.26842,0.127906
2.07933,-0.35991,0.0859738
2.19701,-0.270537,-0.103113
2.09395,-0.36244,-0.111371
2.17511,-0.267841,0.269088
2.07808,-0.359695,0.172167
2.29186,-0.169108,-0.0936268
2.18689,-0.269291,-0.051272
2.28879,-0.177319,-0.0400707
2.07884,-0.367678,-0.0614392
2.1706,-0.275366,0
1.99673,-0.454746,-0.0238409
2.18793,-0.277564,-0.34312
2.09824,-0.37111,-0.271224
2.27714,-0.176416,0.0132744
2.09544,-0.370614,-0.0123678
2.18968,-0.277786,-0.237755
2.00376,-0.456346,-0.191837
2.18588,-0.277304,0.051272
1.98503,-0.452082,0.0237012
2.18511,-0.277206,-0.154022
2.08853,-0.369392,-0.173144
2.26824,-0.175726,0.0662101
2.28843,-0.177291,-0.147102
2.00517,-0.456668,-0.119766
2.17485,-0.275905,0.127673
2.07406,-0.366833,0.085811
2.18807,-0.277582,-0.102741
2.08474,-0.368721,-0.110952
2.16624,-0.274812,0.268113
2.28326,-0.17689,-0.0933011
2.17795,-0.276298,-0.0510859
2.2842,-0.184585,-0.0400009
2.07761,-0.37457,-0.0614392
2.16571,-0.282046,0
1.99911,-0.462266,-0.0238875
2.187,-0.284818,-0.34312
2.08919,-0.376657,-0.270214
2.26857,-0.183322,0.0132279
2.18481,-0.284532,-0.237327
1.99835,-0.462091,-0.191465
2.17306,-0.283002,0.0509928
1.98352,-0.458662,0.0237012
2.18022,-0.283935,-0.153743
2.07945,-0.374901,-0.172493
2.08605,-0.376091,0.0369991
2.27988,-0.184235,-0.146591
2.00365,-0.463315,-0.119766
2.17393,-0.283116,0.127673
2.06103,-0.371581,0.0853225
2.18318,-0.28432,-0.102555
2.08744,-0.376341,-0.111162
2.16138,-0.281481,0.267625
2.05591,-0.370657,0.17054
2.27071,-0.183495,-0.0928126
2.17702,-0.283519,-0.0510859
2.27159,-0.191549,-0.0397915
2.06843,-0.380374,-0.0612065
2.16075,-0.289073,0
1.9858,-0.466497,-0.0237478
2.17816,-0.291402,-0.34189
2.08396,-0.38323,-0.269709
2.25994,-0.190567,0.0131814
2.08107,-0.382699,-0.012298
2.17592,-0.291102,-0.23647
1.9851,-0.466331,-0.190349
2.16809,-0.290056,0.0508998
1.97412,-0.463753,0.0236081
2.17131,-0.290485,-0.153185
2.07812,-0.382157,-0.172493
2.25902,-0.19049,0.0659773
2.07685,-0.381923,0.0368595
2.26729,-0.191186,-0.145823
1.99035,-0.467566,-0.119069
2.16501,-0.289643,0.127208
2.06366,-0.379496,0.0854853
2.17821,-0.291409,-0.102368
2.07432,-0.381458,-0.110534
2.15251,-0.287971,0.26665
2.05852,-0.378552,0.170865
2.26607,-0.191084,-0.0926498
2.16809,-0.290056,-0.0508998
2.25892,-0.198822,-0.0395821
2.06702,-0.387952,-0.0612065
2.15968,-0.296991,0
1.9763,-0.471915,-0.0236547
2.16533,-0.297768,-0.340045
2.07864,-0.390134,-0.269204
2.26321,-0.1992,0.0132047
2.06786,-0.38811,-0.0122283
2.16695,-0.297992,-0.235614
1.98337,-0.473604,-0.190349
2.15909,-0.29691,0.0507136
1.97241,-0.470986,0.0236081
2.16627,-0.297898,-0.152906
2.07279,-0.389036,-0.172167
2.24636,-0.197716,0.0656282
2.07151,-0.388795,0.0367897
2.25862,-0.198795,-0.145312
1.97309,-0.471148,-0.118138
2.15207,-0.295944,0.126511
2.04654,-0.384109,0.084834
2.16921,-0.298302,-0.101996
2.15538,-0.2964,0.267138
2.04536,-0.383888,0.169889
2.26137,-0.199038,-0.0924869
2.15909,-0.29691,-0.0507136
2.24627,-0.205612,-0.0393726
2.0578,-0.393663,-0.0609738
2.14674,-0.302851,0
1.97075,-0.477868,-0.0236081
2.16036,-0.304773,-0.33943
2.07337,-0.396642,-0.268699
2.24657,-0.20564,0.0131117
2.05863,-0.393823,-0.0121818
2.16196,-0.304998,-0.235185
1.97397,-0.478647,-0.189606
2.15408,-0.303887,0.0506206
1.96298,-0.475983,0.023515
2.16127,-0.304901,-0.152627
2.06751,-0.39552,-0.171842
2.24168,-0.205192,0.0655119
2.06228,-0.394521,0.0366501
2.25393,-0.206314,-0.145056
1.97143,-0.478033,-0.118138
2.14707,-0.302897,0.126278
2.04126,-0.390499,0.0846712
2.16024,-0.304756,-0.101624
2.05977,-0.39404,-0.109906
2.1386,-0.301703,0.265188
2.04401,-0.391025,0.169889
2.25669,-0.206566,-0.0923241
2.15804,-0.304445,-0.0507136
2.24163,-0.212291,-0.0393028
2.05263,-0.399362,-0.0608574
2.14182,-0.309023,0
1.95371,-0.480238,-0.0234219
2.15157,-0.310429,-0.3382
2.06822,-0.402395,-0.268194
2.24193,-0.21232,0.0130884
2.05346,-0.399524,-0.0121585
2.15312,-0.310653,-0.234328
1.96859,-0.483895,-0.189234
2.14916,-0.310081,0.0505275
1.95759,-0.481192,0.0234684
2.1524,-0.310549,-0.152069
2.05843,-0.40049,-0.171191
2.23704,-0.211856,0.0653955
2.25327,-0.213394,-0.145056
1.96604,-0.483271,-0.117906
2.1382,-0.3085,0.125813
2.0361,-0.396147,0.0845083
2.15137,-0.3104,-0.101252
2.05068,-0.398983,-0.109487
2.12979,-0.307286,0.264213
2.14916,-0.310081,-0.0505275
2.23689,-0.219723,-0.039233
2.04338,-0.40497,-0.0606247
2.13282,-0.315327,0
1.95202,-0.487055,-0.0234219
2.05902,-0.40807,-0.267184
2.23321,-0.219362,0.0130419
2.04421,-0.405134,-0.012112
2.14415,-0.317004,-0.233472
1.97075,-0.491728,-0.189606
1.9559,-0.488023,0.0234684
2.14736,-0.317477,-0.15179
2.04528,-0.405348,-0.170214
2.04393,-0.40508,0.0363708
2.2406,-0.220087,-0.144288
1.96047,-0.489164,-0.117673
2.13711,-0.315962,0.125813
2.03078,-0.402474,0.0843455
2.14632,-0.317323,-0.101066
2.04927,-0.406139,-0.109487
2.12477,-0.314138,0.263725
2.14411,-0.316997,-0.0504345
2.22811,-0.227109,-0.0390934
2.04188,-0.412456,-0.0606247
2.12769,-0.322543,0
1.9541,-0.495188,-0.0234684
2.14148,-0.324633,-0.336971
2.04973,-0.414042,-0.266173
2.22444,-0.226735,0.0129954
2.04663,-0.413416,-0.0121353
2.13905,-0.324264,-0.233043
1.96121,-0.496992,-0.188862
1.94634,-0.493223,0.0233753
2.13829,-0.324149,-0.151232
2.04378,-0.412842,-0.170214
2.21558,-0.225832,0.0648137
2.03851,-0.411776,0.036301
2.22786,-0.227084,-0.143521
1.94705,-0.493403,-0.116976
2.13199,-0.323194,0.12558
2.02538,-0.409124,0.0841827
2.14119,-0.324589,-0.100879
2.03994,-0.412066,-0.109068
2.12753,-0.322519,0.264213
2.02425,-0.408895,0.168587
2.22661,-0.226956,-0.0911843
2.13502,-0.323654,-0.0502484
2.22337,-0.234078,-0.0390236
2.03267,-0.417616,-0.060392
2.12266,-0.328984,0
1.94082,-0.49868,-0.0233287
2.04446,-0.420039,-0.265668
2.21969,-0.233691,0.0129722
2.03349,-0.417786,-0.0120655
1.94412,-0.499528,-0.187375
1.9447,-0.499675,0.0233753
2.13326,-0.330627,-0.150953
2.03459,-0.418012,-0.169564
2.03322,-0.417729,0.0362312
2.21916,-0.233634,-0.143009
1.94154,-0.498864,-0.116743
2.11907,-0.328428,0.124883
2.01618,-0.414229,0.083857
2.1322,-0.330464,-0.100507
2.03856,-0.418828,-0.109068
2.11861,-0.328356,0.263238
2.01116,-0.413198,0.167611
2.22187,-0.23392,-0.0910215
2.12999,-0.33012,-0.0501553
2.21459,-0.240972,-0.038884
2.02728,-0.42389,-0.0602756
2.10964,-0.334512,0
1.94294,-0.50646,-0.0233753
2.04686,-0.427985,-0.266173
2.21489,-0.241005,0.0129489
2.03202,-0.424881,-0.0120655
2.12501,-0.336948,-0.231758
2.12487,-0.336927,0.0500623
1.9352,-0.504442,0.0232822
2.12421,-0.336822,-0.150395
2.03312,-0.425112,-0.169564
2.20604,-0.240042,0.064581
2.03175,-0.424824,0.0362312
2.21436,-0.240948,-0.142753
1.93979,-0.505638,-0.116743
2.11791,-0.335822,0.124883
2.01081,-0.420446,0.0836942
2.11525,-0.335401,-0.0997627
2.03318,-0.425124,-0.108859
2.1096,-0.334506,0.262263
2.00581,-0.4194,0.167285
2.21309,-0.240809,-0.0906958
2.12487,-0.336927,-0.0500623
2.20972,-0.248641,-0.0388142
2.01789,-0.429653,-0.0600429
1.93334,-0.511532,-0.0232822
2.02976,-0.432178,-0.264153
2.21002,-0.248674,0.0129257
2.01871,-0.429827,-0.0119958
2.11591,-0.34346,-0.230901
1.92947,-0.510509,0.0232356
2.11508,-0.343327,-0.149837
2.02765,-0.43173,-0.169238
2.1972,-0.247232,0.0643483
2.02235,-0.430602,0.0360916
2.20553,-0.248169,-0.142242
1.93406,-0.511723,-0.116511
2.11272,-0.342943,0.12465
2.11401,-0.343152,-0.0997627
2.02379,-0.430909,-0.10844
2.10053,-0.340963,0.261288
2.20822,-0.248472,-0.090533
2.11573,-0.343431,-0.0498762
2.20486,-0.255891,-0.0387443
2.00856,-0.435001,-0.0598101
2.09536,-0.347636,0
1.92381,-0.516204,-0.023189
2.02436,-0.438421,-0.263648
2.20119,-0.255465,0.0128792
2.0172,-0.436871,-0.0119958
2.11077,-0.350193,-0.230473
2.10663,-0.349505,0.0496901
1.92768,-0.517241,0.0232356
2.106,-0.349401,-0.149279
2.01444,-0.436274,-0.168262
2.01302,-0.435966,0.035952
1.93226,-0.518471,-0.116511
2.09703,-0.347913,-0.0990182
2.01447,-0.43628,-0.108021
2.09541,-0.347644,0.2608
2.11057,-0.35016,-0.0497831
2.19606,-0.262253,-0.0386047
2.01102,-0.442519,-0.0599265
2.09025,-0.353915,0
1.91823,-0.521532,-0.0231425
2.01514,-0.443426,-0.262638
2.18841,-0.26134,0.0128095
2.00402,-0.440979,-0.011926
2.10546,-0.356489,0.0496901
1.91437,-0.520482,0.0230959
2.10483,-0.356383,-0.149279
2.01298,-0.442952,-0.168262
2.18355,-0.26076,0.0639992
2.00375,-0.44092,0.0358123
1.91897,-0.521732,-0.115813
2.09853,-0.355316,0.123952
1.99459,-0.438903,0.0832057
2.0998,-0.355532,-0.0992044
2.00911,-0.442099,-0.107812
2.09033,-0.353928,0.260313
1.98573,-0.436954,0.165984
2.18664,-0.261128,-0.0897188
2.10151,-0.355822,-0.049597
2.17925,-0.267965,-0.0383255
2.00556,-0.448663,-0.0598101
2.08506,-0.360527,0
1.9164,-0.528224,-0.0231425
2.09533,-0.362303,-0.330821
2.00196,-0.447859,-0.261123
2.18749,-0.268977,0.0128095
1.99466,-0.446225,-0.0118796
1.92026,-0.529287,0.023189
2.09964,-0.363048,-0.149
1.99975,-0.447365,-0.167285
2.18263,-0.26838,0.0639992
1.99439,-0.446165,0.0356727
2.18701,-0.268918,-0.141218
2.0894,-0.361278,0.123487
2.09855,-0.36286,-0.0992044
1.99976,-0.447366,-0.107393
2.08517,-0.360546,0.259825
1.9803,-0.443013,0.165658
2.18175,-0.268271,-0.089556
2.09632,-0.362474,-0.049504
2.17429,-0.275448,-0.0382557
1.98831,-0.452462,-0.0593447
2.07979,-0.367471,0
1.9106,-0.534168,-0.0230959
2.17855,-0.275988,0.012763
1.98911,-0.452646,-0.0118563
2.08349,-0.368125,-0.227903
2.09104,-0.369459,0.0494109
1.91445,-0.535245,0.0231425
2.08258,-0.367964,-0.147884
2.00199,-0.455576,-0.167611
2.16973,-0.27487,0.0636501
1.99274,-0.453472,0.0356727
2.17809,-0.275929,-0.140707
1.90365,-0.532225,-0.115115
2.08413,-0.368239,0.123255
2.0854,-0.368463,-0.098646
1.99421,-0.453806,-0.107184
2.07992,-0.367495,0.259338
1.97866,-0.450268,0.165658
2.18075,-0.276266,-0.089556
2.09104,-0.369459,-0.0494109
2.16935,-0.282519,-0.0381859
1.97892,-0.457598,-0.059112
2.07062,-0.373309,0
1.90103,-0.538653,-0.0230028
2.0849,-0.375884,-0.329592
2.17757,-0.283591,0.012763
1.97973,-0.457784,-0.0118098
1.89333,-0.536472,0.0229097
2.07343,-0.373816,-0.147326
1.98485,-0.458968,-0.166309
2.16083,-0.28141,0.0634174
1.98336,-0.458623,0.0355331
2.17315,-0.283015,-0.140451
1.90562,-0.539955,-0.115348
2.0789,-0.374803,0.123022
2.07624,-0.374323,-0.0982737
1.98094,-0.458064,-0.106556
2.07472,-0.374049,0.258851
2.16788,-0.282328,-0.0890675
2.0858,-0.376046,-0.0493179
2.16835,-0.29009,-0.0381859
1.97731,-0.464503,-0.059112
2.06537,-0.379811,0
1.89913,-0.545285,-0.0230028
2.16468,-0.289599,0.0126932
1.9859,-0.466521,-0.0118563
2.07305,-0.381223,-0.227046
2.07661,-0.381878,0.0491318
1.89529,-0.544182,0.0229562
2.07211,-0.381051,-0.147326
2.15587,-0.288421,0.063301
1.97785,-0.464629,0.0354633
2.16028,-0.289011,-0.139683
2.06973,-0.380613,0.122557
1.96873,-0.462486,0.0823915
2.06706,-0.380123,-0.0979015
1.97544,-0.464063,-0.106347
2.06559,-0.379852,0.257876
2.06874,-0.380432,-0.0489456
2.15153,-0.295105,-0.0379066
1.96798,-0.469203,-0.0588792
2.05623,-0.385185,0
1.89347,-0.550464,-0.0229562
2.15578,-0.295688,0.0126467
1.97267,-0.470321,-0.0117866
2.06786,-0.387363,-0.226617
1.88963,-0.549347,0.0229097
2.07084,-0.38792,-0.147326
1.97392,-0.470619,-0.165658
2.14698,-0.294482,0.0630683
1.96852,-0.46933,0.0353237
2.06846,-0.387475,0.122557
1.9633,-0.468085,0.0822287
2.06186,-0.386239,-0.0977154
1.97,-0.469685,-0.106137
2.05652,-0.385238,0.256901
1.95841,-0.46692,0.164356
2.0714,-0.388026,-0.0490387
1.96245,-0.475129,-0.0587629
2.05881,-0.393111,0
1.88387,-0.55481,-0.0228631
2.15473,-0.303212,0.0126467
1.95936,-0.47438,-0.0117168
2.05868,-0.393087,-0.225761
1.88387,-0.55481,0.0228631
2.06947,-0.395147,-0.147326
1.96839,-0.476568,-0.165333
2.14594,-0.301974,0.0630683
1.96687,-0.476198,0.0353237
2.15036,-0.302596,-0.139172
2.0514,-0.391697,0.121627
1.95777,-0.473995,0.0820659
2.05658,-0.392685,-0.0975292
1.96447,-0.475618,-0.105928
1.94902,-0.471878,0.163705
2.05825,-0.393004,-0.0487595
2.13754,-0.308405,-0.0376972
1.95689,-0.481022,-0.0586465
2.04564,-0.398003,0
1.88192,-0.561382,-0.0228631
2.14575,-0.309589,0.0126002
1.95769,-0.481217,-0.0117168
2.0534,-0.399512,-0.225332
1.87809,-0.560239,0.0228165
2.05633,-0.400082,-0.146489
1.96285,-0.482485,-0.165007
2.14092,-0.308892,0.0629519
1.96131,-0.482107,0.0352539
2.14139,-0.30896,-0.13866
2.0461,-0.398092,0.121394
2.04735,-0.398335,-0.097157
2.04598,-0.398069,0.255926
1.94736,-0.478678,0.163705
2.144,-0.309337,-0.0882534
2.05294,-0.399423,-0.0486665
2.1365,-0.315491,-0.0376972
2.04039,-0.404007,0
1.87239,-0.565308,-0.02277
2.14075,-0.316118,0.012577
1.94832,-0.485771,-0.0116703
2.04816,-0.405546,-0.224904
1.86473,-0.562996,0.0226768
2.04716,-0.405348,-0.145931
1.9535,-0.487062,-0.164356
2.13197,-0.314822,0.0627192
1.95194,-0.486673,0.0351142
2.1364,-0.315476,-0.138404
2.04477,-0.404875,0.121394
1.94286,-0.48441,0.0815774
2.04602,-0.405122,-0.097157
2.04076,-0.404081,0.255438
1.93803,-0.483204,0.163054
2.04376,-0.404675,-0.0484804
2.12742,-0.322122,-0.0375576
1.94574,-0.492708,-0.0584138
2.03105,-0.409901,0
1.85883,-0.568657,-0.0226303
2.13167,-0.322765,0.0125305
1.94653,-0.492909,-0.0116703
2.03886,-0.411477,-0.224047
2.04618,-0.412954,0.0485734
1.86648,-0.570997,0.0227234
2.04957,-0.413638,-0.14621
2.12289,-0.321436,0.0624865
1.94239,-0.49186,0.0349746
2.12734,-0.322109,-0.137892
2.03153,-0.409997,0.120697
1.9372,-0.490546,0.0814146
2.0406,-0.411828,-0.0969709
1.94777,-0.493222,-0.1053
2.03537,-0.410772,0.254951
2.03442,-0.410581,-0.0482943
2.11838,-0.328321,-0.037418
2.02177,-0.415378,0
1.86066,-0.576325,-0.0226768
2.12262,-0.328978,0.012484
1.94092,-0.498705,-0.0116471
2.03352,-0.417791,-0.223619
2.0403,-0.419184,-0.145652
1.94224,-0.499044,-0.163705
2.11781,-0.328232,0.0623701
1.93291,-0.496647,0.034835
2.02617,-0.416282,0.120464
2.03132,-0.41734,-0.0965986
1.93829,-0.49803,-0.104881
2.03003,-0.417075,0.254463
2.02906,-0.416875,-0.0482012
2.10938,-0.334093,-0.0372783
1.93073,-0.502918,-0.0580647
2.0243,-0.422898,0
1.86255,-0.583688,-0.0227234
2.11362,-0.334764,0.0124375
1.93152,-0.503122,-0.0116006
2.02823,-0.423719,-0.22319
1.85492,-0.581296,0.0226303
2.03108,-0.424316,-0.145093
2.11671,-0.335254,0.0623701
1.93125,-0.503054,0.034835
2.11327,-0.334709,-0.137125
2.01306,-0.420549,0.119766
1.92608,-0.501706,0.0810889
2.02211,-0.42244,-0.0962264
2.02087,-0.422181,0.253488
2.01592,-0.421148,-0.0479221
2.10814,-0.341822,-0.0372783
2.01491,-0.42865,0
2.10843,-0.341868,0.0124142
1.92192,-0.508153,-0.0115541
2.0261,-0.43103,0.0482012
2.02561,-0.430927,-0.144814
1.93871,-0.512591,-0.163705
2.10757,-0.34173,0.0621374
1.9294,-0.510129,0.034835
2.10809,-0.341813,-0.136869
2.0115,-0.427925,0.119766
2.02054,-0.429848,-0.0962264
2.01154,-0.427933,0.252513
2.10672,-0.341591,-0.0869508
2.01828,-0.429366,-0.0480151
2.107,-0.348811,-0.0372783
2.00566,-0.433638,0
1.85462,-0.595454,-0.0226768
2.09939,-0.347552,0.0123678
1.92409,-0.515559,-0.0115773
2.02133,-0.437028,-0.222762
2.02075,-0.436901,0.0481082
1.83939,-0.590563,0.0224906
2.02027,-0.436798,-0.144535
2.09459,-0.346758,0.0617883
1.92383,-0.515489,0.0347652
2.103,-0.34815,-0.136613
1.99836,-0.432061,0.119069
1.91481,-0.513071,0.0807633
2.01911,-0.436546,-0.0962264
2.00902,-0.434366,-0.047829
2.09788,-0.35483,-0.0371387
1.91378,-0.519963,-0.0577156
2.00804,-0.441496,0
1.83732,-0.59698,-0.0224906
2.09028,-0.353544,0.0123213
1.92228,-0.522272,-0.0115773
2.01203,-0.442373,-0.221905
2.00749,-0.441376,0.047829
2.00704,-0.441277,-0.143698
2.08943,-0.3534,0.0616719
1.91044,-0.519056,0.0345558
2.09784,-0.354823,-0.136357
2.00074,-0.439892,0.119301
2.00586,-0.441018,-0.095668
2.00359,-0.440518,-0.047736
2.08481,-0.360108,-0.0369293
2.00648,-0.448503,0
1.91659,-0.527917,-0.0115541
2.00271,-0.447658,-0.221048
2.00594,-0.448381,0.047829
2.00549,-0.448281,-0.143698
2.0803,-0.35933,0.0614392
1.91247,-0.526783,0.0346256
1.9914,-0.445131,0.118836
1.90347,-0.524304,0.0804376
2.00431,-0.448017,-0.095668
2.0834,-0.359865,-0.0861366
1.99423,-0.445764,-0.0475499
2.0796,-0.366689,-0.0368595
1.9893,-0.451959,0
2.07594,-0.366044,0.0122515
1.90703,-0.532452,-0.0115076
1.99725,-0.453765,-0.22062
2.00046,-0.454495,0.047736
2.00391,-0.455278,-0.143698
2.0751,-0.365895,0.0613228
1.89907,-0.530229,0.0344161
2.07959,-0.366687,-0.135334
1.97815,-0.449425,0.118138
1.89393,-0.528796,0.0801119
1.99494,-0.45324,-0.0952957
2.08213,-0.367135,-0.0861366
2.0783,-0.373946,-0.0368595
1.98382,-0.458,0
2.07465,-0.373288,0.0122515
1.89746,-0.536928,-0.0114611
1.99178,-0.459839,-0.220192
1.98328,-0.457876,0.0473638
1.99454,-0.460475,-0.14314
2.06594,-0.371721,0.0610901
1.90105,-0.537944,0.034486
2.07437,-0.373237,-0.135078
1.97268,-0.455429,0.117906
1.88823,-0.534315,0.0799491
1.98556,-0.458403,-0.0949235
2.07296,-0.372985,-0.085811
1.98328,-0.457876,-0.0473638
2.06912,-0.379754,-0.0367199
1.97052,-0.462182,0
2.06547,-0.379084,0.012205
1.89173,-0.542445,-0.0114378
1.98242,-0.464973,-0.219335
1.98556,-0.46571,0.0474568
1.98126,-0.464701,-0.142303
2.06463,-0.37893,0.0610901
1.89532,-0.543474,0.0344161
2.06912,-0.379755,-0.134823
1.97108,-0.462312,0.117906
1.98395,-0.465331,-0.0949235
1.97388,-0.46297,-0.0471777
2.06778,-0.386975,-0.0367199
1.9689,-0.469058,0
2.05627,-0.38482,0.0121585
1.88983,-0.549045,-0.0114378
1.98852,-0.473733,-0.220192
1.97226,-0.469858,0.0471777
1.97963,-0.471614,-0.142303
2.05543,-0.384663,0.0608574
1.88957,-0.548971,0.0343463
2.06386,-0.386241,-0.134567
1.97334,-0.470115,0.118138
1.97454,-0.470402,-0.0945512
2.05853,-0.385242,-0.0853225
2.0587,-0.391973,-0.0365802
1.95964,-0.473363,0
2.04719,-0.389782,0.012112
1.88809,-0.55498,-0.0114378
1.98316,-0.479044,-0.219763
1.97077,-0.476051,0.0471777
1.97426,-0.476894,-0.142024
2.05028,-0.390371,0.060741
1.87633,-0.551521,0.0341369
2.0548,-0.39123,-0.134055
1.95632,-0.472562,0.117208
1.97305,-0.476603,-0.0945512
2.05338,-0.39096,-0.0851596
2.04547,-0.397228,-0.0363708
1.95401,-0.479588,0
2.04182,-0.39652,0.0120888
1.87071,-0.557328,-0.0113449
1.96124,-0.481365,0.0469915
1.96862,-0.483176,-0.141745
1.87046,-0.557252,0.0340671
1.94682,-0.477825,0.116743
1.95965,-0.480974,-0.0939929
2.04801,-0.397721,-0.0849968
2.03629,-0.402458,-0.0362312
2.03264,-0.401737,0.0120423
1.86885,-0.563528,-0.0113449
1.95188,-0.485934,0.0468054
1.95539,-0.486809,-0.140908
2.03966,-0.403125,0.0605083
1.86477,-0.562297,0.0339973
2.04027,-0.403244,-0.133288
1.94135,-0.483314,0.116511
1.95417,-0.486504,-0.0938067
2.04276,-0.403736,-0.084834
1.948,-0.484968,-0.0467124
2.03096,-0.408775,-0.0361614
2.02731,-0.408041,0.012019
1.8707,-0.571216,-0.0113681
1.94629,-0.491765,0.0467124
2.02649,-0.407875,0.0601592
1.8628,-0.568803,0.0339973
2.03493,-0.409575,-0.133032
1.93578,-0.489109,0.116278
1.95246,-0.493323,-0.0938067
1.94241,-0.490785,-0.0466193
2.03735,-0.417467,-0.036301
1.93734,-0.496704,0
2.02587,-0.415115,0.012019
1.86487,-0.576562,-0.0113449
1.94069,-0.497562,0.0466193
1.94422,-0.498467,-0.14035
2.01722,-0.413341,0.0599265
1.8608,-0.575302,0.0339973
2.02958,-0.415875,-0.132776
1.93019,-0.494872,0.116045
1.95072,-0.500135,-0.0938067
2.02814,-0.41558,-0.0843455
1.93682,-0.496569,-0.0465263
2.02805,-0.422943,-0.0361614
1.92785,-0.501449,0
2.01658,-0.420551,0.0119725
1.84758,-0.578288,-0.0112519
1.93507,-0.503327,0.0465263
1.9386,-0.504246,-0.140071
2.0203,-0.421327,-0.132264
1.94123,-0.504929,-0.0934345
2.01885,-0.421025,-0.0840198
1.9312,-0.50232,-0.0464332
1.92609,-0.508176,0
1.92944,-0.509058,0.0464332
1.93297,-0.509992,-0.139792
2.00646,-0.425754,0.0596938
1.92787,-0.508645,-0.0928761
2.01346,-0.42724,-0.083857
1.92557,-0.508038,-0.0463402
2.0055,-0.432872,-0.0358123
2.00186,-0.432087,0.0119028
1.91606,-0.512689,0.0461541
2.00105,-0.431912,0.0595774
2.01196,-0.434266,-0.083857
1.91992,-0.513723,-0.0462471
2.00007,-0.439013,-0.0357425
1.99644,-0.438215,0.0118796
1.91426,-0.519374,0.0461541
1.99172,-0.43718,0.0593447
1.90768,-0.517591,0.115115
1.91656,-0.519999,-0.0925039
1.91426,-0.519374,-0.0461541
1.99861,-0.445643,-0.0357425
1.90533,-0.523741,0
1.83183,-0.601213,-0.0112054
1.90867,-0.52466,0.046061
1.98636,-0.442912,0.0592283
1.99871,-0.445667,-0.131241
1.91482,-0.526351,-0.0925039
1.90867,-0.52466,-0.046061
1.98534,-0.449965,-0.0355331
1.90682,-0.531319,0.046061
1.9809,-0.448959,0.059112
1.90297,-0.530245,-0.045968
1.97623,-0.455158,0.0117866
1.90111,-0.536885,0.045968
1.98389,-0.456922,-0.130473
1.89956,-0.536448,-0.0919455
1.89726,-0.535798,-0.0458749
1.97073,-0.461143,0.0117633
1.89153,-0.541317,0.0457819
1.89153,-0.541317,-0.0457819
1.96522,-0.467094,0.0117401
1.88579,-0.546803,0.0456888
1.96442,-0.466904,0.0587629
1.97288,-0.468915,-0.129962
1.88963,-0.547917,-0.0457819
1.88387,-0.553382,0.0456888
1.88387,-0.553382,-0.0456888
1.95388,-0.478833,-0.0351142
1.88193,-0.559955,0.0456888
1.87426,-0.557674,-0.0455027
1.94858,-0.484751,0.0116703
1.86848,-0.563059,0.0454097
1.86848,-0.563059,-0.0454097
1.86268,-0.568411,0.0453166
1.8665,-0.569578,-0.0454097
1.93713,-0.49629,-0.0349048
1.93739,-0.496357,0.0116238
1.85686,-0.573729,0.0452235
1.85686,-0.573729,-0.0452235
1.92782,-0.501441,0.0115773
1.86619,-0.584114,0.0455027
1.92228,-0.506811,0.0115541
1.85281,-0.586678,-0.0452235
1.83601,-0.588419,0
1.91663,-0.512485,0.0115308
1.91869,-0.520219,0.0115541
1.90924,-0.524459,0.0115076
1.90355,-0.530048,0.0114843
1.89784,-0.535603,0.0114611
1.88445,-0.553194,0.0114146
1.87464,-0.558143,0.0113681
1.84778,-0.577643,0.0112519
1.84194,-0.582883,0.0112286
1.83954,-0.58955,-0.033718
