2.16616,0.496516,-0.207451
2.16958,0.481382,-0.207451
2.17124,0.473805,-0.207451
2.17678,0.467058,-0.207823
2.17083,0.465782,-0.129301
2.17839,0.459458,-0.207823
2.18771,0.453849,-0.208567
2.18545,0.445033,-0.208195
2.17559,0.443025,-0.129301
2.18684,0.438165,-0.208195
2.1848,0.437756,-0.129766
2.19241,0.430532,-0.208567
2.18255,0.428594,-0.129534
2.1939,0.422877,-0.208567
2.19971,0.423997,-0.130464
2.19913,0.416723,-0.208938
2.18927,0.414853,-0.129766
2.20058,0.409045,-0.208938
2.20598,0.40169,-0.20931
2.20003,0.400608,-0.130231
2.21129,0.394687,-0.209682
2.15662,0.494725,-0.180629
2.20535,0.393627,-0.130464
2.21258,0.387352,-0.209682
2.16214,0.48845,-0.180955
2.20664,0.386312,-0.130464
2.21791,0.379913,-0.210054
2.16781,0.481386,-0.18128
2.21198,0.378897,-0.130697
2.20506,0.369792,-0.0260295
2.21923,0.372168,-0.210054
2.16947,0.473816,-0.18128
2.21329,0.371172,-0.130697
2.21652,0.36416,-0.209682
2.17883,0.468294,-0.181931
2.21451,0.36383,-0.130697
2.21153,0.355022,-0.026076
2.22177,0.356666,-0.210054
2.18053,0.460305,-0.181931
2.21977,0.356345,-0.130929
2.21671,0.34792,-0.0261226
2.23087,0.350143,-0.210797
2.17822,0.451881,-0.181606
2.22495,0.349213,-0.131162
2.21779,0.340955,-0.0261226
2.23196,0.343133,-0.210797
2.18354,0.445833,-0.181931
2.22603,0.342221,-0.131162
2.17606,0.444306,-0.116395
2.22694,0.334011,-0.0262157
2.2332,0.334951,-0.210797
2.18516,0.437828,-0.181931
2.23122,0.334653,-0.131394
2.18159,0.437113,-0.116605
2.22809,0.326235,-0.0262157
2.23436,0.327153,-0.210797
2.19058,0.430966,-0.182256
2.23633,0.327441,-0.131627
2.22916,0.318844,-0.0262157
2.23937,0.320305,-0.211169
2.19591,0.424456,-0.182582
2.2374,0.320022,-0.131627
2.23031,0.310672,-0.0262157
2.24448,0.312645,-0.211541
2.20137,0.417147,-0.182907
2.24251,0.312371,-0.131859
2.18997,0.414987,-0.116814
2.20135,0.409187,-0.0651628
2.23931,0.30396,-0.0263088
2.20025,0.408984,-0.284861
2.2495,0.305343,-0.211912
2.1989,0.408731,-0.182582
2.24359,0.304541,-0.131859
2.19533,0.408069,-0.117023
2.19876,0.401168,-0.0650464
2.24031,0.296534,-0.0263088
2.20941,0.403112,-0.285871
2.24655,0.297361,-0.211541
2.20416,0.402154,-0.182907
2.24063,0.296577,-0.131627
2.20453,0.402222,-0.117442
2.24133,0.288712,-0.0263088
2.21471,0.396095,-0.286376
2.24758,0.289517,-0.211541
2.20555,0.394457,-0.182907
2.24957,0.289773,-0.132092
2.20199,0.393821,-0.117233
2.19757,0.385117,-0.0649301
2.24629,0.281383,-0.0263554
2.25648,0.282659,-0.212284
2.16007,0.488377,-0.154859
2.20691,0.386756,-0.182907
2.25453,0.282415,-0.132324
2.19942,0.385442,-0.117023
2.2029,0.377736,-0.0650464
2.24731,0.273148,-0.0263554
2.2038,0.37789,-0.0129954
2.2575,0.274387,-0.212284
2.21618,0.380012,-0.183558
2.25951,0.274632,-0.132557
2.20475,0.378054,-0.117233
2.25217,0.266164,-0.026402
2.21873,0.372882,-0.286376
2.26235,0.267367,-0.212656
2.17512,0.475845,-0.155696
2.21349,0.372001,-0.183233
2.25645,0.266669,-0.132324
2.21387,0.372065,-0.117651
2.20542,0.362734,-0.0650464
2.25706,0.258757,-0.0264485
2.22394,0.365779,-0.286881
2.21421,0.36418,-0.0130419
2.25931,0.259015,-0.212284
2.25309,0.258301,0.026402
2.18067,0.469089,-0.155975
2.21871,0.364919,-0.183558
2.25736,0.258792,-0.132324
2.2191,0.364983,-0.117861
2.21062,0.355668,-0.0651628
2.25625,0.250687,-0.211912
2.17839,0.460648,-0.155696
2.22391,0.357805,-0.183884
2.26222,0.251351,-0.132557
2.21642,0.3566,-0.117651
2.21179,0.348335,-0.0651628
2.26275,0.243815,-0.0264951
2.21269,0.348476,-0.0130187
2.17266,0.451914,-0.239041
2.26894,0.244483,-0.213028
2.176,0.452608,-0.155417
2.22508,0.350428,-0.183884
2.26304,0.243847,-0.132557
2.17113,0.451595,-0.103299
2.21759,0.349247,-0.117651
2.217,0.340834,-0.0652792
2.26363,0.235521,-0.0264951
2.21791,0.340972,-0.0130419
2.1782,0.444744,-0.239469
2.26983,0.236166,-0.213028
2.18546,0.446227,-0.155975
2.22635,0.342271,-0.183884
2.27187,0.236378,-0.133022
2.2228,0.341725,-0.117861
2.26837,0.228414,-0.0265417
2.23662,0.336261,-0.287892
2.18356,0.438301,-0.239897
2.27456,0.229037,-0.2134
2.19084,0.439763,-0.156255
2.23142,0.335479,-0.184209
2.26866,0.228443,-0.13279
2.18206,0.438,-0.103671
2.22787,0.334946,-0.11807
2.22323,0.326316,-0.0653955
2.27314,0.220881,-0.0265882
2.18508,0.430676,-0.239897
2.27534,0.221095,-0.2134
2.2612,0.21972,0.0264485
2.19236,0.432112,-0.156255
2.23652,0.328266,-0.184535
2.22383,0.326404,0.039233
2.27342,0.220908,-0.133022
2.18358,0.43038,-0.103671
2.23298,0.327747,-0.118279
2.27788,0.213318,-0.0266348
2.19047,0.423802,-0.240326
2.2761,0.213152,-0.2134
2.18602,0.422941,-0.155696
2.22892,0.319207,0.0393028
2.28213,0.213716,-0.133487
2.18507,0.422756,-0.103671
2.23411,0.319951,-0.118279
2.22545,0.310787,-0.0653955
2.27861,0.205365,-0.0266348
2.22636,0.310913,-0.0130652
2.19194,0.416153,-0.240326
2.27683,0.205205,-0.2134
2.26666,0.204288,0.0264951
2.19533,0.416796,-0.156255
2.23876,0.312645,-0.184535
2.23398,0.311977,0.0393726
2.27889,0.20539,-0.133255
2.19045,0.415871,-0.103857
2.2273,0.311045,-0.117861
2.19616,0.416955,-0.0520164
2.23445,0.304094,-0.0656282
2.27931,0.197409,-0.0266348
2.19729,0.409226,-0.240754
2.2815,0.197599,-0.213771
2.27134,0.196719,0.0265417
2.20069,0.40986,-0.156534
2.24378,0.305365,-0.18486
2.23109,0.303638,0.0393028
2.27959,0.197433,-0.133255
2.19582,0.408953,-0.104044
2.24025,0.304884,-0.118489
2.23946,0.29682,-0.0657446
2.28796,0.190116,-0.0267279
2.25394,0.29874,-0.289407
2.23244,0.295889,-0.0130884
2.1987,0.401555,-0.240754
2.28615,0.189965,-0.214143
2.19818,0.401461,-0.156255
2.25274,0.29858,-0.185511
2.23214,0.295849,0.0393028
2.28424,0.189807,-0.133487
2.20117,0.402005,-0.10423
2.24922,0.298113,-0.118907
2.24048,0.289,-0.0657446
2.2926,0.182445,-0.0267745
2.25497,0.290869,-0.289407
2.20009,0.393878,-0.240754
2.2868,0.181983,-0.214143
2.19957,0.393785,-0.156255
2.24981,0.290204,-0.185186
2.24506,0.28959,0.0395123
2.29285,0.182465,-0.133952
2.19862,0.393614,-0.104044
2.25024,0.290259,-0.118907
2.29322,0.174442,-0.0267745
2.20145,0.386196,-0.240754
2.29139,0.174302,-0.214515
2.20879,0.387484,-0.156813
2.25477,0.282846,-0.185511
2.24605,0.281752,0.0395123
2.17251,0.491589,-0.142753
2.2895,0.174158,-0.13372
2.20392,0.386628,-0.10423
2.24728,0.281906,-0.118698
2.19783,0.385561,-0.0519233
2.24244,0.273352,-0.0657446
2.29381,0.166435,-0.0267745
2.20279,0.378508,-0.240754
2.29198,0.166302,-0.214515
2.21407,0.380446,-0.157092
2.25179,0.27449,-0.185186
2.24305,0.273426,0.0394424
2.29805,0.166743,-0.134185
2.20525,0.378932,-0.10423
2.25221,0.274543,-0.118907
2.20311,0.378563,-0.0520164
2.24339,0.265522,-0.0657446
2.20896,0.371634,0
2.30236,0.158978,-0.0268676
2.26578,0.268172,-0.290417
2.2443,0.26563,-0.0131349
2.21194,0.372136,-0.241611
2.29652,0.158574,-0.214887
2.2864,0.157875,0.0266814
2.21538,0.372715,-0.157092
2.25669,0.267096,-0.185511
2.24796,0.266064,0.0395123
2.29862,0.158719,-0.134185
2.21444,0.372557,-0.104602
2.25316,0.266679,-0.118907
2.20442,0.37087,-0.0520164
2.25621,0.259058,-0.0660937
2.3029,0.15094,-0.0268676
2.25316,0.258707,-0.0131814
2.21715,0.365059,-0.242039
2.30104,0.150818,-0.215258
2.21667,0.36498,-0.157092
2.26157,0.259673,-0.185836
2.24491,0.25776,0.0394424
2.29916,0.150695,-0.134185
2.21967,0.365475,-0.104788
2.25804,0.259268,-0.119117
2.21359,0.364473,-0.0522025
2.25309,0.251132,-0.0659773
2.30738,0.143552,-0.0269142
2.25003,0.250791,-0.0131582
2.21049,0.356439,-0.241183
2.30153,0.143187,-0.215258
2.2994,0.143055,0.0268211
2.22181,0.358263,-0.157371
2.26638,0.252614,-0.186162
2.24972,0.250757,0.0395123
2.29965,0.14307,-0.134185
2.21693,0.357477,-0.104602
2.26286,0.252222,-0.119326
2.21084,0.356494,-0.0521094
2.21952,0.350346,-0.242039
2.30596,0.135788,-0.21563
2.21904,0.35027,-0.157092
2.26247,0.244584,0.0397217
2.30808,0.135913,-0.13465
2.21416,0.349499,-0.104416
2.26766,0.245145,-0.119535
2.18326,0.454914,-0.0908587
2.21201,0.34916,-0.0521094
2.30431,0.12762,-0.0268676
2.25566,0.235885,-0.0131814
2.22073,0.342596,-0.242039
2.30245,0.127517,-0.215258
2.22419,0.34313,-0.157371
2.27201,0.237595,-0.186487
2.26331,0.236685,0.0397217
2.17435,0.445143,-0.142242
2.30854,0.127854,-0.13465
2.22721,0.343595,-0.104974
2.2685,0.237227,-0.119535
2.177,0.445686,-0.090533
2.22112,0.342656,-0.0522955
2.25957,0.227925,-0.0660937
2.31275,0.119587,-0.0269608
2.26049,0.228018,-0.0132047
2.22984,0.335639,-0.242896
2.31085,0.119489,-0.216002
2.30077,0.118967,0.0268211
2.22544,0.334976,-0.157371
2.2689,0.228866,-0.186162
2.26416,0.228388,0.0397217
2.17988,0.437957,-0.142497
2.31299,0.119599,-0.134883
2.2245,0.334836,-0.104788
2.27333,0.229313,-0.119745
2.22236,0.334513,-0.0522955
2.26433,0.220425,-0.0662101
2.31316,0.111515,-0.0269608
2.24069,0.32928,-0.352343
2.2827,0.222214,-0.291932
2.26525,0.220515,-0.0132279
2.23493,0.328433,-0.243325
2.31523,0.111615,-0.216374
2.22659,0.327208,-0.157371
2.27762,0.221719,-0.186813
2.26097,0.220098,0.0396519
2.31339,0.111526,-0.134883
2.23356,0.328232,-0.10516
2.27411,0.221377,-0.119745
2.18014,0.430099,-0.090533
2.22747,0.327336,-0.0523886
2.26509,0.212519,-0.0662101
2.32552,0.103975,-0.0271004
2.24183,0.321455,-0.352343
2.28742,0.214614,-0.292437
2.26601,0.212606,-0.0132279
2.23213,0.320064,-0.242896
2.31561,0.103532,-0.216374
2.23957,0.321132,-0.158208
2.27838,0.213767,-0.186813
2.26969,0.212951,0.0397915
2.18288,0.422729,-0.142497
2.31376,0.10345,-0.134883
2.2347,0.320433,-0.10516
2.27885,0.213811,-0.119954
2.22464,0.318991,-0.0522955
2.32585,0.0962623,-0.0271004
2.23897,0.313471,-0.351728
2.28812,0.207027,-0.292437
2.27069,0.20545,-0.0132512
2.23317,0.31266,-0.242896
2.31594,0.0958521,-0.216374
2.30987,0.0956007,0.0269142
2.24062,0.313703,-0.158208
2.28305,0.206569,-0.187138
2.27436,0.205783,0.0398613
2.32207,0.0961059,-0.135348
2.22783,0.311912,-0.104788
2.28353,0.206612,-0.120163
2.18694,0.415995,-0.0906958
2.2336,0.31272,-0.0524816
2.27047,0.197442,-0.0663264
2.22736,0.303922,0
2.32617,0.0881423,-0.0271004
2.24005,0.305653,-0.351728
2.27537,0.197869,-0.0132744
2.23819,0.3054,-0.243325
2.32024,0.0879175,-0.216746
2.23072,0.30438,0.0523886
2.32218,0.0879909,0.0270539
2.2417,0.305879,-0.158208
2.28376,0.198597,-0.187138
2.27507,0.197842,0.0398613
2.19748,0.410056,-0.143265
2.3224,0.0879992,-0.135348
2.23682,0.305213,-0.10516
2.28025,0.198293,-0.119954
2.18838,0.408358,-0.0906958
2.23864,0.305462,-0.0525747
2.27516,0.189451,-0.0664428
2.23242,0.296283,0
2.32248,0.0794796,-0.0270539
2.23723,0.296921,-0.351113
2.28406,0.190192,-0.0133209
2.24324,0.297718,-0.243753
2.32453,0.0795496,-0.217117
2.23182,0.296203,0.0523886
2.24281,0.297661,-0.158208
2.29241,0.190888,-0.187789
2.27976,0.189834,0.0399311
2.3227,0.0794871,-0.135348
2.23793,0.297013,-0.10516
2.28495,0.190266,-0.120163
2.19772,0.401772,-0.0910215
2.23975,0.297255,-0.0525747
2.27976,0.182224,-0.0665591
2.2334,0.288879,0
2.33873,0.0722722,-0.0272401
2.24213,0.290008,-0.351728
2.29411,0.183372,-0.292942
2.28467,0.182617,-0.0133209
2.24027,0.289768,-0.243325
2.32876,0.0719642,-0.217489
2.24072,0.289827,0.0525747
2.32273,0.071778,0.0270539
2.25566,0.291758,-0.159045
2.29701,0.183603,-0.188115
2.28437,0.182592,0.0400009
2.19636,0.394001,-0.143009
2.32694,0.0719081,-0.13558
2.2389,0.289591,-0.10516
2.28158,0.18237,-0.119954
2.19904,0.394482,-0.0910215
2.24072,0.289827,-0.0525747
2.28437,0.174571,-0.0666755
2.23836,0.281581,0
2.33496,0.063999,-0.0271936
2.24312,0.28218,-0.351728
2.2853,0.174641,-0.0133209
2.24127,0.281947,-0.243325
2.33298,0.0639445,-0.217861
2.24569,0.282503,0.0526678
2.32297,0.0636702,0.0270539
2.24874,0.282887,-0.158487
2.29764,0.175584,-0.188115
2.28499,0.174618,0.0400009
2.20559,0.387715,-0.143521
2.33117,0.063895,-0.135813
2.24386,0.282273,-0.105346
2.29415,0.175318,-0.120582
2.20434,0.387496,-0.0911843
2.24172,0.282004,-0.0525747
2.28499,0.166196,-0.0666755
2.30807,0.167875,-0.462837
2.34318,0.0556297,-0.0272867
2.25199,0.274914,-0.352958
2.28991,0.166554,-0.0133442
2.24623,0.274212,-0.243753
2.32921,0.0552981,-0.217489
2.24671,0.274269,0.0526678
2.33518,0.0554399,0.0271936
2.25372,0.275126,-0.158766
2.30224,0.16745,-0.18844
2.29359,0.166821,0.0401405
2.21093,0.380305,-0.143777
2.33139,0.0553498,-0.135813
2.24488,0.274047,-0.105346
2.29478,0.166908,-0.120582
2.20969,0.380091,-0.0913472
2.25068,0.274754,-0.0527608
2.20842,0.372734,-0.0390934
2.28949,0.159294,-0.0667919
2.30468,0.16035,-0.462052
2.34334,0.0482675,-0.0272867
2.24892,0.267371,-0.352343
2.21661,0.374116,0.0130652
2.29042,0.159358,-0.0133442
2.24708,0.267153,-0.243753
2.33734,0.0481438,-0.218233
2.24756,0.267209,0.0526678
2.25458,0.268044,-0.158766
2.30275,0.160216,-0.18844
2.2941,0.159614,0.0401405
2.21211,0.373356,-0.143777
2.33555,0.0481068,-0.136045
2.24573,0.266992,-0.105346
2.29529,0.159697,-0.120582
2.21481,0.373812,-0.09151
2.25153,0.267681,-0.0527608
2.21366,0.365675,-0.0391632
2.29004,0.151301,-0.0667919
2.30914,0.152563,-0.462837
2.24909,0.259433,0
2.3475,0.0401563,-0.0273333
2.25769,0.260425,-0.353573
2.29895,0.15189,-0.0133907
2.25591,0.260219,-0.24461
2.34546,0.0401214,-0.218976
2.2604,0.260737,0.0529469
2.3355,0.0399511,0.0271936
2.25946,0.26063,-0.159045
2.29932,0.151915,-0.188115
2.29465,0.151606,0.0401405
2.2134,0.365633,-0.143777
2.33969,0.0400228,-0.136278
2.25459,0.260068,-0.105719
2.30381,0.152211,-0.121001
2.20822,0.364776,-0.0911843
2.25642,0.260279,-0.0528539
2.21505,0.357173,-0.0391632
2.31753,0.144183,-0.464406
2.34763,0.0311428,-0.0273333
2.25475,0.251317,-0.352958
2.30351,0.143311,-0.0134139
2.25689,0.251556,-0.24461
2.35356,0.0312214,-0.21972
2.26138,0.252057,0.0529469
2.33964,0.0310367,0.0272401
2.26045,0.251953,-0.159045
2.30785,0.143581,-0.188766
2.29122,0.142546,0.0400707
2.25557,0.251409,-0.105719
2.2964,0.142869,-0.120582
2.21355,0.356932,-0.0913472
2.25741,0.251614,-0.0528539
2.29907,0.134979,-0.0670246
2.25888,0.243798,0
2.35173,0.0229863,-0.0273798
2.26347,0.244293,-0.354188
2.31728,0.136049,-0.295468
2.30399,0.135268,-0.0134139
2.25775,0.243676,-0.24461
2.34569,0.0229273,-0.218976
2.25827,0.243732,0.0528539
2.33973,0.022869,0.0272401
2.26528,0.244488,-0.159324
2.30833,0.135523,-0.188766
2.2957,0.134781,0.0401405
2.21602,0.349398,-0.143777
2.25109,0.242957,0.131859
2.26041,0.243962,-0.105905
2.30885,0.135554,-0.12121
2.21873,0.349824,-0.09151
2.26622,0.24459,-0.05304
2.21737,0.342475,-0.0391632
2.32236,0.129027,-0.46519
2.26816,0.237593,-0.354803
2.30441,0.12803,-0.0134139
2.26642,0.237411,-0.245466
2.35372,0.0156113,-0.21972
2.263,0.237053,0.0529469
2.34379,0.0155454,0.0272867
2.27001,0.237787,-0.159603
2.30875,0.128271,-0.188766
2.30809,0.128235,0.04035
2.225,0.343653,-0.144288
2.34398,0.0155467,-0.13651
2.26116,0.23686,-0.105905
2.30926,0.1283,-0.12121
2.22377,0.343463,-0.0916728
2.26698,0.23747,-0.05304
2.22652,0.335537,-0.0393028
2.3189,0.120311,-0.464406
2.35983,0.00700177,-0.027473
2.26901,0.229277,-0.354803
2.31285,0.119997,-0.0134604
2.26727,0.229102,-0.245466
2.35376,0.00698375,-0.21972
2.26386,0.228757,0.0529469
2.34383,0.0069543,0.0272867
2.26689,0.229063,-0.159324
2.31318,0.120014,-0.189091
2.30455,0.119566,0.0402802
2.22624,0.335495,-0.144288
2.34801,0.0069667,-0.136743
2.26064,0.228431,0.132324
2.26599,0.228972,-0.106091
2.30972,0.119835,-0.12121
2.22501,0.33531,-0.0916728
2.26783,0.229159,-0.05304
2.22366,0.327569,-0.039233
2.32712,0.113001,-0.465975
2.35984,-0.000823268,-0.027473
2.27369,0.222137,-0.355418
2.22,0.32703,0.0130419
2.31723,0.112521,-0.0134836
2.26802,0.221582,-0.245466
2.36572,-0.000825318,-0.220835
2.27256,0.222026,0.053133
2.35584,-0.000821873,0.0274264
2.27558,0.222321,-0.159882
2.31357,0.112343,-0.189091
2.30893,0.112118,0.04035
2.22734,0.328112,-0.144288
2.35201,-0.000820538,-0.136976
2.27071,0.221846,-0.106277
2.31409,0.112369,-0.121419
2.22611,0.32793,-0.0916728
2.27654,0.222415,-0.0532261
2.23271,0.320943,-0.0393726
2.30868,0.10403,-0.0672573
2.33142,0.105054,-0.466759
2.26996,0.213776,0
2.35982,-0.00906017,-0.027473
2.27839,0.21457,-0.356033
2.32685,0.104849,-0.296478
2.31761,0.104432,-0.0134836
2.26878,0.213665,-0.245466
2.3657,-0.00908272,-0.220835
2.28129,0.214843,0.0533191
2.35182,-0.00902945,0.0273798
2.27634,0.214377,-0.159882
2.31395,0.104267,-0.189091
2.30531,0.103878,0.0402802
2.22452,0.319767,-0.144032
2.35599,-0.00904545,-0.137208
2.27943,0.214668,-0.106649
2.31447,0.104291,-0.121419
2.2728,0.214043,0.2803
2.2312,0.320726,-0.0918356
2.2773,0.214468,-0.0532261
2.22991,0.312203,-0.0393028
2.26674,0.205093,0
2.36377,-0.0177399,-0.0275195
2.2831,0.206573,-0.356648
2.33118,0.096483,-0.296983
2.32197,0.096102,-0.0135069
2.27351,0.205706,-0.245895
2.36565,-0.017754,-0.220835
2.27808,0.206119,0.0532261
2.35577,-0.0176799,0.0274264
2.28109,0.206391,-0.160161
2.32228,0.0961147,-0.189742
2.30967,0.0955928,0.04035
2.22963,0.312165,-0.144288
2.35594,-0.0176811,-0.137208
2.2802,0.206311,-0.106649
2.32282,0.0961371,-0.121838
2.26961,0.205353,0.279812
2.23236,0.312546,-0.0918356
2.27409,0.205758,-0.053133
2.23495,0.304958,-0.0393726
2.33603,0.088517,-0.467544
2.27143,0.197527,0
2.3677,-0.0260344,-0.0275661
2.29168,0.199288,-0.357877
2.33547,0.0884958,-0.297488
2.22732,0.303918,0.0130652
2.3183,0.0878452,-0.0134836
2.27421,0.197769,-0.245895
2.36159,-0.0259672,-0.220463
2.2748,0.19782,0.053133
2.3637,-0.0259904,0.0275195
2.2818,0.198428,-0.160161
2.32659,0.0881593,-0.190067
2.23862,0.30546,-0.1448
2.36385,-0.0259921,-0.137673
2.31915,0.0878776,-0.121629
2.26636,0.197086,0.279325
2.24135,0.305833,-0.0921613
2.28276,0.198513,-0.0533191
2.23991,0.298072,-0.0394424
2.33239,0.0806338,-0.466759
2.27207,0.189993,0
2.3716,-0.0339437,-0.0276127
2.28445,0.191028,-0.356648
2.23228,0.297057,0.0130884
2.32657,0.0804327,-0.0135301
2.36946,-0.033913,-0.221207
2.27943,0.190608,0.0532261
2.3636,-0.0338292,0.0275195
2.29039,0.191525,-0.160719
2.33085,0.0805806,-0.190393
2.32226,0.0802837,0.0405594
2.24358,0.29856,-0.145056
2.36375,-0.0338314,-0.137673
2.31669,0.0800913,0.0944409
2.28554,0.191119,-0.106835
2.32741,0.0804619,-0.122047
2.27096,0.1899,0.279812
2.24632,0.298925,-0.0923241
2.2874,0.191274,-0.0534122
2.24094,0.290252,-0.0394424
2.3219,0.0721579,-0.0676064
2.3405,0.072736,-0.468328
2.36746,-0.0421502,-0.0275661
2.28904,0.183368,-0.357263
2.33602,0.0725967,-0.297488
2.33084,0.0724357,-0.0135534
2.28343,0.182919,-0.246752
2.37729,-0.0423251,-0.22195
2.28805,0.183289,0.0534122
2.36746,-0.0421502,0.0275661
2.29503,0.183848,-0.160998
2.32713,0.0723206,-0.190067
2.32652,0.0723017,0.0406292
2.24461,0.290728,-0.145056
2.37161,-0.0422239,-0.138138
2.32095,0.0721286,0.0946037
2.28619,0.18314,-0.106835
2.32768,0.0723377,-0.122047
2.24338,0.290569,-0.0921613
2.28805,0.183289,-0.0534122
2.24595,0.282535,-0.0395123
2.34859,0.0643715,-0.469897
2.28135,0.174339,0
2.37529,-0.0509995,-0.0276592
2.29758,0.175579,-0.358492
2.34023,0.0641424,-0.297993
2.33508,0.0640013,-0.0135766
2.28409,0.174548,-0.246752
2.29668,0.17551,0.0535983
2.37129,-0.0509136,0.0276127
2.29171,0.17513,-0.160719
2.33137,0.0638994,-0.190393
2.32677,0.0637735,0.0406292
2.24962,0.282996,-0.145312
2.37143,-0.0509166,-0.138138
2.3212,0.0636208,0.0946037
2.28685,0.174759,-0.106835
2.32793,0.0638052,-0.122047
2.2484,0.282843,-0.0923241
2.29269,0.175206,-0.0535052
2.24683,0.275479,-0.0395123
2.34878,0.0569933,-0.469897
2.37912,-0.0585593,-0.0277058
2.30206,0.16865,-0.359107
2.34836,0.056983,-0.299003
2.24316,0.275029,0.0131349
2.33127,0.0565685,-0.0135534
2.28463,0.167372,-0.246752
2.38092,-0.0586038,-0.222322
2.29722,0.168295,0.0535983
2.37512,-0.0584609,0.0276592
2.3002,0.168513,-0.161277
2.33156,0.0565753,-0.190393
2.33096,0.0565609,0.040699
2.2505,0.275928,-0.145312
2.2834,0.167282,-0.106649
2.33211,0.0565889,-0.122257
2.32358,0.0563819,0.189742
2.24928,0.275779,-0.0923241
2.29323,0.168003,-0.0535052
2.24778,0.267633,-0.0395123
2.34896,0.0487935,-0.469897
2.28644,0.159483,0
2.3829,-0.0669767,-0.0277523
2.30264,0.160612,-0.359107
2.34854,0.0487847,-0.299003
2.33946,0.048596,-0.0135999
2.28916,0.159672,-0.24718
2.38071,-0.0669151,-0.222322
2.2938,0.159996,0.0535052
2.2968,0.160205,-0.160998
2.3437,0.0486841,-0.191369
2.33514,0.0485064,0.0407688
2.25541,0.268542,-0.145567
2.37504,-0.0667557,-0.138371
2.28258,0.159213,0.133255
2.28795,0.159588,-0.106835
2.3323,0.0484473,-0.122257
2.25419,0.268397,-0.0924869
2.29779,0.160274,-0.0535983
2.25669,0.26031,-0.0396519
2.34913,0.0401844,-0.469897
2.37864,-0.0755824,-0.0277058
2.30716,0.152433,-0.359722
2.35267,0.040245,-0.299508
2.24905,0.259429,0.0131582
2.34362,0.0400901,-0.0136231
2.2937,0.151544,-0.247608
2.38443,-0.0757663,-0.222694
2.29438,0.151588,0.0535052
2.30135,0.152049,-0.161277
2.33987,0.0400261,-0.191044
2.24416,0.258865,0.0657446
2.3393,0.0400163,0.0408386
2.26034,0.260732,-0.145823
2.37877,-0.0755865,-0.138603
2.29251,0.151465,-0.107022
2.33645,0.0399675,-0.122466
2.25516,0.260134,-0.0924869
2.29837,0.151852,-0.0535983
2.25754,0.252825,-0.0396519
2.36101,0.0325557,-0.47225
2.29149,0.143767,0
2.39037,-0.0838914,-0.0278455
2.29976,0.144285,-0.358492
2.35676,0.0324971,-0.300013
2.34374,0.0323175,-0.0136231
2.29419,0.143936,-0.247608
2.3961,-0.0840926,-0.223809
2.29886,0.144229,0.0535983
2.38237,-0.0836108,0.0277523
2.30582,0.144666,-0.161556
2.34797,0.0323758,-0.191695
2.33542,0.0322029,0.0407688
2.2612,0.253234,-0.145823
2.38648,-0.0837551,-0.139069
2.33784,0.0322362,0.095255
2.29699,0.144112,-0.107208
2.34057,0.0322738,-0.122675
2.25601,0.252654,-0.0924869
2.31083,0.14498,-0.0538774
2.25841,0.244944,-0.0396519
2.38606,-0.0920789,-0.0277989
2.31208,0.13696,-0.360337
2.35289,0.024231,-0.299508
2.34384,0.0241378,-0.0136231
2.29865,0.136164,-0.248037
2.39579,-0.0924544,-0.223809
2.30733,0.136678,0.0537844
2.30233,0.136382,-0.161277
2.34408,0.0241403,-0.191369
2.33952,0.0240933,0.0408386
2.26207,0.245341,-0.145823
2.38618,-0.0920834,-0.139069
2.30147,0.136331,-0.107394
2.34865,0.0241874,-0.123094
2.26085,0.24521,-0.0926498
2.30733,0.136678,-0.0537844
2.25929,0.236664,-0.0396519
2.36119,0.0156599,-0.47225
2.30045,0.127809,0
2.3937,-0.101163,-0.027892
2.31652,0.128702,-0.360952
2.3609,0.015658,-0.300518
2.34791,0.0155718,-0.0136464
2.39544,-0.101237,-0.223809
2.30782,0.128218,0.0537844
2.3068,0.128162,-0.161556
2.35611,0.0156262,-0.192346
2.34359,0.0155432,0.0409084
2.25898,0.236631,-0.145567
2.38981,-0.100999,-0.139301
2.29796,0.127671,-0.107208
2.34872,0.0155772,-0.123094
2.26174,0.23692,-0.0926498
2.30782,0.128218,-0.0537844
2.26806,0.229582,-0.0397915
2.36515,0.00743052,-0.473035
2.39733,-0.1097,-0.0279386
2.31695,0.120616,-0.360952
2.353,0.00739236,-0.299508
2.35595,0.00740162,-0.0136929
2.39507,-0.109597,-0.223809
2.31224,0.12037,0.0538774
2.30723,0.12011,-0.161556
2.35216,0.00738973,-0.19202
2.34763,0.00737549,0.0409782
2.26774,0.229549,-0.146079
2.39742,-0.109705,-0.139766
2.34876,0.00737905,-0.123094
2.2705,0.229829,-0.0929754
2.31624,0.120578,-0.0539705
2.27279,0.222449,-0.0398613
2.36124,-0.000411473,-0.47225
2.40095,-0.117845,-0.0279852
2.32129,0.113124,-0.361567
2.36492,-0.000412115,-0.301023
2.35596,-0.000410554,-0.0136929
2.30789,0.112472,-0.248894
2.40663,-0.118124,-0.224925
2.30863,0.112508,0.0537844
2.31161,0.112653,-0.161835
2.35218,-0.000409894,-0.19202
2.26024,0.221221,0.0660937
2.35564,-0.000410498,0.0411179
2.27246,0.222417,-0.146335
2.39705,-0.117654,-0.139766
2.35277,-0.000409998,-0.123304
2.27125,0.222299,-0.0929754
2.31662,0.112897,-0.0539705
2.27359,0.214118,-0.0398613
2.36514,-0.00908038,-0.473035
2.31774,0.104438,-0.360952
2.36887,-0.00909469,-0.301529
2.26594,0.213397,0.0132279
2.36394,-0.00907577,-0.0137394
2.41016,-0.127153,-0.225296
2.31303,0.104226,0.0538774
2.4005,-0.126644,0.0279852
2.31599,0.10436,-0.162114
2.35614,-0.00904584,-0.192346
2.35962,-0.00905919,0.0411877
2.27723,0.214461,-0.146591
2.40059,-0.126649,-0.139999
2.36074,-0.00906349,-0.123722
2.27603,0.214348,-0.0931383
2.32501,0.104766,-0.0541566
2.28226,0.2073,-0.0400009
2.40007,-0.134604,-0.0279852
2.32992,0.0972457,-0.362797
2.36486,-0.0169224,-0.301023
2.26663,0.205881,0.0132279
2.3599,-0.0168869,-0.0137161
2.3126,0.0965227,-0.249322
2.41767,-0.135592,-0.22604
2.32135,0.096888,0.0540635
2.41205,-0.135276,0.0281249
2.31632,0.0966782,-0.162114
2.36408,-0.0169167,-0.192997
2.35958,-0.0168846,0.0411877
2.27395,0.206546,-0.146335
2.31547,0.0966427,-0.107952
2.36469,-0.0169212,-0.123932
2.28071,0.20716,-0.0933011
2.32535,0.0970548,-0.0541566
2.275,0.198636,-0.0398613
2.31431,0.0885021,0
2.40757,-0.143458,-0.0280783
2.32629,0.0889605,-0.362182
2.36875,-0.02522,-0.301529
2.36783,-0.0252102,-0.0137626
2.31689,0.088601,-0.24975
2.42116,-0.144268,-0.226412
2.32967,0.0890894,0.0542496
2.32462,0.0888965,-0.162672
2.36799,-0.0252119,-0.193322
2.35951,-0.0251216,0.0411877
2.28261,0.199301,-0.146847
2.31979,0.0887116,-0.108138
2.36862,-0.0252186,-0.124141
2.2854,0.199545,-0.0934639
2.32967,0.0890894,-0.0542496
2.27966,0.191028,-0.0399311
2.41104,-0.152112,-0.0281249
2.32659,0.0808402,-0.362182
2.37659,-0.0336,-0.302539
2.36772,-0.0334748,-0.0137626
2.41667,-0.152467,-0.22604
2.32597,0.0808185,0.0541566
2.32492,0.080782,-0.162672
2.37187,-0.0335334,-0.193647
2.27108,0.190309,0.0663264
2.3714,-0.0335268,0.0413971
2.28727,0.191666,-0.147102
2.31468,0.0804263,0.134883
2.36851,-0.0334859,-0.124141
2.28608,0.191566,-0.0934639
2.32996,0.0809573,-0.0542496
2.28829,0.18371,-0.0400707
2.41449,-0.160792,-0.0281714
2.33476,0.0729658,-0.363412
2.37645,-0.0418952,-0.302539
2.27664,0.182775,0.0132744
2.37159,-0.0418095,-0.0137859
2.42407,-0.161431,-0.226784
2.32224,0.0725744,0.0540635
2.37573,-0.0418824,-0.193973
2.37127,-0.0418038,0.0413971
2.28793,0.183681,-0.147102
2.36167,-0.0416346,0.096232
2.32035,0.0725154,-0.108138
2.28674,0.183586,-0.0934639
2.33823,0.0730741,-0.0544357
2.28888,0.17612,-0.0400707
2.41394,-0.168799,-0.0281714
2.33104,0.065112,-0.362797
2.38027,-0.0498593,-0.303044
2.37944,-0.0498419,-0.0138324
2.32961,0.0650721,-0.251036
2.41955,-0.169191,-0.226412
2.33046,0.0650959,0.0542496
2.33339,0.0651777,-0.16323
2.37557,-0.049761,-0.193973
2.28029,0.175459,0.0665591
2.36712,-0.0495839,0.0413273
2.28853,0.176093,-0.147102
2.32457,0.0649314,-0.108324
2.36823,-0.0496071,-0.124141
2.28734,0.176001,-0.0934639
2.33845,0.0653192,-0.0544357
2.2855,0.167836,-0.0400009
2.42132,-0.17781,-0.0282646
2.38008,-0.0581679,-0.303044
2.37925,-0.0581476,-0.0138324
2.33777,0.057134,-0.251892
2.43086,-0.178511,-0.227527
2.33067,0.0569604,0.0542496
2.33759,0.0571295,-0.163509
2.37539,-0.0580532,-0.193973
2.28913,0.168103,-0.147102
2.33677,0.0571094,-0.108883
2.37603,-0.0580689,-0.12456
2.29591,0.168601,-0.0937896
2.33867,0.0571558,-0.0544357
2.29405,0.160415,-0.0401405
2.32749,0.048754,0
2.42068,-0.186261,-0.0282646
2.34724,0.0491677,-0.365256
2.3878,-0.0666972,-0.304054
2.28638,0.159879,0.0133209
2.37903,-0.0664524,-0.0138324
2.33398,0.04889,-0.251464
2.43022,-0.186995,-0.227527
2.33486,0.0489083,0.0543427
2.33778,0.0489695,-0.163509
2.37915,-0.0664558,-0.194298
2.29766,0.160668,-0.147614
2.32896,0.0487848,-0.108511
2.3798,-0.066474,-0.124769
2.29648,0.160586,-0.0937896
2.33885,0.048992,-0.0544357
2.30659,0.152799,-0.04035
2.33165,0.0402921,0
2.35136,0.0406326,-0.365871
2.3915,-0.0755738,-0.304559
2.29094,0.151762,0.0133442
2.37877,-0.0751715,-0.0138324
2.43349,-0.196221,-0.227899
2.33902,0.0404193,0.0544357
2.34592,0.0405386,-0.164067
2.38686,-0.0754272,-0.194949
2.294,0.151965,0.0669082
2.37845,-0.0751613,0.0415367
2.29824,0.152246,-0.147614
2.33712,0.0403865,-0.108883
2.37954,-0.0751959,-0.124769
2.30104,0.152432,-0.0939524
2.34701,0.0405575,-0.0546219
2.29913,0.144246,-0.0402103
2.35544,0.0324791,-0.366486
2.39519,-0.0840604,-0.305064
2.29545,0.144015,0.0133674
2.39049,-0.0838954,-0.0139021
2.33825,0.0322421,-0.251892
2.34314,0.0323095,0.0545288
2.33807,0.0322396,-0.163509
2.29052,0.143706,0.0667919
2.38617,-0.0837438,0.0416763
2.30672,0.144723,-0.148126
2.43127,-0.204587,-0.142092
2.34523,0.0323384,-0.109255
2.38326,-0.0836417,-0.124978
2.30156,0.144399,-0.0939524
2.35114,0.0324198,-0.0547149
2.31157,0.137333,-0.0404198
2.34387,0.0245459,0
2.35553,0.024668,-0.366486
2.3949,-0.0920026,-0.305064
2.3039,0.136877,0.0134139
2.3902,-0.0918221,-0.0139021
2.3463,0.0245713,-0.252749
2.35123,0.024623,0.0547149
2.34614,0.0245696,-0.164067
2.39426,-0.0919783,-0.1956
2.30719,0.137072,-0.148126
2.43854,-0.213344,-0.142557
2.34133,0.0245193,-0.109069
2.30203,0.136766,-0.0939524
2.35123,0.024623,-0.0547149
2.31204,0.129263,-0.0404198
2.35956,0.0164731,-0.367101
2.39852,-0.100528,-0.305569
2.30037,0.128611,0.0133907
2.35035,0.0164088,-0.253177
2.35531,0.0164434,0.054808
2.3502,0.0164078,-0.164346
2.39791,-0.100502,-0.195926
2.29544,0.128335,0.0669082
2.30367,0.128795,-0.14787
2.43778,-0.221855,-0.142557
2.3494,0.0164021,-0.109441
2.39062,-0.100197,-0.125397
2.30648,0.128952,-0.0941152
2.35131,0.0164155,-0.0547149
2.31247,0.121192,-0.0404198
2.34399,0.00818209,0
2.36355,0.00825039,-0.367716
2.40609,-0.10926,-0.306579
2.3048,0.120789,0.0134139
2.3895,-0.108506,-0.0139021
2.35834,0.00823221,-0.254034
2.35135,0.00820779,0.0547149
2.35823,0.0082318,-0.164904
2.40153,-0.109053,-0.196251
2.38917,-0.108492,0.0417462
2.30809,0.120962,-0.148126
2.35343,0.00821507,-0.109627
2.39424,-0.108722,-0.125606
2.31091,0.12111,-0.0942781
2.35135,0.00820779,-0.0547149
2.32087,0.11351,-0.0405594
2.36752,-0,-0.368331
2.40965,-0.117852,-0.307084
2.3132,0.113134,0.0134604
2.39709,-0.117237,-0.0139486
2.3504,-0,-0.253177
2.35536,-0,0.054808
2.35425,-0,-0.164625
2.40511,-0.11763,-0.196577
2.30826,0.112893,0.0672573
2.31249,0.113099,-0.148382
2.36144,-0,-0.11
2.39784,-0.117274,-0.125816
2.31531,0.113238,-0.0944409
2.35936,-0,-0.054901
2.31726,0.105226,-0.0404896
2.36751,-0.00826418,-0.368331
2.40923,-0.126262,-0.307084
2.31358,0.105059,0.0134604
2.40067,-0.125814,-0.0139718
2.35834,-0.0082322,-0.254034
2.35135,-0.00820778,0.0547149
2.35823,-0.00823179,-0.164904
2.40867,-0.126233,-0.196902
2.30465,0.104653,0.067141
2.32084,0.105389,-0.148893
2.36143,-0.00824296,-0.11
2.31569,0.105155,-0.0944409
2.35935,-0.0082357,-0.054901
2.3256,0.0974717,-0.0406292
2.37537,-0.0165835,-0.369561
2.40877,-0.134671,-0.307084
2.30993,0.0968149,0.0134371
2.4082,-0.134639,-0.0140183
2.37023,-0.0165476,-0.255319
2.3593,-0.0164713,0.054901
2.36217,-0.0164914,-0.165183
2.3212,0.0972869,-0.148893
2.36538,-0.0165137,-0.110186
2.31604,0.097071,-0.0944409
2.3633,-0.0164992,-0.0549941
2.32593,0.0893532,-0.0406292
2.37529,-0.0248749,-0.369561
2.35923,-0.0247067,0.054901
2.36609,-0.0247786,-0.165462
2.41171,-0.143282,-0.197227
2.32551,0.0893371,-0.149149
2.36131,-0.0247285,-0.11
2.41243,-0.143325,-0.126653
2.32036,0.0891393,-0.0946037
2.36323,-0.0247486,-0.0549941
2.33022,0.0813732,-0.040699
2.35977,-0.0329507,0
2.3831,-0.0332765,-0.370791
2.32654,0.0812447,0.0135301
2.4072,-0.151448,-0.0140183
2.36608,-0.0330389,-0.254891
2.36313,-0.0329977,0.0549941
2.37397,-0.033149,-0.16602
2.41915,-0.1522,-0.197878
2.32581,0.081219,-0.149149
2.3732,-0.0331382,-0.110558
2.41191,-0.151745,-0.126653
2.32066,0.0810392,-0.0946037
2.36713,-0.0330535,-0.0550871
2.33449,0.0733644,-0.0407688
2.38692,-0.0416638,-0.371406
2.32681,0.073123,0.0135301
2.363,-0.0412463,0.0549941
2.36985,-0.0413659,-0.165741
2.41861,-0.160644,-0.197878
2.31787,0.0728421,0.06749
2.33007,0.0732253,-0.149405
2.37307,-0.041422,-0.110558
2.41536,-0.160428,-0.126862
2.32892,0.0731892,-0.0949294
2.371,-0.0413859,-0.0551802
2.33473,0.065215,-0.0407688
2.38676,-0.0499955,-0.371406
2.32705,0.0650005,0.0135301
2.42204,-0.169366,-0.0141113
2.37772,-0.0498062,-0.256176
2.37368,-0.0497215,-0.16602
2.41803,-0.169085,-0.197878
2.3343,0.0652029,-0.149661
2.3769,-0.049789,-0.110744
2.41478,-0.168858,-0.126862
2.32916,0.0650593,-0.0949294
2.37084,-0.049662,-0.0551802
2.33493,0.0578799,-0.0407688
2.38659,-0.0574934,-0.371406
2.33124,0.0577886,0.0135534
2.3855,-0.0574673,-0.257033
2.37351,-0.0571784,-0.16602
2.42147,-0.176971,-0.198204
2.33449,0.0578691,-0.149661
2.37673,-0.057256,-0.110744
2.33335,0.0578408,-0.0950922
2.37867,-0.0573025,-0.0553663
2.34312,0.0494905,-0.0409084
2.38636,-0.0662403,-0.371406
2.33544,0.0493283,0.0135766
2.37733,-0.0659895,-0.256176
2.37444,-0.0659095,0.0552732
2.38525,-0.0662096,-0.166857
2.42875,-0.186456,-0.198855
2.33049,0.0492238,0.0678391
2.33469,0.0493124,-0.149661
2.3845,-0.0661885,-0.111116
2.42951,-0.186514,-0.1277
2.33754,0.0493726,-0.095255
2.37444,-0.0659095,-0.0552732
2.34327,0.0417202,-0.0409084
2.39008,-0.0742762,-0.37202
2.34359,0.0417258,0.0136231
2.393,-0.0743668,-0.25789
2.393,-0.0743669,-0.167416
2.43209,-0.194827,-0.19918
2.33464,0.0415665,0.0679555
2.33484,0.04157,-0.149661
2.38027,-0.0739713,-0.11093
2.43286,-0.194888,-0.127909
2.34169,0.0416919,-0.0954179
2.37821,-0.0739072,-0.0553663
2.3474,0.0335976,-0.0409782
2.40166,-0.0830283,-0.373865
2.34372,0.0335449,0.0136231
2.38875,-0.082582,-0.257461
2.38475,-0.0824438,-0.166857
2.43934,-0.20398,-0.199831
2.33877,0.0334741,0.0680718
2.34694,0.0335911,-0.150428
2.39198,-0.0826937,-0.111489
2.34182,0.0335177,-0.0954179
2.38193,-0.0823464,-0.0554593
2.34751,0.0254034,-0.0409782
2.34382,0.0253636,0.0136231
2.39639,-0.0912224,-0.258318
2.39761,-0.0912689,0.0558315
2.39641,-0.091223,-0.167695
2.43464,-0.212147,-0.199506
2.34306,0.0253553,-0.150172
2.39966,-0.0913467,-0.111861
2.34192,0.025343,-0.0954179
2.38563,-0.0908125,-0.0555524
2.35158,0.0172383,-0.0410481
2.3519,0.0172406,0.0136696
2.39606,-0.0995868,-0.258318
2.3881,-0.0992561,-0.167137
2.35111,0.0172349,-0.150684
2.39533,-0.0995566,-0.111675
2.43864,-0.221075,-0.128328
2.34199,0.017168,-0.0954179
2.39329,-0.0994715,-0.0557385
2.34763,0.00901428,-0.0409782
2.38958,-0.107674,0
2.34394,0.00900014,0.0136231
2.39967,-0.108129,-0.258747
2.40767,-0.10849,-0.168532
2.34699,0.00901184,0.0683046
2.34717,0.00901252,-0.150428
2.40295,-0.108277,-0.112047
2.44183,-0.229961,-0.128537
2.35003,0.00902353,-0.0957435
2.34764,0.000819485,-0.0409782
2.35596,0.000822388,0.0136929
2.40722,-0.116891,-0.259603
2.39931,-0.116506,-0.167974
2.351,0.000820658,0.0684209
2.35118,0.000820718,-0.150684
2.40256,-0.116664,-0.112047
2.44896,-0.23926,-0.128956
2.35405,0.000821721,-0.0959064
2.35163,-0.00738789,-0.0410481
2.35595,-0.00740146,0.0136929
2.4068,-0.125293,-0.259603
2.40686,-0.125296,-0.168532
2.35899,-0.00741101,0.0686537
2.35516,-0.00739897,-0.15094
2.41012,-0.125465,-0.112419
2.44811,-0.247807,-0.128956
2.35803,-0.00740801,-0.0960692
2.35959,-0.0156496,-0.0411877
2.36391,-0.0156783,0.0137394
2.40635,-0.133693,-0.259603
2.41039,-0.133918,-0.168811
2.35495,-0.0156189,0.0685373
2.36709,-0.0156994,-0.151707
2.40967,-0.133878,-0.112419
2.45121,-0.256767,-0.129165
2.35799,-0.015639,-0.0960692
2.35952,-0.023886,-0.0411877
2.35984,-0.0238893,0.0137161
2.41778,-0.142795,-0.260888
2.41389,-0.142566,-0.16909
2.35888,-0.0238796,0.0686537
2.36303,-0.0239216,-0.151451
2.41317,-0.142524,-0.112605
2.35792,-0.0238699,-0.0960692
2.36342,-0.0321766,-0.0412575
2.36374,-0.0321809,0.0137394
2.41726,-0.151234,-0.260888
2.41736,-0.15124,-0.169369
2.36293,-0.0321699,-0.151451
2.42064,-0.151445,-0.112978
2.36182,-0.0321548,-0.096232
2.3633,-0.0400138,-0.0412575
2.37162,-0.0401547,0.0137859
2.41675,-0.159249,-0.260888
2.42083,-0.159518,-0.169648
2.36266,-0.040003,0.06877
2.3708,-0.0401407,-0.151963
2.42012,-0.159472,-0.112978
2.3657,-0.0400544,-0.0963948
2.37114,-0.0484263,-0.0413971
2.37147,-0.0484329,0.0137859
2.41618,-0.167684,-0.260888
2.42025,-0.167967,-0.169648
2.3665,-0.0483316,0.0688864
2.37064,-0.048416,-0.151963
2.41556,-0.167642,-0.112791
2.37753,-0.0485568,-0.0968833
2.37096,-0.0567029,-0.0413971
2.37928,-0.0569018,0.0138324
2.42761,-0.176995,-0.170206
2.38243,-0.0569771,-0.152731
2.4309,-0.177235,-0.113536
2.37475,-0.0650883,-0.0414669
2.37507,-0.0650971,0.0138091
2.43096,-0.185772,-0.170485
2.37823,-0.0651837,-0.152475
2.43426,-0.186024,-0.113722
2.42029,-0.184956,-0.0564829
2.37882,-0.0735108,0.0138324
2.4303,-0.194256,-0.170485
2.37798,-0.0734848,-0.152475
2.43757,-0.194838,-0.113908
2.38089,-0.0735746,-0.0970462
2.38255,-0.0819515,0.0138556
2.43358,-0.20307,-0.170764
2.3817,-0.0819223,-0.152731
2.4329,-0.203013,-0.113722
2.3926,-0.0822971,-0.0975347
2.39024,-0.0905706,0.0139021
2.44081,-0.212255,-0.171322
2.38938,-0.0905378,-0.153242
2.43615,-0.211851,-0.113908
2.3923,-0.0906484,-0.0975347
2.39791,-0.0992443,0.0139486
2.43608,-0.220414,-0.171043
2.39703,-0.0992079,-0.153754
2.44336,-0.221073,-0.11428
2.39197,-0.0989985,-0.0975347
2.39355,-0.107435,0.0139253
2.44721,-0.230037,-0.17188
2.40065,-0.107753,-0.15401
2.44655,-0.229975,-0.114467
2.39959,-0.107706,-0.0978603
2.45369,-0.239289,-0.114839
2.39521,-0.115888,-0.0976975
2.39674,-0.124349,0.0139486
2.40383,-0.124717,-0.154266
2.40277,-0.124663,-0.0980231
2.39996,-0.132918,-0.0419556
2.41226,-0.133599,0.0140416
2.40338,-0.133107,-0.154266
2.45196,-0.256413,-0.114839
2.40631,-0.13327,-0.098186
2.40347,-0.14153,-0.0420254
2.41087,-0.141965,-0.154777
2.45899,-0.265829,-0.115211
2.40982,-0.141904,-0.0983488
2.40698,-0.149747,-0.0420952
2.41333,-0.150142,-0.0985116
2.41043,-0.158411,-0.042165
2.41781,-0.158896,-0.155289
2.42077,-0.15909,-0.0988373
2.41724,-0.167334,-0.155289
2.4202,-0.167539,-0.0988373
2.41725,-0.175815,-0.0423046
2.42063,-0.176061,-0.155545
2.4196,-0.175986,-0.0988373
2.4206,-0.184556,-0.0423744
2.42398,-0.184813,-0.155801
2.43191,-0.193958,-0.0425839
2.4273,-0.19359,-0.156056
2.42628,-0.193509,-0.0991629
2.43058,-0.202393,-0.156312
2.43355,-0.20264,-0.0994886
2.43782,-0.211566,-0.156824
2.43681,-0.211479,-0.0996514
2.44104,-0.220434,-0.15708
2.44004,-0.220343,-0.0998143
2.44423,-0.229326,-0.157336
2.44721,-0.229606,-0.10014
2.44341,-0.237857,-0.157336
2.45038,-0.238534,-0.100303
2.4535,-0.247487,-0.100466
