2.23102,0.449448,-0.0264951
2.23258,0.441658,-0.0264951
2.23018,0.4331,-0.0264485
2.22768,0.424952,-0.026402
2.21982,0.423453,0.0263088
2.22922,0.416784,-0.026402
2.21349,0.413844,0.0262157
2.23066,0.409,-0.026402
2.21886,0.406836,0.0262623
2.22413,0.400184,-0.0263088
2.21232,0.398059,0.0261692
2.22945,0.393113,-0.0263554
2.2137,0.390335,0.0261692
2.22694,0.38426,-0.0263088
2.21511,0.382219,0.0261692
2.23214,0.377539,-0.0263554
2.22031,0.375538,0.0262157
2.2295,0.369092,-0.0263088
2.22556,0.368439,0.0262623
2.22683,0.360668,-0.0262623
2.21893,0.359389,0.0261692
2.22807,0.352893,-0.0262623
2.21227,0.35039,0.026076
2.23629,0.354194,-0.131859
2.22534,0.344501,-0.0262157
2.21743,0.343277,0.0261226
2.22653,0.336731,-0.0262157
2.22322,0.44828,-0.0131814
2.21466,0.334937,0.026076
2.21966,0.328563,-0.0261226
2.22462,0.441292,-0.0131814
2.21571,0.327977,0.026076
2.22791,0.329783,-0.131162
2.22085,0.320426,-0.0261226
2.22622,0.433136,-0.0131814
2.21689,0.319854,0.026076
2.22592,0.433078,0.0395821
2.2291,0.321616,-0.131162
2.2219,0.313059,-0.0261226
2.22371,0.425,-0.0131582
2.21002,0.311384,0.0259829
2.23411,0.314779,-0.131394
2.21912,0.303982,-0.026076
2.22533,0.416459,-0.0131582
2.2112,0.302897,0.0259829
2.22739,0.305115,-0.130929
2.22403,0.29754,-0.0261226
2.22663,0.409466,-0.0131582
2.22007,0.29701,0.026076
2.22632,0.409411,0.0395123
2.22438,0.297587,-0.130697
2.23107,0.402237,-0.0659773
2.22506,0.289774,-0.0261226
2.22017,0.400271,-0.0131117
2.21713,0.288741,0.0260295
2.2238,0.400927,0.0394424
2.23332,0.290851,-0.131162
2.22459,0.393056,-0.0657446
2.22209,0.281503,-0.026076
2.22155,0.39252,-0.0131117
2.21018,0.279996,0.0259363
2.22519,0.393162,0.0394424
2.22244,0.281548,-0.130464
2.21807,0.383924,-0.0655119
2.21512,0.272767,-0.0259829
2.22291,0.384762,-0.0131117
2.20718,0.271789,0.0258898
2.22655,0.385392,0.0394424
2.23134,0.274764,-0.130929
2.22728,0.377516,-0.0657446
2.22003,0.265509,-0.0260295
2.22818,0.377669,-0.0131349
2.20811,0.264084,0.0258898
2.22394,0.37695,0.0393726
2.23625,0.267448,-0.131162
2.22858,0.369739,-0.0657446
2.22094,0.257758,-0.0260295
2.22949,0.369889,-0.0131349
2.20902,0.256375,0.0258898
2.22129,0.36853,0.0393028
2.22527,0.25826,-0.130464
2.23041,0.370043,-0.118489
2.22591,0.361317,-0.0656282
2.21388,0.249109,-0.0259363
2.21892,0.360182,-0.0130652
2.23215,0.251165,-0.209682
2.21785,0.249556,0.0259829
2.22257,0.360774,0.0393028
2.22219,0.250044,-0.130231
2.21926,0.352291,-0.0653955
2.22382,0.465392,0
2.21871,0.241813,-0.0259829
2.22806,0.353689,-0.0131117
2.22905,0.242941,-0.20931
2.21076,0.240947,0.0258898
2.21986,0.352387,0.039233
2.23099,0.243151,-0.130697
2.21047,0.350895,0.0911843
2.23294,0.354462,-0.118489
2.21647,0.344316,-0.0652792
2.22348,0.234874,-0.0260295
2.22132,0.34507,-0.0130652
2.22985,0.235547,-0.20931
2.20757,0.233193,0.0258432
2.22102,0.345023,0.039233
2.22781,0.235332,-0.130464
2.21557,0.344176,0.0913472
2.22621,0.345829,-0.11807
2.22556,0.337776,-0.0655119
2.21633,0.226298,-0.0259363
2.22251,0.337313,-0.0130652
2.23462,0.228166,-0.209682
2.21235,0.225892,0.0258898
2.22616,0.337867,0.0393028
2.22464,0.227148,-0.130231
2.2128,0.33584,0.0911843
2.2274,0.338055,-0.11807
2.21893,0.328059,-0.0652792
2.22081,0.440134,0
2.2132,0.217396,-0.0258898
2.21983,0.328192,-0.0130419
2.23548,0.219584,-0.209682
2.2132,0.217396,0.0258898
2.22349,0.328733,0.039233
2.2255,0.218604,-0.130231
2.21408,0.327341,0.0911843
2.22868,0.329501,-0.11807
2.21599,0.320514,-0.0651628
2.22218,0.433156,0
2.21785,0.210821,-0.0259363
2.22085,0.321217,-0.0130419
2.23219,0.212184,-0.20931
2.21387,0.210442,0.0258898
2.2222,0.211234,-0.129999
2.21114,0.319812,0.0910215
2.22971,0.322498,-0.11807
2.2255,0.433803,-0.0527608
2.21975,0.424644,0
2.22256,0.203442,-0.0259829
2.21404,0.312345,-0.0129954
2.22895,0.204027,-0.208938
2.21061,0.202348,0.0258432
2.21895,0.203111,-0.129766
2.20433,0.310975,0.0906958
2.21895,0.313038,-0.117442
2.21432,0.303719,-0.0650464
2.21743,0.415383,0
2.21137,0.19386,-0.0258432
2.21918,0.304386,-0.0130187
2.22972,0.195469,-0.208938
2.20738,0.193511,0.0257966
2.23161,0.306091,-0.183884
2.22285,0.304889,0.0391632
2.21573,0.194243,-0.129534
2.20946,0.303053,0.0908587
2.22014,0.304517,-0.117442
2.22862,0.417479,-0.0527608
2.22319,0.297822,-0.0652792
2.21479,0.407689,0
2.21197,0.18691,-0.0258432
2.22013,0.297412,-0.0130187
2.22635,0.188126,-0.208567
2.21197,0.18691,0.0258432
2.21983,0.297371,0.0390934
2.22827,0.188288,-0.130231
2.2104,0.296109,0.0908587
2.229,0.2986,-0.117861
2.22599,0.40975,-0.0526678
2.21629,0.289026,-0.0650464
2.22014,0.400666,0
2.21659,0.179511,-0.0258898
2.22115,0.28966,-0.0130187
2.23097,0.180675,-0.208938
2.21261,0.179188,0.0258432
2.22085,0.289621,0.0390934
2.22493,0.180187,-0.129999
2.21142,0.288392,0.0908587
2.22211,0.289785,-0.117442
2.22347,0.401268,-0.0525747
2.21728,0.281288,-0.0650464
2.21758,0.392218,0
2.22119,0.172082,-0.0259363
2.21818,0.281402,-0.0129954
2.22761,0.172579,-0.208567
2.22092,0.392808,0.0524816
2.21322,0.171464,0.0258432
2.23064,0.282983,-0.183558
2.21759,0.171803,-0.129534
2.20845,0.280168,0.0906958
2.22311,0.282027,-0.117442
2.22092,0.392808,-0.0524816
2.22288,0.385157,0
2.2138,0.163737,-0.0258432
2.21915,0.273657,-0.0129954
2.22423,0.164508,-0.208195
2.22622,0.385735,0.0525747
2.20981,0.163442,0.0257966
2.23557,0.275682,-0.183884
2.21817,0.16406,-0.129534
2.20545,0.271968,0.090533
2.22408,0.274265,-0.117442
2.19996,0.271291,0.180955
2.22228,0.385052,-0.0524816
2.22027,0.376726,0
2.21037,0.155728,-0.0257966
2.22009,0.26591,-0.0129954
2.22479,0.156744,-0.208195
2.21967,0.376624,0.0523886
2.21037,0.155728,0.0257966
2.22861,0.266929,-0.183233
2.21873,0.156317,-0.129534
2.20639,0.264268,0.090533
2.23756,0.37966,-0.105719
2.22106,0.266025,-0.117233
2.19694,0.263136,0.180629
2.22361,0.377293,-0.0524816
2.21216,0.25713,-0.0648137
2.21762,0.368318,0
2.21489,0.148278,-0.0258432
2.22498,0.25862,-0.0130187
2.2293,0.149242,-0.208567
2.22097,0.368873,0.0523886
2.20691,0.147743,0.0257501
2.2216,0.258227,-0.182582
2.21674,0.257661,0.0389538
2.22723,0.149104,-0.129999
2.2073,0.256564,0.090533
2.22594,0.258731,-0.117442
2.2018,0.255926,0.180955
2.22886,0.370184,-0.0525747
2.21702,0.249855,-0.0649301
2.21889,0.360575,0
2.2154,0.140546,-0.0258432
2.2219,0.250404,-0.0129954
2.22185,0.140956,-0.207823
2.22619,0.36176,0.0524816
2.20741,0.140039,0.0257501
2.23041,0.251364,-0.183233
2.21762,0.249922,0.0389538
2.21578,0.14057,-0.129301
2.20818,0.248858,0.090533
2.22832,0.362107,-0.10516
2.22683,0.25096,-0.117442
2.19872,0.247792,0.180629
2.22619,0.36176,-0.0524816
2.22185,0.242548,-0.0650464
2.21619,0.352199,0
2.21188,0.132572,-0.0257966
2.2148,0.241778,-0.0129489
2.23028,0.133675,-0.208567
2.21954,0.352732,0.0522955
2.2039,0.132093,0.0257035
2.22731,0.243144,-0.182907
2.21848,0.242179,0.0389538
2.20506,0.240714,0.0903702
2.22957,0.354326,-0.10516
2.23166,0.243618,-0.117651
2.19957,0.240115,0.180629
2.21559,0.352104,-0.0522025
2.21072,0.233917,-0.0646974
2.21734,0.344849,0
2.2163,0.125463,-0.0258432
2.2174,0.456781,0.0131582
2.21559,0.234433,-0.0129489
2.22276,0.125829,-0.207823
2.21674,0.344755,0.0522025
2.21231,0.125237,0.0257966
2.22811,0.235757,-0.182907
2.21927,0.234822,0.0389538
2.21669,0.125485,-0.129301
2.20585,0.233401,0.0903702
2.22679,0.346317,-0.104974
2.22451,0.235376,-0.117233
2.20036,0.23282,0.180629
2.22465,0.345984,-0.0523886
2.21152,0.226199,-0.0646974
2.21458,0.336506,0
2.21673,0.117726,-0.0258432
2.22038,0.227105,-0.0129722
2.21921,0.117858,-0.207451
2.20474,0.11709,0.0257035
2.22892,0.227978,-0.182907
2.21711,0.117747,-0.129301
2.21478,0.336537,0.130464
2.20665,0.2257,0.0903702
2.23193,0.339143,-0.10516
2.21737,0.226797,-0.116814
2.19719,0.224733,0.180304
2.22584,0.338217,-0.0523886
2.23601,0.443958,-0.0397915
2.21234,0.218091,-0.0646974
2.21976,0.328973,0
2.20915,0.109205,-0.0257501
2.2212,0.218965,-0.0129722
2.21565,0.109526,-0.207079
2.20915,0.109205,0.0257501
2.2218,0.219024,-0.182256
2.21692,0.218543,0.038884
2.21354,0.109422,-0.129069
2.20746,0.21761,0.0903702
2.22526,0.329788,-0.104788
2.22614,0.219452,-0.117233
2.198,0.216678,0.180304
2.22311,0.32947,-0.0522955
2.2171,0.210359,-0.0648137
2.21699,0.320263,0
2.21753,0.101474,-0.0258432
2.21402,0.210067,-0.0129257
2.22002,0.101587,-0.207451
2.20954,0.101108,0.0257501
2.23133,0.322336,-0.15765
2.22656,0.211257,-0.182582
2.20974,0.209661,0.0387443
2.21393,0.101309,-0.129069
2.21719,0.320293,0.130464
2.21222,0.209896,0.090533
2.23436,0.322773,-0.10516
2.21898,0.210537,-0.116814
2.19878,0.208621,0.180304
2.2243,0.32132,-0.0522955
2.22719,0.426472,-0.0395821
2.20979,0.202663,-0.064581
2.22194,0.313857,0
2.20984,0.0941665,-0.0257501
2.21865,0.203476,-0.0129489
2.2243,0.0947826,-0.207823
2.20585,0.0939962,0.0257035
2.22721,0.204261,-0.182582
2.21835,0.203448,0.038884
2.21025,0.0941836,-0.128836
2.21028,0.312209,0.129999
2.21287,0.202946,0.090533
2.22745,0.314635,-0.104788
2.21565,0.203201,-0.116605
2.19942,0.201712,0.180304
2.21738,0.313213,-0.0521094
2.2208,0.417218,-0.0394424
2.22303,0.306098,0
2.21416,0.0866079,-0.0257966
2.21717,0.416536,0.0131117
2.21536,0.195378,-0.0129257
2.22064,0.0868615,-0.207451
2.21846,0.30547,0.0521094
2.20616,0.0862952,0.0257035
2.22552,0.306441,-0.157092
2.23188,0.196835,-0.182907
2.21108,0.195,0.0387443
2.21455,0.0866233,-0.129069
2.21531,0.305036,0.130231
2.2056,0.194517,0.0902073
2.22062,0.305767,-0.104416
2.21634,0.195465,-0.116605
2.20408,0.194383,0.180629
2.21846,0.30547,-0.0521094
2.23011,0.410913,-0.0395821
2.21115,0.187231,-0.064581
2.21219,0.296742,0
2.21045,0.0787366,-0.0257501
2.21861,0.408794,0.0131117
2.22002,0.187982,-0.0129489
2.22348,0.298256,0.0522025
2.20645,0.0785942,0.0257035
2.23448,0.299732,-0.15765
2.22461,0.188371,-0.182256
2.21573,0.187619,0.0388142
2.21484,0.078893,-0.129069
2.2124,0.296771,0.129999
2.20627,0.186818,0.0902073
2.22167,0.298014,-0.104416
2.21701,0.187727,-0.116605
2.1968,0.186016,0.179978
2.21555,0.297193,-0.0520164
2.2276,0.402414,-0.0395123
2.21179,0.179511,-0.064581
2.21718,0.289535,0
2.20671,0.0708912,-0.0257035
2.23061,0.181038,-0.284861
2.21609,0.400336,0.0130884
2.22066,0.180231,-0.0129489
2.21721,0.0712285,-0.207079
2.20671,0.0708912,0.0257035
2.2276,0.290897,-0.157092
2.22128,0.180281,-0.181931
2.21637,0.179883,0.0388142
2.2151,0.0711607,-0.129069
2.20691,0.179115,0.0902073
2.2227,0.290256,-0.104416
2.22164,0.18031,-0.116814
2.20141,0.178669,0.180304
2.22609,0.402142,-0.0921613
2.21658,0.289457,-0.0520164
2.22899,0.394636,-0.0395123
2.21639,0.172098,-0.0646974
2.21817,0.281793,0
2.21094,0.0633018,-0.0257501
2.21748,0.392597,0.0130884
2.21729,0.172168,-0.0129257
2.22143,0.0636019,-0.207451
2.21094,0.0633018,0.0257501
2.23256,0.283621,-0.157371
2.22985,0.173143,-0.182582
2.21264,0.39174,0.0653955
2.213,0.171835,0.0387443
2.21534,0.0634275,-0.129069
2.21046,0.280814,0.129766
2.20752,0.171409,0.0902073
2.23163,0.283502,-0.104788
2.21827,0.172244,-0.116605
2.19805,0.170674,0.179978
2.21361,0.281213,-0.0519233
2.22247,0.385486,-0.0393726
2.21299,0.164065,-0.064581
2.2112,0.273069,0
2.21115,0.0555842,-0.0257501
2.21489,0.384171,0.0130652
2.21788,0.164428,-0.0129257
2.21766,0.0557477,-0.207079
2.21854,0.273975,0.0520164
2.20715,0.0554837,0.0257035
2.2375,0.276316,-0.15765
2.22249,0.164769,-0.181931
2.21399,0.384015,0.0653955
2.21359,0.16411,0.0387443
2.21143,0.273096,0.129766
2.2081,0.163703,0.0902073
2.22864,0.275222,-0.104602
2.21886,0.1645,-0.116605
2.19863,0.163001,0.179978
2.22491,0.385908,-0.0919985
2.21854,0.273975,-0.0520164
2.22775,0.378395,-0.0394424
2.21611,0.265824,0
2.20733,0.0477783,-0.0257035
2.22842,0.15739,-0.284356
2.21622,0.376437,0.0130652
2.21046,0.156121,-0.0128792
2.21948,0.266229,0.0520164
2.20733,0.0477783,0.0257035
2.23449,0.268028,-0.157371
2.22703,0.157291,-0.182256
2.21926,0.376953,0.0655119
2.21415,0.156381,0.0387443
2.21173,0.0478736,-0.128836
2.2084,0.264899,0.129534
2.20069,0.155431,0.0898817
2.22562,0.266964,-0.104416
2.21942,0.156754,-0.116605
2.19919,0.155325,0.179978
2.22624,0.378139,-0.0919985
2.22346,0.266705,-0.0521094
2.22511,0.369962,-0.0393726
2.21009,0.148345,-0.0644646
2.21306,0.257626,0
2.20749,0.0400746,-0.0257035
2.22896,0.149612,-0.284356
2.22147,0.369356,0.0130884
2.21897,0.148941,-0.0129257
2.21401,0.040193,-0.206708
2.21643,0.258019,0.0519233
2.20349,0.040002,0.0256569
2.22352,0.258844,-0.156534
2.22756,0.149518,-0.182256
2.20873,0.367239,0.0651628
2.21189,0.0401544,-0.128836
2.20931,0.25719,0.129534
2.2052,0.148017,0.0900445
2.22653,0.259195,-0.104416
2.21597,0.148739,-0.116395
2.19972,0.147649,0.179978
2.21966,0.369056,-0.0916728
2.2204,0.258481,-0.0520164
2.22639,0.362192,-0.0393726
2.21458,0.140883,-0.064581
2.22189,0.250796,0
2.20761,0.0323682,-0.0257035
2.21485,0.360314,0.0130419
2.21548,0.14094,-0.0129024
2.21414,0.0324638,-0.206708
2.20361,0.0323095,0.0256569
2.22441,0.251081,-0.156534
2.22011,0.141234,-0.181606
2.21395,0.360168,0.0652792
2.2072,0.140413,0.0386047
2.22399,0.0326083,-0.129534
2.20172,0.140064,0.0898817
2.22345,0.250973,-0.10423
2.21647,0.141003,-0.116395
2.20022,0.139969,0.179978
2.21334,0.249831,-0.0518303
2.22764,0.354418,-0.0393726
2.21506,0.133151,-0.064581
2.21878,0.242604,0
2.20771,0.0246614,-0.0257035
2.22599,0.133808,-0.283851
2.21609,0.35258,0.0130419
2.21596,0.133205,-0.0129024
2.21822,0.0247787,-0.207079
2.20371,0.0246167,0.0256569
2.22924,0.243747,-0.156813
2.22059,0.133483,-0.181606
2.21124,0.351809,0.0651628
2.21167,0.132947,0.0386745
2.20812,0.0246659,-0.128604
2.20311,0.240891,0.129069
2.20219,0.132377,0.0898817
2.22829,0.243644,-0.104416
2.21296,0.133025,-0.116186
2.19671,0.132048,0.179653
2.21818,0.242538,-0.0519233
2.22497,0.345637,-0.0393028
2.21154,0.124807,-0.0644646
2.21567,0.23405,0
2.20779,0.01657,-0.0257035
2.2225,0.125425,-0.283346
2.21341,0.343842,0.0130187
2.21644,0.125083,-0.0129024
2.21033,0.0165891,-0.206336
2.21905,0.234407,0.0519233
2.20379,0.01654,0.0256569
2.23012,0.235576,-0.156813
2.22505,0.125569,-0.181931
2.21251,0.343702,0.0651628
2.20815,0.124615,0.0386047
2.2082,0.0165731,-0.128604
2.20398,0.232815,0.129069
2.20267,0.124305,0.0898817
2.22917,0.235475,-0.104416
2.22141,0.125363,-0.116605
2.19718,0.123996,0.179653
2.21952,0.34479,-0.09151
2.21905,0.234407,-0.0519233
2.22215,0.337656,-0.039233
2.20396,0.117047,-0.0642319
2.21644,0.226701,0
2.20783,0.00924803,-0.0257035
2.22291,0.118054,-0.283346
2.2185,0.3371,0.0130419
2.21684,0.117731,-0.0129024
2.21435,0.00927535,-0.206708
2.19583,0.00919777,0.0255638
2.23089,0.228179,-0.156813
2.22943,0.1184,-0.182256
2.22155,0.337564,0.0653955
2.21254,0.117503,0.0386745
2.22978,0.338815,-0.144544
2.21223,0.00926646,-0.128836
2.20871,0.225911,0.129301
2.20307,0.117,0.0898817
2.22596,0.227675,-0.10423
2.21384,0.117572,-0.116186
2.20156,0.11692,0.179978
2.2246,0.338027,-0.0916728
2.21186,0.226232,-0.0517372
2.22332,0.329897,-0.039233
2.21234,0.10975,-0.0644646
2.21323,0.21857,0
2.19985,0.00153609,-0.0256104
2.22331,0.110294,-0.283346
2.21966,0.329355,0.0130419
2.21324,0.109795,-0.0128792
2.23217,0.22044,-0.241611
2.21437,0.00154623,-0.206708
2.19985,0.00153609,0.0256104
2.22373,0.219606,-0.156255
2.22187,0.110223,-0.181606
2.2148,0.328634,0.0651628
2.227,0.330444,-0.144288
2.20426,0.00153917,-0.128371
2.20346,0.10931,0.0898817
2.22674,0.219904,-0.10423
2.21822,0.110042,-0.116395
2.19798,0.109037,0.179653
2.21786,0.329087,-0.0913472
2.21661,0.218904,-0.0518303
2.22836,0.323097,-0.0393028
2.21269,0.102414,-0.0644646
2.21793,0.21161,0
2.19984,-0.00575844,-0.0256104
2.21282,0.320845,0.0129954
2.21759,0.10264,-0.0129024
2.23289,0.213037,-0.241611
2.21335,0.211173,0.0517372
2.19984,-0.00575844,0.0256104
2.22444,0.212231,-0.156255
2.22222,0.102855,-0.181606
2.21192,0.320714,0.0650464
2.2093,0.102256,0.0386047
2.21224,-0.0057909,-0.128836
2.2102,0.210872,0.129301
2.20381,0.102002,0.0898817
2.22746,0.212519,-0.10423
2.2106,0.102316,-0.115976
2.19833,0.101749,0.179653
2.22131,0.211932,-0.0519233
2.22551,0.314756,-0.039233
2.21069,0.203134,0
2.19981,-0.0134379,-0.0256104
2.21393,0.313118,0.0129954
2.20994,0.0945561,-0.012856
2.21433,-0.0135266,-0.206708
2.19981,-0.0134379,0.0256104
2.2212,0.204099,-0.155975
2.21858,0.0949259,-0.18128
2.20907,0.312431,0.0649301
2.20964,0.0945433,0.0386047
2.20822,-0.0134892,-0.128604
2.20297,0.202425,0.128836
2.20415,0.0943085,0.0898817
2.22819,0.204742,-0.10423
2.21493,0.0947696,-0.116186
2.19867,0.0940738,0.179653
2.22005,0.313983,-0.0913472
2.21407,0.203445,-0.0517372
2.22263,0.306439,-0.0391632
2.20536,0.0866485,-0.0642319
2.19975,-0.0211172,-0.0256104
2.21897,0.305934,0.0130187
2.21425,0.0869978,-0.0128792
2.21477,0.195714,0.0517372
2.19975,-0.0211172,0.0256104
2.21792,0.195993,-0.155696
2.2189,0.0871804,-0.18128
2.20619,0.304171,0.0648137
2.20596,0.086672,0.0385349
2.22237,0.306403,-0.143777
2.20416,-0.0211595,-0.128371
2.20764,0.195085,0.129069
2.20048,0.0864565,0.0897188
2.22889,0.196962,-0.10423
2.21525,0.0870369,-0.116186
2.19898,0.0863978,0.179653
2.21717,0.305685,-0.0911843
2.21477,0.195714,-0.0517372
2.21973,0.298146,-0.0390934
2.20166,0.0788073,-0.0641155
2.21604,0.188033,0
2.19966,-0.0287952,-0.0256104
2.2121,0.297122,0.0129722
2.21454,0.0792686,-0.0128792
2.22707,0.188969,-0.240754
2.21145,0.187644,0.0516442
2.19966,-0.0287952,0.0256104
2.21859,0.18825,-0.155696
2.21919,0.0794349,-0.18128
2.21516,0.297533,0.0650464
2.20625,0.0789717,0.0385349
2.20807,-0.0289052,-0.128604
2.20076,0.0787753,0.0897188
2.22558,0.188843,-0.104044
2.21554,0.0793042,-0.116186
2.19529,0.0785793,0.179327
2.21544,0.187983,-0.0517372
2.22472,0.290915,-0.0391632
2.20991,0.0713802,-0.0643483
2.20871,0.179649,0
2.20355,-0.0365391,-0.0256569
2.22091,0.0717356,-0.282841
2.21709,0.289917,0.0129954
2.21481,0.0715384,-0.0128792
2.22375,0.180872,-0.240326
2.19555,-0.0364065,0.0255638
2.21526,0.180182,-0.155417
2.21547,0.0715598,-0.180955
2.20826,0.288763,0.0648137
2.21051,0.0713996,0.0386047
2.22446,0.290882,-0.143777
2.20795,-0.0366122,-0.128604
2.20895,0.179669,0.129069
2.20103,0.0710932,0.0897188
2.23021,0.181398,-0.10423
2.20782,0.0713126,-0.115767
2.19555,0.0709163,0.179327
2.22321,0.290718,-0.0913472
2.21608,0.180249,-0.0517372
2.22175,0.282644,-0.0390934
2.20615,0.0635511,-0.0642319
2.2173,0.172559,0
2.19541,-0.0440696,-0.0255638
2.21412,0.281672,0.0129722
2.21504,0.0638073,-0.0128792
2.22833,0.173418,-0.240754
2.20341,-0.0442302,0.0256569
2.21985,0.172758,-0.155696
2.21969,0.0639412,-0.18128
2.20529,0.280549,0.0646974
2.21075,0.0636835,0.0386047
2.22942,0.283619,-0.144032
2.20781,-0.0443186,-0.128604
2.20126,0.0634102,0.0897188
2.20805,0.0636059,-0.115767
2.1918,0.0631376,0.179002
2.22467,0.173133,-0.0519233
2.22273,0.274886,-0.0390934
2.20236,0.055748,-0.0641155
2.21788,0.164818,0
2.19524,-0.0517334,-0.0255638
2.21112,0.27345,0.0129489
2.20726,0.0558719,-0.0128327
2.21376,-0.0521698,-0.206708
2.19524,-0.0517334,0.0255638
2.21646,0.164712,-0.155417
2.21592,0.0560911,-0.180955
2.21022,0.273339,0.0648137
2.20696,0.0558644,0.0385349
2.20365,-0.0519316,-0.128371
2.20219,0.163651,0.128604
2.20147,0.0557254,0.0897188
2.20826,0.0558974,-0.115767
2.18802,0.055385,0.178676
2.22127,0.165069,-0.0518303
2.2197,0.266648,-0.0390236
2.21446,0.156792,0
2.19505,-0.0593965,-0.0255638
2.21206,0.26573,0.0129489
2.20744,0.0481662,-0.0128327
2.22156,0.157294,-0.239897
2.20958,-0.0597897,-0.206336
2.21386,0.156749,0.0516442
2.19105,-0.0592883,0.0255173
2.221,0.157255,-0.155696
2.21211,0.0482682,-0.180629
2.20719,0.265145,0.0646974
2.20714,0.0481597,0.0385349
2.21946,0.266619,-0.143265
2.20274,0.155962,0.128604
2.20165,0.0480399,0.0897188
2.22401,0.157468,-0.103857
2.21244,0.0482753,-0.115976
2.19218,0.0478334,0.179002
2.21785,0.157032,-0.0517372
2.21665,0.258435,-0.0389538
2.211,0.148793,0
2.19483,-0.0670578,-0.0255638
2.21297,0.258007,0.0129489
2.20759,0.040461,-0.0128327
2.20936,-0.0675018,-0.206336
2.21439,0.149021,0.0516442
2.19882,-0.06718,0.0256104
2.22154,0.149502,-0.155696
2.22024,0.0406928,-0.18128
2.21605,0.258365,0.0649301
2.20329,0.0403822,0.0384651
2.19929,0.148005,0.128371
2.19381,0.0402084,0.0893932
2.22056,0.149436,-0.103671
2.2046,0.0404062,-0.115558
2.19632,0.0402545,0.179327
2.21515,0.25826,-0.0908587
2.21838,0.149289,-0.0517372
2.21753,0.250696,-0.0389538
2.23156,0.0331079,-0.446363
2.20751,0.140819,0
2.19458,-0.0747193,-0.0255638
2.21786,0.0329047,-0.282336
2.20989,0.249831,0.0129257
2.20372,0.0326949,-0.0128095
2.20911,-0.0752141,-0.206336
2.2149,0.14129,0.0516442
2.19458,-0.0747193,0.0255638
2.21408,0.141238,-0.155138
2.21638,0.0328828,-0.180955
2.21296,0.250179,0.0648137
2.20342,0.0326905,0.0384651
2.22126,0.251117,-0.143265
2.20299,-0.0750056,-0.128371
2.20776,0.140835,0.128836
2.20193,0.0326683,0.0897188
2.22506,0.141938,-0.103857
2.21272,0.0328284,-0.115976
2.19645,0.032587,0.179327
2.21889,0.141544,-0.0517372
2.22237,0.24339,-0.0390236
2.20799,0.133114,0
2.19431,-0.0823779,-0.0255638
2.21074,0.242117,0.0129257
2.20382,0.0250038,-0.0128095
2.22308,0.134023,-0.239897
2.19431,-0.0823779,0.0255638
2.2125,0.0251022,-0.180629
2.20985,0.242019,0.0646974
2.20352,0.0250004,0.0384651
2.21069,-0.0829932,-0.128836
2.20203,0.0249835,0.0897188
2.22155,0.133931,-0.103671
2.20883,0.0250606,-0.115767
2.18858,0.0248309,0.178676
2.21538,0.133559,-0.0516442
2.22321,0.235631,-0.0390236
2.203,0.0173032,-0.0641155
2.20445,0.125178,0
2.194,-0.0900375,-0.0255638
2.21158,0.234398,0.0129257
2.20389,0.0173103,-0.0128095
2.21956,0.126037,-0.239469
2.20853,-0.0906337,-0.206336
2.194,-0.0900375,0.0255638
2.219,0.126004,-0.155417
2.21257,0.0173784,-0.180629
2.2067,0.233881,0.064581
2.2036,0.0173079,0.0384651
2.2064,-0.0905463,-0.128604
2.19811,0.0172648,0.089556
2.22201,0.126175,-0.103671
2.2089,0.0173496,-0.115767
2.19264,0.0172219,0.179002
2.21184,0.125598,-0.0515511
2.21208,0.226645,-0.0388142
2.20887,0.117695,0
2.19767,-0.097874,-0.0256104
2.21238,0.226676,0.0129257
2.20794,0.00963401,-0.0128327
2.21999,0.118287,-0.239469
2.19368,-0.0976961,0.0255638
2.21942,0.118257,-0.155417
2.21262,0.00965442,-0.180629
2.21148,0.226584,0.0646974
2.19964,0.00959781,0.0383953
2.2198,0.227436,-0.143009
2.20208,-0.0980704,-0.128371
2.20114,0.117283,0.128371
2.19816,0.00959131,0.089556
2.21844,0.118205,-0.103485
2.20895,0.0096384,-0.115767
2.19269,0.00956744,0.179002
2.21226,0.117876,-0.0515511
2.22074,0.220486,-0.0389538
2.20523,0.110555,0
2.20534,-0.105158,-0.0257035
2.2091,0.21933,0.0129024
2.21196,0.00270283,-0.012856
2.22035,0.111313,-0.239469
2.20863,0.110725,0.0514581
2.19735,-0.104777,0.0256104
2.21979,0.111285,-0.155417
2.21662,0.00270853,-0.180955
2.21218,0.219636,0.0646974
2.20366,0.00269269,0.0384651
2.20176,-0.104988,-0.128371
2.20549,0.110568,0.128604
2.19018,0.00267622,0.0892304
2.21481,0.111035,-0.103299
2.20497,0.00269429,-0.115558
2.19669,0.00268417,0.179327
2.21526,0.219942,-0.0906958
2.20863,0.110725,-0.0514581
2.21755,0.211965,-0.038884
2.19906,-0.00537244,-0.0639992
2.20962,0.102658,0
2.19296,-0.112625,-0.0255638
2.20989,0.211232,0.0129024
2.20796,-0.00539417,-0.0128327
2.20902,0.10263,0.0514581
2.18897,-0.11242,0.0255173
2.21221,0.102778,-0.154859
2.20865,-0.00539586,-0.180304
2.20899,0.211146,0.064581
2.20366,-0.00538367,0.0384651
2.2213,0.212323,-0.143009
2.19738,-0.112851,-0.128138
2.19817,-0.00537026,0.089556
2.2192,0.103103,-0.103485
2.20497,-0.00538687,-0.115558
2.1927,-0.0053569,0.179002
2.21207,0.211441,-0.090533
2.21701,0.103001,-0.0516442
2.21828,0.204222,-0.038884
2.20197,0.0946002,0
2.19255,-0.120279,-0.0255638
2.2146,0.203883,0.0129257
2.21192,-0.0131257,-0.012856
2.22109,0.0954217,-0.239469
2.2031,-0.120858,-0.205964
2.18856,-0.12006,0.0255173
2.20573,0.203067,0.0644646
2.19563,-0.013029,0.0383255
2.21805,0.204201,-0.142753
2.20096,-0.12074,-0.128371
2.20622,0.094783,0.128604
2.20213,-0.0130676,0.0897188
2.21555,0.0951837,-0.103299
2.20494,-0.0130842,-0.115558
2.18868,-0.0129877,0.178676
2.21336,0.0950895,-0.0515511
2.21895,0.196864,-0.038884
2.20227,0.0872971,0
2.19214,-0.12755,-0.0255638
2.20331,0.195477,0.012856
2.21187,-0.0204612,-0.012856
2.21742,0.0878977,-0.239041
2.20666,-0.128395,-0.206336
2.19614,-0.127782,0.0256104
2.21285,0.0877166,-0.154859
2.20856,-0.0204306,-0.180304
2.2064,0.195751,0.0644646
2.19957,-0.0203475,0.0383953
2.21872,0.196844,-0.142753
2.19656,-0.127807,-0.128138
2.19808,-0.0203337,0.089556
2.21985,0.0879938,-0.103485
2.20488,-0.0203966,-0.115558
2.18464,-0.0202093,0.178351
2.21366,0.0877486,-0.0515511
2.21962,0.189118,-0.038884
2.21056,0.0798986,0
2.19967,-0.135693,-0.0256569
2.21195,0.188464,0.0129024
2.20378,-0.0280796,-0.0128095
2.20596,0.0797326,0.051365
2.19568,-0.135447,0.0256104
2.21315,0.0799922,-0.154859
2.20847,-0.0281393,-0.180304
2.20707,0.188048,0.0644646
2.19549,-0.0279738,0.0383255
2.1961,-0.135473,-0.128138
2.20283,0.0796192,0.128371
2.194,-0.0279549,0.0893932
2.21615,0.0801007,-0.103299
2.2048,-0.0280924,-0.115558
2.18854,-0.0278853,0.178676
2.21015,0.188311,-0.0903702
2.20996,0.079877,-0.0514581
2.21232,0.180332,-0.0387443
2.19877,-0.0360759,-0.0639992
2.19884,0.071407,0
2.19517,-0.143493,-0.0256104
2.21384,-0.036323,-0.281831
2.21262,0.180356,0.0129024
2.20767,-0.0362218,-0.0128327
2.20624,0.0716472,0.051365
2.19117,-0.143232,0.0255638
2.20836,-0.0362331,-0.180304
2.20375,0.179633,0.0643483
2.19537,-0.03602,0.0383255
2.21609,0.180639,-0.142497
2.19512,0.0712862,0.127906
2.19388,-0.0359957,0.0893932
2.21243,0.0718484,-0.103113
2.20468,-0.0361727,-0.115558
2.18045,-0.0357753,0.178025
2.21083,0.18021,-0.0903702
2.21423,0.0719068,-0.0515511
2.22092,0.17323,-0.038884
2.20263,-0.0438309,-0.0641155
2.20707,0.0639623,0
2.19465,-0.151156,-0.0256104
2.20925,0.17232,0.0128792
2.19953,-0.0437692,-0.0127862
2.21047,0.0640609,0.0514581
2.19066,-0.150881,0.0255638
2.20967,0.0640377,-0.15458
2.20835,0.17225,0.0644646
2.20323,-0.0438428,0.0384651
2.21671,0.172902,-0.142497
2.19906,-0.151459,-0.128371
2.20334,0.0638541,0.128371
2.19774,-0.0437336,0.089556
2.21666,0.0642403,-0.103299
2.20054,-0.0437894,-0.115348
2.18829,-0.0435455,0.178676
2.21144,0.172491,-0.0903702
2.20648,0.063945,-0.051365
2.21749,0.165567,-0.0388142
2.19928,0.0564383,0
2.19414,-0.158432,-0.0256104
2.20981,0.164994,0.0128792
2.20337,-0.0511552,-0.0128095
2.20668,0.0566282,0.051365
2.19015,-0.158144,0.0255638
2.20987,0.0567102,-0.15458
2.20493,0.164629,0.0643483
2.19507,-0.0509626,0.0383255
2.21329,0.165253,-0.142242
2.19456,-0.158462,-0.128138
2.19955,0.0564452,0.128138
2.19758,-0.0510209,0.089556
2.21687,0.0568896,-0.103299
2.20039,-0.051086,-0.115348
2.18414,-0.0507089,0.178351
2.21467,0.0568333,-0.0515511
2.22207,0.157721,-0.038884
2.20747,0.0485526,0
2.18955,-0.166171,-0.0255638
2.2104,0.156893,0.0128792
2.20317,-0.0592311,-0.0128095
2.18955,-0.166171,0.0255638
2.21406,0.0486975,-0.154859
2.20153,0.156263,0.0642319
2.20287,-0.0592231,0.0384651
2.21388,0.157139,-0.142242
2.19794,-0.166808,-0.128371
2.19974,0.0483826,0.128138
2.19339,-0.0589682,0.0893932
2.22105,0.0488514,-0.103485
2.20817,-0.0593657,-0.115767
2.18793,-0.0588215,0.178676
2.21259,0.157048,-0.0903702
2.20287,0.0484515,-0.051272
2.21061,0.149541,-0.0386745
2.20362,0.0411574,0
2.19697,-0.174062,-0.0256569
2.20692,0.149292,0.012856
2.19896,-0.066416,-0.0127862
2.20702,0.0412209,0.051365
2.19697,-0.174062,0.0256569
2.21022,0.0412806,-0.15458
2.20203,0.148961,0.0642319
2.19466,-0.0662863,0.0383255
2.1959,0.0410132,0.127906
2.19318,-0.0662414,0.0893932
2.21721,0.0414112,-0.103299
2.20796,-0.0666879,-0.115767
2.18772,-0.0660766,0.178676
2.20911,0.14944,-0.0902073
2.20302,0.0411462,-0.051272
2.21114,0.141438,-0.0386745
2.20375,0.0330804,0
2.19233,-0.181783,-0.0256104
2.21144,0.141457,0.0128792
2.2027,-0.0746106,-0.0128095
2.20715,0.0331315,0.051365
2.18436,-0.181122,0.0255173
2.21035,0.0331795,-0.15458
2.20739,-0.0747693,-0.180304
2.20256,0.140889,0.0642319
2.1984,-0.0744651,0.0383953
2.19603,0.0329645,0.127906
2.19292,-0.0742794,0.0893932
2.21335,0.0332245,-0.103113
2.19972,-0.0745096,-0.115348
2.18348,-0.0739596,0.178351
2.20965,0.141342,-0.0902073
2.20715,0.0331315,-0.051365
2.21562,0.13396,-0.0387443
2.20385,0.0253877,0
2.19168,-0.189435,-0.0256104
2.20793,0.133496,0.012856
2.20243,-0.082299,-0.0128095
2.20726,0.0254269,0.051365
2.19168,-0.189435,0.0256104
2.21046,0.0254637,-0.15458
2.20313,-0.0823252,-0.179978
2.20304,0.1332,0.0642319
2.19813,-0.0821385,0.0383953
2.21142,0.133706,-0.141986
2.19613,0.0252988,0.127906
2.18866,-0.0817844,0.0892304
2.21345,0.0254983,-0.103113
2.19944,-0.0821876,-0.115348
2.18719,-0.0817298,0.178676
2.21013,0.133629,-0.0902073
2.20726,0.0254269,-0.051365
2.21605,0.126612,-0.0387443
2.19725,-0.0894031,-0.0639992
2.19993,0.0180465,0
2.20437,0.125945,0.0128327
2.20614,-0.0897647,-0.0128327
2.18706,-0.196344,0.0255638
2.21053,0.0181335,-0.15458
2.19948,0.125666,0.0641155
2.18985,-0.0891021,0.0382557
2.21185,0.126372,-0.141986
2.19544,-0.197096,-0.128371
2.2002,0.0180487,0.128138
2.19237,-0.0892043,0.0893932
2.21752,0.0181908,-0.103299
2.19916,-0.0894807,-0.115348
2.18293,-0.0888202,0.178351
2.21133,0.01814,-0.0514581
2.20849,0.118448,-0.0386047
2.19598,0.0103484,0
2.19034,-0.204348,-0.0256104
2.20479,0.11825,0.0128327
2.20181,-0.0972884,-0.0128095
2.18636,-0.203977,0.0255638
2.20659,0.0103984,-0.154301
2.20252,-0.0973194,-0.179978
2.19991,0.117987,0.0641155
2.19353,-0.0969221,0.0383255
2.21626,0.118865,-0.142242
2.19226,0.0103309,0.127673
2.19603,-0.097033,0.089556
2.21757,0.0104501,-0.103299
2.20282,-0.097333,-0.115558
2.17862,-0.0962635,0.178025
2.20699,0.118368,-0.0900445
2.20738,0.0104021,-0.051365
2.20891,0.110352,-0.0386047
2.2,0.00230384,0
2.18958,-0.212375,-0.0256104
2.20521,0.110168,0.0128327
2.19745,-0.105167,-0.0127862
2.18958,-0.212375,0.0256104
2.2106,0.00231495,-0.15458
2.20215,-0.105391,-0.179978
2.19633,0.109724,0.0639992
2.19316,-0.104961,0.0383255
2.21668,0.110741,-0.142242
2.19628,0.00229995,0.127906
2.19167,-0.10489,0.0893932
2.21759,0.00232227,-0.103299
2.20245,-0.105406,-0.115558
2.18223,-0.104438,0.178351
2.20741,0.110278,-0.0900445
2.2034,0.00230741,-0.051272
2.21723,0.103786,-0.0387443
2.196,-0.00459928,0
2.19288,-0.219651,-0.0256569
2.20555,0.103239,0.0128327
2.2011,-0.112273,-0.0128095
2.2074,-0.00462317,0.051365
2.18094,-0.218455,0.0255173
2.20661,-0.00462151,-0.154301
2.20579,-0.112512,-0.180304
2.20465,0.103197,0.0642319
2.18882,-0.111647,0.0382557
2.18429,-0.00457478,0.127208
2.19133,-0.111775,0.0893932
2.2096,-0.00462778,-0.102927
2.18757,-0.00458163,0.2686
2.18986,-0.1117,0.179002
2.21174,0.103529,-0.0902073
2.2034,-0.00461479,-0.051272
2.21359,0.0958732,-0.0386745
2.19997,-0.012287,0
2.18414,-0.22648,-0.0255638
2.20589,0.09554,0.0128327
2.2007,-0.119956,-0.0128095
2.18016,-0.226067,0.0255173
2.20658,-0.012324,-0.154301
2.19701,0.0951551,0.0639992
2.1964,-0.119722,0.0383953
2.20939,0.0956914,-0.14173
2.18826,-0.0122217,0.127441
2.19093,-0.119423,0.0893932
2.20557,-0.0123184,-0.102741
2.18754,-0.0122176,0.2686
2.18547,-0.119126,0.178676
2.20737,-0.0123284,-0.051365
2.21394,0.0873729,-0.0386745
2.1959,-0.0206965,0
2.18325,-0.234864,-0.0255638
2.20225,0.0869115,0.0128095
2.20022,-0.128405,-0.0128095
2.20331,-0.0207663,0.051272
2.18723,-0.235292,0.0256104
2.20651,-0.0207965,-0.154301
2.19736,0.0867186,0.0639992
2.19194,-0.127922,0.0383255
2.19162,-0.235764,-0.128371
2.19618,-0.0206991,0.127906
2.18646,-0.127602,0.0892304
2.20551,-0.0207871,-0.102741
2.185,-0.127517,0.178676
2.20445,0.0869986,-0.0898817
2.2073,-0.020804,-0.051365
2.21021,0.080272,-0.0386047
2.19093,-0.134771,-0.0638828
2.19983,-0.0276453,0
2.18648,-0.242162,-0.0256104
2.20651,0.0801377,0.0128327
2.19182,-0.134825,-0.012763
2.20323,-0.0276881,0.051272
2.18251,-0.241722,0.0255638
2.20449,-0.135605,-0.180304
2.20162,0.0799601,0.0641155
2.18753,-0.134562,0.0382557
2.214,0.0804097,-0.141986
2.19211,-0.0275483,0.127673
2.19004,-0.134716,0.0893932
2.20943,-0.027766,-0.102927
2.18061,-0.134136,0.178351
2.20323,-0.0276881,-0.051272
2.21049,0.0721707,-0.0386047
2.19971,-0.0357079,0
2.18955,-0.250629,-0.0256569
2.20679,0.0720499,0.0128327
2.1953,-0.143118,-0.0127862
2.18558,-0.250175,0.0256104
2.20632,-0.0358152,-0.154301
2.2,-0.143424,-0.179978
2.1979,0.0717597,0.0639992
2.19101,-0.142839,0.0383255
2.18997,-0.250677,-0.128371
2.192,-0.0355826,0.127673
2.18953,-0.142742,0.0893932
2.20931,-0.0358637,-0.102927
2.18408,-0.142387,0.178676
2.20499,0.0719914,-0.0898817
2.19912,-0.0356982,-0.0511789
2.21072,0.0644542,-0.0386047
2.19957,-0.0433861,0
2.18469,-0.257802,-0.0256104
2.20303,0.0642298,0.0128095
2.1908,-0.150506,-0.012763
2.20298,-0.0434532,0.051272
2.18072,-0.257333,0.0255638
2.20346,-0.151376,-0.180304
2.20213,0.0642037,0.0641155
2.1905,-0.150486,0.0383255
2.21052,0.0644484,-0.14173
2.18787,-0.0431552,0.127441
2.18902,-0.150384,0.0893932
2.20518,-0.0434967,-0.102741
2.21322,0.0645271,-0.0902073
2.19898,-0.0433743,-0.0511789
2.20694,0.0566344,-0.0385349
2.19541,-0.0509709,0
2.18378,-0.265427,-0.0256104
2.20724,0.056642,0.0128327
2.19425,-0.158441,-0.0127862
2.20281,-0.0511427,0.051272
2.17981,-0.264944,0.0255638
2.19835,0.0564139,0.0639992
2.18598,-0.157843,0.0382557
2.21074,0.0567318,-0.14173
2.1877,-0.050792,0.127441
2.18848,-0.158024,0.0893932
2.20102,-0.0511012,-0.102555
2.18301,-0.0506831,0.268113
2.18304,-0.157631,0.178676
2.19881,-0.0510499,-0.0511789
2.21111,0.0494049,-0.0386047
2.19923,-0.058357,0
2.20341,0.0492329,0.0128095
2.1977,-0.166017,-0.0128095
2.20263,-0.0584472,0.051272
2.17892,-0.272171,0.0255638
2.20982,-0.0586382,-0.15458
2.19452,0.0490343,0.0638828
2.18544,-0.165091,0.0382557
2.20692,0.0493113,-0.141474
2.19151,-0.0581523,0.127673
2.18795,-0.165281,0.0893932
2.20483,-0.0585057,-0.102741
2.19473,-0.165793,-0.115348
2.1825,-0.164869,0.178676
2.20263,-0.0584472,-0.051272
2.20727,0.041611,-0.0385349
2.19501,-0.0659133,0
2.18192,-0.280285,-0.0256104
2.19957,0.0414659,0.0127862
2.19711,-0.173688,-0.0128095
2.18589,-0.280794,0.0256569
2.20562,-0.0662318,-0.154301
2.20178,-0.174057,-0.180304
2.19068,0.0412983,0.0637664
2.18884,-0.173034,0.0383255
2.1913,-0.0658018,0.127673
2.18736,-0.172917,0.0893932
2.20461,-0.0662017,-0.102741
2.18191,-0.172487,0.178676
2.20578,0.0415829,-0.0898817
2.19841,-0.0660155,-0.0511789
2.20341,0.03346,-0.0384651
2.19875,-0.0740927,0
2.18088,-0.28828,-0.0256104
2.20371,0.0334645,0.0128095
2.18848,-0.18108,-0.012763
2.20215,-0.0742073,0.051272
2.18485,-0.288804,0.0256569
2.20536,-0.0743153,-0.154301
2.19482,0.0333295,0.0638828
2.18819,-0.181055,0.0383255
2.19104,-0.0738329,0.127673
2.18671,-0.180933,0.0893932
2.20436,-0.0742816,-0.102741
2.18126,-0.180482,0.178676
2.19816,-0.0740726,-0.0511789
2.20751,0.0258152,-0.0385349
2.19049,-0.08147,0
2.18382,-0.296429,-0.0256569
2.20381,0.0257719,0.0128095
2.19182,-0.189062,-0.0127862
2.20188,-0.0818938,0.051272
2.1759,-0.295353,0.0255638
2.2011,-0.0818647,-0.154022
2.19892,0.0257147,0.0639992
2.18754,-0.188692,0.0383255
2.18678,-0.0813321,0.127441
2.18606,-0.188565,0.0893932
2.20009,-0.0818272,-0.102555
2.18459,-0.188438,0.179002
2.20202,0.025751,-0.0897188
2.19789,-0.0817452,-0.0511789
2.20759,0.0181094,-0.0385349
2.19019,-0.0891157,0
2.20389,0.018079,0.0128095
2.19115,-0.196711,-0.0127862
2.20158,-0.0895793,0.051272
2.17881,-0.303498,0.0256104
2.19899,0.0180389,0.0639992
2.18687,-0.196327,0.0383255
2.19047,-0.0891273,0.127673
2.18539,-0.196194,0.0893932
2.19979,-0.0895065,-0.102555
2.17995,-0.195706,0.178676
2.2021,0.0180643,-0.0897188
2.19759,-0.0894167,-0.0511789
2.20764,0.0107887,-0.0385349
2.18988,-0.0963781,0
2.20394,0.0107706,0.0128095
2.19447,-0.204347,-0.0128095
2.20127,-0.0968795,0.051272
2.1778,-0.310722,0.0256104
2.19105,0.0107076,0.0637664
2.18621,-0.203578,0.0383255
2.19415,-0.0965662,0.127906
2.18473,-0.20344,0.0893932
2.19948,-0.0968008,-0.102555
2.20215,0.0107618,-0.0897188
2.19728,-0.0967037,-0.0511789
2.20366,0.00269227,-0.0384651
2.19351,-0.104594,0
2.19996,0.00268775,0.0127862
2.18574,-0.211618,-0.012763
2.17664,-0.318702,0.0256104
2.19107,0.00267689,0.0637664
2.1898,-0.104417,0.127673
2.18397,-0.211446,0.0893932
2.20311,-0.105052,-0.102741
2.20217,0.00269045,-0.0897188
2.19691,-0.104756,-0.0511789
2.20766,-0.0042384,-0.0385349
2.19317,-0.111485,0
2.20396,-0.0042313,0.0128095
2.18507,-0.218484,-0.012763
2.20056,-0.111861,0.051272
2.18354,-0.326722,0.0257035
2.19978,-0.111821,-0.154022
2.19107,-0.00420655,0.0637664
2.18079,-0.218056,0.0382557
2.18547,-0.111094,0.127441
2.18329,-0.218306,0.0893932
2.20675,-0.112176,-0.102927
2.19657,-0.111658,-0.0511789
2.20363,-0.0119229,-0.0384651
2.19277,-0.11914,0
2.20393,-0.0119245,0.0128095
2.18429,-0.22611,-0.012763
2.19617,-0.119324,0.0511789
2.17843,-0.333736,0.0256569
2.19938,-0.119499,-0.154022
2.19504,-0.0118764,0.0638828
2.184,-0.226079,0.0383255
2.20744,-0.0119435,-0.141474
2.18507,-0.118722,0.127441
2.17854,-0.225515,0.0892304
2.19837,-0.119444,-0.102555
2.20214,-0.0119148,-0.0897188
2.19617,-0.119324,-0.0511789
2.20757,-0.0200358,-0.0385349
2.20387,-0.0200022,0.0128095
2.18742,-0.234541,-0.0127862
2.19571,-0.127373,0.0511789
2.17325,-0.341098,0.0256104
2.19498,-0.0199215,0.0638828
2.18315,-0.234082,0.0383255
2.18861,-0.126961,0.127673
2.18167,-0.233924,0.0893932
2.2059,-0.127964,-0.102927
2.19571,-0.127373,-0.0511789
2.20349,-0.0276913,-0.0384651
2.17599,-0.349316,-0.0256569
2.19979,-0.0276448,0.0127862
2.19057,-0.242615,-0.0128095
2.17599,-0.349316,0.0256569
2.1909,-0.0275331,0.0637664
2.17835,-0.241261,0.0382557
2.18815,-0.1346,0.127673
2.18085,-0.241538,0.0893932
2.20145,-0.135418,-0.102741
2.19925,-0.135282,-0.051272
2.20339,-0.0349982,-0.0384651
2.18489,-0.249323,-0.0639992
2.1914,-0.142095,0
2.19569,-0.0348759,0.012763
2.18578,-0.249424,-0.0127862
2.19879,-0.142574,0.051272
2.17482,-0.35653,0.0256569
2.20199,-0.142782,-0.154301
2.1908,-0.0347982,0.0637664
2.18371,-0.141597,0.127441
2.184,-0.249222,0.089556
2.20099,-0.142717,-0.102741
2.19076,-0.249993,-0.115558
2.1979,-0.034911,-0.089556
2.19081,-0.142057,-0.0510859
2.18687,-0.149853,0
2.19954,-0.0430014,0.0127862
2.18882,-0.257902,-0.0128095
2.17744,-0.36516,0.0257035
2.19747,-0.150579,-0.154022
2.19065,-0.0428277,0.0637664
2.18058,-0.256931,0.0383255
2.18317,-0.149599,0.127441
2.17514,-0.25629,0.0892304
2.19646,-0.15051,-0.102555
2.19776,-0.0429665,-0.089556
2.19027,-0.150086,-0.0510859
2.19908,-0.0506722,-0.0383953
2.19938,-0.050679,0.0127862
2.18394,-0.265059,-0.0127862
2.18973,-0.15773,0.0510859
2.19693,-0.158249,-0.154022
2.19049,-0.0504742,0.0637664
2.17967,-0.264541,0.0383255
2.18264,-0.157219,0.127441
2.1782,-0.264362,0.0893932
2.19592,-0.158176,-0.102555
2.20159,-0.0507299,-0.0897188
2.18973,-0.15773,-0.0510859
2.2029,-0.0580697,-0.0384651
2.1858,-0.164735,0
2.2032,-0.0580776,0.0128095
2.18702,-0.272795,-0.0128095
2.19717,-0.165592,0.051272
2.19639,-0.165533,-0.154022
2.19031,-0.0577379,0.0637664
2.18672,-0.272758,0.0384651
2.18609,-0.164756,0.127673
2.17731,-0.271584,0.0893932
2.19539,-0.165457,-0.102555
2.19741,-0.0579251,-0.089556
2.19318,-0.165291,-0.0511789
2.20267,-0.0661433,-0.0384651
2.18518,-0.172745,0
2.19897,-0.0660322,0.0127862
2.186,-0.280809,-0.0128095
2.20433,-0.174259,-0.238184
2.19655,-0.173644,0.051272
2.17777,-0.279752,0.0383255
2.18149,-0.172453,0.127441
2.1763,-0.279562,0.0893932
2.19477,-0.173503,-0.102555
2.19655,-0.173644,-0.051272
2.19843,-0.0736977,-0.0383953
2.19254,-0.18103,0
2.19873,-0.0737077,0.0127862
2.18104,-0.287914,-0.0127862
2.19195,-0.180981,0.0511789
2.18984,-0.0734098,0.0637664
2.18087,-0.180067,0.127441
2.18323,-0.288203,0.0897188
2.20211,-0.18182,-0.102927
2.19195,-0.180981,-0.0511789
2.19418,-0.0808403,-0.0383255
2.18794,-0.187957,0
2.19847,-0.0809985,0.0127862
2.19133,-0.188249,0.0511789
2.19851,-0.188866,-0.154301
2.18959,-0.0806712,0.0637664
2.18424,-0.18764,0.127673
2.19751,-0.18878,-0.102741
2.19669,-0.0809327,-0.089556
2.19133,-0.188249,-0.0511789
2.20187,-0.0888213,-0.0384651
2.18727,-0.195594,0
2.20217,-0.0888333,0.0128095
2.19066,-0.195897,0.0511789
2.18929,-0.0883138,0.0637664
2.17477,-0.302162,0.0383255
2.17959,-0.194907,0.127441
2.19684,-0.196449,-0.102741
2.19639,-0.0886001,-0.089556
2.18668,-0.195541,-0.0510859
2.19757,-0.095948,-0.0383953
2.18263,-0.202476,0
2.19787,-0.095961,0.0127862
2.17802,-0.309978,-0.0127862
2.19398,-0.20353,0.051272
2.18499,-0.0953988,0.0636501
2.17772,-0.309936,0.0383953
2.17894,-0.202134,0.127441
2.19618,-0.203733,-0.102741
2.19,-0.20316,-0.0511789
2.19722,-0.103618,-0.0383953
2.19353,-0.103444,0.012763
2.17692,-0.317578,-0.0127862
2.19326,-0.211187,0.051272
2.18465,-0.103025,0.0636501
2.17267,-0.316958,0.0383255
2.18219,-0.210121,0.127673
2.19943,-0.211781,-0.102927
2.19326,-0.211187,-0.051272
2.19283,-0.111468,-0.0383255
2.19713,-0.111686,0.0127862
2.18425,-0.111032,0.0636501
2.18141,-0.218118,0.127673
2.19466,-0.219444,-0.102741
2.19643,-0.119339,-0.0383953
2.18035,-0.225702,0
2.19672,-0.119355,0.0127862
2.19169,-0.226876,0.051272
2.18785,-0.118872,0.0637664
2.17666,-0.22532,0.127441
2.19786,-0.227514,-0.102927
2.18771,-0.226464,-0.0511789
2.20001,-0.126852,-0.0384651
2.19232,-0.126409,0.012763
2.17743,-0.340976,-0.0128095
2.19093,-0.234143,0.051272
2.19143,-0.126357,0.0638828
2.17987,-0.232961,0.127673
2.19453,-0.126536,-0.089556
2.19556,-0.134286,-0.0383953
2.19586,-0.134305,0.0127862
2.18612,-0.24135,0.0511789
2.19329,-0.242141,-0.154301
2.18699,-0.133762,0.0637664
2.17905,-0.240569,0.127673
2.19229,-0.242031,-0.102741
2.18612,-0.24135,-0.0511789
2.19506,-0.142333,-0.0383953
2.18184,-0.248975,0
2.19136,-0.142093,0.012763
2.17888,-0.357196,-0.0128327
2.1892,-0.249814,0.051272
2.18249,-0.141518,0.0636501
2.19886,-0.142579,-0.141218
2.18212,-0.249007,0.127906
2.19317,-0.250268,-0.051365
2.19457,-0.149611,-0.0383953
2.19088,-0.149359,0.012763
2.17768,-0.364419,-0.0128327
2.19233,-0.257539,0.051365
2.18201,-0.148754,0.0636501
2.19055,-0.25733,-0.102741
2.18836,-0.257073,-0.051272
2.1801,-0.26382,0
2.19034,-0.157006,0.012763
2.18348,-0.26423,0.0511789
2.18148,-0.15637,0.0636501
2.18313,-0.271923,0
2.18978,-0.16465,0.012763
2.17857,-0.271355,0.0510859
2.18889,-0.164584,0.0638828
2.19597,-0.165116,-0.0897188
2.19288,-0.172584,-0.0383953
2.19318,-0.172607,0.0127862
2.18158,-0.279466,0.0511789
2.18432,-0.17191,0.0637664
2.19625,-0.180565,-0.0384651
2.18858,-0.179934,0.012763
2.18455,-0.287602,0.051272
2.1837,-0.179533,0.0637664
2.18852,-0.288124,-0.051365
2.18764,-0.187547,-0.0383255
2.19192,-0.187914,0.0127862
2.1875,-0.295761,0.051365
2.17908,-0.186813,0.0636501
2.18968,-0.296056,-0.102927
2.18697,-0.195182,-0.0383255
2.17912,-0.302378,0
2.18727,-0.195209,0.012763
2.17457,-0.301747,0.0510859
2.1824,-0.194774,0.0637664
2.19026,-0.203184,-0.0383953
2.18657,-0.202842,0.012763
2.18142,-0.310462,0.051272
2.18569,-0.20276,0.0638828
2.19406,-0.203537,-0.141218
2.18957,-0.210446,-0.0383953
2.18987,-0.210475,0.0127862
2.18038,-0.317694,0.051272
2.18102,-0.209624,0.0637664
2.19735,-0.211193,-0.141474
2.18883,-0.218088,-0.0383953
2.18514,-0.217721,0.012763
2.17926,-0.325303,0.051272
2.18028,-0.217236,0.0637664
2.19207,-0.225755,-0.0384651
2.18441,-0.224966,0.012763
2.17954,-0.224465,0.0637664
2.18327,-0.232939,-0.0383255
2.18357,-0.232971,0.012763
2.17473,-0.232028,0.0636501
2.19044,-0.241053,-0.0384651
2.18676,-0.240648,0.0127862
2.1819,-0.240113,0.0638828
2.18557,-0.248628,-0.0383953
2.18586,-0.248661,0.0127862
2.19263,-0.257187,-0.0385349
2.18498,-0.25629,0.0127862
2.17615,-0.255254,0.0637664
2.18378,-0.26388,-0.0383953
2.18408,-0.263915,0.0127862
2.17525,-0.262849,0.0637664
2.18681,-0.271995,-0.0384651
2.18314,-0.271538,0.0127862
2.17432,-0.27044,0.0637664
2.1859,-0.279245,-0.0384651
2.17826,-0.278269,0.012763
2.18134,-0.278662,0.0639992
2.1809,-0.286733,-0.0383953
2.18516,-0.287293,0.0128095
2.17634,-0.286134,0.0638828
2.18385,-0.294879,-0.0384651
2.18018,-0.294384,0.0127862
2.17137,-0.293194,0.0637664
2.1828,-0.302501,-0.0384651
2.17517,-0.301443,0.012763
2.18173,-0.310118,-0.0384651
2.17807,-0.309597,0.0127862
2.17323,-0.308909,0.0638828
2.18064,-0.317732,-0.0384651
2.18093,-0.317775,0.0128095
2.17952,-0.325342,-0.0384651
2.17585,-0.324795,0.0127862
2.17848,-0.332187,-0.0384651
2.17482,-0.331629,0.0127862
2.17353,-0.339978,0.0127862
2.17628,-0.348195,0.0128095
2.18272,-0.356651,-0.0386047
2.17512,-0.35541,0.0128095
2.1857,-0.364976,0.0128792
