2.14659,0.30627,-0.126278
2.15683,0.407929,-0.0638828
2.15119,0.298886,-0.0252844
2.15515,0.299436,0.025331
2.15742,0.408039,0.0383255
2.13978,0.297301,-0.125813
2.15222,0.291374,-0.0252844
2.16305,0.401289,-0.0127862
2.14826,0.290838,0.0252379
2.14081,0.28983,-0.125813
2.14519,0.283564,-0.0251913
2.16037,0.393775,-0.012763
2.14916,0.284088,0.0252379
2.14171,0.283103,-0.125813
2.1423,0.274815,-0.0251447
2.15793,0.384774,-0.0127397
2.14627,0.275324,0.0251913
2.16157,0.385424,0.0383255
2.13882,0.274369,-0.12558
2.14721,0.26783,-0.0251913
2.15926,0.377239,-0.0127397
2.14325,0.267335,0.0251447
2.15897,0.377188,0.0382557
2.13976,0.266901,-0.12558
2.14417,0.259852,-0.0251447
2.16056,0.3697,-0.0127397
2.13898,0.259224,-0.201131
2.14814,0.260334,0.0251913
2.16027,0.36965,0.0382557
2.13672,0.25895,-0.125348
2.15764,0.369199,-0.11472
2.15382,0.361585,-0.0126932
2.13188,0.251569,-0.200387
2.14894,0.253583,0.0251913
2.15748,0.362198,0.0381859
2.13752,0.252235,-0.125348
2.14643,0.351877,-0.063301
2.14195,0.244424,-0.0250982
2.15914,0.353961,-0.0127165
2.14074,0.244286,-0.201131
2.13798,0.243971,0.0250516
2.15885,0.353913,0.0381859
2.13451,0.243575,-0.125115
2.16016,0.354128,-0.11472
2.14279,0.236946,-0.0250982
2.15247,0.345155,-0.01267
2.1297,0.235498,-0.200016
2.13484,0.236066,0.025005
2.16007,0.346375,0.0381859
2.13931,0.236561,-0.125348
2.14561,0.344055,-0.113883
2.14482,0.336637,-0.0631846
2.13561,0.228985,-0.025005
2.1536,0.338015,-0.01267
2.13839,0.229283,-0.200759
2.14357,0.229838,0.0250982
2.15331,0.337969,0.0380462
2.13215,0.228613,-0.124883
2.15185,0.33774,0.0887419
2.14279,0.336318,-0.113674
2.1792,0.444155,0
2.14436,0.222355,-0.0250982
2.15477,0.330496,-0.01267
2.13126,0.220996,-0.200016
2.14436,0.222355,0.0250982
2.16238,0.331663,0.0381859
2.13293,0.22117,-0.124883
2.15697,0.330833,0.0889047
2.1479,0.329443,-0.113883
2.15189,0.322754,-0.0126467
2.12802,0.213529,-0.199644
2.1411,0.214842,0.0250516
2.15951,0.323897,0.0381161
2.12968,0.213696,-0.12465
2.15015,0.322492,0.0885791
2.14503,0.321725,-0.113674
2.16438,0.433665,-0.051365
2.13786,0.206982,-0.025005
2.15301,0.315241,-0.0126467
2.12875,0.2061,-0.199644
2.13786,0.206982,0.025005
2.15272,0.315199,0.0379764
2.13041,0.206261,-0.12465
2.1473,0.314406,0.0884162
2.16196,0.425336,-0.051272
2.13462,0.198775,-0.0249585
2.15811,0.307913,-0.01267
2.12552,0.197928,-0.199272
2.1386,0.199146,0.025005
2.1499,0.306742,0.0379066
2.14844,0.306534,0.0884162
2.13937,0.30524,-0.113255
2.15958,0.416652,-0.0511789
2.16146,0.409976,0
2.13922,0.192426,-0.025005
2.13407,0.191962,-0.200016
2.13922,0.192426,0.025005
2.15877,0.301091,0.0380462
2.12779,0.191398,-0.124418
2.15335,0.300335,0.0885791
2.13636,0.297965,-0.113046
2.15695,0.40912,-0.0510859
2.15895,0.401697,0
2.14821,0.291977,-0.0126002
2.12282,0.183483,-0.1989
2.13589,0.184613,0.0249585
2.14792,0.291938,0.0378368
2.12447,0.183626,-0.124185
2.14647,0.29174,0.0882534
2.14926,0.29212,-0.113674
2.15443,0.400857,-0.0509928
2.16434,0.394498,0
2.13655,0.176783,-0.0249585
2.11951,0.175373,-0.198529
2.13655,0.176783,0.0249585
2.15691,0.285111,0.0379764
2.13308,0.176496,-0.12465
2.14356,0.283347,0.0880906
2.13448,0.282146,-0.112836
2.15195,0.39224,-0.0508998
2.13716,0.169324,-0.0249585
2.15025,0.276598,-0.0126002
2.12408,0.168288,-0.1989
2.13716,0.169324,0.0249585
2.14315,0.275685,-0.176398
2.12971,0.168734,-0.124418
2.14454,0.275863,0.0880906
2.13941,0.275204,-0.113046
2.15331,0.384727,-0.0508998
2.15128,0.376619,0
2.12976,0.161259,-0.0248654
2.1512,0.26909,-0.0126002
2.12863,0.161173,-0.199272
2.12577,0.160957,0.0248188
2.1441,0.268202,-0.176398
2.15488,0.26955,0.0379066
2.1263,0.160997,-0.124185
2.14549,0.268375,0.0880906
2.14036,0.267734,-0.113046
2.1441,0.268202,0.176398
2.1507,0.376518,-0.0508067
2.13145,0.258689,-0.0624865
2.15265,0.368733,0
2.13433,0.153739,-0.0249119
2.14026,0.259758,-0.0125305
2.12523,0.153084,-0.1989
2.15601,0.369308,0.0508998
2.12236,0.152877,0.0247722
2.14111,0.259862,-0.176073
2.15188,0.261168,0.0378368
2.13086,0.15349,-0.124418
2.14249,0.260029,0.0879277
2.15819,0.369682,-0.101996
2.12943,0.258444,-0.112418
2.15207,0.368633,-0.0508067
2.14991,0.360929,0
2.13083,0.146386,-0.0248654
2.14508,0.253127,-0.0125537
2.12175,0.145762,-0.198529
2.15722,0.362156,0.0508998
2.12684,0.146112,0.0248188
2.14196,0.25276,-0.176073
2.14876,0.253562,0.037767
2.12339,0.145875,-0.123952
2.14334,0.252922,0.0879277
2.15153,0.3612,-0.101624
2.13821,0.252317,-0.112836
2.14196,0.25276,0.176073
2.14933,0.360832,-0.0507136
2.12919,0.24372,-0.0623701
2.14721,0.352774,0
2.13133,0.138948,-0.0248654
2.14595,0.245639,-0.0125537
2.11827,0.138097,-0.198157
2.15452,0.353976,0.0508067
2.12335,0.138427,0.0247722
2.14963,0.24606,0.037767
2.12389,0.138462,-0.123952
2.14024,0.244985,0.0877649
2.14883,0.35304,-0.101438
2.13511,0.244398,-0.112627
2.14283,0.245282,0.176073
2.15452,0.353976,-0.0508067
2.14837,0.345652,0
2.12779,0.131633,-0.0248188
2.14675,0.238521,-0.0125537
2.11077,0.13058,-0.197413
2.15964,0.347465,0.0508998
2.1198,0.131139,0.0247257
2.14646,0.238489,0.0376972
2.14501,0.238328,0.0879277
2.15393,0.346547,-0.101624
2.12797,0.236434,-0.112208
2.13967,0.237735,0.175747
2.15174,0.346194,-0.0507136
2.14567,0.337155,0
2.14761,0.230651,-0.0125537
2.11521,0.123074,-0.197785
2.16089,0.339546,0.0508998
2.12826,0.123833,0.0248188
2.13657,0.229464,-0.175422
2.14335,0.230193,0.0376274
2.14587,0.230464,0.0879277
2.15519,0.33865,-0.101624
2.13676,0.229486,-0.112627
2.13657,0.229464,0.175422
2.15694,0.338925,-0.0508067
2.12765,0.220997,-0.0622537
2.15079,0.33027,0
2.14045,0.222327,-0.0125072
2.1196,0.115907,-0.198157
2.16207,0.332002,0.0508998
2.12468,0.116185,0.0247722
2.14414,0.22271,0.0376274
2.14269,0.222559,0.0877649
2.14846,0.329912,-0.101252
2.13755,0.222026,-0.112627
2.14132,0.222417,0.175747
2.15021,0.330181,-0.0506206
2.14797,0.322167,0
2.12108,0.108563,-0.0247257
2.14519,0.215253,-0.0125305
2.10806,0.107896,-0.197041
2.15135,0.322673,0.0506206
2.13415,0.214145,-0.175096
2.13694,0.214425,0.0374878
2.13947,0.214679,0.0876021
2.1496,0.32241,-0.101252
2.13831,0.214563,-0.112627
2.13812,0.214543,0.175422
2.15135,0.322673,-0.0506206
2.15299,0.315623,0
2.10841,0.100906,-0.197041
2.14845,0.314957,0.0505275
2.11743,0.101337,0.0246791
2.1456,0.20811,0.0376274
2.12197,0.101555,-0.12372
2.13222,0.206812,0.0872764
2.1388,0.313542,-0.100693
2.13106,0.2067,-0.112208
2.13881,0.207452,0.175422
2.15241,0.315537,-0.0506206
2.15576,0.416696,-0.0383255
2.12185,0.198333,-0.062021
2.1422,0.306407,0
2.12577,0.0943006,-0.0247722
2.15998,0.417512,0.0127862
2.14262,0.200275,-0.0125072
2.11671,0.0938988,-0.197785
2.15349,0.308022,0.0506206
2.12177,0.0941234,0.0247257
2.14488,0.30679,-0.151511
2.11832,0.0939705,-0.123487
2.14648,0.307019,0.126278
2.1369,0.19974,0.0874392
2.14383,0.306641,-0.100879
2.13177,0.19926,-0.112208
2.13556,0.199614,0.175096
2.14954,0.307456,-0.0505275
2.16113,0.409913,-0.0383953
2.14722,0.299479,0
2.13014,0.191609,-0.272234
2.1575,0.409224,0.012763
2.11304,0.0863464,-0.197413
2.15456,0.300503,0.0506206
2.12208,0.0867159,0.0247257
2.14199,0.29875,-0.151232
2.13107,0.191693,0.0373482
2.14754,0.299524,0.126278
2.13361,0.191921,0.0872764
2.14885,0.299707,-0.101066
2.13245,0.191817,-0.112208
2.13624,0.192158,0.175096
2.14664,0.299398,-0.0504345
2.12318,0.183514,-0.062021
2.14428,0.291443,0
2.15498,0.400958,0.0127397
2.13999,0.184966,-0.012484
2.11333,0.0789694,-0.197413
2.15559,0.29298,0.0506206
2.13906,0.290733,-0.150953
2.12498,0.183669,-0.17412
2.13571,0.184597,0.037418
2.14461,0.291488,0.126045
2.13427,0.184472,0.0872764
2.14196,0.291127,-0.100693
2.12913,0.184028,-0.111999
2.1369,0.184699,0.175096
2.15323,0.400632,-0.0892304
2.15163,0.292441,-0.0505275
2.12378,0.176472,-0.062021
2.14524,0.284331,0
2.1096,0.0718258,-0.197041
2.15259,0.285305,0.0505275
2.11463,0.0719971,0.0246325
2.14001,0.283638,-0.150953
2.12558,0.176622,-0.17412
2.14557,0.284375,0.126045
2.13088,0.177063,0.0871136
2.13895,0.283498,-0.100507
2.13371,0.177298,-0.112208
2.13353,0.177282,0.174771
2.14862,0.284779,-0.0504345
2.12043,0.168371,-0.0619047
2.13833,0.275445,0
2.12808,0.168979,-0.271729
2.15379,0.3852,0.0127165
2.10587,0.0639727,-0.19667
2.14965,0.276903,0.0504345
2.12288,0.0644894,0.0247257
2.13708,0.275284,-0.150674
2.13019,0.169146,-0.174445
2.13695,0.169683,0.037418
2.11544,0.0642634,-0.123255
2.14264,0.275999,0.125813
2.13949,0.169885,0.0874392
2.13998,0.275657,-0.100507
2.13036,0.16916,-0.111999
2.13416,0.169462,0.174771
2.14965,0.276903,-0.0504345
2.15089,0.376939,-0.0381161
2.121,0.160969,-0.0619047
2.13928,0.267979,0
2.15906,0.378371,0.0127397
2.13383,0.161943,-0.0124375
2.10608,0.056622,-0.19667
2.11109,0.0567568,0.024586
2.13803,0.267823,-0.150674
2.12679,0.161408,-0.17412
2.11565,0.0568793,-0.123255
2.14755,0.269015,0.126045
2.12811,0.161509,0.0869508
2.14093,0.268186,-0.100507
2.12696,0.161421,-0.11179
2.13076,0.16171,0.174445
2.14943,0.376684,-0.0889047
2.15061,0.269398,-0.0504345
2.15613,0.370104,-0.0381859
2.11756,0.153275,-0.0617883
2.1402,0.26051,0
2.12525,0.153831,-0.271224
2.15248,0.369478,0.0126932
2.10626,0.0492695,-0.19667
2.15153,0.261889,0.0504345
2.11528,0.0494803,0.0246325
2.13499,0.259875,-0.150395
2.12336,0.153695,-0.173795
2.11184,0.0494,-0.123022
2.14451,0.261034,0.125813
2.12467,0.15379,0.0867879
2.13392,0.259745,-0.100135
2.12751,0.153995,-0.11179
2.12336,0.153695,0.173795
2.14359,0.260922,-0.0502484
2.11808,0.145882,-0.0617883
2.1411,0.253037,0
2.12181,0.146139,-0.270719
2.15376,0.361961,0.0126932
2.11041,0.0419956,-0.197041
2.14846,0.253907,0.0503414
2.11144,0.0420162,0.024586
2.13985,0.252889,-0.150674
2.11991,0.146008,-0.173469
2.15288,0.361814,0.0635337
2.13462,0.147021,0.0373482
2.112,0.0420274,-0.123022
2.14144,0.253077,0.12558
2.12919,0.146647,0.0869508
2.12803,0.146567,-0.11179
2.12786,0.146556,0.17412
2.14846,0.253907,-0.0503414
2.14683,0.353096,-0.0379764
2.11858,0.138488,-0.0617883
2.14197,0.245562,0
2.15106,0.353793,0.01267
2.10257,0.0344984,-0.196298
2.14934,0.246406,0.0503414
2.13675,0.244964,-0.150395
2.12438,0.138867,-0.173795
2.15019,0.353649,0.0634174
2.14231,0.245601,0.12558
2.12968,0.139214,0.0869508
2.13171,0.244386,-0.0999489
2.12853,0.139138,-0.11179
2.12836,0.139127,0.17412
2.14537,0.352857,-0.0885791
2.14139,0.245495,-0.0501553
2.14804,0.345599,-0.0379764
2.11506,0.130844,-0.0616719
2.13486,0.237199,0
2.15623,0.346916,0.0126932
2.12654,0.236274,-0.230473
2.0987,0.0271069,-0.195926
2.15018,0.238902,0.0503414
2.13759,0.237503,-0.150395
2.12486,0.131451,-0.173795
2.15536,0.346776,0.0635337
2.1316,0.131868,0.0372783
2.14397,0.344944,-0.139172
2.14316,0.238121,0.12558
2.13016,0.131778,0.0869508
2.12858,0.236501,-0.0997627
2.12884,0.131697,0.17412
2.15054,0.346,-0.0887419
2.14621,0.23846,-0.0502484
2.14523,0.337852,-0.0379066
2.11149,0.123597,-0.0615556
2.13564,0.230119,0
2.15342,0.339143,0.01267
2.09878,0.0201476,-0.195926
2.14301,0.230914,0.0501553
2.11176,0.0202722,0.024586
2.1344,0.229986,-0.150116
2.11732,0.123938,-0.173144
2.15255,0.339005,0.0634174
2.13203,0.124799,0.0372783
2.10833,0.0202393,-0.12279
2.13997,0.230586,0.125348
2.12659,0.124481,0.0867879
2.13332,0.22987,-0.0999489
2.12544,0.124413,-0.11158
2.1213,0.124171,0.173469
2.14301,0.230914,-0.0501553
2.14639,0.330362,-0.0379066
2.1159,0.116446,-0.0616719
2.13245,0.222249,0
2.15064,0.331016,0.0126467
2.13601,0.22262,-0.23133
2.09884,0.0128218,-0.195926
2.14778,0.223847,0.0502484
2.10782,0.0128767,0.0245394
2.13519,0.222535,-0.150116
2.11774,0.116547,-0.173144
2.14976,0.330881,0.063301
2.14233,0.329736,-0.138916
2.14473,0.223529,0.12558
2.12302,0.116838,0.0866251
2.13411,0.222422,-0.0999489
2.11788,0.116555,-0.111162
2.11774,0.116547,0.173144
2.14381,0.223432,-0.0501553
2.14358,0.322273,-0.0378368
2.1123,0.108853,-0.0615556
2.12923,0.214402,0
2.15178,0.323506,0.0126467
2.12094,0.213568,-0.229616
2.09489,0.00548444,-0.195554
2.14457,0.215947,0.0501553
2.10785,0.00551839,0.0245394
2.11813,0.109153,-0.173144
2.14695,0.32278,0.0631846
2.12885,0.109706,0.0372085
2.13952,0.321662,-0.13866
2.10842,0.00551988,-0.12279
2.13755,0.21524,0.125115
2.1314,0.109837,0.0869508
2.1309,0.214571,-0.0997627
2.11828,0.109161,-0.111162
2.12212,0.109358,0.173469
2.14073,0.314207,-0.037767
2.10868,0.101286,-0.0614392
2.12997,0.206968,0
2.15685,0.316573,0.01267
2.12168,0.206162,-0.229616
2.09489,-0.00182867,-0.195554
2.14531,0.208459,0.0501553
2.10786,-0.00183999,0.0245394
2.13272,0.207236,-0.149837
2.1185,0.101758,-0.173144
2.14807,0.315283,0.0631846
2.13668,0.313611,-0.138404
2.13829,0.207777,0.125115
2.12379,0.102012,0.0866251
2.12766,0.206744,-0.0995766
2.12264,0.101957,-0.111371
2.1185,0.101758,0.173144
2.14324,0.314575,-0.0882534
2.14133,0.208072,-0.0500623
2.14182,0.306734,-0.037767
2.11301,0.0941045,-0.0615556
2.13068,0.199533,0
2.14607,0.307343,0.0126002
2.12586,0.0946766,-0.0123678
2.11446,0.198015,-0.228759
2.09089,-0.00912236,-0.195183
2.10784,-0.0091963,0.0245394
2.12946,0.199419,-0.149558
2.11884,0.0943643,-0.173144
2.1452,0.307218,0.0630683
2.12557,0.0946638,0.0371387
2.13776,0.306153,-0.138404
2.10441,-0.00918137,-0.122557
2.139,0.200313,0.125115
2.12413,0.0945997,0.0866251
2.12439,0.198945,-0.0993905
2.115,0.094193,-0.110952
2.12681,0.0947191,0.173795
2.14037,0.306526,-0.0880906
2.14288,0.299255,-0.037767
2.11333,0.0867276,-0.0615556
2.12339,0.191376,0
2.15505,0.300955,0.0126467
2.1191,0.190989,-0.229188
2.09085,-0.0164214,-0.195183
2.14273,0.193119,0.0500623
2.10379,-0.0165231,0.0244928
2.13014,0.191984,-0.149558
2.11916,0.086967,-0.173144
2.14626,0.299727,0.0630683
2.13486,0.298136,-0.138148
2.10437,-0.0165277,-0.122557
2.13173,0.192128,0.12465
2.12045,0.0870201,0.0864623
2.12905,0.191886,-0.0995766
2.11531,0.0868092,-0.110952
2.11916,0.086967,0.173144
2.14386,0.292147,-0.037767
2.1176,0.0798692,-0.0616719
2.12402,0.184333,0
2.11343,0.0797121,-0.269204
2.14811,0.292727,0.0126002
2.11972,0.183961,-0.229188
2.09078,-0.0233554,-0.195183
2.10373,-0.0235,0.0244928
2.12679,0.184574,-0.149279
2.11147,0.079638,-0.172493
2.12217,0.0800415,0.0370689
2.14032,0.185748,0.125115
2.12473,0.080138,0.0866251
2.12968,0.184824,-0.0995766
2.11958,0.079944,-0.111162
2.13983,0.185705,0.263725
2.11545,0.0797883,0.172818
2.14241,0.291949,-0.0880906
2.13698,0.283237,-0.0376274
2.11788,0.0721077,-0.0616719
2.12069,0.176216,0
2.10975,0.0718309,-0.268699
2.1452,0.284326,0.012577
2.11874,0.072137,-0.0123213
2.11246,0.175532,-0.228331
2.09864,-0.0311361,-0.195926
2.09963,-0.0311506,0.0244463
2.12746,0.176778,-0.149279
2.11573,0.0720347,-0.172818
2.14037,0.283685,0.0628356
2.12245,0.0722633,0.0370689
2.13689,0.283224,-0.138148
2.137,0.177571,0.124883
2.12101,0.0722144,0.0864623
2.12636,0.176687,-0.0993905
2.11587,0.0720394,-0.110952
2.11972,0.0721704,0.173144
2.13554,0.283045,-0.0877649
2.13606,0.177493,-0.0498762
2.13796,0.275775,-0.0376274
2.11412,0.0645918,-0.0615556
2.12528,0.169129,0
2.14618,0.276836,0.012577
2.12099,0.168787,-0.229188
2.09056,-0.0383161,-0.195183
2.14065,0.170352,0.0499692
2.11199,0.0645267,-0.172493
2.14531,0.276723,0.0629519
2.13391,0.275252,-0.137892
2.13363,0.169793,0.12465
2.11725,0.0646877,0.0862994
2.12696,0.169263,-0.0993905
2.11211,0.0645306,-0.110743
2.13714,0.170073,0.263238
2.13255,0.275077,-0.0876021
2.13667,0.170035,-0.0498762
2.13489,0.268187,-0.0375576
2.10633,0.0573645,-0.0613228
2.12184,0.161778,0
2.14709,0.269719,0.012577
2.11757,0.161452,-0.228759
2.08246,-0.0450746,-0.194439
2.13722,0.16295,0.0498762
2.10336,-0.0455272,0.0244928
2.12861,0.162294,-0.149279
2.15018,0.270108,0.0630683
2.13877,0.268674,-0.138148
2.09995,-0.0454533,-0.122325
2.13816,0.163022,0.124883
2.11346,0.0575589,0.0861366
2.11954,0.161603,-0.0990182
2.10832,0.0574189,-0.110534
2.1377,0.162987,0.263238
2.11617,0.0576327,0.172818
2.13345,0.268005,-0.0876021
2.12418,0.0578508,0.387437
2.13323,0.162646,-0.0497831
2.13974,0.261591,-0.0376274
2.1105,0.0504744,-0.0614392
2.12237,0.15474,0
2.14797,0.262597,0.012577
2.11809,0.154429,-0.228759
2.08628,-0.05208,-0.194811
2.13775,0.155861,0.0498762
2.09121,-0.0522031,0.0243531
2.12914,0.155234,-0.149279
2.10838,0.0504237,-0.172167
2.14313,0.262005,0.0628356
2.13172,0.26061,-0.137637
2.13869,0.15593,0.124883
2.12163,0.0507406,0.0864623
2.12405,0.154863,-0.0992044
2.1085,0.0504266,-0.110534
2.13822,0.155896,0.263238
2.11237,0.050519,0.172493
2.13036,0.260443,-0.0874392
2.12043,0.0507118,0.386719
2.13376,0.155571,-0.0497831
2.13667,0.253648,-0.0375576
2.10267,0.0429432,-0.0612065
2.09016,0.0426877,-0.418122
2.11491,0.146776,0
2.14093,0.254154,0.0125305
2.11465,0.146758,-0.228331
2.08608,-0.0593627,-0.194811
2.09901,-0.0597306,0.0244463
2.1217,0.147248,-0.148721
2.10057,0.0429004,-0.171516
2.14006,0.25405,0.0627192
2.13262,0.253167,-0.137637
2.13125,0.14791,0.124418
2.1178,0.0432522,0.0862994
2.12059,0.147171,-0.0990182
2.10867,0.0430656,-0.110534
2.13479,0.148156,0.26275
2.10854,0.0430632,0.172167
2.12453,0.0433896,0.387437
2.13361,0.245358,-0.0374878
2.10681,0.0353037,-0.0613228
2.0903,0.0350271,-0.418122
2.11544,0.139024,0
2.09878,-0.0674229,-0.0244463
2.1067,0.0353019,-0.268194
2.13787,0.245849,0.0125072
2.11121,0.138746,-0.227903
2.08983,-0.0671356,-0.195183
2.09478,-0.0672945,0.0243997
2.12223,0.139471,-0.148721
2.1047,0.0352683,-0.171842
2.14098,0.246205,0.0627192
2.12957,0.244893,-0.137381
2.09138,-0.0671852,-0.121859
2.13178,0.140098,0.124418
2.12909,0.139922,-0.0993905
2.1128,0.0354041,-0.110743
2.13928,0.140592,0.263238
2.1047,0.0352683,0.171842
2.1282,0.244736,-0.0872764
2.1168,0.0354711,0.386002
2.13441,0.238282,-0.0374878
2.10292,0.0282638,-0.0612065
2.11988,0.132258,0
2.11046,0.13167,-0.328977
2.13868,0.238758,0.0125072
2.11562,0.131993,-0.228331
2.08164,-0.0737828,-0.194439
2.09055,-0.0740986,0.0243531
2.12268,0.132433,-0.148721
2.10879,0.0283427,-0.172167
2.13383,0.238218,0.0624865
2.11549,0.0284327,0.0369293
2.1264,0.237388,-0.137125
2.09513,-0.0742611,-0.122092
2.12825,0.13278,0.124185
2.11006,0.0283597,0.0859738
2.11758,0.132115,-0.0988321
2.10892,0.0283443,-0.110534
2.13578,0.13325,0.26275
2.10879,0.0283427,0.172167
2.129,0.237677,-0.0872764
2.11691,0.0284518,0.386002
2.13523,0.23083,-0.0374878
2.10301,0.0209225,-0.0612065
2.09442,0.020837,-0.418907
2.11633,0.124622,0
2.09827,-0.0817073,-0.0244463
2.11091,0.124302,-0.328977
2.10293,0.0209217,-0.267689
2.1395,0.231291,0.0125072
2.11607,0.124606,-0.228331
2.08137,-0.0810492,-0.194439
2.09027,-0.081396,0.0243531
2.11915,0.124787,-0.148442
2.10489,0.0209412,-0.171842
2.1426,0.231627,0.0627192
2.12722,0.229963,-0.137125
2.09087,-0.0814192,-0.121859
2.1287,0.12535,0.124185
2.10215,0.020914,0.0856481
2.11404,0.124487,-0.098646
2.10501,0.0209424,-0.110324
2.1283,0.125326,0.261775
2.10888,0.0209809,0.172167
2.13379,0.230673,-0.0874392
2.12093,0.0211008,0.386719
2.13606,0.223003,-0.0374878
2.10707,0.01324,-0.0613228
2.08663,0.0131116,-0.417338
2.11678,0.116865,0
2.10345,0.116129,-0.327747
2.14431,0.223863,0.0125305
2.11254,0.116631,-0.227903
2.08106,-0.0886768,-0.194439
2.08597,-0.088886,0.0243066
2.11959,0.11702,-0.148442
2.10097,0.0132017,-0.171516
2.13548,0.222942,0.0624865
2.13599,0.222994,-0.137637
2.09056,-0.0890817,-0.121859
2.12914,0.117547,0.124185
2.11021,0.0132598,0.0859738
2.12246,0.117179,-0.0990182
2.10108,0.0132024,-0.110115
2.12875,0.117525,0.261775
2.10496,0.0132268,0.171842
2.12667,0.222022,-0.0871136
2.12099,0.0133275,0.386719
2.13683,0.215544,-0.0374878
2.1071,0.00588433,-0.0613228
2.08667,0.00582727,-0.417338
2.11717,0.109474,0
2.11174,0.109194,-0.328977
2.1411,0.215975,0.0125072
2.11294,0.109255,-0.227903
2.08073,-0.095941,-0.194439
2.08964,-0.0963516,0.0243531
2.11998,0.10962,-0.148442
2.101,0.00586731,-0.171516
2.14023,0.215887,0.0626028
2.12881,0.214735,-0.137125
2.12954,0.110114,0.124185
2.10225,0.00587079,0.0856481
2.11488,0.109356,-0.098646
2.1051,0.00587876,-0.110324
2.12914,0.110093,0.261775
2.10499,0.00587844,0.171842
2.12345,0.214195,-0.0869508
2.12103,0.00592322,0.386719
2.12953,0.208053,-0.0373482
2.10311,-0.000733539,-0.0612065
2.0906,-0.000729175,-0.418122
2.11751,0.102823,0
2.09332,-0.103112,-0.0243997
2.10418,0.102176,-0.327747
2.09906,-0.000732128,-0.267184
2.1338,0.20847,0.0124607
2.10796,-0.000735232,-0.0122515
2.10135,0.102039,-0.226617
2.08042,-0.102477,-0.194439
2.08932,-0.102916,0.0243531
2.12032,0.10296,-0.148442
2.10101,-0.000732807,-0.171516
2.13692,0.208774,0.0624865
2.10768,-0.000735133,0.0367897
2.12153,0.20727,-0.136613
2.08992,-0.102945,-0.121859
2.12589,0.10323,0.123952
2.11025,-0.000736029,0.0859738
2.1192,0.102905,-0.0988321
2.10511,-0.000734237,-0.110324
2.12948,0.103404,0.261775
2.105,-0.000734197,0.171842
2.12809,0.207912,-0.0871136
2.12492,0.103183,-0.049504
2.13032,0.199874,-0.0373482
2.09909,-0.00879264,-0.0610901
2.08666,-0.00874055,-0.417338
2.11788,0.0946911,0
2.10456,0.0940951,-0.327747
2.13857,0.200648,0.012484
2.1057,0.0941465,-0.227046
2.08001,-0.110465,-0.194439
2.08891,-0.110938,0.0243531
2.11671,0.0946386,-0.148163
2.09701,-0.00878389,-0.171191
2.13372,0.200193,0.0623701
2.12628,0.199495,-0.136869
2.08552,-0.110758,-0.121627
2.11829,0.0947093,0.123487
2.10224,-0.00880581,0.0856481
2.11559,0.0945885,-0.098646
2.1011,-0.00880104,-0.110115
2.13383,0.0954039,0.262263
2.1249,0.199365,-0.0869508
2.13094,0.193181,-0.0373482
2.09106,-0.0153281,-0.0608574
2.08662,-0.0152955,-0.417338
2.11018,0.0877053,0
2.10879,0.0876476,-0.328362
2.09901,-0.0153863,-0.267184
2.13521,0.193568,0.0124607
2.10599,0.0875311,-0.227046
2.0717,-0.116551,-0.193695
2.08856,-0.117499,0.0243531
2.117,0.0879887,-0.148163
2.10095,-0.0154006,-0.171516
2.1423,0.194211,0.0626028
2.1269,0.192815,-0.136869
2.08516,-0.117308,-0.121627
2.12257,0.0882202,0.12372
2.0982,-0.0153804,0.0854853
2.11588,0.0879421,-0.098646
2.10106,-0.0154014,-0.110115
2.12618,0.0883705,0.261288
2.11291,-0.0154883,0.172493
2.13347,0.193411,-0.0872764
2.12159,0.0881797,-0.0494109
2.12761,0.185394,-0.0372783
2.10299,-0.0227575,-0.0612065
2.08263,-0.0225372,-0.416553
2.10647,0.0801861,0
2.09723,0.0798344,-0.326517
2.13587,0.186113,0.0124607
2.09833,0.0798762,-0.226189
2.07128,-0.123783,-0.193695
2.08414,-0.124551,0.0243066
2.11331,0.0804461,-0.147884
2.0969,-0.0226916,-0.171191
2.135,0.186037,0.0623701
2.12756,0.185389,-0.136869
2.08474,-0.124587,-0.121627
2.12286,0.08081,0.12372
2.10613,-0.0227915,0.085811
2.10819,0.0802513,-0.0982737
2.10099,-0.0227359,-0.110115
2.11854,0.0806456,0.260313
2.10089,-0.0227348,0.171516
2.12617,0.185268,-0.0869508
2.12189,0.0807729,-0.0494109
2.12426,0.177633,-0.0372085
2.0989,-0.0300405,-0.0610901
2.11474,0.0731095,0
2.09355,0.072377,-0.325902
2.13252,0.178324,0.0124375
2.1145,0.0731013,-0.227903
2.07084,-0.131012,-0.193695
2.0797,-0.131572,0.02426
2.11756,0.0732072,-0.148163
2.09681,-0.0300106,-0.171191
2.13564,0.178584,0.0623701
2.10746,-0.0301631,0.0367897
2.12421,0.177629,-0.136613
2.12712,0.0735377,0.123952
2.10204,-0.0300855,0.0856481
2.11644,0.0731684,-0.098646
2.12278,0.0733876,0.2608
2.10478,-0.0301247,0.171842
2.12282,0.177513,-0.0867879
2.12891,0.169793,-0.0372783
2.09877,-0.0380989,-0.0610901
2.111,0.0648666,0
2.09776,0.0644598,-0.326517
2.09078,-0.037954,-0.266173
2.12522,0.169498,0.012391
2.10284,0.0646157,-0.226617
2.07032,-0.138962,-0.193695
2.07918,-0.139556,0.02426
2.09269,-0.0379887,-0.170865
2.13232,0.170065,0.0622537
2.10733,-0.0382544,0.0367897
2.1209,0.169154,-0.136357
2.08377,-0.139864,-0.121627
2.11941,0.0651248,0.123487
2.10191,-0.038156,0.0856481
2.1167,0.0650418,-0.098646
2.09278,-0.0379903,-0.109696
2.12305,0.0652367,0.2608
2.09269,-0.0379887,0.170865
2.11951,0.169043,-0.0866251
2.12944,0.163105,-0.0372783
2.09464,-0.0446067,-0.0609738
2.1072,0.0581245,0
2.09005,0.0576516,-0.325287
2.09065,-0.0445218,-0.266173
2.13371,0.163432,0.0124375
2.10303,0.0580095,-0.226617
2.06987,-0.145465,-0.193695
2.08272,-0.146367,0.0243066
2.11403,0.058313,-0.147884
2.09655,-0.0446474,-0.171191
2.12886,0.163061,0.0621374
2.1254,0.162796,-0.136613
2.08332,-0.14641,-0.121627
2.1196,0.0584666,0.123487
2.09778,-0.0446737,0.0854853
2.10891,0.0581717,-0.0982737
2.10064,-0.0447345,-0.110115
2.12721,0.0586765,0.261288
2.10452,-0.0448171,0.171842
2.12003,0.162384,-0.0866251
2.12601,0.155378,-0.0372085
2.09047,-0.0518202,-0.0608574
2.08619,-0.153932,-0.0243531
2.09814,0.0505447,-0.326517
2.13028,0.155691,0.0124142
2.10332,-0.0521386,-0.0122283
2.10322,0.050667,-0.226617
2.06538,-0.152397,-0.193324
2.07821,-0.153343,0.02426
2.11422,0.050932,-0.147884
2.09239,-0.0518678,-0.170865
2.13739,0.15621,0.0623701
2.10303,-0.0521316,0.0367199
2.12198,0.155083,-0.136357
2.07882,-0.153388,-0.121394
2.11979,0.0510662,0.123487
2.09762,-0.0519973,0.0854853
2.10511,0.0507124,-0.0980876
2.09248,-0.0518701,-0.109696
2.11946,0.0510583,0.260313
2.10037,-0.0520654,0.171516
2.12457,0.155273,-0.0867879
2.12254,0.147678,-0.0371387
2.08628,-0.059004,-0.060741
2.09955,0.0432462,0
2.09436,0.0431391,-0.325902
2.13081,0.148254,0.0124142
2.09543,0.0431613,-0.225761
2.06484,-0.159606,-0.193324
2.07367,-0.160289,0.0242135
2.10242,0.0433052,-0.147047
2.0922,-0.0591714,-0.170865
2.12995,0.148193,0.0621374
2.1225,0.147675,-0.136357
2.11996,0.0436665,0.123487
2.09742,-0.059319,0.0854853
2.10527,0.0433639,-0.0980876
2.08431,-0.058948,-0.109277
2.11169,0.0434962,0.259338
2.09619,-0.0592841,0.171191
2.12111,0.147578,-0.0866251
2.12706,0.140161,-0.0372085
2.09005,-0.0667779,-0.0608574
2.1037,0.0356184,0
2.09055,0.0353957,-0.325287
2.13134,0.140443,0.0124142
2.09558,0.0354808,-0.225761
2.06821,-0.167494,-0.193695
2.07706,-0.168211,0.02426
2.10655,0.0356667,-0.147326
2.08799,-0.0667119,-0.17054
2.1225,0.13986,0.0619047
2.10261,-0.0671791,0.0367199
2.12701,0.140158,-0.136613
2.1201,0.0358961,0.123487
2.09719,-0.067006,0.0854853
2.10541,0.0356474,-0.0980876
2.09605,-0.0669697,-0.109906
2.11581,0.0358234,0.259825
2.09595,-0.0669666,0.171191
2.12163,0.139803,-0.0866251
2.11512,0.0358118,-0.0492248
2.12355,0.132486,-0.0371387
2.0938,-0.0742147,-0.0609738
2.10781,0.0283286,0
2.09066,0.0280981,-0.325287
2.08585,-0.073933,-0.265668
2.12383,0.132504,0.0123678
2.09569,0.0281657,-0.225761
2.06761,-0.174712,-0.193695
2.08044,-0.175797,0.0243066
2.10667,0.0283133,-0.147326
2.08774,-0.074,-0.17054
2.12696,0.132699,0.062021
2.09437,-0.0742348,0.0365802
2.11952,0.132235,-0.136102
2.11223,0.028388,0.123022
2.10094,-0.0744677,0.0856481
2.10952,0.0283516,-0.0982737
2.09181,-0.0741444,-0.109696
2.11592,0.0284376,0.259825
2.09172,-0.0741412,0.170865
2.11812,0.132147,-0.0864623
2.10724,0.028321,-0.0490387
2.12397,0.125443,-0.0371387
2.09354,-0.0811576,-0.0609738
2.09989,0.0212578,0
2.07985,-0.182695,-0.0243066
2.08679,0.0211251,-0.324672
2.08956,-0.0810032,-0.266173
2.12426,0.12546,0.0123678
2.09839,-0.0813455,-0.012205
2.09179,0.0211757,-0.225332
2.06305,-0.181219,-0.193324
2.07587,-0.182345,0.02426
2.10675,0.0213271,-0.147326
2.08748,-0.0809228,-0.17054
2.0981,-0.0813345,0.0366501
2.11596,0.12497,-0.135846
2.07647,-0.182398,-0.121394
2.11631,0.0214239,0.123255
2.09269,-0.0811247,0.0853225
2.10561,0.0213156,-0.0980876
2.09156,-0.0810807,-0.109696
2.116,0.0214208,0.259825
2.09545,-0.0812316,0.171191
2.11456,0.124887,-0.0862994
2.10732,0.021333,-0.0490387
2.12041,0.117807,-0.0370689
2.08526,-0.0881273,-0.060741
2.09995,0.0139276,0
2.0792,-0.189954,-0.0243066
2.0908,0.0138669,-0.325287
2.12069,0.117823,0.0123445
2.09583,0.0139003,-0.225761
2.06241,-0.18842,-0.193324
2.06725,-0.188862,0.0241669
2.10681,0.0139731,-0.147326
2.08719,-0.0882089,-0.17054
2.12782,0.118218,0.062021
2.08982,-0.08832,0.0365104
2.11639,0.117583,-0.135846
2.07582,-0.189645,-0.121394
2.10838,0.0139835,0.12279
2.0884,-0.0882602,0.0851596
2.09768,0.0139125,-0.0977154
2.08727,-0.0882124,-0.109487
2.11606,0.0140345,0.259825
2.09117,-0.0883773,0.170865
2.11897,0.117727,-0.0864623
2.12482,0.110241,-0.0371387
2.08092,-0.095586,-0.0606247
2.09599,0.00621895,0
2.08293,0.0061802,-0.324057
2.1291,0.110464,0.012391
2.09189,0.00620678,-0.225332
2.05774,-0.195601,-0.192952
2.07053,-0.196816,0.0242135
2.10685,0.00625115,-0.147326
2.08287,-0.0956753,-0.170214
2.12025,0.110004,0.0617883
2.09747,-0.096346,0.0366501
2.12079,0.110032,-0.136102
2.07114,-0.196874,-0.121162
2.10842,0.00625582,0.12279
2.09206,-0.0960974,0.0853225
2.09772,0.00622407,-0.0977154
2.08693,-0.095862,-0.109487
2.11213,0.00626683,0.259338
2.09482,-0.0962241,0.171191
2.11141,0.109546,-0.0861366
2.10342,0.00624099,-0.0489456
2.12116,0.103371,-0.0370689
2.08061,-0.102123,-0.0606247
2.096,-0.000365819,0
2.07388,-0.203711,-0.02426
2.0869,-0.000364229,-0.324672
2.08465,-0.102321,-0.265668
2.12145,0.103385,0.0123445
2.09588,-0.000365797,-0.225761
2.05711,-0.202064,-0.192952
2.07388,-0.203711,0.02426
2.10287,-0.000367017,-0.147047
2.07857,-0.102023,-0.169889
2.12058,0.103343,0.0617883
2.09316,-0.102739,0.0365802
2.11315,0.102981,-0.13559
2.09174,-0.102669,0.0853225
2.09773,-0.00036612,-0.0977154
2.08263,-0.102222,-0.109277
2.10817,-0.000367942,0.258851
2.08654,-0.102414,0.17054
2.10775,0.102717,-0.0859738
2.10743,-0.000367813,-0.0490387
2.11753,0.0954157,-0.0369991
2.08821,-0.110169,-0.0608574
2.09598,-0.00804804,0
2.0771,-0.211716,-0.0243066
2.07898,-0.00798273,-0.323443
2.0803,-0.109752,-0.265163
2.11382,0.0952486,0.012298
2.09188,-0.0080323,-0.225332
2.05636,-0.209603,-0.192952
2.06914,-0.210905,0.0242135
2.09886,-0.00805908,-0.146768
2.07819,-0.109641,-0.169889
2.12095,0.0955699,0.0617883
2.08878,-0.110199,0.0365104
2.10953,0.0950552,-0.135334
2.07372,-0.211372,-0.121394
2.10442,-0.00808043,0.122557
2.09135,-0.110335,0.0853225
2.10171,-0.00807001,-0.0979015
2.08623,-0.110065,-0.109487
2.11212,-0.00811001,0.259338
2.08217,-0.109851,0.170214
2.10811,0.0949914,-0.0859738
2.10342,-0.00807657,-0.0489456
2.11786,0.087654,-0.0369991
2.0838,-0.117597,-0.060741
2.09994,-0.0157602,0
2.07233,-0.218908,-0.02426
2.07893,-0.0156025,-0.323443
2.08384,-0.1176,-0.265668
2.12215,0.0878312,0.0123445
2.09264,-0.118096,-0.0121818
2.08786,-0.0156695,-0.224904
2.05558,-0.217138,-0.192952
2.06835,-0.218487,0.0242135
2.09882,-0.0157517,-0.146768
2.08175,-0.117481,-0.170214
2.12528,0.0879609,0.0619047
2.10986,0.0873227,-0.135334
2.07293,-0.218972,-0.121394
2.10438,-0.0157934,0.122557
2.08695,-0.117775,0.0851596
2.09367,-0.0157131,-0.0975292
2.08581,-0.117711,-0.109487
2.11208,-0.0158513,0.259338
2.08573,-0.117706,0.17054
2.10844,0.0872641,-0.0859738
2.10337,-0.0157859,-0.0489456
2.11816,0.0802607,-0.0369991
2.0754,-0.124392,-0.0605083
2.09587,-0.0230463,0
2.08282,-0.0229027,-0.324057
2.07946,-0.124635,-0.265163
2.12244,0.080423,0.0123445
2.08822,-0.12516,-0.0121585
2.08382,-0.0229137,-0.224475
2.06272,-0.225176,-0.193695
2.05962,-0.224838,0.0241203
2.09476,-0.023034,-0.146489
2.07735,-0.124509,-0.169889
2.11758,0.080239,0.0616719
2.08793,-0.125143,0.0365104
2.11015,0.0799574,-0.135334
2.06422,-0.22534,-0.120929
2.1083,-0.0231829,0.12279
2.08652,-0.125059,0.0851596
2.08961,-0.0229774,-0.0973431
2.07742,-0.124513,-0.109068
2.10407,-0.0231364,0.258363
2.08929,-0.125224,0.170865
2.11273,0.0800551,-0.0861366
2.1033,-0.023128,-0.0489456
2.1184,0.0736059,-0.0369991
2.07499,-0.130911,-0.0605083
2.09579,-0.0296305,0
2.06686,-0.2322,-0.0242135
2.08273,-0.0294459,-0.324057
2.07906,-0.131168,-0.265163
2.12268,0.0737548,0.0123445
2.09169,-0.0295725,-0.225332
2.05805,-0.231211,-0.193324
2.05891,-0.231307,0.0241203
2.09867,-0.0296712,-0.146768
2.07297,-0.130783,-0.169564
2.11383,0.0734471,0.0615556
2.09152,-0.131954,0.0365802
2.11438,0.0734664,-0.13559
2.06747,-0.232269,-0.121162
2.10023,-0.0296933,0.122325
2.08213,-0.131361,0.0849968
2.09352,-0.0295984,-0.0975292
2.07701,-0.131039,-0.109068
2.10796,-0.0298025,0.258851
2.08093,-0.131285,0.170214
2.10898,0.0732785,-0.0859738
2.09922,-0.029679,-0.0488526
2.11865,0.0658411,-0.0369991
2.07849,-0.138782,-0.0606247
2.09167,-0.0372406,0
2.06599,-0.239774,-0.0242135
2.07471,-0.0369386,-0.322828
2.07856,-0.138787,-0.265163
2.11494,0.0657258,0.012298
2.08732,-0.139371,-0.0121585
2.08759,-0.037168,-0.224904
2.09455,-0.0372919,-0.146489
2.07248,-0.13838,-0.169564
2.11808,0.0658233,0.0616719
2.08703,-0.139352,0.0365104
2.10267,0.0653443,-0.134823
2.1041,-0.0374619,0.122557
2.08562,-0.139258,0.0851596
2.0934,-0.0372714,-0.0975292
2.08051,-0.138916,-0.109277
2.11577,-0.0376697,0.259825
2.10124,0.0653,-0.0856481
2.1031,-0.037444,-0.0489456
2.11487,0.0583349,-0.0369293
2.08198,-0.146317,-0.060741
2.09153,-0.0445416,0
2.08247,-0.0443488,-0.324057
2.07807,-0.146042,-0.265163
2.11116,0.0582326,0.0122748
2.08347,-0.0443701,-0.224475
2.0572,-0.246035,0.0241203
2.09441,-0.044603,-0.146489
2.068,-0.145334,-0.169238
2.1183,0.0584294,0.0616719
2.08255,-0.146356,0.0364406
2.10687,0.0581143,-0.135078
2.06575,-0.247058,-0.121162
2.10396,-0.0448064,0.122557
2.08512,-0.146537,0.0851596
2.09725,-0.0446635,-0.0977154
2.07602,-0.145898,-0.109068
2.10769,-0.0448859,0.258851
2.07993,-0.146173,0.170214
2.10945,0.0581853,-0.0859738
2.09896,-0.0446999,-0.0488526
2.0775,-0.152926,-0.0606247
2.09537,-0.0515756,0
2.06828,-0.25432,-0.02426
2.08626,-0.0513515,-0.324672
2.07361,-0.152641,-0.264658
2.11534,0.0513284,0.012298
2.08729,-0.0513768,-0.224904
2.06034,-0.253343,0.0241669
2.07546,-0.152777,-0.169889
2.11048,0.0512106,0.0614392
2.08205,-0.153261,0.0364406
2.10706,0.0511274,-0.135078
2.06096,-0.253419,-0.120929
2.09581,-0.0515866,0.122092
2.07665,-0.152864,0.084834
2.0931,-0.0515197,-0.0975292
2.07951,-0.153075,-0.109277
2.10753,-0.051875,0.258851
2.07546,-0.152777,0.169889
2.10164,0.0509959,-0.0856481
2.11522,0.0439382,-0.0369293
2.07695,-0.160177,-0.0606247
2.09117,-0.058777,0
2.06738,-0.261538,-0.02426
2.07817,-0.0584115,-0.323443
2.07307,-0.159878,-0.264658
2.11151,0.0438611,0.0122748
2.07915,-0.058439,-0.224047
2.05548,-0.260032,0.0241203
2.11865,0.0440094,0.0616719
2.08549,-0.160836,0.0365104
2.10722,0.0437721,-0.135078
2.06006,-0.260612,-0.120929
2.09961,-0.0590142,0.122325
2.07212,-0.159805,0.0846712
2.0929,-0.0588256,-0.0975292
2.07498,-0.160026,-0.109068
2.10734,-0.0592313,0.258851
2.08684,-0.16094,0.170865
2.10979,0.0438255,-0.0859738
2.09461,-0.0588735,-0.0487595
2.10737,0.0360485,-0.0367897
2.07635,-0.167789,-0.0606247
2.08695,-0.0663142,0
2.05848,-0.26808,-0.0241669
2.07399,-0.0659025,-0.322828
2.11166,0.0361218,0.0122748
2.08517,-0.168501,-0.0121585
2.08289,-0.0661854,-0.224475
2.05451,-0.267564,0.0241203
2.09383,-0.0665328,-0.146489
2.07034,-0.167303,-0.169564
2.1108,0.0361071,0.0614392
2.10737,0.0360484,-0.135078
2.06305,-0.268676,-0.121162
2.09938,-0.0667093,0.122325
2.07551,-0.167721,0.084834
2.08469,-0.0662423,-0.097157
2.07438,-0.16763,-0.109068
2.09917,-0.0667025,0.257876
2.07432,-0.167624,0.169889
2.10195,0.0359557,-0.0856481
2.09038,-0.0664232,-0.0486665
2.07974,-0.175371,-0.060741
2.0867,-0.0735985,0
2.05753,-0.275264,-0.0241669
2.07375,-0.0731417,-0.322828
2.11177,0.0287505,0.0122748
2.08662,-0.0735958,-0.224904
2.05356,-0.274734,0.0241203
2.08561,-0.0735599,-0.145931
2.06975,-0.174529,-0.169564
2.10691,0.0286844,0.0613228
2.0995,0.0285834,-0.134567
2.05815,-0.275346,-0.120929
2.09515,-0.0738963,0.122092
2.07889,-0.1753,0.0849968
2.09243,-0.0738005,-0.0975292
2.0698,-0.174534,-0.108859
2.10289,-0.0741695,0.258363
2.07769,-0.175199,0.170214
2.10206,0.0286183,-0.0856481
2.09413,-0.0738605,-0.0487595
2.07513,-0.18228,-0.0606247
2.09043,-0.081037,0
2.07743,-0.080533,-0.323443
2.10786,0.0213384,0.0122515
2.07841,-0.0805709,-0.224047
2.05655,-0.282444,0.0241669
2.08933,-0.0809942,-0.14621
2.06912,-0.181753,-0.169564
2.111,0.0213702,0.0614392
2.07967,-0.182679,0.0364406
2.10358,0.021295,-0.134823
2.06113,-0.283072,-0.121162
2.09487,-0.0812093,0.122092
2.08225,-0.182906,0.0851596
2.09216,-0.081104,-0.0975292
2.07316,-0.182107,-0.109068
2.10262,-0.0815095,0.258363
2.07707,-0.18245,0.170214
2.10215,0.0212806,-0.0856481
2.11163,0.0143736,-0.0368595
2.07451,-0.18916,-0.0606247
2.09015,-0.0879687,0
2.05957,-0.28982,-0.0242135
2.0732,-0.0872554,-0.322828
2.11192,0.0143756,0.0122748
2.07934,-0.189601,-0.0121353
2.07415,-0.0872955,-0.223619
2.05165,-0.288705,0.0241203
2.08905,-0.0879222,-0.14621
2.06851,-0.188613,-0.169564
2.11106,0.0143697,0.0614392
2.07507,-0.189212,0.0363708
2.09565,0.0142649,-0.134311
2.04831,-0.288236,-0.120464
2.0906,-0.0879878,0.121859
2.07367,-0.189084,0.084834
2.09188,-0.0880414,-0.0975292
2.07652,-0.189344,-0.109277
2.10234,-0.0884816,0.258363
2.07248,-0.188975,0.169889
2.10221,0.0143095,-0.0856481
2.08958,-0.0879449,-0.0486665
2.11167,0.00663401,-0.0368595
2.06584,-0.196007,-0.060392
2.08582,-0.095446,0
2.05453,-0.296795,-0.0241669
2.07287,-0.0948535,-0.322828
2.10795,0.00662234,0.0122515
2.07863,-0.19722,-0.0121353
2.07779,-0.0950789,-0.224047
2.08472,-0.0953959,-0.145931
2.07177,-0.19657,-0.169889
2.1111,0.00663221,0.0614392
2.07835,-0.197194,0.0364406
2.09968,0.00659636,-0.134567
2.0591,-0.297455,-0.121162
2.09825,-0.0960147,0.122325
2.06501,-0.195928,0.0845083
2.07957,-0.09516,-0.0969709
2.06786,-0.196199,-0.108859
2.102,-0.0961865,0.258363
2.07574,-0.196946,0.170214
2.10225,0.00660441,-0.0856481
2.08525,-0.0954202,-0.0485734
2.10768,-0.000367869,-0.0367897
2.06518,-0.202857,-0.060392
2.08549,-0.102362,0
2.05749,-0.304191,-0.0242135
2.0686,-0.101533,-0.322213
2.10796,-0.000367918,0.0122515
2.07796,-0.204112,-0.0121353
2.08144,-0.102164,-0.224475
2.08439,-0.102309,-0.145931
2.06714,-0.203049,-0.169564
2.10711,-0.000367769,0.0613228
2.08166,-0.204476,0.0365104
2.09969,-0.000366475,-0.134567
2.09792,-0.102972,0.122325
2.06832,-0.203165,0.0846712
2.08323,-0.102251,-0.097157
2.06323,-0.202665,-0.108649
2.10167,-0.103156,0.258363
2.06714,-0.203049,0.169564
2.09826,-0.000366225,-0.0854853
2.08493,-0.102335,-0.0485734
2.10766,-0.00772504,-0.0367897
2.06446,-0.210064,-0.060392
2.08512,-0.109641,0
2.05642,-0.311371,-0.0242135
2.09995,-0.00769676,0.012205
2.07313,-0.109011,-0.223619
2.08402,-0.109584,-0.145931
2.06245,-0.20986,-0.169238
2.0991,-0.00769363,0.0610901
2.069,-0.210526,0.036301
2.09169,-0.0076665,-0.134055
2.08957,-0.109875,0.121859
2.07158,-0.210788,0.084834
2.08685,-0.109732,-0.0973431
2.06648,-0.21027,-0.108859
2.10129,-0.110492,0.258363
2.09425,-0.00767586,-0.0853225
2.09254,-0.110032,-0.0487595
2.10763,-0.0150821,-0.0367897
2.06372,-0.217269,-0.060392
2.08073,-0.116695,0
2.05137,-0.317935,-0.0241669
2.09991,-0.0150269,0.012205
2.07649,-0.218614,-0.0121353
2.0767,-0.116469,-0.224047
2.04742,-0.317323,0.0241203
2.08363,-0.116858,-0.145931
2.06567,-0.217476,-0.169564
2.10705,-0.015078,0.0613228
2.06825,-0.217747,0.036301
2.09166,-0.0149678,-0.134055
2.08917,-0.117169,0.121859
2.07083,-0.218018,0.084834
2.08247,-0.116793,-0.097157
2.06573,-0.217482,-0.108859
2.09693,-0.117604,0.257876
2.07757,-0.218728,0.17054
2.09021,-0.0149575,-0.0851596
2.08815,-0.117111,-0.0486665
2.10356,-0.0220293,-0.0367199
2.06298,-0.224112,-0.060392
2.08432,-0.123832,0
2.0503,-0.324736,-0.0241669
2.09585,-0.0219485,0.0121818
2.06382,-0.224203,-0.0120655
2.07234,-0.123119,-0.223619
2.0503,-0.324736,0.0241669
2.08721,-0.124003,-0.14621
2.06098,-0.223894,-0.169238
2.10699,-0.0220652,0.0613228
2.0715,-0.225036,0.0363708
2.09559,-0.0219457,-0.134311
2.08877,-0.124096,0.121859
2.07009,-0.224884,0.084834
2.07808,-0.123461,-0.0969709
2.065,-0.224331,-0.108859
2.09415,-0.0219307,-0.0853225
2.08775,-0.124035,-0.0486665
2.10347,-0.0293719,-0.0367199
2.06616,-0.231757,-0.0605083
2.07989,-0.130855,0
2.04916,-0.331891,-0.0241669
2.10376,-0.0293759,0.0122283
2.07495,-0.232743,-0.0121353
2.06396,-0.129853,-0.222762
2.07482,-0.130537,-0.145372
2.06018,-0.231087,-0.169238
2.1069,-0.0294198,0.0613228
2.07467,-0.232712,0.0364406
2.0915,-0.0292048,-0.134055
2.08434,-0.131136,0.121627
2.06532,-0.231663,0.0846712
2.07763,-0.130714,-0.0969709
2.06024,-0.231092,-0.108649
2.09406,-0.0292405,-0.0853225
2.08731,-0.131322,-0.0486665
2.09935,-0.0370109,-0.0366501
2.06133,-0.238868,-0.060392
2.07939,-0.138478,0
2.05187,-0.340053,-0.0242135
2.07409,-0.240347,-0.0121353
2.06743,-0.137681,-0.22319
2.07433,-0.13814,-0.145372
2.05932,-0.238636,-0.169238
2.09879,-0.0370008,0.0610901
2.0738,-0.240314,0.0364406
2.09538,-0.0369407,-0.134311
2.08783,-0.13904,0.121859
2.06446,-0.239231,0.0846712
2.07316,-0.138062,-0.0967847
2.05937,-0.238642,-0.108649
2.08595,-0.0367745,-0.0849968
2.07883,-0.13844,-0.0484804
2.09922,-0.0439724,-0.0366501
2.05655,-0.245229,-0.0602756
2.08291,-0.145652,0
2.04679,-0.346188,-0.0241669
2.09551,-0.0438946,0.0121818
2.07093,-0.144814,-0.223619
2.07386,-0.145018,-0.145372
2.05852,-0.245464,-0.169238
2.09865,-0.0439605,0.0610901
2.073,-0.24719,0.0364406
2.08726,-0.0437218,-0.133799
2.08736,-0.145962,0.121859
2.06763,-0.246549,0.084834
2.07667,-0.145215,-0.0969709
2.06254,-0.245943,-0.108859
2.08581,-0.0436915,-0.0849968
2.08634,-0.145891,-0.0486665
2.09506,-0.051202,-0.0365802
2.05965,-0.252894,-0.060392
2.07043,-0.152043,0
2.04163,-0.35265,-0.0241203
2.09934,-0.0513067,0.012205
2.06645,-0.151751,-0.22319
2.07334,-0.152257,-0.145372
2.09848,-0.0512859,0.0610901
2.06021,-0.252962,0.0362312
2.08709,-0.0510075,-0.133799
2.08285,-0.152955,0.121627
2.06278,-0.253278,0.0846712
2.07217,-0.15217,-0.0967847
2.05374,-0.252167,-0.10844
2.08565,-0.0509721,-0.0849968
2.07784,-0.152587,-0.0484804
2.09886,-0.0586265,-0.0366501
2.05479,-0.259581,-0.0602756
2.07387,-0.159576,0
2.04432,-0.360469,-0.0241669
2.09515,-0.0585228,0.0121818
2.06194,-0.158658,-0.222762
2.07678,-0.159799,-0.145652
2.10229,-0.0587223,0.0612065
2.06328,-0.260653,0.036301
2.09089,-0.0584039,-0.134055
2.07434,-0.159612,0.121162
2.05792,-0.259976,0.0845083
2.07162,-0.159403,-0.0967847
2.05681,-0.259835,-0.108649
2.08146,-0.0581405,-0.084834
2.0773,-0.159839,-0.0484804
2.09864,-0.0659526,-0.0366501
2.05387,-0.266752,-0.0602756
2.07729,-0.167135,0
2.05092,-0.36902,-0.02426
2.09493,-0.0658359,0.0121818
2.06264,-0.26789,-0.0120888
2.06138,-0.165854,-0.222762
2.0762,-0.167047,-0.145652
2.09808,-0.0659347,0.0610901
2.06633,-0.268369,0.0363708
2.08669,-0.0655768,-0.133799
2.08173,-0.167492,0.121627
2.06097,-0.267673,0.0846712
2.06707,-0.166313,-0.0965986
2.05985,-0.267528,-0.108859
2.08923,-0.0656568,-0.0851596
2.07673,-0.167089,-0.0484804
2.04897,-0.27339,-0.0601592
2.07271,-0.17405,0
2.04176,-0.374732,-0.0241669
2.09069,-0.0730085,0.0121585
2.06475,-0.173382,-0.22319
2.06766,-0.173626,-0.145093
2.08584,-0.0728393,0.060741
2.06141,-0.275051,0.036301
2.09043,-0.0729996,-0.134055
2.08512,-0.175092,0.121859
2.05606,-0.274337,0.0845083
2.07046,-0.173861,-0.0967847
2.04702,-0.273131,-0.108231
2.081,-0.0726703,-0.084834
2.08011,-0.174672,-0.0485734
2.09414,-0.0804486,-0.0365802
2.048,-0.280541,-0.0601592
2.0681,-0.180935,0
2.08643,-0.0801524,0.0121353
2.06017,-0.180241,-0.222762
2.08348,-0.18228,0.0486665
2.06704,-0.180842,-0.145093
2.08957,-0.0802733,0.0608574
2.06044,-0.282245,0.036301
2.08219,-0.0799896,-0.133543
2.08449,-0.182369,0.121859
2.05509,-0.281512,0.0845083
2.06586,-0.180739,-0.0965986
2.05002,-0.280817,-0.10844
2.08074,-0.0799339,-0.084834
2.07949,-0.181932,-0.0485734
2.04701,-0.287688,-0.0601592
2.06746,-0.188153,0
2.08613,-0.0874349,0.0121353
2.05972,-0.289475,-0.0120888
2.06639,-0.188057,-0.145093
2.08928,-0.0875668,0.0608574
2.05944,-0.289436,0.036301
2.0819,-0.0872574,-0.133543
2.07589,-0.188921,0.121394
2.05805,-0.28924,0.0846712
2.06522,-0.187949,-0.0965986
2.04902,-0.287971,-0.10844
2.08045,-0.0871965,-0.084834
2.07088,-0.188465,-0.0483873
2.08953,-0.0948849,-0.0365104
2.04995,-0.295402,-0.0602756
2.06679,-0.195369,0
2.08582,-0.0947163,0.0121353
2.0587,-0.296663,-0.0120888
2.06678,-0.195368,-0.223619
2.08215,-0.196821,0.0486665
2.06572,-0.195268,-0.145093
2.08896,-0.0948592,0.0608574
2.05842,-0.296623,0.036301
2.08158,-0.094524,-0.133543
2.07522,-0.196166,0.121394
2.06853,-0.195533,-0.0967847
2.05196,-0.295692,-0.108649
2.08013,-0.0944581,-0.084834
2.06623,-0.195316,-0.0482943
2.09318,-0.102374,-0.0365802
2.04495,-0.301972,-0.0601592
2.06609,-0.202582,0
2.08547,-0.101997,0.0121353
2.06161,-0.304432,-0.012112
2.08145,-0.204088,0.0486665
2.069,-0.202867,-0.145372
2.09661,-0.102541,0.0610901
2.06133,-0.304391,0.0363708
2.08522,-0.101984,-0.133799
2.07055,-0.203019,0.121162
2.06385,-0.202363,-0.0965986
2.04301,-0.301686,-0.108231
2.07979,-0.101719,-0.084834
2.07349,-0.203308,-0.0484804
2.08881,-0.10947,-0.0365104
2.05179,-0.310304,-0.060392
2.06537,-0.209793,0
2.0891,-0.109485,0.0121585
2.06053,-0.311626,-0.012112
2.06431,-0.209685,-0.145093
2.08426,-0.109231,0.060741
2.06421,-0.312182,0.0364406
2.08087,-0.109054,-0.133543
2.0738,-0.210649,0.121394
2.06314,-0.209566,-0.0965986
2.07543,-0.108769,-0.0846712
2.06879,-0.21014,-0.0483873
2.0429,-0.315528,-0.0601592
2.07266,-0.217114,0
2.08076,-0.115604,0.012112
2.05954,-0.318098,-0.012112
2.05967,-0.215754,-0.144814
2.0839,-0.115779,0.060741
2.05531,-0.317445,0.036301
2.07653,-0.115369,-0.133288
2.0771,-0.217579,0.121627
2.05849,-0.21563,-0.0964125
2.06414,-0.216222,-0.0482943
2.08804,-0.123321,-0.0365104
2.04574,-0.323281,-0.0602756
2.06394,-0.223486,0
2.08034,-0.122866,0.012112
2.05052,-0.324037,-0.0120655
2.05891,-0.222942,-0.144814
2.08748,-0.123288,0.0608574
2.05024,-0.323993,0.0362312
2.07612,-0.122617,-0.133288
2.06838,-0.223968,0.121162
2.0617,-0.223244,-0.0965986
2.07067,-0.122295,-0.0845083
2.06735,-0.223856,-0.0483873
2.08361,-0.130359,-0.0364406
2.06712,-0.231134,0
2.07591,-0.129877,0.0120888
2.04543,-0.330554,-0.0120423
2.06208,-0.230571,-0.145093
2.08703,-0.130574,0.0608574
2.0491,-0.331148,0.0362312
2.07567,-0.129863,-0.133288
2.06759,-0.231187,0.121162
2.05694,-0.229995,-0.0964125
2.07422,-0.129772,-0.0846712
2.05861,-0.230183,-0.0482012
2.08713,-0.137895,-0.0365104
2.06233,-0.23789,0
2.07943,-0.137387,0.012112
2.0561,-0.339648,-0.012112
2.06971,-0.238742,0.0484804
2.05334,-0.236853,-0.144535
2.08657,-0.137858,0.0608574
2.04793,-0.338298,0.0362312
2.07123,-0.136845,-0.133032
2.06677,-0.238402,0.121162
2.05612,-0.237174,-0.0964125
2.06977,-0.136748,-0.0845083
2.0383,-0.34402,-0.0601592
2.05751,-0.244615,0
2.07894,-0.144644,0.012112
2.04701,-0.345492,-0.0120655
2.08208,-0.144863,0.060741
2.07472,-0.144351,-0.133288
2.06989,-0.246087,0.121394
2.05925,-0.244822,-0.0965986
2.06092,-0.245021,-0.0482943
2.03708,-0.351133,-0.0601592
2.06458,-0.252768,0
2.07842,-0.1519,0.012112
2.05368,-0.353994,-0.012112
2.07196,-0.253671,0.0485734
2.05163,-0.251182,-0.144535
2.07758,-0.151839,0.0606247
2.07022,-0.151301,-0.133032
2.06902,-0.253311,0.121394
2.05442,-0.251523,-0.0964125
2.05609,-0.251727,-0.0482012
2.08557,-0.159744,-0.0365104
2.05972,-0.259473,0
2.07389,-0.158849,0.0120888
2.04455,-0.359774,-0.0120655
2.0547,-0.258841,-0.144814
2.08102,-0.159395,0.060741
2.0657,-0.158222,-0.132776
2.06416,-0.260032,0.121162
2.05353,-0.258692,-0.0964125
2.06822,-0.158415,-0.0845083
2.06313,-0.259902,-0.0483873
2.08102,-0.166703,-0.0364406
2.0588,-0.266661,0
2.06934,-0.165768,0.0120655
2.04722,-0.367615,-0.0120888
2.05379,-0.266011,-0.144814
2.07647,-0.166339,0.0606247
2.06911,-0.16575,-0.133032
2.05532,-0.26621,0.120697
2.04865,-0.265346,-0.0962264
2.06766,-0.165633,-0.0845083
2.05428,-0.266075,-0.0482012
2.08042,-0.173967,-0.0364406
2.05786,-0.273846,0
2.0807,-0.17399,0.0121353
2.04199,-0.374039,-0.0120655
2.06523,-0.274827,0.0484804
2.07189,-0.173253,0.0605083
2.06454,-0.172639,-0.132776
2.05167,-0.273022,-0.0964125
2.06707,-0.17285,-0.0845083
2.0573,-0.273772,-0.0482943
2.05293,-0.280486,0
2.08407,-0.181599,0.0121585
2.06822,-0.282575,0.0485734
2.07525,-0.180831,0.0606247
2.06791,-0.180191,-0.133032
2.0507,-0.280182,-0.0964125
2.06247,-0.179717,-0.0843455
2.05237,-0.28041,-0.0482012
2.0559,-0.288206,0
2.06749,-0.187428,0.0120655
2.04719,-0.389782,-0.012112
2.07063,-0.187713,0.0605083
2.06329,-0.187048,-0.132776
2.04576,-0.286784,-0.0962264
2.06183,-0.186915,-0.0843455
2.05138,-0.287573,-0.0482012
2.0745,-0.195368,-0.0363708
2.04696,-0.294242,0
2.07394,-0.195315,0.0606247
2.05865,-0.193875,-0.13252
2.05265,-0.29506,-0.0965986
2.06514,-0.194486,-0.0845083
2.05036,-0.294731,-0.0482012
2.06986,-0.201858,-0.036301
2.04993,-0.301611,0
2.07328,-0.202191,0.0606247
2.06197,-0.201088,-0.132776
2.06449,-0.201333,-0.0845083
2.04542,-0.300947,-0.0481082
2.07313,-0.209484,-0.0363708
2.04887,-0.308764,0
2.06545,-0.208708,0.0120655
2.06017,-0.310469,0.0484804
2.07256,-0.209427,0.0606247
2.06125,-0.208284,-0.132776
2.04665,-0.30843,-0.0964125
2.05227,-0.309277,-0.0482943
2.0684,-0.216303,-0.036301
