2.77521,0.839471,-0.270653
2.77812,0.829779,-0.270653
2.77718,0.818949,-0.270281
2.79018,0.855174,-0.238235
2.79315,0.84543,-0.238235
2.80929,0.88307,-0.205921
2.80854,0.872076,-0.205642
2.76624,0.827282,-0.31101
2.76911,0.817621,-0.31101
2.77167,0.808917,-0.31101
2.84673,0.939813,-0.192128
2.42628,0.353091,-0.0285439
2.41691,0.333655,-0.0284042
2.41013,0.32415,-0.0283111
2.39924,0.315014,-0.0281714
2.39924,0.315014,0.0281714
2.40044,0.3058,-0.0281714
2.39355,0.296437,-0.0280783
2.39355,0.296437,0.0280783
2.39457,0.288079,-0.0280783
2.37869,0.286168,0.027892
2.38355,0.27916,-0.0279386
2.38355,0.27916,0.0279386
2.3766,0.269519,-0.0278455
2.37263,0.269069,0.0277989
2.37355,0.260786,-0.0277989
2.36958,0.260349,0.0277523
2.3697,0.260362,-0.138836
2.36645,0.252065,-0.0277058
2.36645,0.252065,0.0277058
2.35467,0.25081,-0.137906
2.36736,0.243391,-0.0277058
2.3594,0.242573,0.0276127
2.3516,0.24177,-0.137673
2.36015,0.235159,-0.0276127
2.34821,0.23397,0.027473
2.3444,0.23359,-0.137208
2.353,0.226154,-0.0275195
2.43821,0.355262,-0.0143206
2.34503,0.225388,0.0274264
2.3452,0.225404,-0.137208
2.34584,0.216792,-0.0274264
2.4197,0.343513,-0.0142043
2.33788,0.216056,0.0273333
2.33408,0.215705,-0.13651
2.4129,0.334388,-0.0141578
2.3346,0.207947,0.0272867
2.33478,0.207963,-0.13651
2.33531,0.199796,-0.0272867
2.41009,0.325428,-0.0141346
2.32734,0.199114,0.0271936
2.32356,0.19879,-0.135813
2.39937,0.315031,-0.0140648
2.31609,0.189604,0.0270539
2.31631,0.189622,-0.135348
2.32073,0.18183,-0.0271004
2.39648,0.306146,-0.0140416
2.30478,0.18058,0.0269142
2.39616,0.306104,0.042165
2.31696,0.181534,-0.135348
2.3926,0.297165,-0.0701664
2.38563,0.2963,-0.0139718
2.31543,0.173285,-0.216746
2.3054,0.172534,0.0269142
2.38531,0.29626,0.0419556
2.3136,0.173148,-0.135115
2.38563,0.288271,-0.0699336
2.3866,0.288388,-0.0139718
2.30407,0.164754,-0.21563
2.30995,0.165174,0.0269608
2.30619,0.164906,-0.13465
2.38362,0.279589,-0.0139486
2.29669,0.15617,-0.214887
2.29056,0.155753,0.0267279
2.3833,0.279551,0.0418858
2.30676,0.156854,-0.13465
2.37642,0.278745,-0.125397
2.37668,0.269948,-0.0139021
2.30122,0.148007,-0.215258
2.2951,0.147613,0.0267745
2.38033,0.270363,0.041816
2.30333,0.148143,-0.134417
2.29558,0.140001,-0.0267745
2.37358,0.261626,-0.0138789
2.28977,0.139647,-0.214143
2.27961,0.139027,0.0265882
2.36929,0.261153,0.0416065
2.29584,0.140017,-0.133952
2.36243,0.260397,-0.12456
2.35762,0.251542,-0.0690027
2.28407,0.1313,-0.0266348
2.36653,0.252492,-0.0138324
2.29025,0.131655,-0.214143
2.27209,0.130611,0.0264951
2.35825,0.25161,0.0413971
2.28834,0.131545,-0.133487
2.35666,0.251439,0.0965577
2.35538,0.251303,-0.124141
2.34655,0.242079,-0.0686537
2.28052,0.12311,-0.0265882
2.36342,0.243819,-0.0138091
2.28274,0.12323,-0.2134
2.27653,0.122895,0.0265417
2.35116,0.242555,0.0412575
2.28081,0.123126,-0.133022
2.3456,0.241981,0.0960692
2.35227,0.242669,-0.123932
2.27695,0.114947,-0.0265417
2.35629,0.234774,-0.0137626
2.2752,0.114858,-0.212656
2.26097,0.11414,0.0263554
2.35199,0.234346,0.0412575
2.27724,0.114961,-0.13279
2.34245,0.233395,0.0959064
2.34118,0.233268,-0.123304
2.26932,0.107018,-0.0264485
2.35706,0.226958,-0.0137626
2.26761,0.106937,-0.211912
2.26133,0.106641,0.0263554
2.35276,0.226544,0.0412575
2.26165,0.106656,-0.131859
2.33697,0.216795,-0.0683046
2.41962,0.344364,0
2.2537,0.0983996,-0.0262623
2.34987,0.217992,-0.0137161
2.26399,0.0988489,-0.211541
2.2497,0.0982251,0.0262157
2.34557,0.217593,0.0411179
2.32806,0.215969,0.095255
2.33873,0.216959,-0.123094
2.32979,0.207518,-0.0680718
2.25005,0.0899783,-0.0262157
2.33472,0.207958,-0.0136231
2.26036,0.0903906,-0.211169
2.24206,0.0896587,0.0261226
2.33893,0.208333,-0.191695
2.33042,0.207575,0.0408386
2.25438,0.0901513,-0.131394
2.32486,0.20708,0.0950922
2.32758,0.207322,-0.122466
2.31855,0.198363,-0.0677228
2.40616,0.324899,0
2.25035,0.0821241,-0.0262157
2.33543,0.199807,-0.0136231
2.24635,0.0819782,0.0261692
2.32375,0.198808,-0.190393
2.3391,0.200121,0.0409782
2.3176,0.198282,0.0947666
2.32829,0.199196,-0.122466
2.31521,0.190345,-0.0676064
2.3993,0.315874,0
2.24261,0.0743954,-0.0261226
2.33209,0.191733,-0.0135999
2.23462,0.0741301,0.0260295
2.3244,0.191101,-0.190393
2.31583,0.190396,0.0405594
2.31028,0.18994,0.0944409
2.32097,0.190819,-0.122047
2.31187,0.181948,-0.06749
2.23886,0.0664475,-0.026076
2.31281,0.182022,-0.0134836
2.24525,0.0666369,-0.209682
2.22287,0.0659729,0.0258898
2.31313,0.182047,-0.189416
2.32047,0.182625,0.0406292
2.24321,0.0665765,-0.130697
2.30296,0.181247,0.0941152
2.31764,0.182402,-0.121838
2.3918,0.306396,-0.0561107
2.30853,0.173174,-0.0673737
2.38562,0.296722,0
2.23109,0.0580337,-0.0259829
2.31745,0.173843,-0.0135069
2.38497,0.296641,0.0559246
2.2231,0.0578257,0.0258898
2.30583,0.172972,-0.188766
2.30916,0.173221,0.0404198
2.29963,0.172506,0.0939524
2.31033,0.173309,-0.121419
2.2939,0.172077,0.187789
2.38497,0.296641,-0.0559246
2.3091,0.165519,-0.0673737
2.38659,0.28881,0
2.22728,0.0505445,-0.0259363
2.31003,0.165586,-0.0134604
2.23371,0.0506905,-0.208567
2.38594,0.288731,0.0559246
2.21528,0.0502723,0.0257966
2.30639,0.165325,-0.188766
2.30174,0.164992,0.0402802
2.22765,0.050553,-0.129766
2.29221,0.164308,0.0936268
2.31089,0.165647,-0.121419
2.30168,0.156914,-0.067141
2.37566,0.279078,0
2.29464,0.156434,-0.0133674
2.22193,0.0426642,-0.207451
2.37502,0.279002,0.0556454
2.21144,0.0424629,0.0257501
2.30298,0.157002,-0.18844
2.29432,0.156412,0.0401405
2.22781,0.0427772,-0.129766
2.2848,0.155763,0.0933011
2.38103,0.279708,-0.111675
2.30747,0.157309,-0.12121
2.29024,0.148104,-0.0667919
2.36868,0.269877,0
2.21958,0.0348683,-0.0258432
2.29916,0.14868,-0.0133907
2.22206,0.0349074,-0.207451
2.36803,0.269804,0.0554593
2.20758,0.0346798,0.0257035
2.29953,0.148704,-0.188115
2.29087,0.148144,0.0400707
2.21198,0.0347489,-0.128836
2.28134,0.147528,0.0931383
2.37405,0.270489,-0.111302
2.30003,0.148737,-0.120791
2.27566,0.147161,0.186162
2.36803,0.269804,-0.0554593
2.29075,0.140108,-0.0667919
2.20769,0.0269731,-0.0257035
2.29168,0.140165,-0.0133442
2.21421,0.0270528,-0.206708
2.36896,0.261536,0.0554593
2.20369,0.0269243,0.0256569
2.29208,0.140189,-0.187464
2.28738,0.139902,0.0400009
2.21209,0.0270269,-0.128836
2.27386,0.139075,0.0928126
2.37498,0.2622,-0.111302
2.28858,0.139975,-0.120163
2.28723,0.131881,-0.0666755
2.35459,0.251634,0
2.19977,0.0191973,-0.0256104
2.28969,0.132023,-0.291932
2.28417,0.131705,-0.0132977
2.36191,0.252415,0.0552732
2.19577,0.0191624,0.0255638
2.28061,0.1315,-0.186487
2.27987,0.131456,0.0398613
2.20817,0.0192707,-0.128604
2.35458,0.251632,0.137906
2.26635,0.130677,0.0924869
2.35999,0.25221,-0.110558
2.28905,0.131986,-0.120163
2.2757,0.123247,-0.0663264
2.3475,0.24259,0
2.20382,0.011539,-0.0256569
2.28062,0.123514,-0.0132744
2.3588,0.243758,0.0551802
2.19182,0.0114761,0.0255173
2.28106,0.123537,-0.186487
2.26833,0.122848,0.0396519
2.19625,0.0114993,-0.127906
2.25881,0.122333,0.0921613
2.35688,0.243559,-0.110372
2.27753,0.123346,-0.119535
2.27612,0.115304,-0.0663264
2.34833,0.234396,0
2.19585,0.00383368,-0.0255638
2.26506,0.114744,-0.0131814
2.19844,0.0038382,-0.205221
2.35167,0.23473,0.0549941
2.19185,0.00382669,0.0255173
2.27749,0.115374,-0.186162
2.26874,0.114931,0.0396519
2.1843,0.00381351,-0.127208
2.34436,0.233999,0.137208
2.25523,0.114246,0.0919985
2.35374,0.234936,-0.110186
2.27396,0.115195,-0.119326
2.34372,0.233935,-0.054808
2.26449,0.107582,-0.0659773
2.19185,-0.00306089,-0.0255173
2.2694,0.107816,-0.0132047
2.18649,-0.00305341,-0.204105
2.34842,0.226954,0.054901
2.18785,-0.0030553,0.0254707
2.34731,0.226846,-0.164904
2.2659,0.107649,-0.185186
2.26111,0.107422,0.0395123
2.1843,-0.00305034,-0.127208
2.33713,0.225863,0.136743
2.2476,0.10678,0.0916728
2.33458,0.225616,-0.109255
2.27431,0.108049,-0.119326
2.24997,0.106893,0.183884
2.34046,0.226185,-0.0547149
2.26089,0.0987125,-0.065861
2.33,0.216147,0
2.18782,-0.0114555,-0.0254707
2.26753,0.0990024,-0.288902
2.26181,0.0987527,-0.0131582
2.18646,-0.0114484,-0.204105
2.34529,0.217566,0.054808
2.17982,-0.0114136,0.0253776
2.33227,0.216358,-0.163788
2.25833,0.0986008,-0.184535
2.25351,0.0983904,0.0393726
2.18028,-0.011416,-0.126976
2.34196,0.217257,0.136976
2.33543,0.216651,-0.109255
2.26274,0.0987932,-0.118698
2.33733,0.216827,-0.0546219
2.41251,0.334764,-0.0425141
2.25323,0.0904995,-0.0656282
2.17177,-0.0189523,-0.0252844
2.25414,0.0905363,-0.0131117
2.17845,-0.0190105,-0.203362
2.33807,0.208668,0.0546219
2.17577,-0.0189872,0.025331
2.32903,0.207861,-0.163509
2.25468,0.0905577,-0.184209
2.25384,0.0905241,0.0393726
2.17623,-0.0189912,-0.126743
2.33077,0.208016,0.136278
2.23634,0.0898212,0.0911843
2.33617,0.208498,-0.109255
2.25109,0.0904138,-0.11807
2.33011,0.207957,-0.0544357
2.25352,0.0830264,-0.0656282
2.31946,0.199255,0
2.1717,-0.0261546,-0.0252844
2.24832,0.082835,-0.286376
2.24644,0.0827656,-0.0130652
2.17837,-0.026235,-0.203362
2.33875,0.200913,0.0546219
2.17569,-0.0262028,0.025331
2.32176,0.199453,-0.162951
2.25098,0.0829329,-0.183884
2.24613,0.0827544,0.039233
2.33145,0.200285,0.136278
2.32093,0.199381,-0.108511
2.25138,0.0829477,-0.11807
2.33078,0.200228,-0.0544357
2.2418,0.0747604,-0.0652792
2.31217,0.190501,0
2.16759,-0.0336725,-0.0252379
2.2486,0.0749869,-0.286376
2.23872,0.0746574,-0.0130187
2.16234,-0.0335909,-0.201875
2.32748,0.191763,0.0543427
2.17159,-0.0337346,0.0252844
2.31449,0.190693,-0.162393
2.24329,0.0748098,-0.183233
2.24241,0.0747806,0.0391632
2.16008,-0.0335558,-0.125813
2.32019,0.191163,0.13558
2.22891,0.0743304,0.0908587
2.31364,0.190623,-0.108138
2.31951,0.191106,-0.0541566
2.23006,0.0665771,-0.0649301
2.31282,0.18243,0
2.23896,0.0668429,-0.0130187
2.16221,-0.0411382,-0.201875
2.16346,-0.0411621,0.0251913
2.31116,0.182299,-0.162114
2.23556,0.0667413,-0.182582
2.23466,0.0667145,0.0390236
2.15995,-0.0410952,-0.125813
2.31687,0.182749,0.135348
2.22117,0.0663115,0.090533
2.30633,0.181918,-0.107766
2.23593,0.0667524,-0.117233
2.21962,0.0662655,0.18128
2.32415,0.183324,-0.0542496
2.23028,0.0587917,-0.0649301
2.30546,0.173753,0
2.23519,0.058921,-0.0129954
2.15011,-0.0484171,-0.200759
2.31281,0.174307,0.0539705
2.15131,-0.0484442,0.0250516
2.30382,0.17363,-0.161556
2.22781,0.0587266,-0.181931
2.23089,0.0588076,0.0389538
2.14782,-0.0483655,-0.125115
2.30953,0.17406,0.134883
2.21339,0.0583466,0.0902073
2.30296,0.173565,-0.10758
2.22817,0.058736,-0.116814
2.30883,0.174007,-0.0538774
2.37823,0.28822,-0.041816
2.21848,0.0507324,-0.064581
2.29409,0.164845,0
2.15512,-0.0560569,-0.0250982
2.23339,0.0510734,-0.284356
2.23138,0.0510274,-0.0129722
2.31263,0.166177,-0.24975
2.14992,-0.0559216,-0.200759
2.30543,0.16566,0.0537844
2.30044,0.165302,-0.161277
2.22003,0.0507679,-0.18128
2.21908,0.0507462,0.0387443
2.15562,-0.0560697,-0.12558
2.30614,0.165711,0.13465
2.29957,0.165239,-0.107394
2.22437,0.050867,-0.116605
2.30543,0.16566,-0.0537844
2.21864,0.0433759,-0.064581
2.29861,0.157511,0
2.15093,-0.0630855,-0.0250516
2.22561,0.0435123,-0.283346
2.37155,0.279434,0.0138789
2.22354,0.0434717,-0.0129257
2.14176,-0.0628167,-0.200016
2.30597,0.158015,0.0537844
2.14293,-0.062851,0.0249585
2.29699,0.1574,-0.160998
2.22019,0.0434062,-0.18128
2.21124,0.0432313,0.0386047
2.13945,-0.0627489,-0.12465
2.29871,0.157517,0.134185
2.20575,0.0431239,0.0898817
2.30011,0.157613,-0.107394
2.21254,0.0432567,-0.115976
2.30198,0.157742,-0.0536913
2.21079,0.0351152,-0.0643483
2.29119,0.148566,0
2.21782,0.035227,-0.282336
2.36859,0.270285,0.0138556
2.20768,0.035066,-0.0128327
2.28198,0.147968,-0.246323
2.13754,-0.0705364,-0.199644
2.30254,0.149302,0.0536913
2.14269,-0.0707064,0.0249585
2.29755,0.148978,-0.160998
2.20837,0.0350769,-0.180304
2.20739,0.0350612,0.0385349
2.13921,-0.0705916,-0.12465
2.29528,0.148831,0.133952
2.2019,0.034974,0.0897188
2.29269,0.148663,-0.107022
2.21268,0.0351454,-0.115976
2.20439,0.0350136,0.179978
2.29456,0.148784,-0.0535052
2.27972,0.139834,0
2.21397,0.0274375,-0.281831
2.36554,0.261577,0.0138324
2.20379,0.0273115,-0.0128095
2.27851,0.13976,-0.245895
2.12932,-0.0777055,-0.1989
2.29107,0.14053,0.0534122
2.13443,-0.0778921,0.0248654
2.28611,0.140226,-0.160161
2.2045,0.0273202,-0.179978
2.2035,0.0273078,0.0384651
2.13496,-0.0779113,-0.124418
2.29579,0.14082,0.133952
2.19401,0.0271903,0.0893932
2.28123,0.139927,-0.106463
2.2048,0.027324,-0.115558
2.19652,0.0272214,0.179327
2.35965,0.260926,-0.0967205
2.28309,0.140041,-0.0532261
2.19098,0.0202681,-0.0637664
2.27615,0.132438,0
2.13018,-0.0844395,-0.0248188
2.21007,0.0204447,-0.281326
2.3584,0.253289,0.0137859
2.20787,0.0204243,-0.0128327
2.271,0.132139,-0.245038
2.12111,-0.0840797,-0.198157
2.28352,0.132867,0.0532261
2.12619,-0.084281,0.0247722
2.28256,0.132811,-0.159882
2.1966,0.02032,-0.179327
2.20357,0.0203845,0.0384651
2.28426,0.13291,0.133255
2.19409,0.0202968,0.0893932
2.28565,0.132991,-0.106649
2.19689,0.0203227,-0.115139
2.27107,0.132143,0.279325
2.19261,0.0202832,0.179002
2.1839,0.0202026,0.398199
2.27553,0.132402,-0.05304
2.35108,0.243376,-0.0412575
2.18704,0.011834,-0.0636501
2.18862,0.0118426,-0.437734
2.27664,0.123698,0
2.12585,-0.0924439,-0.0247722
2.19426,0.0118731,-0.279305
2.34742,0.242997,0.0137161
2.20393,0.0119254,-0.0128095
2.27149,0.123418,-0.245038
2.12077,-0.092223,-0.198157
2.28002,0.123881,0.053133
2.11386,-0.0919226,0.0246325
2.27508,0.123613,-0.159324
2.19267,0.0118645,-0.179002
2.34646,0.242898,0.0686537
2.19963,0.0119022,0.0383953
2.12239,-0.0922937,-0.12372
2.27279,0.123489,0.132557
2.19015,0.0118509,0.0892304
2.27817,0.123781,-0.106277
2.18896,0.0118444,-0.11472
2.18071,0.0117998,0.178025
2.18003,0.0117961,0.397481
2.28002,0.123881,-0.053133
2.33997,0.233973,-0.0410481
2.18307,0.00419151,-0.0635337
2.18473,0.0041947,-0.436949
2.26508,0.11514,0
2.12152,-0.0996767,-0.0247257
2.19032,0.00420544,-0.2788
2.34427,0.234403,0.0136929
2.19596,0.00421626,-0.012763
2.26794,0.115286,-0.24461
2.12043,-0.0996258,-0.198157
2.11752,-0.099489,0.0246791
2.2755,0.11567,-0.159324
2.18872,0.00420235,-0.178676
2.18766,0.00420033,0.0381859
2.12206,-0.0997023,-0.12372
2.18219,0.00418981,0.0889047
2.27858,0.115827,-0.106277
2.185,0.00419521,-0.114511
2.26405,0.115088,0.27835
2.17675,0.00417938,0.1777
2.17612,0.00417817,0.396764
2.27245,0.115515,-0.0529469
2.17508,-0.00265664,-0.063301
2.17689,-0.00265885,-0.43538
2.26543,0.108024,0
2.18636,-0.00267041,-0.278295
2.18796,-0.00267237,-0.0127165
2.25637,0.107593,-0.243325
2.10818,-0.105688,-0.197041
2.26881,0.108186,0.0528539
2.1172,-0.106141,0.0246791
2.27186,0.108331,-0.159045
2.18074,-0.00266356,-0.178025
2.18367,-0.00266713,0.0381161
2.11376,-0.105968,-0.123255
2.25362,0.107461,0.131394
2.17419,-0.00265556,0.0885791
2.26696,0.108098,-0.105719
2.18101,-0.00266388,-0.114302
2.26044,0.107786,0.277862
2.17676,-0.00265869,0.1777
2.33513,0.226083,-0.0955807
2.18006,-0.00266272,0.397481
2.25682,0.107614,-0.0525747
2.3296,0.216521,-0.0408386
2.16706,-0.0109684,-0.0630683
2.25384,0.0987989,0
2.1784,-0.0110258,-0.277285
2.32992,0.21655,0.0135999
2.18394,-0.0110538,-0.0126932
2.25279,0.0987532,-0.242896
2.0998,-0.113353,-0.196298
2.26521,0.0992976,0.0527608
2.1008,-0.113407,0.0244928
2.26429,0.0992572,-0.158487
2.18072,-0.0110375,-0.178025
2.32897,0.216462,0.0680718
2.18364,-0.0110523,0.0381161
2.10935,-0.113869,-0.123022
2.258,0.0989816,0.131627
2.17417,-0.0110044,0.0885791
2.25539,0.0988669,-0.10516
2.17698,-0.0110186,-0.114092
2.2529,0.098758,0.276887
2.17274,-0.0109972,0.177375
2.25323,0.0987722,-0.0524816
2.16781,-0.0185392,-1.0109
2.33034,0.208388,-0.0408386
2.24617,0.090609,0
2.18231,-0.0186632,-0.27779
2.32668,0.20806,0.0135766
2.17588,-0.0186082,-0.0126467
2.25312,0.0908893,-0.242896
2.09939,-0.120682,-0.196298
2.25356,0.0909068,0.0524816
2.0924,-0.12028,0.0243997
2.26064,0.0911924,-0.158208
2.16871,-0.0185468,-0.177049
2.17559,-0.0186057,0.0379764
2.32195,0.207638,-0.149405
2.10097,-0.120772,-0.122557
2.24636,0.0906167,0.130929
2.17012,-0.0185589,0.0884162
2.25971,0.0911551,-0.105346
2.16495,-0.0185147,-0.113464
2.24133,0.0904137,0.275425
2.16472,-0.0185127,0.176724
2.24956,0.0907457,-0.0523886
2.16411,-0.0253077,-1.00921
2.327,0.200722,-0.0407688
2.24645,0.0835513,0
2.10399,-0.12758,-0.0245394
2.17431,-0.0254268,-0.27678
2.31536,0.199718,0.0135069
2.2534,0.0838099,-0.242896
2.09105,-0.126795,-0.195554
2.25383,0.083826,0.0524816
2.09202,-0.126854,0.0243997
2.25294,0.0837927,-0.15765
2.16465,-0.0253139,-0.176724
2.31442,0.199637,0.0676064
2.17552,-0.025441,0.0379764
2.31862,0.199999,-0.149149
2.10058,-0.127373,-0.122557
2.25063,0.0837068,0.131162
2.16206,-0.0252836,0.0880906
2.25599,0.0839064,-0.10516
2.16488,-0.0253166,-0.113464
2.2416,0.0833712,0.275425
2.15668,-0.0252207,0.176073
2.24584,0.0835287,-0.0522955
2.16039,-0.0328072,-1.00752
2.31175,0.191278,-0.0404896
2.15484,-0.0327229,-0.0627192
2.23873,0.0754392,0
2.09954,-0.134668,-0.0244928
2.1623,-0.0328363,-0.275265
2.23778,0.0754072,-0.241183
2.09457,-0.134349,-0.195926
2.25011,0.0758229,0.0523886
2.08757,-0.1339,0.0243531
2.24923,0.075793,-0.157371
2.15259,-0.0326888,-0.175747
2.31112,0.191226,0.06749
2.16742,-0.032914,0.0378368
2.31134,0.191245,-0.148637
2.09613,-0.134449,-0.122325
2.23893,0.0754461,0.130464
2.15796,-0.0327703,0.0879277
2.24828,0.0757612,-0.104788
2.1528,-0.0326919,-0.112836
2.22601,0.0750106,0.273475
2.15259,-0.0326888,0.175747
2.31417,0.191478,-0.0946037
2.23413,0.0752841,-0.0520164
2.16388,-0.0407931,-1.00921
2.31243,0.182805,-0.0404896
2.23899,0.0672339,0
2.22423,0.0667906,-0.346194
2.15423,-0.0406112,-0.274255
2.30477,0.182199,0.0134371
2.16358,-0.0407874,-0.012577
2.23406,0.0670859,-0.240754
2.08214,-0.141216,-0.194811
2.23838,0.0672157,0.0521094
2.07908,-0.141009,0.02426
2.24151,0.0673096,-0.156813
2.14847,-0.0405026,-0.175422
2.30383,0.182125,0.0672573
2.16329,-0.0407819,0.037767
2.30805,0.182458,-0.148382
2.09164,-0.14186,-0.122092
2.23121,0.0670003,0.129999
2.14983,-0.0405283,0.0876021
2.24056,0.067281,-0.104416
2.16065,-0.0407322,-0.113255
2.23024,0.066971,0.273962
2.14847,-0.0405026,0.175422
2.3029,0.182051,-0.0941152
2.23039,0.0669756,-0.0519233
2.1601,-0.0482657,-1.00752
2.2971,0.173526,-0.0402103
2.14256,-0.0478738,-0.0623701
2.21922,0.0588868,0
2.2205,0.0589207,-0.345579
2.15011,-0.0480426,-0.27375
2.3014,0.173851,0.0134139
2.15942,-0.0482507,-0.0125537
2.22633,0.0590756,-0.239897
2.07767,-0.148201,-0.194439
2.23461,0.0592952,0.0520164
2.0706,-0.147696,0.0241669
2.23376,0.0592726,-0.156255
2.14034,-0.0478243,-0.174771
2.30071,0.173798,-0.14787
2.08317,-0.148593,-0.121627
2.21946,0.0588931,0.129301
2.14568,-0.0479437,0.0874392
2.2288,0.059141,-0.103857
2.14452,-0.0479177,-0.112418
2.21855,0.0588691,0.2725
2.1523,-0.0480915,0.175747
2.31548,0.174914,-0.0946037
2.22262,0.058977,-0.0517372
2.15629,-0.0557113,-1.00583
2.2977,0.165507,-0.0402103
2.13438,-0.0551453,-0.0621374
2.22341,0.0512328,0
2.08204,-0.155818,-0.0243066
2.21279,0.050988,-0.344349
2.14596,-0.0554444,-0.273244
2.29402,0.165242,0.0133674
2.22255,0.0512129,-0.239469
2.07714,-0.155451,-0.194439
2.22281,0.0512189,0.0517372
2.06608,-0.154624,0.0241203
2.22996,0.0513837,-0.155975
2.14016,-0.0552946,-0.174771
2.3013,0.165767,-0.14787
2.07866,-0.155565,-0.121394
2.21965,0.0511461,0.129301
2.1455,-0.0554326,0.0874392
2.22899,0.0513614,-0.103857
2.13635,-0.0551962,-0.111999
2.21081,0.0509423,0.271525
2.13618,-0.0551916,0.174445
2.29614,0.165395,-0.0937896
2.21881,0.0511268,-0.0516442
2.30225,0.157759,-0.0402802
2.13018,-0.0624781,-0.062021
2.21958,0.0433931,0
2.07749,-0.162773,-0.02426
2.21295,0.0432636,-0.344349
2.14576,-0.0629349,-0.273244
2.29059,0.15696,0.0133442
2.22669,0.0435322,-0.239897
2.07261,-0.16239,-0.194067
2.22697,0.0435377,0.0518303
2.06553,-0.161835,0.0241203
2.22614,0.0435214,-0.155696
2.13199,-0.0625311,-0.17412
2.2939,0.157187,-0.147358
2.21981,0.0433978,0.129301
2.13331,-0.0625699,0.0869508
2.22516,0.0435023,-0.103671
2.13615,-0.0626531,-0.111999
2.21097,0.0432249,0.271525
2.13199,-0.0625311,0.17412
2.28474,0.156559,-0.0933011
2.21898,0.0433814,-0.0516442
2.28682,0.148684,-0.0400009
2.12995,-0.0699134,-0.062021
2.20772,0.0354524,0
2.06495,-0.169044,-0.0241203
2.20123,0.0353483,-0.342505
2.13759,-0.0701643,-0.272234
2.27915,0.148185,0.0132744
2.21092,0.0355039,-0.238184
2.06409,-0.168974,-0.193324
2.21511,0.0355712,0.0515511
2.06097,-0.168718,0.0240738
2.21431,0.0355582,-0.154859
2.13176,-0.0699727,-0.17412
2.27822,0.148125,0.0664428
2.28249,0.148402,-0.146591
2.06558,-0.169096,-0.120697
2.21197,0.0355207,0.128836
2.13708,-0.0701473,0.0871136
2.13592,-0.0701093,-0.111999
2.20714,0.0354431,0.271037
2.28129,0.148324,-0.0931383
2.21112,0.035507,-0.0514581
2.28733,0.1407,-0.0400009
2.1257,-0.0772028,-0.0619047
2.19983,0.0276453,0
2.06435,-0.176251,-0.0241203
2.19739,0.0276147,-0.34189
2.13337,-0.0774814,-0.271729
2.27566,0.139983,0.0132512
2.13056,-0.0773794,-0.012391
2.20706,0.0277362,-0.237755
2.05952,-0.175839,-0.192952
2.21123,0.0277886,0.0514581
2.04841,-0.17489,0.0239341
2.21043,0.0277785,-0.15458
2.12353,-0.0771241,-0.173469
2.27474,0.139926,0.0663264
2.28698,0.140679,-0.146847
2.20409,0.0276989,0.128371
2.12084,-0.0770264,0.0864623
2.20144,0.0276656,-0.102555
2.12768,-0.0772746,-0.11158
2.19931,0.0276388,0.270062
2.12353,-0.0771241,0.173469
2.28179,0.14036,-0.0931383
2.19923,0.0276378,-0.0511789
2.27583,0.13202,-0.0397915
2.11743,-0.0843043,-0.0616719
2.19991,0.0199663,0
2.05974,-0.183102,-0.0240738
2.20143,0.0199801,-0.342505
2.12912,-0.0847699,-0.271224
2.26815,0.131575,0.0132047
2.13028,-0.0848159,-0.012391
2.19521,0.0199236,-0.23647
2.05889,-0.183027,-0.192952
2.19931,0.0199609,0.0511789
2.04779,-0.182039,0.0239341
2.20253,0.0199901,-0.154022
2.12325,-0.0845362,-0.173469
2.27122,0.131753,0.0662101
2.2755,0.132001,-0.146079
2.05639,-0.182805,-0.120232
2.1922,0.0198963,0.127673
2.11257,-0.0841111,0.0861366
2.20951,0.0200535,-0.102927
2.11941,-0.0843833,-0.111162
2.11927,-0.0843775,0.173144
2.27828,0.132163,-0.0929754
2.19532,0.0199246,-0.0510859
2.26827,0.124036,-0.0396519
2.11314,-0.0911531,-0.0615556
2.18796,0.0126019,0
2.04717,-0.188829,-0.0239341
2.19358,0.0126342,-0.341275
2.12883,-0.0918299,-0.271224
2.26458,0.123834,0.0131814
2.12998,-0.0918797,-0.012391
2.19526,0.012644,-0.23647
2.05034,-0.189122,-0.192208
2.19937,0.0126676,0.0511789
2.04717,-0.188829,0.0239341
2.19061,0.0126172,-0.153185
2.11897,-0.0914048,-0.173144
2.25967,0.123566,0.065861
2.12969,-0.0918673,0.0372085
2.27194,0.124237,-0.145823
2.03987,-0.188156,-0.119301
2.19225,0.0126266,0.127673
2.11628,-0.0912884,0.0862994
2.11513,-0.0912389,-0.110952
2.1796,0.0125537,0.267625
2.10703,-0.0908894,0.172167
2.26673,0.123952,-0.0924869
2.19137,0.0126215,-0.0509928
2.26471,0.115518,-0.0395821
2.1048,-0.0985237,-0.0613228
2.184,0.00457416,0
2.04646,-0.196331,-0.0239341
2.18175,0.00456946,-0.33943
2.12451,-0.0994463,-0.270719
2.26502,0.115534,0.0131814
2.12164,-0.0993118,-0.0123445
2.17939,0.00456451,-0.234757
2.04964,-0.196636,-0.192208
2.1914,0.00458967,0.0509928
2.04646,-0.196331,0.0239341
2.19065,0.00458809,-0.153185
2.11066,-0.0987978,-0.172493
2.2644,0.115502,-0.145312
2.04712,-0.196394,-0.119766
2.18829,0.00458315,0.127441
2.11193,-0.0988574,0.0861366
2.19362,0.00459431,-0.102182
2.11877,-0.0991774,-0.111162
2.17963,0.00456501,0.267625
2.25519,0.115032,-0.0919985
2.1874,0.0045813,-0.0508998
2.26111,0.107422,-0.0395123
2.10844,-0.106071,-0.0614392
2.176,-0.00303827,0
2.04577,-0.203473,-0.0239341
2.17385,-0.00303527,-0.3382
2.12019,-0.106662,-0.270214
2.24942,0.106867,0.0130884
2.11729,-0.106516,-0.0123213
2.17939,-0.00304301,-0.234757
2.04498,-0.203395,-0.191837
2.1914,-0.00305978,0.0509928
2.04179,-0.203078,0.0238875
2.18666,-0.00305315,-0.152906
2.10632,-0.105964,-0.172167
2.117,-0.106502,0.0369991
2.25283,0.107029,-0.144544
2.04244,-0.203143,-0.119534
2.1843,-0.00304986,0.127208
2.10758,-0.106028,0.0859738
2.19362,-0.00306287,-0.102182
2.11043,-0.106171,-0.110743
2.17963,-0.00304334,0.267625
2.25159,0.10697,-0.0918356
2.18341,-0.00304861,-0.0508067
2.24545,0.0996091,-0.039233
2.10011,-0.112268,-0.0612065
2.17598,-0.00987434,0
2.03716,-0.209083,-0.0238409
2.17383,-0.00986458,-0.3382
2.11192,-0.112899,-0.269204
2.24975,0.0997999,0.0130884
2.10496,-0.112527,-0.0122515
2.17539,-0.00987169,-0.234328
2.17939,-0.00988982,0.0507136
2.03318,-0.208674,0.0237944
2.17866,-0.0098865,-0.152348
2.102,-0.112368,-0.171842
2.24484,0.0995821,0.0653955
2.11266,-0.112938,0.0369293
2.24917,0.0997741,-0.144288
2.03782,-0.209151,-0.119301
2.1723,-0.00985764,0.126511
2.09527,-0.112009,0.0854853
2.18161,-0.00989991,-0.101624
2.11009,-0.112801,-0.110743
2.1677,-0.00983677,0.266163
2.25192,0.0998959,-0.0918356
2.17539,-0.00987167,-0.0506206
2.24578,0.0917704,-0.039233
2.08773,-0.118916,-0.0608574
2.16393,-0.0173735,0
2.02846,-0.215348,-0.0237478
2.17378,-0.0174526,-0.3382
2.10755,-0.120044,-0.268699
2.23809,0.0914562,0.0130187
2.10455,-0.119874,-0.0122515
2.16739,-0.0174013,-0.233472
2.17134,-0.017433,0.0505275
2.02449,-0.214926,0.0237012
2.17462,-0.0174593,-0.152069
2.10159,-0.119705,-0.171842
2.24118,0.0915823,0.0652792
2.10427,-0.119857,0.0367897
2.24552,0.0917595,-0.144032
2.02517,-0.214998,-0.118604
2.17225,-0.0174403,0.126511
2.08688,-0.118867,0.0851596
2.17757,-0.017483,-0.101438
2.1017,-0.119711,-0.110324
2.16368,-0.0173715,0.265675
2.08567,-0.118798,0.17054
2.24826,0.0918715,-0.0916728
2.17934,-0.0174972,-0.0507136
2.2461,0.0835386,-0.039233
2.08728,-0.126567,-0.0608574
2.02368,-0.222344,-0.0237012
2.1658,-0.0253273,-0.336971
2.10314,-0.127528,-0.268194
2.23442,0.0831039,0.0129954
2.09611,-0.127102,-0.012205
2.16334,-0.0252986,-0.233043
2.17126,-0.0253913,0.0505275
2.01573,-0.221471,0.0236081
2.16257,-0.0252896,-0.151232
2.09318,-0.126924,-0.171191
2.24185,0.0833803,-0.143777
2.02437,-0.222419,-0.118604
2.17217,-0.0254019,0.126511
2.08244,-0.126273,0.0849968
2.1695,-0.0253706,-0.101066
2.09328,-0.12693,-0.109906
2.08124,-0.1262,0.170214
2.24059,0.0833335,-0.0913472
2.17126,-0.0253913,-0.0505275
2.23837,0.075819,-0.0390934
2.08286,-0.133232,-0.060741
2.15176,-0.0322999,0
2.09874,-0.134248,-0.267689
2.23068,0.0755584,0.0129722
2.09967,-0.134308,-0.0122283
2.15529,-0.0323529,-0.232186
2.16717,-0.0325313,0.0504345
2.01101,-0.227704,0.0235616
2.16248,-0.0324608,-0.151232
2.08479,-0.133356,-0.17054
2.23812,0.0758104,-0.143521
2.02362,-0.229131,-0.118604
2.16409,-0.0324851,0.126045
2.15742,-0.0323849,-0.100507
2.08886,-0.133616,-0.109696
2.14763,-0.032238,0.263725
2.22887,0.0754971,-0.0908587
2.16717,-0.0325313,-0.0504345
2.23064,0.0673729,-0.0389538
2.09034,-0.141405,-0.0609738
2.14363,-0.0400369,0
2.00619,-0.234609,-0.023515
2.14976,-0.0401515,-0.334511
2.09428,-0.141672,-0.267184
2.22295,0.0671406,0.0129257
2.08719,-0.141193,-0.0121585
2.16304,-0.0403995,0.0503414
2.01016,-0.235073,0.0235616
2.15835,-0.040312,-0.150953
2.08031,-0.140727,-0.170214
2.0909,-0.141444,0.0365802
2.22243,0.0671247,-0.142497
2.01483,-0.235619,-0.118138
2.15996,-0.040342,0.125813
2.07752,-0.140539,0.084834
2.15329,-0.0402174,-0.100321
2.08836,-0.141271,-0.109696
2.1475,-0.0401092,0.263725
2.22514,0.0672067,-0.0906958
2.15904,-0.0403248,-0.0502484
2.21487,0.059159,-0.0386745
2.06989,-0.147282,-0.060392
2.14747,-0.047608,0
2.00933,-0.242088,-0.0235616
2.14566,-0.0475677,-0.333896
2.21917,0.0592738,0.0129024
2.07472,-0.147626,-0.0120888
2.15889,-0.047861,0.0502484
2.00933,-0.242088,0.0235616
2.15022,-0.0476689,-0.150395
2.07981,-0.147988,-0.170214
2.21427,0.059143,0.0644646
2.08641,-0.148457,0.0365104
2.22265,0.0593666,-0.142497
2.014,-0.242651,-0.118138
2.15582,-0.047793,0.12558
2.06905,-0.147222,0.0845083
2.15314,-0.0477335,-0.100321
2.08785,-0.14856,-0.109696
2.14734,-0.0476051,0.263725
2.06788,-0.147139,0.169238
2.22536,0.0594391,-0.0906958
2.15489,-0.0477724,-0.0501553
2.21107,0.0513345,-0.0386047
2.06936,-0.154506,-0.060392
2.00054,-0.248116,-0.0234684
2.14152,-0.0549557,-0.333281
2.21537,0.0514343,0.0128792
2.07818,-0.155165,-0.012112
2.14289,-0.0549909,-0.230901
2.15471,-0.055294,0.0501553
1.99657,-0.247624,0.0234219
2.14206,-0.0549695,-0.149837
2.0753,-0.15495,-0.169889
2.21885,0.0515151,-0.142242
2.00521,-0.248696,-0.117673
2.14765,-0.055113,0.125115
2.14896,-0.0551466,-0.100135
2.07537,-0.154955,-0.109068
2.14319,-0.0549986,0.263238
2.22156,0.051578,-0.090533
2.15471,-0.055294,-0.0501553
2.21522,0.0440816,-0.0386745
2.06087,-0.160746,-0.0601592
2.13111,-0.0617607,0
1.99177,-0.253738,-0.0233753
2.13343,-0.061828,-0.332051
2.21153,0.044008,0.012856
2.06968,-0.161433,-0.0120655
2.13475,-0.0618663,-0.230044
2.15051,-0.0623232,0.0500623
1.99573,-0.254243,0.0234219
2.13788,-0.061957,-0.149558
2.07478,-0.161831,-0.169889
2.07737,-0.162034,0.0363708
2.21103,0.043998,-0.14173
1.99249,-0.253831,-0.116976
2.14746,-0.0622346,0.125115
2.13679,-0.0619253,-0.0995766
2.07086,-0.161526,-0.108859
2.13506,-0.0618754,0.262263
2.20573,0.0438927,-0.0898817
2.14252,-0.0620915,-0.0498762
2.19937,0.0360863,-0.0383953
2.05631,-0.167614,-0.0600429
2.12688,-0.0690694,0
1.99483,-0.261208,-0.0234219
2.1253,-0.0690181,-0.330821
2.20367,0.0361568,0.0128095
2.0691,-0.168657,-0.0120655
2.13452,-0.0693175,-0.230044
2.14229,-0.0695699,0.0498762
1.99087,-0.260689,0.0233753
2.12569,-0.0690307,-0.148721
2.06228,-0.168101,-0.168913
2.19877,0.0360765,0.0639992
2.06882,-0.168634,0.0362312
2.20318,0.0361489,-0.141218
2.14324,-0.0696006,0.124883
2.13256,-0.069254,-0.0993905
2.06232,-0.168104,-0.10844
2.1269,-0.06907,0.261288
2.14229,-0.0695699,-0.0498762
2.19949,0.0280249,-0.0383953
2.05966,-0.175489,-0.0601592
2.12261,-0.0767199,0
1.99386,-0.268518,-0.0234219
2.12503,-0.0768073,-0.330821
2.19978,0.0280287,0.0127862
2.0605,-0.17556,-0.012019
1.98594,-0.26745,0.0233287
2.12542,-0.0768212,-0.148721
2.05767,-0.17532,-0.168587
2.19489,0.0279664,0.0638828
2.06022,-0.175537,0.0360916
2.13499,-0.077167,0.124418
2.1283,-0.0769254,-0.0992044
2.06169,-0.175662,-0.10844
2.13457,-0.0771518,0.262263
2.194,0.0279551,-0.0893932
2.13003,-0.076988,-0.049597
2.19557,0.0203102,-0.0383255
2.05107,-0.181971,-0.0599265
2.11834,-0.0839703,0
1.98499,-0.274381,-0.0233287
2.19587,0.0203129,0.012763
2.04792,-0.181691,-0.0119493
1.98499,-0.274381,0.0233287
2.12514,-0.0842399,-0.148721
2.05308,-0.182149,-0.168262
2.18698,0.0202307,0.0636501
2.0596,-0.182727,0.0360916
2.1954,0.0203086,-0.140707
2.13071,-0.0844609,0.124185
2.04228,-0.181191,0.0835313
2.12802,-0.0843541,-0.0992044
2.05709,-0.182504,-0.108231
2.12238,-0.0841306,0.2608
2.19409,0.0202964,-0.0893932
2.12975,-0.0844227,-0.049597
2.18763,0.0126,-0.0381859
2.04246,-0.188395,-0.0596938
2.11803,-0.0913641,0
1.98006,-0.280747,-0.0232822
2.18793,0.0126017,0.0127165
2.04329,-0.188471,-0.011926
2.10982,-0.09101,-0.227474
1.9761,-0.280185,0.0232356
2.11686,-0.0913135,-0.148163
2.04449,-0.188582,-0.167611
2.18704,0.0125966,0.0636501
2.05098,-0.189181,0.035952
2.18348,0.0125761,-0.139939
2.12243,-0.0915537,0.12372
2.11574,-0.0912651,-0.098646
2.04848,-0.18895,-0.107812
2.11811,-0.0913675,0.260313
2.03655,-0.18785,0.16696
2.19015,0.0126145,-0.0892304
2.12145,-0.0915117,-0.0494109
2.18766,0.00534548,-0.0381859
2.04183,-0.195167,-0.0596938
2.10972,-0.098016,0
1.97912,-0.287311,-0.0232822
2.18396,0.00533643,0.0126932
2.04266,-0.195246,-0.011926
2.10554,-0.0978214,-0.227046
2.12114,-0.0985462,0.0494109
1.9712,-0.286162,0.023189
2.10857,-0.0979624,-0.147605
2.03592,-0.194602,-0.16696
2.18307,0.00533426,0.0635337
2.04636,-0.1956,0.0358821
2.17952,0.0053256,-0.139683
2.11812,-0.0984062,0.123487
2.11542,-0.0982807,-0.098646
2.04387,-0.195362,-0.107603
2.11383,-0.0982067,0.259825
2.17819,0.00532233,-0.0887419
2.11315,-0.098175,-0.0492248
2.17967,-0.00190212,-0.0380462
2.03719,-0.201543,-0.0595774
2.1014,-0.104614,0
1.97024,-0.292697,-0.023189
2.17996,-0.00190238,0.01267
2.03802,-0.201625,-0.0119028
2.10123,-0.104605,-0.226617
1.9742,-0.293285,0.0232356
2.10823,-0.104954,-0.147605
2.03129,-0.20096,-0.166634
2.17508,-0.00189811,0.063301
2.03774,-0.201598,0.0357425
2.17554,-0.00189851,-0.139427
2.1138,-0.105231,0.123255
2.11109,-0.105096,-0.0984599
2.03526,-0.201352,-0.107184
2.10953,-0.105018,0.259338
2.1742,-0.00189734,-0.0885791
2.11681,-0.105381,-0.0493179
2.17165,-0.00985468,-0.0379066
2.03246,-0.2086,-0.0594611
2.101,-0.112315,0
1.9652,-0.299314,-0.0231425
2.17594,-0.00987416,0.0126467
2.03328,-0.208685,-0.0118796
1.96125,-0.298712,0.0230959
2.09987,-0.112254,-0.147047
2.03054,-0.208404,-0.166634
2.16706,-0.00983387,0.0630683
2.02903,-0.208248,0.0356029
2.10542,-0.112551,0.12279
2.1067,-0.11262,-0.0982737
2.03848,-0.209218,-0.107393
2.1012,-0.112326,0.258363
2.10442,-0.112498,-0.0490387
2.1636,-0.0173709,-0.037767
2.01979,-0.214427,-0.059112
2.1006,-0.119648,0
1.9681,-0.306788,-0.023189
2.17189,-0.0174374,0.0126235
2.02459,-0.214937,-0.0118331
2.08851,-0.11896,-0.225332
2.10801,-0.120071,0.0491318
1.96019,-0.305556,0.0230959
2.10743,-0.120038,-0.147605
2.16701,-0.0173983,0.0630683
2.02431,-0.214908,0.0355331
2.10103,-0.119673,0.122557
2.01897,-0.21434,0.0827172
2.10231,-0.119746,-0.0980876
2.03376,-0.215911,-0.107184
2.09683,-0.119434,0.257876
2.10003,-0.119616,-0.0489456
2.15953,-0.0248771,-0.0376972
2.08819,-0.126256,0
1.95911,-0.312397,-0.0230959
2.16382,-0.0249265,0.012577
2.02383,-0.222002,-0.0118331
2.08809,-0.12625,-0.225332
2.10359,-0.127187,0.0490387
1.95517,-0.311767,0.0230493
2.09505,-0.126671,-0.146768
2.16294,-0.0249164,0.0629519
2.02355,-0.221972,0.0355331
2.15943,-0.0248759,-0.138404
2.1006,-0.127006,0.122557
2.0939,-0.126601,-0.0977154
2.15807,-0.0248602,-0.0879277
2.0956,-0.126704,-0.0488526
2.15543,-0.0323551,-0.0376274
2.0103,-0.227623,-0.0588792
2.08374,-0.133289,0
1.95801,-0.319233,-0.0230959
2.15972,-0.0324195,0.0125537
2.01906,-0.228616,-0.0118098
2.07969,-0.13303,-0.224475
2.09061,-0.133728,-0.146489
2.15085,-0.0322863,0.0626028
2.01879,-0.228585,0.0354633
2.15533,-0.0323536,-0.138148
2.09217,-0.133828,0.122092
2.08946,-0.133655,-0.0975292
2.01633,-0.228306,-0.106347
2.14997,-0.0322732,-0.0876021
2.08318,-0.133253,-0.0485734
2.15131,-0.0394293,-0.0375576
2.00556,-0.233825,-0.0587629
2.08329,-0.140198,0
1.94511,-0.323755,-0.0229562
2.1516,-0.0394346,0.0125072
2.01432,-0.234847,-0.0117866
2.08321,-0.140193,-0.224904
2.09469,-0.140966,0.0488526
2.08618,-0.140392,-0.14621
2.14673,-0.0393453,0.0624865
2.01008,-0.234352,0.0353237
2.09172,-0.140765,0.122092
2.08103,-0.140046,-0.097157
2.08671,-0.140429,-0.0486665
2.14316,-0.046764,-0.037418
2.00076,-0.240347,-0.0586465
2.07481,-0.146904,0
1.95185,-0.331883,-0.0230493
2.14345,-0.0467703,0.0124607
2.00952,-0.241399,-0.0117633
2.07874,-0.147183,-0.224475
2.08169,-0.147392,-0.145931
2.14258,-0.0467513,0.0623701
2.00528,-0.24089,0.0352539
2.08325,-0.147502,0.121627
2.08053,-0.147309,-0.097157
2.14171,-0.0467323,-0.0872764
2.07424,-0.146864,-0.0483873
2.13499,-0.0540423,-0.0372783
2.0663,-0.153553,0
2.13528,-0.0540497,0.0124142
1.99675,-0.24694,-0.0116936
2.06632,-0.153554,-0.22319
2.07321,-0.154066,-0.145372
2.14241,-0.05423,0.0623701
2.00045,-0.247397,0.0351841
2.13493,-0.0540409,-0.136869
2.07475,-0.154181,0.121162
2.08,-0.154571,-0.097157
1.99802,-0.247096,-0.105509
2.06973,-0.153808,-0.0482943
2.13879,-0.0616097,-0.0373482
2.06575,-0.160765,0
2.13508,-0.0615028,0.0124142
1.99985,-0.254413,-0.0117168
2.0618,-0.160457,-0.222762
2.07716,-0.161652,0.0484804
2.06868,-0.160992,-0.145093
2.13821,-0.061593,0.0622537
1.99561,-0.253874,0.0351142
2.13074,-0.061378,-0.136613
2.06624,-0.160802,0.120697
1.9903,-0.253197,0.0817402
2.07148,-0.161211,-0.0967847
1.99318,-0.253564,-0.1053
2.12935,-0.0613378,-0.0867879
2.06918,-0.161031,-0.0482943
2.12657,-0.0686877,-0.0371387
2.06119,-0.16765,0
2.13485,-0.0689553,0.0124142
1.99895,-0.261392,-0.0117168
2.06916,-0.168298,-0.223619
2.06861,-0.168253,0.0482943
2.0681,-0.168212,-0.145093
2.12999,-0.0687982,0.062021
1.98678,-0.259801,0.0349746
2.12653,-0.0686864,-0.136357
2.06567,-0.168014,0.120697
2.07091,-0.16844,-0.0967847
2.12513,-0.0686412,-0.0866251
2.05665,-0.167281,-0.0480151
2.13031,-0.0762535,-0.0372085
2.05661,-0.174506,0
2.1266,-0.0761207,0.0123678
1.99406,-0.267836,-0.0116936
2.06004,-0.174797,0.0481082
2.06353,-0.175093,-0.144814
2.12174,-0.0759468,0.0617883
1.98586,-0.266735,0.0349746
2.12228,-0.0759661,-0.136102
2.05711,-0.174548,0.120232
2.05836,-0.174655,-0.0962264
2.12088,-0.0759159,-0.0864623
2.06004,-0.174797,-0.0481082
2.12204,-0.0833751,-0.0370689
2.04802,-0.18098,0
2.11833,-0.0832294,0.0123213
1.98915,-0.274248,-0.0116703
2.05942,-0.181987,0.0481082
2.05495,-0.181592,-0.144256
2.11347,-0.0830386,0.0615556
1.97699,-0.272572,0.034835
2.11802,-0.0832171,-0.135846
2.05251,-0.181376,0.119999
2.05774,-0.181839,-0.0962264
2.04746,-0.180931,-0.047829
2.11774,-0.090611,-0.0369991
2.04737,-0.188127,0
2.11803,-0.0906233,0.0123213
1.98026,-0.28007,-0.0116238
2.05479,-0.188808,0.0480151
2.05828,-0.18913,-0.144535
2.11317,-0.0904155,0.0615556
1.97603,-0.279472,0.034835
2.11373,-0.0904393,-0.13559
2.03994,-0.187444,0.119301
2.04914,-0.188289,-0.0958541
2.11231,-0.0903788,-0.0861366
2.04284,-0.187711,-0.047736
2.11343,-0.0974489,-0.0369293
2.03878,-0.194157,0
2.10573,-0.0970937,0.0122515
1.98328,-0.287208,-0.0116471
2.04221,-0.194484,0.047736
2.04175,-0.194441,-0.143419
2.10487,-0.0970542,0.0613228
1.97509,-0.286023,0.034835
2.10943,-0.0972642,-0.135334
2.04452,-0.194705,-0.095668
2.10801,-0.0971989,-0.0859738
2.03822,-0.194105,-0.0476429
2.10511,-0.104062,-0.0367897
2.03016,-0.200132,0
2.10539,-0.104076,0.0122515
1.9744,-0.292611,-0.0116006
2.04155,-0.201255,0.047736
2.0411,-0.20121,-0.143419
2.10054,-0.103836,0.0612065
1.97413,-0.292571,0.034835
2.10909,-0.104259,-0.135334
2.03865,-0.200969,0.119301
2.03591,-0.200699,-0.0952957
2.09969,-0.103794,-0.0856481
2.03359,-0.20047,-0.0475499
2.10074,-0.111198,-0.0367199
2.03343,-0.207624,0
2.09703,-0.111002,0.012205
1.97337,-0.299501,-0.0116006
2.03686,-0.207974,0.0476429
2.03641,-0.207929,-0.14314
2.09618,-0.110957,0.0610901
1.96124,-0.29766,0.0346256
2.10074,-0.111198,-0.134823
2.03396,-0.207678,0.119069
2.03918,-0.208211,-0.0954819
2.09932,-0.111123,-0.0856481
2.02492,-0.206755,-0.0473638
2.09632,-0.118671,-0.0366501
2.0247,-0.214234,0
2.08862,-0.118235,0.0121585
1.9604,-0.304888,-0.0115308
2.0321,-0.215017,0.0475499
2.03167,-0.214971,-0.142861
2.08777,-0.118187,0.0608574
2.08837,-0.11822,-0.134055
2.02127,-0.213871,0.118371
2.0384,-0.215683,-0.0954819
2.09092,-0.118365,-0.0853225
2.0959,-0.125988,-0.0366501
2.01996,-0.220865,0
2.0842,-0.125285,0.0121353
1.95537,-0.3111,-0.0115076
2.02737,-0.221675,0.0474568
2.03091,-0.222062,-0.142861
2.09134,-0.125714,0.0609738
2.08794,-0.125509,-0.134055
2.02969,-0.221929,-0.0951096
2.09049,-0.125663,-0.0853225
2.01544,-0.220371,-0.0471777
2.08349,-0.132178,-0.0364406
2.01127,-0.226666,0
2.07978,-0.131942,0.012112
1.95433,-0.317583,-0.0115076
2.0147,-0.227053,0.0471777
2.01826,-0.227455,-0.142024
2.08293,-0.132142,0.060741
2.0915,-0.132685,-0.134311
2.08208,-0.132088,-0.0849968
2.01072,-0.226605,-0.0470846
2.079,-0.139545,-0.0363708
2.00645,-0.233574,0
2.08328,-0.139832,0.0121353
1.95315,-0.324744,-0.0115076
2.0218,-0.23536,0.0473638
2.07445,-0.13924,0.0605083
2.08303,-0.139815,-0.133799
2.02015,-0.235169,-0.0947374
2.0776,-0.139451,-0.084834
2.01385,-0.234435,-0.0471777
2.07851,-0.146801,-0.0363708
2.07081,-0.146258,0.0120655
1.94412,-0.33022,-0.0114611
2.01302,-0.241464,0.0471777
2.07457,-0.146523,-0.133288
2.01139,-0.241267,-0.0943651
2.07311,-0.146421,-0.0846712
2.00508,-0.240511,-0.0469915
2.07402,-0.153398,-0.036301
1.99687,-0.246247,0
2.00427,-0.247159,0.0469915
2.06548,-0.152767,0.0602756
2.00264,-0.246958,-0.0939929
2.06863,-0.153,-0.0845083
2.0003,-0.246669,-0.0468985
2.06948,-0.160328,-0.0362312
1.996,-0.253216,0
2.0578,-0.159423,0.0119958
1.99546,-0.253147,0.0468054
2.06556,-0.160024,-0.132776
1.9978,-0.253444,-0.0938067
2.06011,-0.159602,-0.0841827
2.06091,-0.167265,-0.0360916
1.98713,-0.259494,0
1.99056,-0.259941,0.0467124
2.05636,-0.166896,0.0600429
2.057,-0.166948,-0.132264
2.05553,-0.166828,-0.0840198
2.0524,-0.173067,-0.035952
2.05268,-0.17309,0.0119725
1.98973,-0.266194,0.0467124
2.06045,-0.173745,-0.13252
1.98415,-0.265447,-0.0932484
2.05975,-0.18093,-0.0360916
1.98483,-0.272593,0.0466193
1.98717,-0.272915,-0.0934345
2.04642,-0.179758,-0.0836942
2.04318,-0.186663,-0.0358123
1.98386,-0.27952,0.0466193
2.03448,-0.193748,-0.0356727
1.9709,-0.285416,0.0463402
2.0346,-0.19376,-0.130985
2.03709,-0.193996,-0.0833685
2.02982,-0.200456,-0.0356029
2.03009,-0.200483,0.0118563
2.02927,-0.200402,0.0593447
2.03391,-0.200861,-0.130985
1.96594,-0.291707,-0.0462471
2.02918,-0.206832,-0.0356029
1.96106,-0.297282,-0.0461541
2.0284,-0.214268,-0.0356029
2.00619,-0.233188,-0.0352539
2.00166,-0.239746,0.0117168
1.99661,-0.245861,-0.0351142
1.99204,-0.25236,0.0116703
1.98226,-0.265546,0.0116238
1.97736,-0.271919,0.0116006
1.97649,-0.27813,0.0116006
1.96161,-0.297015,0.0115308
1.95661,-0.303248,0.0115076
