2.25719,0.109605,-0.0263088
2.25356,0.101545,-0.0262623
2.25389,0.0940718,-0.0262623
2.2542,0.0862042,-0.0262623
2.2502,0.0860513,0.0262157
2.25449,0.0783344,-0.0262623
2.24649,0.0780566,0.0261692
2.24676,0.0698228,-0.0261692
2.24676,0.0698228,0.0261692
2.25098,0.0624823,-0.0262157
2.24298,0.0622603,0.0261226
2.24319,0.0544309,0.0261226
2.24336,0.0466008,0.0261226
2.23551,0.0386309,0.0260295
2.23564,0.0308278,-0.0260295
2.2675,0.142263,-0.0132047
2.23164,0.0307727,0.0259829
2.23573,0.0230232,-0.0260295
2.23973,0.0230644,0.026076
2.2398,0.0152455,-0.026076
2.25646,0.12576,-0.0131349
2.2358,0.0152183,0.0260295
2.25686,0.118277,-0.0131349
2.23184,0.00779054,0.0259829
2.25237,0.109766,-0.0656282
2.25728,0.110005,-0.0131349
2.23185,-0.000389125,0.0259829
2.2402,-0.000390582,-0.130464
2.23184,-0.00779082,-0.0259829
2.24964,0.102156,-0.0130884
2.23184,-0.00779082,0.0259829
2.2362,-0.00780605,-0.130231
2.25706,0.0945992,-0.0657446
2.23179,-0.0155809,-0.0259829
2.25798,0.0946376,-0.0131349
2.2198,-0.0154971,0.0258432
2.26137,0.086874,-0.065861
2.22373,-0.0232869,-0.0258898
2.2503,0.0864486,-0.0130884
2.22373,-0.0232869,0.0258898
2.25367,0.0787001,-0.0656282
2.23163,-0.0311613,-0.0259829
2.24659,0.0784529,-0.0130652
2.232,-0.0311665,-0.129999
2.25393,0.0708333,-0.0656282
2.22751,-0.0388807,-0.0259363
2.24685,0.0706108,-0.0130652
2.22351,-0.0388109,0.0258898
2.23188,-0.038957,-0.129999
2.25017,0.0628529,-0.0655119
2.22336,-0.0465728,-0.0258898
2.21936,-0.046489,0.0258432
2.22774,-0.0466644,-0.129766
2.24804,0.0627934,-0.117861
2.24638,0.0549008,-0.0653955
2.21519,-0.0541376,-0.0257966
2.24729,0.0549231,-0.0130652
2.21519,-0.0541376,0.0257966
2.24656,0.0470585,-0.0653955
2.21499,-0.0618703,-0.0257966
2.24347,0.0469939,-0.0130419
2.21499,-0.0618703,0.0257966
2.24317,0.0469875,0.0391632
2.22736,-0.0622158,-0.129766
2.23366,0.0467883,0.0910215
2.24443,0.0470139,-0.117651
2.24671,0.0392157,-0.0653955
2.21476,-0.0696022,-0.0257966
2.23962,0.039092,-0.0130187
2.21914,-0.0697401,-0.129301
2.24857,0.0392482,-0.117861
2.24283,0.0313187,-0.0652792
2.2185,-0.0774708,-0.0258432
2.24374,0.0313314,-0.0130419
2.2145,-0.0773312,0.0257966
2.24344,0.0313272,0.0391632
2.21889,-0.0774844,-0.129301
2.22594,0.0310828,0.0906958
2.2447,0.0313448,-0.117651
2.23892,0.0242297,-0.0651628
2.25598,0.134821,0
2.21824,-0.0844396,-0.0258432
2.23983,0.0242395,-0.0130187
2.21025,-0.0841353,0.0257501
2.21863,-0.0844544,-0.129301
2.23002,0.0241333,0.0908587
2.24479,0.0242932,-0.117651
2.24299,0.0164429,-0.0652792
2.20994,-0.0918506,-0.0257501
2.21394,-0.0920167,0.0257966
2.2396,0.0164181,0.0390934
2.21433,-0.0920331,-0.129069
2.22609,0.0163191,0.0906958
2.24086,0.0164273,-0.117442
2.25981,0.127135,-0.0526678
2.23904,0.00859738,-0.0651628
2.26485,0.119489,0
2.20961,-0.0995648,-0.0257501
2.20961,-0.0995648,0.0257501
2.23564,0.00858436,0.0390236
2.214,-0.0997626,-0.129069
2.21814,0.00851716,0.0903702
2.24091,0.00860457,-0.117442
2.26525,0.111583,0
2.21324,-0.107471,-0.0257966
2.23596,0.00078103,-0.0129954
2.20925,-0.107277,0.0257501
2.23566,0.000780924,0.0390236
2.20566,-0.107102,-0.128604
2.23015,0.000779,0.0908587
2.25266,0.110962,-0.0524816
2.22705,-0.00699656,-0.0648137
2.25764,0.103308,0
2.20886,-0.114988,-0.0257501
2.23595,-0.00702454,-0.0129954
2.20087,-0.114572,0.0256569
2.23565,-0.00702359,0.0390236
2.21325,-0.115217,-0.129069
2.22614,-0.00699372,0.0906958
2.24091,-0.00704013,-0.117442
2.25703,0.10328,-0.0525747
2.23101,-0.0147964,-0.0649301
2.24999,0.0950898,0
2.20445,-0.122476,-0.0257035
2.23191,-0.0148024,-0.0129722
2.20445,-0.122476,0.0257035
2.23161,-0.0148004,0.0389538
2.21811,-0.0147109,0.0903702
2.23289,-0.0148089,-0.117023
2.25338,0.0952329,-0.0524816
2.22694,-0.0225441,-0.0648137
2.25431,0.0873896,0
2.20002,-0.129935,-0.0256569
2.2497,0.0872111,0.0523886
2.20002,-0.129935,0.0256569
2.21805,-0.022454,0.0903702
2.22883,-0.0225632,-0.116814
2.2537,0.087366,-0.0524816
2.22685,-0.030317,-0.0648137
2.22776,-0.0303293,-0.0129489
2.20354,-0.137863,0.0257035
2.23635,-0.0304463,-0.182582
2.22346,-0.0302708,0.0388142
2.20395,-0.137888,-0.128604
2.21795,-0.0301959,0.0903702
2.22474,-0.0302882,-0.116605
2.246,0.0792171,-0.0522955
2.21874,-0.0375655,-0.064581
2.22764,-0.0377162,-0.0129489
2.19908,-0.144906,0.0256569
2.23624,-0.0378617,-0.182582
2.21934,-0.0375757,0.0387443
2.1995,-0.144933,-0.128371
2.20985,-0.0374149,0.0900445
2.23262,-0.0378004,-0.117023
2.24225,0.0716415,-0.0522025
2.21859,-0.0456979,-0.064581
2.2471,0.0635524,0
2.22749,-0.0458812,-0.0129489
2.20506,-0.153419,-0.206336
2.25049,0.0636483,0.0523886
2.19854,-0.152965,0.0256569
2.20293,-0.153271,-0.128604
2.21369,-0.0455971,0.0902073
2.22847,-0.0459014,-0.116814
2.21217,-0.0455657,0.180629
2.2425,0.0634222,-0.0522025
2.22241,-0.0535378,-0.0646974
2.24731,0.0557086,0
2.22332,-0.0535595,-0.0129257
2.2427,0.0555945,0.0522025
2.194,-0.160347,0.0256104
2.22395,-0.0535749,-0.181606
2.20238,-0.160959,-0.128604
2.21352,-0.0533235,0.0902073
2.25286,0.0558463,-0.104974
2.21631,-0.0533908,-0.116186
2.212,-0.0532869,0.180629
2.2467,0.0556936,-0.0522955
2.21822,-0.0611855,-0.064581
2.24749,0.0478631,0
2.19741,-0.16831,-0.0256569
2.24688,0.0478501,0.0522955
2.19343,-0.168005,0.0256104
2.22375,-0.0613382,-0.181606
2.21882,-0.0612021,0.0387443
2.20181,-0.168647,-0.128604
2.21732,-0.0611607,0.0903702
2.25305,0.0479814,-0.104974
2.21212,-0.0610174,-0.115976
2.20781,-0.0608985,0.180304
2.23889,0.0476799,-0.0521094
2.21399,-0.068804,-0.0644646
2.24364,0.0399464,0
2.20333,-0.176502,-0.206336
2.22353,-0.0691002,-0.181606
2.21859,-0.0689468,0.0387443
2.19723,-0.176013,-0.128371
2.21309,-0.068776,0.0902073
2.2492,0.0400454,-0.104788
2.21589,-0.0688628,-0.116186
2.2036,-0.068481,0.179978
2.23904,0.0398644,-0.0521094
2.26311,0.143572,-0.0395821
2.21375,-0.0761455,-0.0644646
2.21465,-0.0761764,-0.0128792
2.19877,-0.183476,-0.205964
2.18825,-0.182598,0.0255638
2.2193,-0.0763363,-0.18128
2.21435,-0.0761661,0.0386745
2.18867,-0.182634,-0.127906
2.21285,-0.0761145,0.0902073
2.24533,0.0325286,-0.104602
2.21964,-0.0763479,-0.116395
2.20735,-0.0759251,0.180304
2.23516,0.0323813,-0.0520164
2.20948,-0.083721,-0.0643483
2.23986,0.0246296,0
2.21837,-0.084058,-0.0129024
2.19414,-0.190805,-0.205592
2.19158,-0.190582,0.0256104
2.223,-0.0842336,-0.181606
2.21407,-0.0838952,0.0386745
2.18802,-0.190273,-0.127906
2.20858,-0.0836871,0.0900445
2.24543,0.0246908,-0.104602
2.21537,-0.0839442,-0.116186
2.20707,-0.0836297,0.180304
2.23526,0.024579,-0.0520164
2.20917,-0.091433,-0.0643483
2.23594,0.0167808,0
2.1909,-0.198231,-0.0256104
2.21407,-0.0916356,-0.0128792
2.19346,-0.198463,-0.205592
2.23933,0.0168063,0.0521094
2.21473,-0.0916631,-0.180955
2.21377,-0.0916232,0.0386745
2.19132,-0.198269,-0.128138
2.20428,-0.0912307,0.0898817
2.24151,0.0168226,-0.104416
2.21107,-0.0915116,-0.115976
2.19481,-0.0908387,0.179327
2.22733,0.0167163,-0.0518303
2.26448,0.119866,-0.0395821
2.20884,-0.0991439,-0.0643483
2.1902,-0.205878,-0.0256104
2.21587,-0.0994596,-0.282336
2.18879,-0.205746,-0.205221
2.2144,-0.0993934,-0.180955
2.21343,-0.0993501,0.0386745
2.20395,-0.0989245,0.0898817
2.21074,-0.0992291,-0.115976
2.19448,-0.0984995,0.179327
2.23538,0.00897343,-0.0520164
2.2569,0.111565,-0.0394424
2.20848,-0.106854,-0.0643483
2.24522,0.110988,0.0130652
2.20938,-0.106897,-0.012856
2.24252,0.00117418,-0.156813
2.21404,-0.107122,-0.180955
2.18591,-0.213175,-0.127906
2.22423,0.00116461,0.129534
2.1996,-0.106424,0.0897188
2.20639,-0.106752,-0.115767
2.19413,-0.106159,0.179327
2.2234,0.00116417,-0.0517372
2.25328,0.103503,-0.0393726
2.20011,-0.114148,-0.0641155
2.23199,-0.00662246,0
2.18473,-0.220761,-0.0255638
2.24559,0.10315,0.0130652
2.20899,-0.114609,-0.012856
2.17938,-0.22022,-0.204477
2.22739,-0.00660881,0.0518303
2.18075,-0.220359,0.0255173
2.24251,-0.00665369,-0.156813
2.21763,-0.115057,-0.18128
2.2047,-0.114386,0.0385349
2.18118,-0.220402,-0.127673
2.21624,-0.00657572,0.129069
2.19522,-0.113894,0.089556
2.23357,-0.00662715,-0.104044
2.20999,-0.11466,-0.115976
2.19374,-0.113817,0.179327
2.22739,-0.00660881,-0.0518303
2.25363,0.0956371,-0.0393726
2.20369,-0.122048,-0.0642319
2.23195,-0.0144135,0
2.21471,-0.122658,-0.282336
2.24594,0.0953109,0.0130652
2.20458,-0.122098,-0.0128327
2.18256,-0.228241,-0.204849
2.23135,-0.0144096,0.0519233
2.17996,-0.227969,0.0255173
2.2345,-0.01443,-0.156255
2.21323,-0.122577,-0.180955
2.20429,-0.122081,0.0385349
2.18437,-0.22843,-0.127906
2.22019,-0.0143376,0.129301
2.20279,-0.121998,0.0898817
2.23753,-0.0144495,-0.10423
2.20958,-0.122374,-0.115976
2.26009,0.0959113,-0.0921613
2.22735,-0.0143838,-0.0518303
2.24995,0.0876143,-0.0393028
2.19527,-0.129269,-0.0639992
2.22789,-0.0221646,0
2.17916,-0.235578,-0.0255173
2.21427,-0.130388,-0.282336
2.24626,0.0874705,0.0130652
2.18571,-0.236286,-0.205221
2.23129,-0.0221984,0.0519233
2.17916,-0.235578,0.0255173
2.23443,-0.0222297,-0.156255
2.21279,-0.130301,-0.180955
2.20385,-0.129775,0.0385349
2.17959,-0.235624,-0.127673
2.22013,-0.0220874,0.129301
2.19438,-0.129217,0.089556
2.19717,-0.129382,-0.115348
2.19289,-0.12913,0.179327
2.22729,-0.0221586,-0.0518303
2.25024,0.0797599,-0.0393028
2.19879,-0.13718,-0.0641155
2.20984,-0.13787,-0.281831
2.24655,0.0796291,0.0130652
2.18091,-0.243472,-0.204849
2.2272,-0.0299332,0.0518303
2.23434,-0.0300292,-0.156255
2.20437,-0.137528,-0.180304
2.19939,-0.137218,0.0384651
2.17875,-0.243231,-0.127673
2.21604,-0.0297833,0.129069
2.1979,-0.137125,0.0897188
2.20468,-0.137548,-0.115767
2.18845,-0.136535,0.179002
2.24872,0.079706,-0.0916728
2.2272,-0.0299332,-0.0518303
2.25451,0.0720324,-0.0393726
2.1983,-0.144855,-0.0641155
2.22768,-0.0377176,0
2.20934,-0.145583,-0.281831
2.23882,0.0715312,0.0130187
2.20318,-0.145177,-0.0128327
2.18005,-0.251083,-0.204849
2.22708,-0.0377074,0.0518303
2.17746,-0.250785,0.0255173
2.20785,-0.145484,-0.180629
2.19491,-0.144631,0.0383953
2.17789,-0.250835,-0.127673
2.21992,-0.0375862,0.129301
2.19342,-0.144533,0.089556
2.2002,-0.14498,-0.115558
2.19194,-0.144436,0.179327
2.25298,0.0719836,-0.0918356
2.22308,-0.0376397,-0.0517372
2.24675,0.0639347,-0.039233
2.19778,-0.152527,-0.0641155
2.1726,-0.257913,-0.0254707
2.20882,-0.153294,-0.281831
2.24305,0.0638296,0.0130419
2.19867,-0.152589,-0.0128095
2.1752,-0.258222,-0.204477
2.21894,-0.0453178,0.0516442
2.2261,-0.045464,-0.155696
2.20733,-0.15319,-0.180629
2.23815,0.0636899,0.0651628
2.19439,-0.152292,0.0383953
2.17303,-0.257965,-0.127441
2.21179,-0.0451718,0.128836
2.1929,-0.152189,0.089556
2.19968,-0.152659,-0.115558
2.18744,-0.15181,0.179002
2.24922,0.0640051,-0.0916728
2.21894,-0.0453178,-0.0516442
2.24296,0.0559919,-0.0391632
2.19325,-0.159908,-0.0639992
2.17565,-0.26598,-0.0255173
2.20827,-0.161003,-0.281831
2.23926,0.0558996,0.0130187
2.17429,-0.265814,-0.204477
2.21876,-0.053063,0.0516442
2.22992,-0.0533297,-0.155975
2.20281,-0.160604,-0.180304
2.23835,0.0558769,0.0651628
2.19384,-0.159951,0.0383953
2.17212,-0.265548,-0.127441
2.20763,-0.0527967,0.128604
2.19236,-0.159843,0.089556
2.19515,-0.160046,-0.115348
2.18292,-0.159155,0.178676
2.24144,0.055954,-0.0913472
2.21876,-0.053063,-0.0516442
2.24314,0.0481622,-0.0391632
2.22317,-0.0609337,0
2.17074,-0.273074,-0.0254707
2.2077,-0.16871,-0.281831
2.23545,0.047997,0.0129954
2.17335,-0.273402,-0.204477
2.21857,-0.0608076,0.0516442
2.17074,-0.273074,0.0254707
2.22972,-0.0611132,-0.155975
2.19826,-0.167989,-0.179978
2.23454,0.0479775,0.0650464
2.18928,-0.167303,0.0383255
2.16722,-0.272631,-0.127208
2.20344,-0.060393,0.128371
2.1906,-0.167404,-0.115139
2.18633,-0.167078,0.179002
2.24162,0.0481296,-0.0913472
2.21457,-0.0606981,-0.0515511
2.24729,0.0404037,-0.039233
2.18809,-0.174897,-0.0638828
2.21494,-0.0684465,0
2.16978,-0.28065,-0.0254707
2.20314,-0.1761,-0.281326
2.2396,0.0402654,0.0130187
2.17238,-0.280986,-0.204477
2.19368,-0.175344,-0.179653
2.23469,0.0401772,0.0650464
2.19267,-0.175263,0.0383953
2.17417,-0.281218,-0.127673
2.2112,-0.0683307,0.128836
2.18602,-0.174731,-0.11493
2.18176,-0.174391,0.178676
2.24178,0.0403045,-0.0913472
2.21834,-0.0685515,-0.0516442
2.23942,0.0328339,-0.0390934
2.19148,-0.182483,-0.0639992
2.2187,-0.075928,0
2.16487,-0.287317,-0.0254241
2.19859,-0.183075,-0.280821
2.23172,0.0327211,0.0129722
2.17538,-0.288713,-0.204849
2.16883,-0.287843,0.0254707
2.22127,-0.076016,-0.155417
2.19309,-0.182617,-0.179653
2.22682,0.0326492,0.0648137
2.19208,-0.182533,0.0383953
2.16135,-0.286851,-0.126976
2.20298,-0.0753898,0.128371
2.1906,-0.182409,0.089556
2.18543,-0.181979,-0.11493
2.18117,-0.181625,0.178676
2.2379,0.0328117,-0.0911843
2.21011,-0.0756339,-0.0514581
2.17888,-0.189095,-0.0636501
2.21443,-0.0835215,0
2.16782,-0.295412,-0.0254707
2.19398,-0.190405,-0.280315
2.23582,0.0249754,0.0129954
2.19172,-0.190209,-0.0127862
2.21759,-0.0836407,-0.239041
2.16647,-0.295229,-0.204105
2.23891,0.0250099,0.0651628
2.19143,-0.190184,0.0383953
2.23927,0.0250139,-0.143521
2.16034,-0.294393,-0.126976
2.19472,-0.0827782,0.127906
2.18596,-0.189709,0.0893932
2.18478,-0.189607,-0.11493
2.18052,-0.189237,0.178676
2.238,0.0249998,-0.0911843
2.20583,-0.0831974,-0.051365
2.24359,0.0172299,-0.0391632
2.21412,-0.0912507,0
2.16281,-0.302424,-0.0254241
2.19726,-0.19842,-0.280821
2.2359,0.0171708,0.0129954
2.22523,-0.0917085,-0.239897
2.16543,-0.30279,-0.204105
2.16281,-0.302424,0.0254241
2.19176,-0.197923,-0.179653
2.22699,0.0171024,0.0648137
2.23934,0.0171972,-0.143521
2.16325,-0.302486,-0.127208
2.2024,-0.0907675,0.128371
2.18131,-0.196979,0.0892304
2.1841,-0.197232,-0.11493
2.17985,-0.196847,0.178676
2.24207,0.0172182,-0.0913472
2.20953,-0.0910614,-0.0514581
2.23564,0.00936471,-0.0390236
2.17353,-0.203928,-0.0635337
2.2058,-0.0986216,0
2.16174,-0.309971,-0.0254241
2.1926,-0.205718,-0.280315
2.23194,0.00934922,0.0129722
2.16042,-0.309781,-0.203733
2.21319,-0.0989521,0.0515511
2.16174,-0.309971,0.0254241
2.21238,-0.098916,-0.154859
2.18312,-0.204828,-0.179002
2.22304,0.00931193,0.0646974
2.18606,-0.205104,0.0383255
2.23939,0.0093804,-0.143521
2.16614,-0.310602,-0.127441
2.20207,-0.0984547,0.128371
2.18459,-0.204965,0.0893932
2.1834,-0.204854,-0.11493
2.17518,-0.204083,0.178351
2.23413,0.00935837,-0.0910215
2.20919,-0.0987735,-0.0514581
2.23566,0.00156081,-0.0390236
2.18076,-0.212289,-0.0637664
2.20943,-0.106513,0
2.19582,-0.213754,-0.280821
2.23596,0.00156102,0.0129954
2.22056,-0.10705,-0.239469
2.15932,-0.31732,-0.203733
2.20884,-0.106484,0.0514581
2.16065,-0.317515,0.0254241
2.21601,-0.10683,-0.155138
2.18636,-0.212833,-0.179327
2.21906,0.00154922,0.064581
2.23541,0.00156064,-0.143265
2.16109,-0.31758,-0.127208
2.2057,-0.106333,0.128604
2.1759,-0.211815,0.0890675
2.18267,-0.212475,-0.11493
2.16652,-0.210902,0.1777
2.22615,0.00155417,-0.0906958
2.20884,-0.106484,-0.0514581
2.22765,-0.00622081,-0.038884
2.18001,-0.2199,-0.0637664
2.20905,-0.114225,0
2.15557,-0.32446,-0.0253776
2.19111,-0.22102,-0.280315
2.22795,-0.00622165,0.0129489
2.16214,-0.325449,-0.204105
2.20845,-0.114194,0.0514581
2.15952,-0.325055,0.0254241
2.1856,-0.220464,-0.179327
2.22305,-0.00620796,0.0646974
2.1806,-0.219959,0.0382557
2.22742,-0.00622017,-0.142753
2.15602,-0.324528,-0.126976
2.20132,-0.113826,0.128371
2.18589,-0.220493,-0.115139
2.16974,-0.218863,0.178025
2.23014,-0.00622776,-0.0908587
2.20446,-0.113988,-0.051365
2.23162,-0.0140218,-0.0389538
2.1673,-0.226263,-0.0634174
2.20464,-0.121715,0
2.15838,-0.332592,-0.0254241
2.18243,-0.227843,-0.279305
2.22792,-0.0139986,0.0129489
2.21182,-0.122111,-0.238612
2.15705,-0.332388,-0.203733
2.15838,-0.332592,0.0254241
2.21521,-0.122298,-0.155138
2.18878,-0.228506,-0.179653
2.22302,-0.0139678,0.0646974
2.17584,-0.227155,0.0381859
2.22739,-0.0139953,-0.142753
2.15093,-0.331443,-0.126743
2.18895,-0.120849,0.127673
2.17834,-0.227416,0.0892304
2.21023,-0.122023,-0.103113
2.18511,-0.228122,-0.115139
2.16896,-0.226436,0.178025
2.22611,-0.0139872,-0.0906958
2.19606,-0.121241,-0.0511789
2.22755,-0.0217725,-0.038884
2.19622,-0.128941,0
2.1572,-0.340124,-0.0254241
2.18557,-0.235885,-0.27981
2.22386,-0.0217363,0.0129257
2.21535,-0.130064,-0.239041
2.14801,-0.338674,-0.20299
2.19562,-0.128906,0.0511789
2.1493,-0.338878,0.025331
2.20282,-0.129328,-0.154301
2.18401,-0.235717,-0.179327
2.21895,-0.0216884,0.064581
2.23132,-0.0218092,-0.143009
2.14976,-0.33895,-0.126743
2.19649,-0.128957,0.128138
2.17356,-0.234589,0.0890675
2.20979,-0.129738,-0.103113
2.17636,-0.234891,-0.11472
2.1957,-0.12891,0.270062
2.17212,-0.234433,0.178351
2.22605,-0.0217577,-0.0906958
2.16356,-0.23351,0.396764
2.19962,-0.12914,-0.051272
2.21947,-0.0294419,-0.0387443
2.16567,-0.241388,-0.0634174
2.19575,-0.136606,0
2.15205,-0.347015,-0.0253776
2.18079,-0.243073,-0.279305
2.22777,-0.029552,0.0129489
2.21091,-0.137549,-0.238612
2.15075,-0.346804,-0.203362
2.19915,-0.136818,0.051272
2.15205,-0.347015,0.0253776
2.20634,-0.137265,-0.15458
2.17129,-0.242014,-0.178351
2.21887,-0.0294339,0.064581
2.1742,-0.242339,0.0381859
2.23123,-0.0295979,-0.143009
2.1525,-0.347087,-0.126976
2.19204,-0.136375,0.127906
2.17273,-0.242175,0.0890675
2.17155,-0.242044,-0.114511
2.18731,-0.136081,0.269088
2.16732,-0.241572,0.178025
2.22196,-0.029475,-0.090533
2.16273,-0.241061,0.396764
2.20314,-0.137066,-0.051365
2.22735,-0.0373231,-0.038884
2.16481,-0.248946,-0.0634174
2.20325,-0.144795,0
2.15083,-0.354525,-0.0253776
2.17993,-0.250684,-0.279305
2.21965,-0.0371941,0.0129024
2.14952,-0.35431,-0.203362
2.19467,-0.144231,0.0511789
2.15083,-0.354525,0.0253776
2.20186,-0.144704,-0.154301
2.17439,-0.250047,-0.178676
2.21475,-0.037112,0.0644646
2.17334,-0.249927,0.0381859
2.21914,-0.0371854,-0.142242
2.15128,-0.354599,-0.126976
2.18757,-0.143764,0.127673
2.1679,-0.249301,0.0889047
2.20485,-0.1449,-0.102927
2.17466,-0.250079,-0.11472
2.19079,-0.143976,0.269575
2.16647,-0.249136,0.178025
2.21385,-0.0370969,-0.0902073
2.20265,-0.144755,-0.051365
2.22321,-0.0450168,-0.0388142
2.15996,-0.25603,-0.063301
2.19874,-0.152208,0
2.14958,-0.362031,-0.0253776
2.1751,-0.257825,-0.2788
2.22351,-0.0450229,0.0129257
2.20196,-0.152431,-0.237755
2.1522,-0.362472,-0.203733
2.14169,-0.360702,0.0252844
2.19736,-0.152113,-0.154022
2.16954,-0.257166,-0.178351
2.21461,-0.0448427,0.0644646
2.17246,-0.257512,0.0381859
2.21899,-0.0449314,-0.142242
2.14215,-0.36078,-0.126511
2.18705,-0.151399,0.127673
2.16981,-0.257198,-0.114511
2.17839,-0.1508,0.268113
2.16163,-0.256228,0.1777
2.21771,-0.0449054,-0.0903702
2.15709,-0.25569,0.396046
2.19415,-0.151891,-0.0511789
2.22304,-0.0527769,-0.0388142
2.16302,-0.264053,-0.0634174
2.19819,-0.159882,0
2.17419,-0.265416,-0.2788
2.21934,-0.0526891,0.0129024
2.20538,-0.160405,-0.238184
2.14307,-0.368632,-0.20299
2.19361,-0.159549,0.0511789
2.1483,-0.369532,0.0253776
2.2008,-0.160072,-0.154301
2.18051,-0.266187,-0.179327
2.21044,-0.0524779,0.0643483
2.16758,-0.264609,0.0381161
2.21882,-0.0526769,-0.142242
2.14875,-0.369609,-0.126976
2.18253,-0.158743,0.127441
2.17008,-0.264914,0.0890675
2.20378,-0.160289,-0.102927
2.1689,-0.264771,-0.114511
2.18577,-0.158979,0.269088
2.16072,-0.263772,0.1777
2.21354,-0.0525515,-0.0902073
2.15228,-0.262741,0.395329
2.18962,-0.159259,-0.0510859
2.21885,-0.0600403,-0.0387443
2.15817,-0.270726,-0.063301
2.17553,-0.272904,-0.438518
2.18569,-0.166261,0
2.14706,-0.376654,-0.0253776
2.17723,-0.273118,-0.279305
2.21915,-0.0600484,0.0129024
2.19691,-0.167114,-0.237327
2.13792,-0.375049,-0.202618
2.14313,-0.375963,0.025331
2.19628,-0.167066,-0.154022
2.17565,-0.27292,-0.179002
2.21026,-0.0598077,0.0643483
2.16669,-0.271795,0.0381161
2.21863,-0.0600345,-0.142242
2.13571,-0.374662,-0.126278
2.18597,-0.166282,0.127673
2.19527,-0.16699,-0.102555
2.16405,-0.271464,-0.114302
2.18523,-0.166226,0.269088
2.15983,-0.270936,0.1777
2.22134,-0.0601078,-0.090533
2.15139,-0.269877,0.395329
2.19307,-0.166822,-0.0511789
2.21863,-0.0677852,-0.0387443
2.15721,-0.278258,-0.063301
2.18234,-0.2815,-0.440087
2.18908,-0.174207,0
2.17233,-0.280209,-0.2788
2.21493,-0.0676722,0.0128792
2.20424,-0.175413,-0.238184
2.14051,-0.383211,-0.20299
2.19247,-0.174477,0.0511789
2.13786,-0.382737,0.0252844
2.1917,-0.174415,-0.153743
2.17469,-0.280513,-0.179002
2.20604,-0.0674005,0.0642319
2.16969,-0.279869,0.0381859
2.2224,-0.0679005,-0.142497
2.14225,-0.383522,-0.126743
2.18538,-0.173912,0.127673
2.16426,-0.279168,0.0889047
2.19866,-0.174969,-0.102741
2.16309,-0.279017,-0.114302
2.18068,-0.173538,0.2686
2.15492,-0.277963,0.177375
2.21313,-0.0676173,-0.0902073
2.19247,-0.174477,-0.0511789
2.21838,-0.0755292,-0.0387443
2.16019,-0.286312,-0.0634174
2.16968,-0.28757,-0.437734
2.18447,-0.181516,0
2.14045,-0.390915,-0.025331
2.19789,-0.182631,-0.34312
2.1674,-0.287269,-0.278295
2.21468,-0.0754034,0.0128792
2.19569,-0.182448,-0.237327
2.13525,-0.389965,-0.202618
2.18787,-0.181798,0.0510859
2.14045,-0.390915,0.025331
2.1871,-0.181734,-0.153464
2.16579,-0.287055,-0.178351
2.20179,-0.0749646,0.0641155
2.1687,-0.287441,0.0381859
2.21816,-0.0755219,-0.142242
2.1409,-0.390998,-0.126743
2.18874,-0.18187,0.127906
2.16327,-0.286721,0.0889047
2.19405,-0.182312,-0.102555
2.1761,-0.18082,0.268113
2.15394,-0.285483,0.177375
2.20889,-0.0752061,-0.0900445
2.19584,-0.18246,-0.051272
2.2141,-0.0831223,-0.0386745
2.15125,-0.292772,-0.0631846
2.16478,-0.294613,-0.436949
2.18781,-0.189485,0
2.143,-0.399117,-0.0253776
2.19724,-0.190302,-0.34312
2.16639,-0.294833,-0.278295
2.21041,-0.0829835,0.012856
2.19108,-0.189768,-0.236899
2.1417,-0.398875,-0.203362
2.1912,-0.189779,0.0511789
2.13514,-0.397652,0.0252844
2.19043,-0.189712,-0.153743
2.16873,-0.295151,-0.178676
2.20951,-0.0829498,0.0643483
2.16372,-0.29447,0.0381161
2.20991,-0.0829648,-0.14173
2.1356,-0.397738,-0.126511
2.17615,-0.188475,0.127208
2.1934,-0.189969,-0.102555
2.16504,-0.29465,-0.114511
2.17941,-0.188758,0.2686
2.15688,-0.293538,0.1777
2.2126,-0.0830661,-0.0902073
2.18722,-0.189434,-0.0510859
2.2138,-0.0908505,-0.0386745
2.16374,-0.302168,-0.436949
2.17917,-0.196402,0
2.13374,-0.405103,-0.0252844
2.19263,-0.197616,-0.342505
2.16142,-0.301844,-0.27779
2.2101,-0.0906988,0.012856
2.1904,-0.197415,-0.236899
2.13247,-0.404862,-0.202618
2.18654,-0.197067,0.0510859
2.13767,-0.405849,0.025331
2.18976,-0.197357,-0.153743
2.16374,-0.302168,-0.178351
2.20521,-0.090498,0.0642319
2.16268,-0.302021,0.0381161
2.20561,-0.0905146,-0.141474
2.13812,-0.405935,-0.126743
2.17548,-0.19607,0.127208
2.16122,-0.301816,0.0889047
2.18875,-0.197266,-0.102368
2.16005,-0.301653,-0.114302
2.17479,-0.196008,0.268113
2.15189,-0.300514,0.177375
2.21629,-0.0909529,-0.0903702
2.18256,-0.196708,-0.0509928
2.20947,-0.0983996,-0.0386047
2.14915,-0.307784,-0.0631846
2.18643,-0.204754,0
2.18799,-0.2049,-0.34189
2.16035,-0.309387,-0.27779
2.20977,-0.0984129,0.012856
2.1897,-0.20506,-0.236899
2.13104,-0.412303,-0.202618
2.18186,-0.204326,0.0509928
2.13231,-0.412548,0.0252844
2.18508,-0.204627,-0.153464
2.15872,-0.309154,-0.178025
2.20488,-0.098195,0.0642319
2.15765,-0.309001,0.0380462
2.21326,-0.0985683,-0.141986
2.12885,-0.411878,-0.126278
2.17478,-0.203663,0.127208
2.15224,-0.308225,0.0885791
2.18407,-0.204532,-0.102182
2.15503,-0.308624,-0.114092
2.15083,-0.308023,0.177375
2.21197,-0.0985108,-0.0902073
2.18584,-0.204699,-0.0510859
2.20912,-0.106111,-0.0386047
2.17376,-0.211224,0
2.13086,-0.419989,-0.0252844
2.18333,-0.212154,-0.341275
2.16318,-0.317502,-0.278295
2.12568,-0.41897,-0.202246
2.17715,-0.211554,0.0508998
2.13086,-0.419989,0.0252844
2.17641,-0.211481,-0.152906
2.15763,-0.316687,-0.178025
2.19654,-0.105507,0.0639992
2.16052,-0.317111,0.0381161
2.2129,-0.106293,-0.141986
2.13132,-0.420079,-0.126511
2.17406,-0.211253,0.127208
2.15906,-0.316897,0.0889047
2.18731,-0.212541,-0.102368
2.15789,-0.316725,-0.114302
2.17337,-0.211186,0.268113
2.15368,-0.316108,0.1777
2.21161,-0.106231,-0.0902073
2.18511,-0.212327,-0.0510859
2.21273,-0.114028,-0.0386745
2.18097,-0.219612,0
2.12938,-0.427425,-0.0252844
2.18651,-0.22017,-0.34189
2.15814,-0.324461,-0.27779
2.20104,-0.113426,0.0128095
2.18821,-0.220341,-0.236899
2.12421,-0.426387,-0.202246
2.1764,-0.219152,0.0508998
2.12546,-0.426637,0.0252379
2.17566,-0.219077,-0.152906
2.15257,-0.323624,-0.1777
2.19615,-0.113174,0.0639992
2.15544,-0.324057,0.0380462
2.20056,-0.113401,-0.141218
2.12592,-0.426731,-0.126278
2.17331,-0.218841,0.127208
2.15399,-0.323837,0.0887419
2.18258,-0.219775,-0.102182
2.15282,-0.323662,-0.114092
2.17261,-0.218771,0.268113
2.14468,-0.322439,0.177049
2.19925,-0.113334,-0.0897188
2.18436,-0.219953,-0.0510859
2.20033,-0.121092,-0.0384651
2.14186,-0.329664,-0.0630683
2.16826,-0.22598,0
2.12396,-0.434054,-0.0252379
2.17786,-0.226981,-0.34066
2.15699,-0.331993,-0.27779
2.20463,-0.121328,0.0128327
2.17952,-0.227154,-0.236042
2.12661,-0.434597,-0.202618
2.13179,-0.435656,0.025331
2.18282,-0.227498,-0.153464
2.14748,-0.330529,-0.177375
2.19575,-0.120839,0.0639992
2.15035,-0.33097,0.0379764
2.20015,-0.121082,-0.141218
2.12442,-0.434149,-0.126278
2.16856,-0.226012,0.126976
2.15284,-0.331354,0.0887419
2.1818,-0.227392,-0.102182
2.15168,-0.331174,-0.114092
2.16789,-0.225942,0.267625
2.14748,-0.330529,0.177375
2.20284,-0.121229,-0.0898817
2.17562,-0.226748,-0.0508998
2.20389,-0.129005,-0.0385349
2.17541,-0.234404,0
2.12634,-0.44228,-0.0252844
2.18099,-0.235005,-0.341275
2.15582,-0.33952,-0.27779
2.1962,-0.128555,0.0127862
2.17871,-0.23476,-0.236042
2.12898,-0.442828,-0.20299
2.1788,-0.234769,0.0509928
2.13026,-0.443094,0.025331
2.18201,-0.235116,-0.153464
2.15419,-0.339264,-0.178025
2.19531,-0.128503,0.0639992
2.15313,-0.339096,0.0380462
2.2037,-0.128994,-0.141474
2.12289,-0.441562,-0.126278
2.16379,-0.233152,0.126743
2.15167,-0.338867,0.0887419
2.181,-0.235007,-0.102182
2.1584,-0.339926,-0.114511
2.17103,-0.233933,0.268113
2.14632,-0.338024,0.177375
2.19442,-0.128451,-0.089556
2.17482,-0.234341,-0.0508998
2.19944,-0.13645,-0.0384651
2.16663,-0.241112,0
2.1287,-0.450528,-0.025331
2.18015,-0.242617,-0.341275
2.1507,-0.346412,-0.277285
2.20373,-0.136716,0.0128327
2.17393,-0.241924,-0.235614
2.17399,-0.241931,0.0508998
2.12479,-0.4497,0.0252844
2.17324,-0.241848,-0.152906
2.153,-0.346781,-0.178025
2.19884,-0.136413,0.0641155
2.14798,-0.345974,0.0379764
2.20722,-0.136933,-0.14173
2.12134,-0.448969,-0.126278
2.16693,-0.241145,0.126976
2.14259,-0.345104,0.0884162
2.17619,-0.242176,-0.101996
2.14142,-0.344917,-0.113674
2.16231,-0.240632,0.267138
2.14119,-0.34488,0.177049
2.20194,-0.136605,-0.0898817
2.17399,-0.241931,-0.0508998
2.19496,-0.143865,-0.0383953
2.17372,-0.249586,0
2.1232,-0.457114,-0.0252844
2.17537,-0.249775,-0.34066
2.1534,-0.354562,-0.27779
2.19924,-0.144146,0.0128095
2.17307,-0.249511,-0.235614
2.11805,-0.456004,-0.202246
2.17313,-0.249518,0.0508998
2.11538,-0.45543,0.0251913
2.16842,-0.248978,-0.152627
2.14391,-0.352999,-0.177375
2.19037,-0.143564,0.0638828
2.15071,-0.35412,0.0380462
2.19478,-0.143853,-0.140962
2.12366,-0.457212,-0.126511
2.15814,-0.247797,0.126511
2.14925,-0.35388,0.0887419
2.17533,-0.249771,-0.101996
2.14021,-0.35239,-0.113674
2.16146,-0.248178,0.267138
2.1321,-0.351056,0.176398
2.18948,-0.143506,-0.0893932
2.17313,-0.249518,-0.0508998
2.20242,-0.152077,-0.0385349
2.16489,-0.256232,0
2.12159,-0.464522,-0.0252844
2.17056,-0.256902,-0.340045
2.14432,-0.36076,-0.27678
2.19474,-0.151546,0.0127862
2.18403,-0.258497,-0.236899
2.11644,-0.463395,-0.202246
2.17225,-0.257102,0.0508998
2.11378,-0.462811,0.0251913
2.1715,-0.257014,-0.152906
2.14659,-0.361142,-0.1777
2.18986,-0.151209,0.0638828
2.14552,-0.360961,0.0379764
2.19426,-0.151514,-0.140962
2.12205,-0.464622,-0.126511
2.16916,-0.256737,0.127208
2.14406,-0.360717,0.0885791
2.16058,-0.255722,0.267138
2.1348,-0.359158,0.176724
2.18897,-0.151148,-0.0893932
2.17225,-0.257102,-0.0508998
2.19789,-0.159474,-0.0384651
2.13578,-0.366994,-0.0630683
2.16001,-0.263303,0
2.11606,-0.471056,-0.0252379
2.16965,-0.264477,-0.340045
2.14305,-0.368243,-0.27678
2.19021,-0.158917,0.012763
2.17127,-0.264676,-0.235614
2.11481,-0.47078,-0.202246
2.16737,-0.264199,0.0508067
2.11606,-0.471056,0.0252379
2.16663,-0.26411,-0.152627
2.14139,-0.367958,-0.177375
2.18533,-0.158563,0.0637664
2.1403,-0.367771,0.0379066
2.18974,-0.158883,-0.140707
2.11652,-0.471159,-0.126278
2.16032,-0.263341,0.126743
2.13885,-0.367522,0.0884162
2.1775,-0.265435,-0.102182
2.13769,-0.367323,-0.113674
2.15179,-0.262301,0.266163
2.13353,-0.366608,0.176724
2.19241,-0.159077,-0.089556
2.16737,-0.264199,-0.0508067
2.19339,-0.166077,-0.0383953
2.15917,-0.270087,0
2.12237,-0.479464,-0.025331
2.1688,-0.271292,-0.340045
2.14579,-0.375658,-0.277285
2.1897,-0.165797,0.012763
2.17043,-0.271496,-0.235614
2.11332,-0.477421,-0.202246
2.16256,-0.270511,0.0507136
2.11847,-0.478583,0.0252844
2.17371,-0.271906,-0.153185
2.14415,-0.375371,-0.1777
2.18881,-0.16573,0.0638828
2.14701,-0.375873,0.0380462
2.19321,-0.166063,-0.140962
2.15552,-0.269631,0.126511
2.14556,-0.375618,0.0887419
2.16873,-0.271283,-0.10181
2.1444,-0.375415,-0.114092
2.15884,-0.270045,0.267138
2.1363,-0.373996,0.177049
2.18792,-0.165662,-0.0893932
2.16652,-0.271007,-0.0508067
2.19276,-0.174115,-0.0383953
2.15817,-0.277999,0
2.1206,-0.48724,-0.025331
2.1678,-0.279239,-0.340045
2.18907,-0.173822,0.012763
2.16942,-0.279449,-0.235614
2.16155,-0.278435,0.0507136
2.1167,-0.486344,0.0252844
2.16874,-0.279361,-0.152906
2.14668,-0.383929,-0.178025
2.1842,-0.173434,0.0637664
2.14169,-0.383035,0.0379764
2.19259,-0.174101,-0.140962
2.11326,-0.485555,-0.126278
2.16244,-0.278549,0.126976
2.14024,-0.382776,0.0885791
2.16772,-0.27923,-0.10181
2.13514,-0.381865,-0.113674
2.15783,-0.277956,0.267138
2.13491,-0.381823,0.177049
2.19128,-0.173997,-0.089556
2.16948,-0.279457,-0.0508998
2.19217,-0.181385,-0.0383953
2.11118,-0.492452,-0.0252379
2.13921,-0.389918,-0.27678
2.18848,-0.18108,0.012763
2.14463,-0.390905,-0.01267
2.16454,-0.28612,-0.235185
2.11382,-0.493068,-0.202618
2.16062,-0.285601,0.0507136
2.11507,-0.493361,0.0252844
2.16385,-0.286029,-0.152627
2.17564,-0.180017,0.0635337
2.1404,-0.390135,0.0379764
2.192,-0.18137,-0.140962
2.15754,-0.285195,0.126743
2.13109,-0.388438,0.0882534
2.16678,-0.286417,-0.10181
2.12994,-0.388227,-0.113464
2.15296,-0.28459,0.26665
2.12971,-0.388186,0.176724
2.18671,-0.180933,-0.0893932
2.16458,-0.286125,-0.0508067
2.18356,-0.188349,-0.0382557
2.13845,-0.397496,-0.063301
2.15623,-0.292683,0
2.10945,-0.499819,-0.0252379
2.16584,-0.293989,-0.340045
2.13394,-0.396657,-0.276275
2.18385,-0.188374,0.0127397
2.16353,-0.293674,-0.235185
2.10821,-0.499525,-0.202246
2.15961,-0.293142,0.0507136
2.10556,-0.498896,0.0251913
2.16284,-0.29358,-0.152627
2.13618,-0.397075,-0.177375
2.17898,-0.187954,0.0636501
2.13903,-0.397604,0.0379764
2.18737,-0.188678,-0.140707
2.10991,-0.499928,-0.126278
2.15654,-0.292725,0.126743
2.12972,-0.395874,0.0882534
2.16577,-0.293978,-0.10181
2.1325,-0.39639,-0.113674
2.15196,-0.292103,0.26665
2.12834,-0.395618,0.176724
2.1781,-0.187878,-0.0890675
2.16753,-0.294217,-0.0508998
2.18289,-0.19597,-0.0382557
2.15519,-0.300208,0
2.10769,-0.507179,-0.0252379
2.13254,-0.404104,-0.276275
2.1792,-0.195639,0.0127165
2.14185,-0.405868,-0.01267
2.16249,-0.301225,-0.235185
2.10645,-0.506881,-0.202246
2.09991,-0.505307,0.0251447
2.15389,-0.300027,-0.152069
2.13478,-0.404529,-0.177375
2.17831,-0.195559,0.0636501
2.1337,-0.404324,0.0379066
2.18273,-0.195955,-0.140451
2.10427,-0.506355,-0.126045
2.1555,-0.300251,0.126743
2.13225,-0.40405,0.0884162
2.16473,-0.301536,-0.10181
2.13502,-0.404575,-0.113883
2.15486,-0.300161,0.267138
2.12303,-0.402302,0.176398
2.18141,-0.195837,-0.0892304
2.16253,-0.30123,-0.0508067
2.17817,-0.203597,-0.0381859
2.15408,-0.308105,0
2.10582,-0.514901,-0.0252379
2.18245,-0.203997,0.0127397
2.15745,-0.308588,0.0507136
2.10582,-0.514901,0.0252379
2.16068,-0.309049,-0.152627
2.12937,-0.411594,-0.177049
2.17758,-0.203542,0.0636501
2.1322,-0.412141,0.0379066
2.18199,-0.203954,-0.140451
2.15043,-0.307584,0.126511
2.13076,-0.411863,0.0884162
2.15965,-0.308903,-0.101624
2.12568,-0.410881,-0.113464
2.15374,-0.308057,0.267138
2.12154,-0.410081,0.176398
2.1767,-0.203459,-0.0890675
2.15349,-0.308022,-0.0506206
2.18143,-0.211585,-0.0382557
2.14507,-0.314462,0
2.10789,-0.523212,-0.0252844
2.15868,-0.316457,-0.33943
2.13738,-0.420887,-0.277285
2.18172,-0.211614,0.0127397
2.15241,-0.315538,-0.234328
2.15636,-0.316117,0.0507136
2.10012,-0.521285,0.0251913
2.15564,-0.316011,-0.152348
2.12792,-0.419024,-0.177049
2.17686,-0.211142,0.0636501
2.13467,-0.420354,0.0379764
2.18127,-0.211569,-0.140451
2.10447,-0.522362,-0.126278
2.14935,-0.315088,0.126511
2.12147,-0.417753,0.0880906
2.15856,-0.316439,-0.101624
2.12424,-0.418299,-0.113464
2.1448,-0.314421,0.266163
2.12792,-0.419024,0.177049
2.18393,-0.211828,-0.0893932
2.16032,-0.316697,-0.0508067
2.18469,-0.219217,-0.0383255
2.12093,-0.424959,-0.0629519
2.10614,-0.530199,-0.0252844
2.15762,-0.323614,-0.33943
2.13208,-0.427193,-0.27678
2.18101,-0.218847,0.0127397
2.1553,-0.323266,0.0507136
2.09838,-0.528246,0.0251913
2.15458,-0.323158,-0.152348
2.12652,-0.426079,-0.177049
2.18012,-0.218758,0.0637664
2.12935,-0.426645,0.0379066
2.18055,-0.218801,-0.140451
2.15224,-0.322806,0.126743
2.12791,-0.426357,0.0884162
2.1575,-0.323596,-0.101624
2.14374,-0.321532,0.266163
2.1187,-0.424512,0.176398
2.17526,-0.21827,-0.0890675
2.15926,-0.323859,-0.0508067
2.18388,-0.227223,-0.0383255
2.14283,-0.32943,0
2.10031,-0.536924,-0.0252379
2.15251,-0.330919,-0.338815
2.1305,-0.435004,-0.27678
2.17622,-0.226426,0.0127165
2.16195,-0.332369,-0.235614
2.15015,-0.330556,0.0506206
2.09256,-0.534943,0.0251447
2.14944,-0.330446,-0.152069
2.12494,-0.43387,-0.177049
2.17135,-0.22592,0.0635337
2.12385,-0.433647,0.0378368
2.17577,-0.226379,-0.140195
2.0969,-0.536052,-0.126045
2.15104,-0.330693,0.126743
2.12241,-0.433353,0.0882534
2.1563,-0.331501,-0.101624
2.14255,-0.329387,0.266163
2.12104,-0.433072,0.176724
2.15806,-0.331771,-0.0508067
2.17909,-0.234417,-0.0382557
2.14166,-0.336907,0
2.10229,-0.545256,-0.0252844
2.15134,-0.338431,-0.338815
2.17541,-0.234021,0.0127165
2.14899,-0.33806,-0.234328
2.15293,-0.338681,0.0507136
2.10229,-0.545256,0.0252844
2.14827,-0.337947,-0.152069
2.11951,-0.440473,-0.176724
2.17055,-0.233498,0.0635337
2.11841,-0.440244,0.037767
2.17099,-0.233546,-0.139939
2.09502,-0.543368,-0.126045
2.14198,-0.336958,0.126278
2.12871,-0.442386,0.0885791
2.14329,-0.337163,-0.101066
2.14139,-0.336864,0.266163
2.11171,-0.438851,0.176073
2.16967,-0.233403,-0.0889047
2.14898,-0.338059,-0.0506206
2.17035,-0.24076,-0.0381161
2.14448,-0.344642,0
2.09661,-0.551208,-0.0252379
2.15021,-0.345563,-0.338815
2.17462,-0.241233,0.0127165
2.12505,-0.448981,-0.0126235
2.14785,-0.345183,0.0506206
2.09661,-0.551208,0.0252379
2.1432,-0.344436,-0.15179
2.11804,-0.4475,-0.176724
2.17374,-0.241135,0.0636501
2.12085,-0.448093,0.0378368
2.17418,-0.241184,-0.140195
2.13691,-0.343426,0.126045
2.11942,-0.44779,0.0882534
2.15005,-0.345537,-0.101438
2.11827,-0.447547,-0.113464
2.14418,-0.344593,0.26665
2.11414,-0.446676,0.176398
2.16889,-0.240597,-0.0889047
2.14785,-0.345183,-0.0506206
2.17343,-0.249168,-0.0381859
2.13531,-0.351201,0
2.09844,-0.55992,-0.0252844
2.15283,-0.354083,-0.33943
2.17373,-0.249202,0.0127165
2.1273,-0.457608,-0.0126467
2.14265,-0.352409,-0.2339
2.14263,-0.352404,0.0505275
2.09457,-0.558889,0.0252379
2.14586,-0.352936,-0.152069
2.12028,-0.456098,-0.177049
2.16887,-0.248645,0.0635337
2.11919,-0.455863,0.0378368
2.17328,-0.249151,-0.140195
2.09117,-0.557981,-0.126045
2.13958,-0.351904,0.126278
2.11385,-0.454714,0.0880906
2.14088,-0.352118,-0.101066
2.13898,-0.351805,0.266163
2.10859,-0.453583,0.176073
2.16799,-0.248544,-0.0889047
2.14263,-0.352404,-0.0505275
2.16858,-0.256284,-0.0381161
2.13407,-0.358653,0
2.09647,-0.567241,-0.0252844
2.17284,-0.256788,0.0127165
2.12178,-0.464176,-0.0126235
2.14141,-0.359886,-0.2339
2.14533,-0.360544,0.0506206
2.08489,-0.564107,0.0251447
2.14068,-0.359763,-0.15179
2.16005,-0.255276,0.063301
2.11759,-0.463258,0.0378368
2.17636,-0.257204,-0.140451
2.08921,-0.565277,-0.126045
2.13834,-0.35937,0.126278
2.12006,-0.463799,0.0884162
2.14752,-0.360913,-0.101438
2.13774,-0.35927,0.266163
2.11478,-0.462644,0.176724
2.17108,-0.25658,-0.0890675
2.15321,-0.36187,-0.0508067
2.16767,-0.263852,-0.0381161
2.08676,-0.572439,-0.0251913
2.16796,-0.263888,0.0126932
2.12406,-0.472448,-0.0126467
2.14014,-0.367359,-0.2339
2.14405,-0.368031,0.0506206
2.0829,-0.571381,0.0251447
2.15121,-0.369259,-0.152627
2.15914,-0.262815,0.063301
2.11206,-0.469779,0.037767
2.16356,-0.263352,-0.139683
2.09493,-0.574679,-0.126511
2.13707,-0.366832,0.126278
2.11453,-0.470329,0.0882534
2.14231,-0.367731,-0.101252
2.13256,-0.366058,0.265675
2.10537,-0.468292,0.176073
2.148,-0.368707,-0.0507136
2.16683,-0.270661,-0.0381161
2.13165,-0.372799,0
2.08881,-0.580063,-0.0252379
2.16315,-0.270202,0.01267
2.11866,-0.478237,-0.0126235
2.13897,-0.37408,-0.2339
2.14289,-0.374765,0.0506206
2.0811,-0.577922,0.0251447
2.11167,-0.47666,-0.176724
2.15831,-0.269596,0.063301
2.11447,-0.477292,0.0378368
2.13197,-0.372856,0.126045
2.11304,-0.476969,0.0882534
2.14115,-0.37446,-0.101252
2.11189,-0.476711,-0.113464
2.1314,-0.372756,0.265675
2.10778,-0.475782,0.176398
2.16536,-0.270478,-0.0889047
2.14289,-0.374765,-0.0506206
2.1619,-0.277713,-0.0380462
2.13033,-0.380237,0
2.08292,-0.586267,-0.0251913
2.15823,-0.277241,0.0126467
2.12088,-0.486524,-0.0126467
2.13766,-0.381544,-0.2339
2.13369,-0.380837,0.0504345
2.08292,-0.586267,0.0251913
2.13693,-0.381414,-0.15179
2.10999,-0.484028,-0.176724
2.16132,-0.277638,0.0634174
2.10889,-0.483776,0.037767
2.15781,-0.277187,-0.139427
2.12673,-0.379594,0.125813
2.11136,-0.484342,0.0882534
2.13589,-0.38123,-0.101066
2.11022,-0.48408,-0.113464
2.134,-0.380891,0.266163
2.10222,-0.482245,0.176073
2.16044,-0.277525,-0.0887419
2.13763,-0.38154,-0.0505275
2.15696,-0.284735,-0.0379764
2.08471,-0.594631,-0.0252379
2.16518,-0.28582,0.0126932
2.11527,-0.493017,-0.0126235
2.13631,-0.389004,-0.2339
2.13628,-0.388999,0.0505275
2.08086,-0.593534,0.0251913
2.13166,-0.388157,-0.151511
2.10829,-0.49139,-0.176724
2.16034,-0.285181,0.0634174
2.10719,-0.491134,0.037767
2.15683,-0.284717,-0.139427
2.12932,-0.387731,0.126045
2.10966,-0.491709,0.0882534
2.13455,-0.388683,-0.101066
2.13265,-0.388338,0.266163
2.10053,-0.48958,0.176073
2.15946,-0.285065,-0.0887419
2.14022,-0.389715,-0.0506206
2.16377,-0.294092,-0.0381161
2.08241,-0.602631,-0.0252379
2.1601,-0.293593,0.01267
2.13871,-0.397931,-0.234328
2.13478,-0.397199,0.0505275
2.07472,-0.600408,0.0251447
2.13015,-0.396339,-0.151511
2.10639,-0.499482,-0.176724
2.15526,-0.292935,0.063301
2.10918,-0.500145,0.0378368
2.16758,-0.29461,-0.140195
2.13174,-0.396634,0.126278
2.10775,-0.499806,0.0882534
2.13304,-0.396876,-0.101066
2.12334,-0.395071,0.265188
2.15439,-0.292816,-0.0885791
2.13871,-0.39793,-0.0506206
2.16273,-0.301643,-0.0381161
2.12609,-0.403267,0
2.07645,-0.608771,-0.0251913
2.11549,-0.509446,-0.0126467
2.13338,-0.404648,0.0505275
2.07645,-0.608771,0.0251913
2.13268,-0.404515,-0.15179
2.15027,-0.299905,0.0631846
2.10353,-0.506567,0.037767
2.15863,-0.301071,-0.139683
2.13034,-0.404073,0.126278
2.10211,-0.506225,0.0880906
2.13164,-0.404319,-0.101066
2.10486,-0.506886,-0.113464
2.12585,-0.40322,0.265675
2.15335,-0.300335,-0.0885791
2.1373,-0.405393,-0.0506206
2.15386,-0.307306,-0.0379764
2.12482,-0.409944,0
2.07453,-0.615292,-0.0251913
2.15415,-0.307348,0.0126467
2.11388,-0.516089,-0.0126467
2.13602,-0.412106,0.0506206
2.0707,-0.614154,0.0251447
2.12748,-0.410458,-0.151511
2.15327,-0.307223,0.063301
2.10193,-0.513173,0.037767
2.12122,-0.409251,0.125813
2.10439,-0.513774,0.0882534
2.12644,-0.410257,-0.100879
2.14844,-0.306534,-0.0884162
2.13602,-0.412106,-0.0506206
2.15266,-0.315574,-0.0379764
2.1193,-0.417327,0
2.16087,-0.316777,0.0126932
2.10411,-0.522275,-0.0126002
2.12657,-0.418759,0.0504345
2.07981,-0.625557,0.0252844
2.1298,-0.419394,-0.15179
2.15208,-0.315489,0.063301
2.10383,-0.522204,0.0378368
2.15253,-0.315555,-0.139427
2.11572,-0.416621,0.12558
2.10241,-0.521851,0.0882534
2.12877,-0.419191,-0.101066
2.14725,-0.314781,-0.0884162
2.13442,-0.420305,-0.0506206
2.15166,-0.322335,-0.0379764
2.11798,-0.423983,0
2.07401,-0.630924,-0.0252379
2.15591,-0.322972,0.01267
2.10634,-0.529858,-0.0126235
2.1253,-0.425448,-0.233472
2.12525,-0.425438,0.0504345
2.15108,-0.322248,0.063301
2.0983,-0.527835,0.037767
2.15153,-0.322316,-0.139427
2.11831,-0.42405,0.125813
2.09688,-0.527478,0.0880906
2.12352,-0.425092,-0.100879
2.1502,-0.322117,-0.0885791
2.13309,-0.427008,-0.0506206
2.15052,-0.329844,-0.0379764
2.06797,-0.636982,-0.0251913
2.15872,-0.331102,0.0126932
2.1277,-0.433658,-0.2339
2.12767,-0.433653,0.0505275
2.14994,-0.329755,0.063301
2.10032,-0.536146,0.0378368
2.15434,-0.330429,-0.139683
2.12073,-0.432239,0.126045
2.09503,-0.534794,0.0880906
2.14511,-0.329015,-0.0884162
2.12767,-0.433653,-0.0505275
2.15325,-0.338345,-0.0380462
2.06944,-0.645749,-0.0252379
2.15354,-0.338391,0.01267
2.1222,-0.440645,-0.233472
2.12607,-0.441448,0.0505275
2.06563,-0.644557,0.0251913
2.12146,-0.440492,-0.151511
2.14476,-0.337012,0.0631846
2.0906,-0.541833,0.0376972
2.11913,-0.440009,0.126045
2.09692,-0.543472,0.0882534
2.12434,-0.441089,-0.101066
2.09578,-0.543177,-0.113464
2.12607,-0.441448,-0.0505275
2.14422,-0.344216,-0.0379066
2.06729,-0.652608,-0.0252379
2.14846,-0.344896,0.0126467
2.10068,-0.551886,-0.0126235
2.12068,-0.44767,0.0504345
2.06348,-0.651404,0.0251913
2.11999,-0.447525,-0.151511
2.14364,-0.344122,0.0631846
2.08879,-0.548763,0.0376972
2.10985,-0.445384,0.12558
2.09511,-0.550423,0.0882534
2.11895,-0.447306,-0.100879
2.12459,-0.448496,-0.0505275
2.14294,-0.352072,-0.0379066
2.11569,-0.454722,0
2.14718,-0.352768,0.0126467
2.09864,-0.559582,-0.0126235
2.11902,-0.45544,0.0504345
2.06869,-0.661398,0.0252844
2.12224,-0.45613,-0.15179
2.13841,-0.351329,0.0630683
2.08676,-0.556415,0.0376972
2.11211,-0.453953,0.125813
2.08921,-0.557068,0.0880906
2.1173,-0.45507,-0.100879
2.11902,-0.45544,-0.0504345
2.14577,-0.359463,-0.0379764
2.15,-0.360173,0.01267
2.09687,-0.566172,-0.0126235
2.12151,-0.462953,-0.2339
2.11758,-0.462094,0.0504345
2.11689,-0.461944,-0.151511
2.1373,-0.358045,0.0630683
2.08887,-0.564011,0.037767
2.11067,-0.460586,0.125813
2.08359,-0.562587,0.0879277
2.13643,-0.3579,-0.0882534
2.11758,-0.462094,-0.0504345
2.1445,-0.366951,-0.0379764
2.14873,-0.367676,0.01267
2.09488,-0.573488,-0.0126235
2.11596,-0.469483,0.0504345
2.13604,-0.365503,0.0630683
2.08688,-0.571299,0.037767
2.10905,-0.467951,0.125813
2.08547,-0.570912,0.0880906
2.11033,-0.468236,-0.100693
2.13517,-0.365355,-0.0882534
2.11986,-0.47035,-0.0505275
2.13927,-0.373747,-0.0379066
2.1435,-0.374486,0.0126467
2.09672,-0.581867,-0.0126467
2.1143,-0.476867,0.0504345
2.13869,-0.373645,0.0631846
2.08873,-0.579649,0.0378368
2.13521,-0.373038,-0.138916
2.1074,-0.47531,0.125813
2.08347,-0.578188,0.0880906
2.11648,-0.477358,-0.101066
2.13388,-0.372806,-0.0882534
2.1182,-0.477746,-0.0505275
2.13401,-0.38051,-0.0378368
2.1093,-0.483481,0
2.14218,-0.381965,0.0126467
2.09468,-0.589182,-0.0126467
2.12042,-0.486031,0.0506206
2.11194,-0.484087,-0.151511
2.13737,-0.381108,0.0631846
2.079,-0.584771,0.0376972
2.1339,-0.380489,-0.138916
2.10962,-0.483556,0.126045
2.08144,-0.585457,0.0880906
2.1148,-0.484743,-0.101066
2.11652,-0.485137,-0.0505275
2.1326,-0.388329,-0.0378368
2.10362,-0.490301,0
2.13683,-0.389098,0.0126235
2.08481,-0.594661,-0.0126002
2.10694,-0.491076,0.0503414
2.11404,-0.49273,-0.15179
2.13202,-0.388223,0.0630683
2.07684,-0.592387,0.0376972
2.10395,-0.490378,0.125813
2.10523,-0.490677,-0.100693
2.13116,-0.388066,-0.0882534
2.11084,-0.491984,-0.0504345
2.1313,-0.395398,-0.0378368
2.13552,-0.396182,0.0126235
2.08283,-0.601572,-0.0126002
2.11309,-0.499902,0.0505275
2.13466,-0.396021,0.0631846
2.0787,-0.60038,0.037767
2.13511,-0.396105,-0.139172
2.09842,-0.496433,0.12558
2.12986,-0.395131,-0.0882534
2.1053,-0.49806,-0.0503414
2.13377,-0.403951,-0.0379066
2.08061,-0.609202,-0.0126002
2.10346,-0.505773,0.0503414
2.12533,-0.402354,0.0629519
2.07265,-0.606871,0.0376972
2.12972,-0.403186,-0.138916
2.10047,-0.505054,0.125813
2.11124,-0.507643,-0.0505275
2.13242,-0.411025,-0.0379066
2.13663,-0.411838,0.0126467
2.07474,-0.614961,-0.012577
2.10954,-0.514641,0.0505275
2.10497,-0.513527,-0.151511
2.12399,-0.4094,0.0629519
2.07063,-0.613741,0.0376972
2.10267,-0.512964,0.126045
2.10566,-0.513694,-0.0504345
2.13097,-0.418466,-0.0379066
2.07642,-0.62335,-0.0126002
2.10385,-0.521041,0.0504345
2.12255,-0.416812,0.0629519
2.12693,-0.417673,-0.138916
2.09311,-0.51838,0.12558
2.09826,-0.519657,-0.100693
2.09997,-0.520079,-0.0503414
2.1255,-0.425489,-0.0378368
2.12579,-0.425546,0.0126002
2.07412,-0.630956,-0.0126002
2.09805,-0.527773,0.0503414
2.10125,-0.528576,-0.151511
2.11708,-0.423804,0.0628356
2.07001,-0.629706,0.037767
2.0912,-0.526048,0.12558
2.09635,-0.527344,-0.100693
2.12406,-0.425201,-0.0882534
2.09805,-0.527773,-0.0503414
2.12008,-0.432107,-0.037767
2.12821,-0.433763,0.0126235
2.0719,-0.638192,-0.0126002
2.10007,-0.536082,0.0504345
2.09939,-0.535908,-0.151511
2.12343,-0.432788,0.0630683
2.08935,-0.533345,0.12558
2.0962,-0.535093,-0.0503414
2.12256,-0.439946,-0.0378368
2.13068,-0.44163,0.0126467
2.06977,-0.645059,-0.0126002
2.09828,-0.543043,0.0504345
2.12198,-0.439827,0.0630683
2.12244,-0.439923,-0.138916
2.09143,-0.541271,0.125813
2.11721,-0.438838,-0.0880906
2.09828,-0.543043,-0.0504345
2.12101,-0.447353,-0.0378368
2.12521,-0.448239,0.0126235
2.07132,-0.653484,-0.0126235
2.10024,-0.55138,0.0505275
2.11652,-0.446406,0.0629519
2.11699,-0.446505,-0.13866
2.08953,-0.548568,0.125813
2.09251,-0.549349,-0.0503414
2.1156,-0.453545,-0.037767
2.1198,-0.454445,0.0126002
2.06534,-0.659133,-0.0126002
2.09454,-0.557313,0.0504345
2.11503,-0.453423,0.0629519
2.09454,-0.557313,-0.0504345
2.11392,-0.461297,-0.037767
2.12593,-0.463917,0.0126467
2.06291,-0.666698,-0.0126002
2.09634,-0.566029,0.0505275
2.11335,-0.461172,0.0629519
2.08862,-0.563944,-0.0503414
2.1123,-0.468673,-0.037767
2.11649,-0.469603,0.0126002
2.08278,-0.570175,0.0502484
2.11173,-0.468546,0.0629519
2.11087,-0.468356,-0.0880906
2.08664,-0.571231,-0.0503414
2.11464,-0.476554,-0.0378368
2.11883,-0.477498,0.0126235
2.08859,-0.579216,0.0504345
2.10626,-0.474667,0.0628356
2.11063,-0.475651,-0.13866
2.08473,-0.578147,-0.0503414
2.11296,-0.483933,-0.0378368
2.11715,-0.484891,0.0126235
2.08655,-0.586503,0.0504345
2.10459,-0.482016,0.0628356
2.08655,-0.586503,-0.0504345
2.10728,-0.490767,-0.037767
2.11146,-0.49174,0.0126002
2.08439,-0.594147,0.0504345
2.10671,-0.490634,0.0629519
2.08269,-0.593664,-0.100879
2.10585,-0.490434,-0.0880906
2.08054,-0.59305,-0.0503414
2.11751,-0.500949,0.0126467
2.07846,-0.600309,0.0503414
2.10498,-0.497984,0.0629519
2.10545,-0.498094,-0.13866
2.07846,-0.600309,-0.0503414
2.11547,-0.508269,-0.0379764
2.11186,-0.507403,0.0126235
2.07635,-0.607561,0.0503414
2.10323,-0.505329,0.0629519
2.10758,-0.506373,-0.138916
2.10238,-0.505124,-0.0880906
2.08403,-0.609807,-0.0505275
2.106,-0.513387,-0.0378368
2.11406,-0.515351,0.0126467
2.07432,-0.614443,0.0503414
2.10154,-0.512301,0.0629519
2.07816,-0.615579,-0.0504345
2.10031,-0.519774,-0.037767
2.10448,-0.520806,0.0126002
2.076,-0.622829,0.0504345
2.09586,-0.518673,0.0628356
2.07217,-0.62168,-0.0503414
2.10236,-0.528077,-0.0378368
2.10265,-0.528148,0.0126002
2.08529,-0.633559,0.0507136
2.09404,-0.525986,0.0628356
2.06998,-0.628909,-0.0503414
2.09276,-0.533437,-0.0376972
2.09691,-0.534497,0.012577
2.09219,-0.533292,0.0628356
2.09653,-0.534398,-0.13866
2.09521,-0.534063,-0.0880906
2.0661,-0.643519,0
2.10278,-0.543816,0.0126235
2.09806,-0.542594,0.0630683
2.09465,-0.541713,-0.13866
2.08908,-0.547669,-0.0376972
2.10097,-0.550786,0.0126235
2.09238,-0.548535,0.0629519
2.09102,-0.555986,-0.037767
2.09903,-0.558117,0.0126235
2.09045,-0.555835,0.0629519
2.09477,-0.556983,-0.138916
2.09331,-0.564034,0.0126002
2.0886,-0.562764,0.0629519
2.08708,-0.57057,-0.037767
2.09123,-0.571702,0.0126002
2.08266,-0.569361,0.0628356
2.08893,-0.57892,-0.0378368
2.08922,-0.578998,0.0126002
2.08451,-0.577695,0.0629519
2.09103,-0.587369,0.0126235
2.08138,-0.592111,0.012577
2.07669,-0.590777,0.0628356
2.08314,-0.600481,0.0126002
2.07461,-0.598022,0.0628356
2.07325,-0.605868,0.0125537
2.07241,-0.605622,0.0628356
2.07879,-0.615372,0.0126002
2.07252,-0.621392,-0.037767
2.07663,-0.622625,0.0126002
2.07428,-0.629422,-0.0378368
2.07456,-0.629508,0.0126002
2.07196,-0.637021,-0.0378368
