3.39319,0.646059,-0.201161
3.39161,0.632886,-0.200928
3.3938,0.621043,-0.200928
3.49967,0.629061,-0.0413957
3.39966,0.611085,-0.201161
3.49791,0.616147,-0.0413491
3.50408,0.604002,-0.0413957
3.39608,0.585385,-0.200696
3.51001,0.593044,-0.0414423
3.40194,0.574784,-0.200928
3.50417,0.579482,-0.0413491
3.39998,0.562254,-0.200696
3.51022,0.567274,-0.0413957
3.40596,0.550426,-0.200928
3.50823,0.554392,-0.0413491
3.32019,0.524677,-0.313779
3.39603,0.536663,-0.200231
3.51795,0.54398,-0.0414423
3.40569,0.526621,-0.200696
3.51596,0.530485,-0.0413957
3.33164,0.502675,-0.314523
3.40759,0.514134,-0.200696
3.50979,0.517655,-0.0413026
3.33329,0.491623,-0.314523
3.56123,0.525241,0.0419079
3.40138,0.501665,-0.200231
3.40524,0.673639,-0.18192
3.51949,0.50654,-0.0413957
3.33499,0.479985,-0.314523
3.56304,0.512808,0.0419079
3.40706,0.490359,-0.200463
3.4115,0.66251,-0.182129
3.45238,0.657951,-0.102282
3.51332,0.493139,-0.0413026
3.34453,0.469448,-0.315266
3.56481,0.500367,0.0419079
3.4048,0.477907,-0.200231
3.40986,0.649849,-0.18192
3.5189,0.482029,-0.0413491
3.32634,0.455652,-0.313407
3.56645,0.488543,0.0419079
3.41593,0.639274,-0.182129
3.52452,0.470273,-0.0413957
3.33581,0.445092,-0.314151
3.56813,0.476092,0.0419079
3.40797,0.454721,-0.200231
3.41421,0.626626,-0.18192
3.45514,0.621055,-0.102166
3.51829,0.456322,-0.0413026
3.33742,0.432862,-0.314151
3.41358,0.44274,-0.200463
3.42041,0.614814,-0.182129
3.46123,0.609685,-0.102282
3.52383,0.444539,-0.0413491
3.51384,0.618954,-0.0207369
3.33891,0.421211,-0.314151
3.56748,0.450046,0.0418613
3.41114,0.430323,-0.200231
3.41861,0.602178,-0.18192
3.46323,0.598205,-0.102282
3.52529,0.432852,-0.0413491
3.34819,0.411108,-0.314895
3.56895,0.438214,0.0418613
3.40858,0.418523,-0.199998
3.42058,0.590839,-0.18192
3.5228,0.420069,-0.0413026
3.52586,0.596356,-0.0207834
3.34565,0.398945,-0.314523
3.57046,0.425752,0.0418613
3.41002,0.406621,-0.199998
3.53227,0.408072,-0.0413957
3.52013,0.582123,-0.0207369
3.34313,0.386222,-0.314151
3.572,0.412662,0.0418613
3.35119,0.554184,-0.27729
3.42339,0.395494,-0.200696
3.42472,0.566345,-0.18192
3.46141,0.560626,-0.10205
3.52565,0.395465,-0.0413026
3.52599,0.571086,-0.0207602
3.34835,0.375578,-0.314523
3.57335,0.400816,0.0418613
3.35301,0.543069,-0.27729
3.41675,0.38325,-0.200231
3.42658,0.554986,-0.18192
3.46729,0.549165,-0.102166
3.52701,0.383155,-0.0413026
3.34964,0.363887,-0.314523
3.57472,0.388339,0.0418613
3.35488,0.531361,-0.27729
3.42203,0.371751,-0.200463
3.4285,0.54302,-0.18192
3.46524,0.536447,-0.10205
3.52832,0.370842,-0.0413026
3.52199,0.545233,-0.0207137
3.57606,0.375859,0.0418613
3.35672,0.519647,-0.27729
3.4114,0.358552,-0.199766
3.43037,0.53105,-0.18192
3.46314,0.523749,-0.101933
3.53358,0.358927,-0.0413491
3.53178,0.534131,-0.0207602
3.3521,0.340493,-0.314523
3.57735,0.363373,0.0418613
3.35851,0.507926,-0.27729
3.4166,0.347045,-0.199998
3.53481,0.346593,-0.0413491
3.52966,0.521217,-0.0207369
3.35327,0.328793,-0.314523
3.5786,0.350886,0.0418613
3.36421,0.496784,-0.277616
3.42574,0.335898,-0.200463
3.41003,0.675205,-0.161928
3.42609,0.505923,-0.181501
3.46275,0.498991,-0.101817
3.52405,0.333122,-0.0412094
3.53146,0.508892,-0.0207369
3.3544,0.317085,-0.314523
3.5798,0.338391,0.0418613
3.36592,0.485037,-0.277616
3.42292,0.323562,-0.200231
3.42021,0.664822,-0.162301
3.46826,0.488668,-0.101933
3.52508,0.32205,-0.0412094
3.53304,0.497796,-0.0207369
3.35934,0.306908,-0.314895
3.58483,0.327508,0.0419079
3.36348,0.473905,-0.27729
3.58009,0.504424,0.0631079
3.42789,0.313171,-0.200463
3.41443,0.652574,-0.161928
3.4722,0.663615,-0.0822585
3.46598,0.476014,-0.101817
3.53415,0.310442,-0.0413026
3.5308,0.484915,-0.0207137
3.35643,0.29483,-0.314523
3.57798,0.314292,0.0418148
3.36511,0.46216,-0.27729
3.58579,0.492468,0.0631777
3.42101,0.300503,-0.199998
3.42061,0.641387,-0.162114
3.46663,0.650015,-0.0820724
3.46762,0.463913,-0.101817
3.53123,0.297768,-0.041256
3.53643,0.473119,-0.0207369
3.35744,0.283113,-0.314523
3.58703,0.302473,0.0419079
3.36671,0.450412,-0.27729
3.58749,0.479949,0.0631777
3.42602,0.288896,-0.200231
3.41497,0.627998,-0.161742
3.43662,0.459766,-0.18171
3.46888,0.637911,-0.0820724
3.46938,0.450594,-0.101817
3.54032,0.284848,-0.0413491
3.53822,0.459535,-0.0207369
3.3585,0.270219,-0.314523
3.5762,0.287735,0.0417682
3.58534,0.465654,0.0631079
3.42312,0.275418,-0.199998
3.42129,0.615588,-0.161928
3.4344,0.446051,-0.181501
3.47524,0.625294,-0.0821654
3.4749,0.438983,-0.101933
3.5373,0.272182,-0.0413026
3.54377,0.447684,-0.0207602
3.36339,0.2588,-0.314895
3.58516,0.275864,0.0418613
3.3677,0.593817,-0.239125
3.36201,0.424721,-0.276639
3.59091,0.453638,0.0631777
3.42406,0.263468,-0.199998
3.42342,0.603642,-0.161928
3.43198,0.43356,-0.181292
3.4774,0.613161,-0.0821654
3.48023,0.428552,-0.10205
3.53814,0.261067,-0.0413026
3.54516,0.436548,-0.0207602
3.36419,0.248231,-0.314895
3.59399,0.265187,0.0419545
3.36561,0.582553,-0.238846
3.37124,0.415131,-0.27729
3.59232,0.442354,0.0631777
3.43284,0.253297,-0.200463
3.4253,0.592883,-0.161928
3.43729,0.423264,-0.181501
3.47537,0.60155,-0.0820724
3.47773,0.415927,-0.101933
3.54302,0.248996,-0.0413491
3.53872,0.423221,-0.0207137
3.59489,0.252641,0.0419545
3.37156,0.571468,-0.239125
3.37662,0.403834,-0.277616
3.58987,0.429338,0.0631079
3.42972,0.241033,-0.200231
3.42341,0.580256,-0.161742
3.48139,0.590084,-0.0821654
3.48711,0.404707,-0.102166
3.53988,0.236361,-0.0413026
3.54018,0.410866,-0.0207137
3.59176,0.239825,0.0419079
3.37354,0.559697,-0.239125
3.37801,0.392046,-0.277616
3.59532,0.417266,0.0631777
3.4385,0.229592,-0.200696
3.42935,0.568957,-0.161928
3.47159,0.575965,-0.0818863
3.48453,0.392085,-0.10205
3.5298,0.572968,0
3.54467,0.224255,-0.0413491
3.54557,0.398953,-0.0207369
3.36263,0.212738,-0.314523
3.58459,0.22678,0.0418148
3.59278,0.404265,0.0631079
3.44327,0.21784,-0.200928
3.63801,0.409354,0.149151
3.43132,0.556982,-0.161928
3.44153,0.387246,-0.181501
3.48148,0.565124,-0.0820724
3.48985,0.380351,-0.102166
3.52783,0.560015,0
3.54144,0.211641,-0.0413026
3.54694,0.386573,-0.0207369
3.36733,0.201235,-0.314895
3.58137,0.214027,0.0417682
3.36948,0.534879,-0.238567
3.37671,0.36802,-0.27729
3.60212,0.392587,0.0632475
3.44002,0.20558,-0.200696
3.64338,0.397085,0.149314
3.43324,0.545,-0.161928
3.47948,0.55234,-0.0819793
3.48718,0.367748,-0.10205
3.53371,0.548311,0
3.53817,0.199054,-0.041256
3.2871,0.346649,-0.420726
3.54429,0.373771,-0.0207137
3.59407,0.202199,0.0419079
3.37133,0.523114,-0.238567
3.37797,0.356231,-0.27729
3.59949,0.379592,0.0631777
3.44471,0.193796,-0.200928
3.64475,0.384365,0.149314
3.43512,0.533014,-0.161928
3.44018,0.362792,-0.181292
3.48929,0.541418,-0.0821654
3.48844,0.355573,-0.10205
3.53561,0.535972,0
3.54283,0.186912,-0.0413026
3.53761,0.360584,-0.0206672
3.59875,0.189862,0.0419545
3.37313,0.511342,-0.238567
3.37919,0.344437,-0.27729
3.59283,0.366213,0.0630381
3.4334,0.181138,-0.200231
3.64607,0.371639,0.149314
3.43696,0.521019,-0.161928
3.4793,0.527436,-0.0818863
3.48568,0.343004,-0.101933
3.53746,0.52363,0
3.54746,0.174743,-0.0413491
3.28549,0.323305,-0.420221
3.59939,0.177301,0.0419545
3.38279,0.500736,-0.239125
3.59807,0.354064,0.0631079
3.438,0.169351,-0.200463
3.64337,0.358521,0.149151
3.43086,0.50785,-0.161556
3.48507,0.515876,-0.0819793
3.48692,0.330224,-0.101933
3.53539,0.510087,0
3.55207,0.161919,-0.0413957
3.29061,0.311633,-0.420726
3.36586,0.153431,-0.314523
3.58803,0.163558,0.0418148
3.3767,0.487191,-0.238567
3.38157,0.320247,-0.27729
3.60333,0.341248,0.0631777
3.4386,0.156747,-0.200463
3.64466,0.345163,0.149151
3.4406,0.496411,-0.161928
3.44782,0.326521,-0.181501
3.42488,0.66635,-0.14215
3.48694,0.503096,-0.0819793
3.4959,0.319997,-0.102166
3.53698,0.498978,0
3.53658,0.150082,-0.0412094
3.37428,0.143194,-0.315266
3.59252,0.152456,0.0418613
3.37427,0.476024,-0.238288
3.38256,0.309623,-0.27729
3.60438,0.329927,0.0631777
3.44306,0.146113,-0.200696
3.64572,0.333711,0.149151
3.44215,0.4856,-0.161928
3.44883,0.315689,-0.181501
3.4885,0.49214,-0.0819793
3.49301,0.307441,-0.10205
3.5387,0.486628,0
3.54108,0.13789,-0.041256
3.2926,0.289802,-0.420726
3.37078,0.131259,-0.314895
3.60502,0.14038,0.042001
3.37591,0.464242,-0.238288
3.60153,0.316992,0.0631079
3.64686,0.320983,0.149151
3.44778,0.474125,-0.162114
3.4902,0.479959,-0.0819793
3.49412,0.294637,-0.10205
3.53253,0.472595,0
3.54955,0.125193,-0.0413491
3.59895,0.481481,0.0844917
3.59752,0.126885,0.0419079
3.37759,0.451866,-0.238288
3.60266,0.30379,0.0631079
3.44003,0.121331,-0.200463
3.65598,0.308286,0.149477
3.44553,0.460956,-0.161928
3.42763,0.630325,-0.141987
3.49194,0.467164,-0.0819793
3.47937,0.627291,-0.0617117
3.48317,0.281473,-0.101701
3.54209,0.461295,0
3.55397,0.11293,-0.0413957
3.29459,0.266235,-0.420726
3.30876,0.430908,-0.359418
3.37561,0.107263,-0.315266
3.59268,0.467884,0.0843056
3.60194,0.114455,0.0419545
3.38706,0.441105,-0.238846
3.6037,0.291214,0.0631079
3.44442,0.109449,-0.200696
3.65305,0.295202,0.149314
3.4392,0.447895,-0.161556
3.43375,0.619067,-0.14215
3.48958,0.454457,-0.0818863
3.48143,0.615751,-0.0617117
3.49205,0.270539,-0.101933
3.5436,0.449547,0
3.55032,0.101031,-0.0413491
3.30622,0.419433,-0.358989
3.37595,0.0960691,-0.315266
3.59818,0.456471,0.0843987
3.5983,0.102397,0.0419079
3.38058,0.428867,-0.238288
3.38655,0.262366,-0.27729
3.60465,0.279263,0.0631079
3.37656,0.597203,-0.219758
3.44477,0.0980274,-0.200696
3.65401,0.283087,0.149314
3.4367,0.435986,-0.16137
3.4529,0.267506,-0.181501
3.43578,0.607677,-0.14215
3.49503,0.443386,-0.0819793
3.50095,0.258937,-0.102166
3.54912,0.437664,0
3.54266,0.0884371,-0.041256
3.31556,0.408862,-0.359846
3.60372,0.444397,0.0844917
3.38602,0.417551,-0.238567
3.38745,0.250542,-0.27729
3.61358,0.267267,0.0632475
3.38649,0.586775,-0.22027
3.44908,0.0861011,-0.200928
3.65498,0.270329,0.149314
3.44217,0.424475,-0.161556
3.43,0.594315,-0.141824
3.49656,0.431183,-0.0819793
3.48959,0.592098,-0.0617815
3.49785,0.246433,-0.10205
3.54665,0.424795,0
3.55094,0.0762411,-0.0413491
3.29716,0.232294,-0.420726
3.55912,0.25075,-0.0207369
3.31302,0.396812,-0.359418
3.60128,0.431338,0.0843987
3.38746,0.405728,-0.238567
3.38432,0.238435,-0.276965
3.60651,0.254089,0.0631079
3.44936,0.0740601,-0.200928
3.6559,0.257568,0.149314
3.44759,0.412931,-0.161742
3.436,0.583006,-0.141987
3.49804,0.418974,-0.0819793
3.49868,0.234223,-0.10205
3.54811,0.412414,0
3.55918,0.0639901,-0.0414423
3.29795,0.220784,-0.420726
3.55997,0.238325,-0.0207369
3.30648,0.384328,-0.358561
3.60673,0.419228,0.0844917
3.39282,0.394363,-0.238846
3.38911,0.226887,-0.27729
3.61137,0.241766,0.0631777
3.4496,0.0620199,-0.200928
3.44505,0.400434,-0.161556
3.44196,0.571664,-0.14215
3.49551,0.4063,-0.0818863
3.48574,0.566439,-0.0616419
3.4915,0.221501,-0.101817
3.55351,0.400473,0
3.55939,0.0515649,-0.0414423
3.31176,0.373228,-0.358989
3.60023,0.405738,0.0843056
3.39417,0.382516,-0.238846
3.6082,0.228904,0.0631079
3.38851,0.550639,-0.220014
3.4458,0.0499194,-0.200696
3.69035,0.415895,0.216277
3.44245,0.387957,-0.16137
3.43999,0.559004,-0.141987
3.50088,0.394543,-0.0819793
3.48769,0.55427,-0.0616419
3.50023,0.209793,-0.10205
3.54693,0.387201,0
3.55954,0.0391424,-0.0414423
3.54347,0.563134,0.0208531
3.32095,0.362531,-0.359846
3.60162,0.393171,0.0843056
3.38755,0.369803,-0.238288
3.60897,0.216311,0.0631079
3.44995,0.0379372,-0.200928
3.45173,0.376808,-0.161742
3.43797,0.546368,-0.141824
3.50224,0.382322,-0.0819793
3.49365,0.542094,-0.0617117
3.49699,0.196736,-0.101933
3.55628,0.375034,0
3.54766,0.0260053,-0.0413026
3.54946,0.550754,0.0208764
3.31039,0.349103,-0.358561
3.60702,0.380385,0.0843987
3.39286,0.3578,-0.238567
3.39532,0.191016,-0.277616
3.61373,0.203304,0.0631777
3.45405,0.0253191,-0.201161
3.45309,0.364152,-0.161742
3.4439,0.534374,-0.141987
3.5076,0.3699,-0.0820724
3.49543,0.530508,-0.0617117
3.50161,0.185352,-0.10205
3.54955,0.362429,0
3.55573,0.0142751,-0.0413957
3.55127,0.538983,0.0208764
3.31944,0.338934,-0.359418
3.61224,0.36883,0.0844917
3.39402,0.346549,-0.238567
3.39195,0.179547,-0.27729
3.6104,0.19111,0.0631079
3.3862,0.513929,-0.219502
3.45811,0.0138832,-0.201394
3.45428,0.352701,-0.161742
3.43775,0.521753,-0.141661
3.50085,0.357456,-0.0818863
3.49331,0.517716,-0.0616419
3.51023,0.173522,-0.102282
3.55079,0.350036,0
3.55576,0.00186226,-0.0413957
3.55313,0.526582,0.0208764
3.56359,0.176159,-0.0207369
3.31269,0.326564,-0.358561
3.6135,0.356218,0.0844917
3.39521,0.334699,-0.238567
3.39654,0.167902,-0.277616
3.60705,0.178308,0.0630381
3.38797,0.502105,-0.219502
3.44616,0.00180486,-0.200696
3.68785,0.363547,0.215812
3.45946,0.341033,-0.161928
3.45141,0.511507,-0.14215
3.51003,0.346018,-0.0820724
3.49105,0.505557,-0.0615721
3.50279,0.161513,-0.10205
3.55989,0.339018,0
3.55486,0.514798,0.0208764
3.32563,0.316708,-0.359846
3.6067,0.343476,0.0843056
3.3963,0.323439,-0.238567
3.39708,0.156638,-0.277616
3.61561,0.166714,0.0631777
3.38566,0.490296,-0.219246
3.44615,-0.00962233,-0.200696
3.45262,0.328802,-0.161556
3.45309,0.500059,-0.14215
3.50718,0.333998,-0.0819793
3.49684,0.493316,-0.0616419
3.50736,0.148842,-0.102166
3.56111,0.325967,0
3.55672,0.501764,0.0208764
3.32281,0.304154,-0.359418
3.61192,0.330618,0.0843987
3.39747,0.310988,-0.238567
3.62019,0.15363,0.0632475
3.39139,0.47844,-0.219502
3.45408,-0.0223055,-0.201161
3.68632,0.337428,0.21558
3.44982,0.31578,-0.16137
3.45094,0.486841,-0.141987
3.50838,0.32114,-0.0819793
3.49457,0.480562,-0.0615721
3.49986,0.136288,-0.101933
3.55426,0.312834,0
3.55845,0.489346,0.0208764
3.56923,0.138989,-0.0207602
3.32385,0.292554,-0.359418
3.61305,0.318008,0.0843987
3.39853,0.299127,-0.238567
3.39811,0.132325,-0.277616
3.6207,0.140993,0.0632475
3.397,0.467144,-0.219758
3.45797,-0.0344013,-0.201394
3.45488,0.304087,-0.161556
3.44866,0.474248,-0.141824
3.50948,0.308892,-0.0819793
3.50416,0.469424,-0.0617117
3.50032,0.124071,-0.101933
3.55932,0.300763,0
3.55221,0.475861,0.0208299
3.32089,0.280615,-0.358989
3.61812,0.305732,0.0844917
3.40353,0.287599,-0.238846
3.60519,0.127788,0.0629683
3.39069,0.454224,-0.219246
3.45592,0.292026,-0.161556
3.45029,0.462208,-0.141824
3.51054,0.296641,-0.0819793
3.49776,0.456764,-0.0615721
3.50471,0.11259,-0.10205
3.55232,0.28831,0
3.55377,0.464078,0.0208299
3.3218,0.269601,-0.358989
3.61912,0.293731,0.0844917
3.40447,0.27631,-0.238846
3.39893,0.109192,-0.277616
3.39218,0.442976,-0.219246
3.45687,0.280563,-0.161556
3.4518,0.450763,-0.141824
3.50751,0.284673,-0.0818863
3.50331,0.445055,-0.0616419
3.50508,0.100355,-0.10205
3.56128,0.276527,0
3.5514,0.451165,0.0208067
3.32668,0.258311,-0.359418
3.61215,0.280476,0.0843056
3.40541,0.264423,-0.238846
3.39371,0.431132,-0.219246
3.45385,0.268185,-0.16137
3.44939,0.438206,-0.141661
3.51247,0.272737,-0.0819793
3.50087,0.432334,-0.0615721
3.50541,0.0881197,-0.10205
3.55026,0.263207,0
3.56089,0.439746,0.0208531
3.32757,0.246698,-0.359418
3.6131,0.267867,0.0843056
3.39835,0.251945,-0.238288
3.4036,0.0855604,-0.277941
3.40311,0.420262,-0.219758
3.46273,0.256718,-0.161742
3.45487,0.426654,-0.141824
3.5134,0.260475,-0.0819793
3.50236,0.420112,-0.0615721
3.50969,0.0759702,-0.102166
3.55913,0.251377,0
3.55843,0.426838,0.0208299
3.32841,0.235081,-0.359418
3.61801,0.255535,0.0843987
3.40717,0.240644,-0.238846
3.40388,0.0736798,-0.277941
3.4006,0.407906,-0.219502
3.46361,0.24463,-0.161742
3.45237,0.414116,-0.141661
3.51828,0.248492,-0.0820724
3.5038,0.407883,-0.0615721
3.51393,0.0637903,-0.102282
3.55999,0.238951,0
3.5599,0.414414,0.0208299
3.32921,0.223461,-0.359418
3.61489,0.242636,0.0843056
3.40799,0.228749,-0.238846
3.39614,0.061652,-0.27729
3.402,0.396032,-0.219502
3.46045,0.23227,-0.161556
3.44982,0.401599,-0.141499
3.50123,0.395202,-0.0615023
3.51014,0.0514661,-0.102166
3.55681,0.22627,0
3.55735,0.401537,0.0208067
3.56756,0.052308,-0.0207369
3.32997,0.211839,-0.359418
3.62369,0.230525,0.0844917
3.40877,0.216852,-0.238846
3.40431,0.0499145,-0.277941
3.46523,0.220444,-0.161742
3.45517,0.390004,-0.141661
3.51594,0.22367,-0.0819793
3.50656,0.383412,-0.0615721
3.51429,0.0392569,-0.102282
3.56556,0.214332,0
3.57066,0.39042,0.0208764
3.57572,0.039943,-0.0207834
3.32672,0.199974,-0.358989
3.61649,0.217393,0.0843056
3.40951,0.204951,-0.238846
3.40865,0.372706,-0.219758
3.46598,0.208346,-0.161742
3.46049,0.378374,-0.141824
3.5167,0.211395,-0.0819793
3.51186,0.371589,-0.0616419
3.51841,0.0270192,-0.102399
3.5623,0.201657,0
3.56802,0.377532,0.0208531
3.57183,0.0274295,-0.0207602
3.33137,0.188585,-0.359418
3.61723,0.204767,0.0843056
3.4102,0.193047,-0.238846
3.40993,0.360804,-0.219758
3.4627,0.196019,-0.161556
3.46179,0.366291,-0.141824
3.52141,0.199343,-0.0820724
3.50915,0.358924,-0.0615721
3.51848,0.01474,-0.102399
3.56298,0.189224,0
3.56932,0.365078,0.0208531
3.332,0.176957,-0.359418
3.62191,0.192354,0.0843987
3.41085,0.181145,-0.238846
3.41117,0.348902,-0.219758
3.46735,0.184145,-0.161742
3.45907,0.353801,-0.141661
3.52208,0.187052,-0.0820724
3.51033,0.347284,-0.0615721
3.51451,0.00306772,-0.102282
3.56758,0.177606,0
3.55857,0.352057,0.0207834
3.33257,0.165906,-0.359418
3.62653,0.18054,0.0844917
3.41941,0.170229,-0.239404
3.40436,0.336801,-0.219246
3.46794,0.172645,-0.161742
3.46022,0.342328,-0.141661
3.51157,0.334417,-0.0615721
3.5145,-0.00981286,-0.102282
3.56821,0.164529,0
3.55983,0.339012,0.0207834
3.32918,0.153508,-0.358989
3.62716,0.167248,0.0844917
3.41602,0.157512,-0.239125
3.40955,0.3247,-0.219502
3.47122,-0.00969202,-0.18192
3.45748,0.329265,-0.141499
3.51931,0.162274,-0.0819793
3.51272,0.322156,-0.0615721
3.51444,-0.0220816,-0.102282
3.57276,0.152242,0
3.56498,0.326949,0.0208067
3.33367,0.142054,-0.359418
3.41655,0.145586,-0.239125
3.41464,0.31316,-0.219758
3.4651,0.147654,-0.161556
3.46656,0.317923,-0.141824
3.51985,0.149988,-0.0819793
3.50979,0.310153,-0.0615023
3.51435,-0.0337368,-0.102282
3.56525,0.140079,0
3.57003,0.315476,0.0208299
3.41701,0.134254,-0.239125
3.41168,0.301483,-0.219502
3.47355,0.136476,-0.161928
3.47507,-0.0333597,-0.182129
3.46362,0.306073,-0.141661
3.52033,0.138314,-0.0819793
3.51483,0.298238,-0.0615721
3.51021,-0.0459509,-0.102166
3.56971,0.127777,0
3.57908,0.30369,0.0208764
3.41746,0.122327,-0.239125
3.41669,0.28991,-0.219758
3.47401,0.124351,-0.161928
3.46467,0.293981,-0.141661
3.52878,0.126311,-0.0821654
3.51585,0.285968,-0.0615721
3.51803,-0.0583354,-0.102399
3.57414,0.115445,0
3.56816,0.290222,0.0208067
3.41787,0.110398,-0.239125
3.4137,0.277659,-0.219502
3.47364,0.282534,-0.141987
3.5292,0.113994,-0.0821654
3.51284,0.273382,-0.0615023
3.5218,-0.0706964,-0.102515
3.57052,0.102852,0
3.56915,0.277764,0.0208067
3.42222,0.0985803,-0.239404
3.41465,0.265741,-0.219502
3.47479,0.100095,-0.161928
3.47062,0.270096,-0.141824
3.52558,0.101558,-0.0820724
3.51776,0.261416,-0.0615721
3.57885,0.0905913,0
3.5701,0.265305,0.0208067
3.42653,0.0867356,-0.239683
3.41556,0.25382,-0.219502
3.46713,0.0877632,-0.161556
3.47154,0.257981,-0.141824
3.52592,0.0892513,-0.0820724
3.51466,0.248852,-0.0615023
3.57115,0.0779228,0
3.57499,0.253123,0.0208299
3.42283,0.0746863,-0.239404
3.6214,0.256409,0.105657
3.42438,0.242459,-0.220014
3.4754,0.0758336,-0.161928
3.47641,0.246143,-0.141987
3.52621,0.0769421,-0.0820724
3.52349,0.237119,-0.0616419
3.5714,0.0654567,0
3.57186,0.240374,0.0208067
3.42307,0.062738,-0.239404
3.42123,0.230237,-0.219758
3.47964,0.0637749,-0.162114
3.47724,0.234006,-0.141987
3.52645,0.0646329,-0.0820724
3.52031,0.224563,-0.0615721
3.57161,0.0529897,0
3.57268,0.227904,0.0208067
3.42725,0.0508481,-0.239683
3.41803,0.218039,-0.219502
3.47585,0.051569,-0.161928
3.47405,0.221613,-0.141824
3.53465,0.0524415,-0.0822585
3.51708,0.212033,-0.0615023
3.57345,0.215432,0.0208067
3.42342,0.0388391,-0.239404
3.62388,0.218472,0.105657
3.41478,0.205866,-0.219246
3.48,0.0394811,-0.162114
3.4748,0.209485,-0.141824
3.52682,0.0400122,-0.0820724
3.52179,0.199982,-0.0615721
3.57418,0.202957,0.0208067
3.41954,0.0268576,-0.239125
3.41947,0.194171,-0.219502
3.48012,0.0273334,-0.162114
3.48349,0.197807,-0.14215
3.53094,0.0277325,-0.0821654
3.52247,0.187687,-0.0615721
3.57487,0.190479,0.0208067
3.42361,0.0149384,-0.239404
3.42809,0.182659,-0.220014
3.48019,0.0151853,-0.162114
3.48416,0.185646,-0.14215
3.53101,0.015407,-0.0821654
3.5231,0.17539,-0.0615721
3.5835,0.178397,0.0208531
3.43162,0.00299465,-0.239962
3.42074,0.170294,-0.219502
3.48422,0.00304056,-0.162301
3.47681,0.173086,-0.141824
3.53904,0.0030884,-0.0823515
3.53168,0.163461,-0.0617117
3.57611,0.165518,0.0208067
3.4253,0.158537,-0.219758
3.48421,-0.00912166,-0.162301
3.47739,0.160948,-0.141824
3.52823,0.150961,-0.0616419
3.58066,0.153205,0.0208299
3.42583,0.14658,-0.219758
3.48416,-0.0212838,-0.162301
3.48192,0.14898,-0.141987
3.53898,-0.0216186,-0.0823515
3.52874,0.138645,-0.0616419
3.58517,0.140862,0.0208531
3.4343,0.134934,-0.22027
3.48007,-0.0334073,-0.162114
3.48642,0.136982,-0.14215
3.53488,-0.0339334,-0.0822585
3.52916,0.127558,-0.0616419
3.5856,0.129598,0.0208531
3.43072,0.124,-0.220014
3.48394,-0.0443909,-0.162301
3.48683,0.126028,-0.14215
3.53476,-0.0450384,-0.0822585
3.5296,0.114622,-0.0616419
3.59005,0.116585,0.0208764
3.43115,0.111425,-0.220014
3.47976,-0.0570944,-0.162114
3.49126,0.113377,-0.142313
3.53798,0.102533,-0.0617815
3.58643,0.103937,0.0208531
3.43152,0.0994473,-0.220014
3.48353,-0.0693201,-0.162301
3.49164,0.10119,-0.142313
3.53032,0.0899783,-0.0616419
3.58278,0.0913154,0.0208299
3.43982,0.0876719,-0.220526
3.49126,-0.0816664,-0.162673
3.48797,0.0888991,-0.14215
3.53459,0.0783595,-0.0617117
3.58306,0.079434,0.0208299
3.4401,0.0762646,-0.220526
3.49224,0.0774207,-0.142313
3.53485,0.066021,-0.0617117
3.43635,0.0641814,-0.22027
3.49249,0.06523,-0.142313
3.53506,0.0530647,-0.0617117
3.43257,0.0515262,-0.220014
3.48472,0.0523089,-0.141987
3.53523,0.0407247,-0.0617117
3.43273,0.039544,-0.220014
3.49287,0.0402368,-0.142313
3.53135,0.0283521,-0.0616419
3.44083,0.0276254,-0.220526
3.49299,0.0280441,-0.142313
3.53542,0.0166604,-0.0617117
3.43691,0.0161962,-0.22027
3.54346,0.00371069,-0.0618513
3.44094,0.00360333,-0.220526
3.53545,-0.00802172,-0.0617117
3.44492,-0.00781632,-0.220781
3.49309,-0.00792561,-0.142313
3.5474,-0.0204318,-0.0619211
3.50104,-0.0201647,-0.142638
3.49694,-0.0329589,-0.142476
3.49681,-0.0451653,-0.142476
3.49641,-0.0695763,-0.142476
3.50014,-0.0818741,-0.142638
