2.14418,0.662504,-0.130697
2.14081,0.653287,-0.208938
2.13346,0.642911,-0.129766
2.13768,0.636054,-0.208195
2.12421,0.632044,-0.129069
2.13203,0.627086,-0.207451
2.12284,0.615939,-0.206336
2.11696,0.614232,-0.128371
2.12115,0.607428,-0.205964
2.11141,0.60464,-0.127906
2.10925,0.596062,-0.0255173
2.11559,0.597854,-0.205221
2.10736,0.587989,-0.0254707
2.10989,0.588694,-0.204477
2.10394,0.587034,-0.127208
2.09783,0.577444,-0.025331
2.10041,0.578155,-0.203362
2.09607,0.568705,-0.0252844
2.09483,0.568367,-0.202618
2.09267,0.567781,-0.126278
2.08636,0.558647,-0.0251447
2.09285,0.560387,-0.202246
2.09068,0.559806,-0.126045
2.08056,0.54932,-0.0250516
2.08325,0.550029,-0.201131
2.08876,0.551486,-0.125813
2.08643,0.542697,-0.0250982
2.0891,0.543392,-0.201503
2.08643,0.542697,0.0250982
2.07918,0.54081,-0.125115
2.08822,0.535774,-0.0250982
2.08318,0.534481,-0.200759
2.07659,0.532792,0.0249585
2.07709,0.532919,-0.124883
2.0862,0.527502,-0.0250516
2.06572,0.522325,-0.1989
2.07844,0.525541,0.0249585
2.13513,0.652369,-0.182256
2.07507,0.524687,-0.12465
2.06862,0.515382,-0.0248188
2.07526,0.517037,-0.199644
2.06914,0.51551,-0.124185
2.07032,0.508519,-0.0248188
2.06923,0.508252,-0.1989
2.06255,0.506611,0.0247257
2.12424,0.633264,-0.180955
2.06696,0.507693,-0.123952
2.12456,0.633359,-0.116186
2.07208,0.501289,-0.0248188
2.06325,0.499153,-0.198157
2.05653,0.497527,0.0246325
2.06483,0.499536,-0.12372
2.12722,0.617611,-0.0644646
2.07001,0.492765,-0.0247722
2.06119,0.490665,-0.197785
2.05445,0.48906,0.024586
2.055,0.48919,-0.123022
2.06004,0.482798,-0.0246325
2.05514,0.48165,-0.197041
2.04836,0.48006,0.0244928
2.1117,0.605122,-0.179327
2.05669,0.482014,-0.123022
2.05383,0.474165,-0.0245394
2.04896,0.473041,-0.196298
2.10602,0.595946,-0.178676
2.0505,0.473395,-0.122557
2.0985,0.585913,-1.01597
2.05158,0.466107,-0.0244928
2.11122,0.589463,-0.0127397
2.05448,0.466767,-0.19667
2.03597,0.462562,0.0243066
2.05603,0.467119,-0.12279
2.09698,0.577606,-0.063301
2.04538,0.457198,-0.0243997
2.10403,0.579548,-0.27779
2.10941,0.581028,-0.0127165
2.04444,0.456987,-0.195554
2.02977,0.453708,0.0242135
2.04596,0.457326,-0.122092
2.09885,0.57812,-0.114092
2.08855,0.567446,-1.00921
2.04306,0.449196,-0.0243531
2.09839,0.570119,-0.27678
2.09984,0.570514,-0.0126467
2.04213,0.448992,-0.195183
2.02743,0.44576,0.0241669
2.03974,0.448466,-0.121627
2.10102,0.562967,-1.01428
2.04071,0.441216,-0.0243066
2.10036,0.56279,-0.27678
2.09409,0.56111,-0.0126002
2.03201,0.439336,-0.194067
2.02898,0.43868,0.0241669
2.15797,0.692847,-0.158487
2.09104,0.560291,-0.176724
2.02959,0.438812,-0.120929
2.0874,0.559316,-0.113255
2.09947,0.554705,-1.01259
2.02658,0.430765,-0.0241203
2.09848,0.554443,-0.276275
2.09217,0.552776,-0.012577
2.03743,0.433069,-0.194439
2.08802,0.55168,0.0376972
2.03501,0.432556,-0.121162
2.08161,0.549987,-0.112836
2.09789,0.546459,-1.0109
2.03199,0.424505,-0.0241669
2.08888,0.544113,-0.27476
2.08635,0.543453,-0.0125305
2.02333,0.422697,-0.192952
2.01241,0.420416,0.0239341
2.07561,0.540655,-0.175096
2.02869,0.423816,-0.120697
2.07966,0.54171,-0.112627
2.07189,0.531972,-0.0622537
2.02562,0.415802,-0.0240738
2.08692,0.535832,-0.274255
2.08436,0.535172,-0.0125072
2.0287,0.416432,-0.193324
2.01387,0.413389,0.0239341
2.14223,0.663133,-0.156813
2.07633,0.533111,0.037418
2.02233,0.415126,-0.120232
2.0738,0.532461,-0.112208
2.06986,0.523755,-0.0621374
2.01922,0.407147,-0.0239806
2.08109,0.526597,-0.273244
2.07846,0.52593,-0.0124607
2.01843,0.406986,-0.192208
2.00746,0.404775,0.0238409
2.14072,0.654484,-0.156534
2.0716,0.524195,-0.174445
2.07817,0.525859,0.037418
2.01594,0.406486,-0.119766
2.07177,0.524239,-0.111999
2.01278,0.398542,-0.0238875
2.07906,0.518368,-0.272739
2.07252,0.516736,-0.0124142
2.01593,0.399164,-0.191837
2.00494,0.396988,0.0237944
2.13153,0.643547,-0.155696
2.06955,0.515996,-0.17412
2.07224,0.516666,0.0372783
2.00952,0.397894,-0.119301
2.06196,0.514104,-0.111371
2.05793,0.505477,-0.0616719
2.00631,0.389987,-0.0237944
2.07701,0.510162,-0.272234
2.07431,0.509499,-0.0124142
2.0134,0.391365,-0.191465
2.06359,0.506867,-0.173469
2.07014,0.508476,0.0372085
2.01873,0.392402,-0.119766
2.0571,0.505272,0.0862994
2.12517,0.633541,-0.103299
2.06762,0.507856,-0.11158
2.05951,0.49901,-0.0616719
1.99574,0.38143,-0.0236547
2.07089,0.501766,-0.271224
2.06424,0.500154,-0.0123445
2.13628,0.629554,-0.239897
2.01071,0.384291,-0.191093
1.99181,0.380679,0.0236081
2.12044,0.624885,-0.15458
2.05743,0.498505,-0.172818
2.06007,0.499145,0.0369991
2.00819,0.383809,-0.119069
2.12715,0.626862,-0.103299
2.06144,0.499478,-0.111162
2.05735,0.490889,-0.0615556
1.9892,0.372987,-0.0235616
2.06491,0.492692,-0.270214
2.05819,0.491089,-0.012298
2.12319,0.617649,-0.238184
2.00812,0.376535,-0.190721
1.99313,0.373724,0.0236081
2.11878,0.616365,-0.154301
2.05915,0.491319,-0.172818
2.05013,0.489166,0.0367897
2.00167,0.375325,-0.118604
2.04874,0.488835,0.085811
2.12549,0.618317,-0.103113
2.0554,0.490424,-0.110743
2.1157,0.615468,-0.051272
2.05127,0.481875,-0.0613228
1.98655,0.365317,-0.023515
2.06275,0.484573,-0.269709
2.056,0.482986,-0.0122748
2.11387,0.60694,-0.236899
1.99767,0.367362,-0.189606
1.99049,0.36604,0.0235616
2.11708,0.607863,-0.154022
2.05698,0.483216,-0.172493
2.05182,0.482006,0.0367897
1.99904,0.367612,-0.118371
2.11227,0.606482,-0.102368
2.0571,0.483246,-0.110743
2.04515,0.472912,-0.0610901
1.98782,0.358382,-0.023515
2.0567,0.475583,-0.268699
2.05377,0.474907,-0.0122515
2.11215,0.598475,-0.23647
1.99502,0.359681,-0.189234
1.98782,0.358382,0.023515
2.10768,0.597207,-0.153185
2.047,0.47334,-0.171516
2.0496,0.473941,0.0367199
1.98459,0.3578,-0.117441
2.04321,0.472464,-0.109906
2.04289,0.464883,-0.0609738
1.98118,0.350048,-0.0234219
2.05835,0.4684,-0.268699
2.04762,0.465959,-0.012205
2.1104,0.590027,-0.236042
1.99234,0.352021,-0.188862
1.98118,0.350048,0.0234219
2.04475,0.465307,-0.171191
2.04734,0.465896,0.0366501
1.99369,0.352259,-0.117906
2.10491,0.588494,-0.10181
2.04874,0.466215,-0.110115
2.04059,0.456876,-0.0608574
1.98239,0.343131,-0.0234219
2.04142,0.457061,-0.0121585
2.10477,0.580543,-0.235185
1.98964,0.344386,-0.188491
1.9745,0.341767,0.0233287
2.10025,0.579296,-0.152348
2.04247,0.457296,-0.170865
2.04505,0.457873,0.0365802
1.99097,0.344617,-0.117673
2.03866,0.456443,-0.109487
2.0971,0.578427,-0.0506206
2.03827,0.448889,-0.060741
2.04933,0.451325,-0.419691
2.09582,0.570207,0
1.97174,0.334203,-0.0232822
2.04606,0.450605,-0.266678
2.0391,0.449072,-0.0121353
2.09528,0.570059,-0.2339
1.98297,0.336107,-0.187747
1.97174,0.334203,0.0232822
2.09456,0.569865,-0.15179
2.03627,0.448448,-0.170214
2.03492,0.448151,0.0363708
1.97248,0.334328,-0.116511
2.03634,0.448464,-0.109277
2.09525,0.570052,-0.0505275
2.02818,0.438879,-0.060392
1.9769,0.327629,-0.0233287
2.03291,0.439904,-0.0120888
2.08583,0.559286,-0.232615
1.98026,0.328186,-0.187375
1.97295,0.326975,0.0232822
2.09278,0.561152,-0.151511
2.0379,0.440982,-0.170214
2.03264,0.439844,0.036301
1.97369,0.327097,-0.116511
2.03407,0.440153,-0.109068
2.08574,0.559263,-0.0502484
2.0218,0.430485,-0.0601592
2.04092,0.434557,-0.417338
1.97798,0.321071,-0.0233287
2.03752,0.433831,-0.265163
2.01871,0.429827,-0.0119958
1.96562,0.319064,-0.185888
1.97008,0.319789,0.0232356
2.09077,0.553187,-0.151232
2.03545,0.433391,-0.169889
2.02235,0.430602,0.0360916
1.97082,0.319909,-0.116278
2.02379,0.430909,-0.10844
2.08371,0.551319,-0.0501553
2.02329,0.423426,-0.0601592
2.03091,0.42502,-0.414984
1.97513,0.313538,-0.0232822
2.01629,0.421959,-0.0119725
2.07804,0.542064,-0.23133
1.96672,0.312202,-0.185888
1.96723,0.312283,0.023189
2.07725,0.541857,-0.150116
2.02524,0.423834,-0.168913
2.02384,0.42354,0.0360916
1.96009,0.31115,-0.11558
2.01747,0.422206,-0.108021
2.07789,0.542024,-0.0499692
2.01693,0.41475,-0.0599265
1.96041,0.304189,-0.0230959
2.03272,0.417999,-0.264153
2.01775,0.414919,-0.0119725
2.07607,0.533817,-0.230901
1.96386,0.304724,-0.185516
1.95645,0.303575,0.0230493
2.07913,0.534604,-0.150116
2.0189,0.415156,-0.168262
2.02139,0.415668,0.0360218
1.96117,0.304307,-0.11558
2.07808,0.534334,-0.0999489
2.01893,0.415162,-0.108021
2.07977,0.534768,-0.0499692
2.01437,0.407267,-0.0598101
1.9614,0.297685,-0.0230959
2.0765,0.526592,-0.333281
2.02632,0.409682,-0.263143
2.01127,0.40664,-0.011926
2.06626,0.523996,-0.229616
1.96092,0.297612,-0.185145
2.08153,0.527868,0.0499692
1.9535,0.296485,0.0230028
2.06929,0.524763,-0.149279
2.01636,0.407668,-0.167936
2.011,0.406584,0.0358123
1.95427,0.296603,-0.115115
2.07596,0.526457,-0.0997627
2.02029,0.408464,-0.108021
2.07378,0.525902,-0.0497831
2.00402,0.397896,-0.0594611
1.96243,0.290836,-0.0230959
2.07449,0.518382,-0.332666
2.02385,0.401833,-0.262638
2.00875,0.398837,-0.0119028
2.06422,0.515816,-0.229188
1.95801,0.290181,-0.184773
2.0756,0.518659,0.0497831
1.95847,0.29025,0.0230493
2.0711,0.517536,-0.149279
2.00995,0.399074,-0.167285
2.00848,0.398783,0.0357425
1.95529,0.289779,-0.115115
2.06616,0.5163,-0.0992044
2.02171,0.401409,-0.108021
2.06396,0.515751,-0.049504
2.00539,0.390899,-0.0594611
2.01733,0.393226,-0.411062
1.95156,0.282267,-0.0229562
2.06861,0.509248,-0.331436
1.99836,0.389527,-0.0118331
2.06215,0.507657,-0.228759
1.95113,0.282205,-0.184029
2.06963,0.5095,0.049597
1.9476,0.281695,0.0229097
2.06515,0.508396,-0.148721
2.01133,0.392056,-0.167285
2.00594,0.391005,0.0356727
1.94444,0.281237,-0.114418
2.00349,0.390528,-0.106975
2.06575,0.508544,-0.049504
2.00282,0.383145,-0.0593447
2.01098,0.384708,-0.409493
1.95253,0.275454,-0.0229562
2.06269,0.500162,-0.330207
2.01101,0.384713,-0.260618
2.00363,0.383301,-0.0118563
2.05618,0.498582,-0.227903
1.94816,0.274836,-0.183657
2.0714,0.502273,0.049597
1.94461,0.274336,0.0228631
2.05528,0.498364,-0.147884
2.00094,0.382786,-0.166309
1.99943,0.382498,0.0355331
1.94936,0.275006,-0.11465
2.05418,0.498098,-0.0984599
2.00484,0.383533,-0.106975
2.05974,0.499446,-0.0493179
1.98842,0.373201,-0.0588792
1.94952,0.268091,-0.0229097
2.05289,0.490205,-0.328362
2.00844,0.376959,-0.260113
1.99709,0.374829,-0.0118098
2.06177,0.492325,-0.228331
1.94516,0.267491,-0.183286
2.06925,0.49411,0.049504
1.93763,0.266456,0.02277
2.057,0.491186,-0.147884
1.99443,0.374328,-0.165658
1.99289,0.37404,0.0353935
1.95031,0.2682,-0.11465
2.05202,0.489996,-0.0982737
1.99832,0.375058,-0.106556
2.06536,0.493181,-0.0494109
2.11798,0.608522,-0.0384651
1.98971,0.366258,-0.0588792
2.00591,0.369239,-0.407924
2.04816,0.481523,0
1.94648,0.260754,-0.0228631
2.05844,0.483941,-0.328977
2.00194,0.368509,-0.259102
1.99052,0.366407,-0.0117633
2.05186,0.482395,-0.227046
1.93424,0.259114,-0.18217
2.06317,0.485054,0.0493179
1.94251,0.260223,0.0228165
2.05871,0.484003,-0.147884
1.98788,0.36592,-0.165007
1.98632,0.365634,0.0352539
1.94728,0.26086,-0.114418
2.04983,0.481916,-0.0980876
1.99569,0.367358,-0.106347
2.0476,0.481393,-0.0489456
1.98311,0.35789,-0.0586465
2.04983,0.47437,0
1.93945,0.252923,-0.02277
2.04856,0.474078,-0.327132
1.99931,0.360814,-0.258597
1.99179,0.359456,-0.0117633
2.04191,0.472539,-0.225761
1.92723,0.25133,-0.181427
2.04927,0.474242,0.0489456
1.93945,0.252923,0.02277
2.06038,0.476813,-0.147884
1.99307,0.359687,-0.165333
1.98365,0.357987,0.0351841
1.9363,0.252512,-0.11372
2.03982,0.472055,-0.0975292
1.99303,0.359679,-0.106137
1.98912,0.35181,-0.404002
2.03587,0.463659,0
1.93635,0.245647,-0.0227234
2.0425,0.465169,-0.325902
1.99665,0.353141,-0.258092
1.98516,0.351108,-0.0117168
2.04355,0.465408,-0.225761
1.93205,0.245102,-0.181799
2.04702,0.466197,0.0488526
1.92444,0.244137,0.0225837
2.05036,0.46696,-0.147047
1.98646,0.351338,-0.164682
1.98095,0.350364,0.0351142
1.94113,0.246253,-0.113952
2.03756,0.464044,-0.0973431
1.97854,0.349937,-0.1053
2.03922,0.464421,-0.0486665
1.98647,0.344196,-0.403217
1.93719,0.238888,-0.0227234
2.0364,0.456309,-0.324672
1.99005,0.344816,-0.257082
1.97849,0.342812,-0.0116703
2.03352,0.455664,-0.224475
1.92499,0.237383,-0.181055
2.04473,0.458176,0.0487595
1.91735,0.23644,0.0224906
2.0403,0.457184,-0.14621
1.97982,0.343042,-0.164031
1.98216,0.343448,0.0351142
1.93009,0.238011,-0.113255
2.03527,0.456056,-0.097157
1.97581,0.342348,-0.105091
1.96704,0.33376,-0.0580647
1.97993,0.335947,-0.401648
2.02734,0.446852,0
1.93007,0.231173,-0.0226303
2.03412,0.448347,-0.324057
1.98733,0.337203,-0.256577
1.98361,0.336572,-0.0116936
2.04286,0.450275,-0.225332
1.91789,0.229714,-0.180312
2.0385,0.449314,0.0485734
1.91816,0.229746,0.0224906
2.03799,0.449199,-0.145931
1.96921,0.334128,-0.163054
1.97152,0.334519,0.0349048
1.92297,0.230322,-0.11279
1.96624,0.333624,0.0812517
2.03685,0.448949,-0.097157
1.97699,0.335448,-0.105091
2.0346,0.448453,-0.0484804
1.97214,0.327547,-0.0581811
1.97335,0.327749,-0.400079
2.02498,0.438926,0
1.92292,0.223511,-0.0225371
2.02408,0.438732,-0.322213
1.97675,0.328314,-0.255062
1.97689,0.328336,-0.0116471
2.02888,0.439771,-0.223619
1.92264,0.223478,-0.180683
2.03224,0.440501,0.0483873
1.91895,0.223049,0.0224906
2.03564,0.441238,-0.145652
1.96643,0.326599,-0.162729
1.97267,0.327636,0.0349048
1.9198,0.223148,-0.112557
1.96345,0.326104,0.0810889
2.0345,0.44099,-0.0969709
1.96239,0.325928,-0.104253
2.08387,0.551749,-0.0376274
2.0265,0.431854,0
2.02947,0.432487,-0.322828
1.97397,0.320774,-0.254557
1.97012,0.320149,-0.0116006
2.0304,0.432686,-0.223619
1.91945,0.216319,-0.180312
2.02986,0.432571,0.0482943
1.91574,0.215901,0.022444
2.03327,0.433297,-0.145372
1.95969,0.318454,-0.162078
1.96196,0.318823,0.0346954
1.92057,0.216445,-0.112557
2.02821,0.432219,-0.0965986
1.96746,0.319716,-0.104463
1.96784,0.312732,-0.39851
2.02016,0.423137,0
1.91648,0.209212,-0.022444
2.02323,0.42378,-0.321598
1.96728,0.312642,-0.0115773
2.0319,0.425596,-0.223619
1.91228,0.208752,-0.179568
2.01961,0.423023,0.0480151
1.90456,0.20791,0.0223043
2.02305,0.423743,-0.144535
1.96473,0.312236,-0.162403
1.96306,0.311972,0.0346954
1.91337,0.208872,-0.112092
2.02188,0.423498,-0.0962264
1.95673,0.310965,-0.103835
2.01961,0.423023,-0.0480151
1.965,0.305603,-0.397726
2.01372,0.414823,0
1.91319,0.202436,-0.0223974
2.01301,0.414677,-0.319753
1.96435,0.305503,-0.0115541
2.02551,0.417252,-0.222762
1.90504,0.201573,-0.178824
2.01709,0.415518,0.0479221
1.90921,0.202015,0.0223509
2.02444,0.417033,-0.144535
1.95393,0.303883,-0.161427
1.96409,0.305462,0.0346954
1.91008,0.202107,-0.111859
1.95091,0.303413,0.0804376
2.01936,0.415986,-0.0960402
1.9538,0.303862,-0.103625
2.00926,0.413904,-0.047736
1.9488,0.29612,-0.0573665
1.95829,0.297563,-0.396157
2.01123,0.406998,0
1.90593,0.194942,-0.0223043
2.0067,0.406079,-0.318523
1.9654,0.298643,-0.253042
1.96145,0.298043,-0.0115308
2.01526,0.407812,-0.221477
1.90177,0.194516,-0.178453
2.01461,0.407681,0.047829
1.90195,0.194535,0.0222578
2.01807,0.40838,-0.143977
1.95104,0.296461,-0.161102
1.94932,0.2962,0.0344161
1.90283,0.194625,-0.111394
1.95196,0.2966,0.0804376
2.01689,0.408142,-0.0958541
1.95485,0.297039,-0.103625
2.00677,0.406094,-0.0476429
1.94591,0.28839,-0.0572502
1.95549,0.289809,-0.395372
2.00486,0.398066,0
1.91061,0.188348,-0.0223509
2.00817,0.398722,-0.318523
1.95471,0.289693,-0.251526
1.96253,0.290852,-0.0115308
2.01674,0.400423,-0.221477
1.90643,0.187936,-0.178824
2.02001,0.401073,0.0479221
1.89469,0.186778,0.0221646
2.01564,0.400204,-0.143698
1.95211,0.289308,-0.161102
1.94644,0.288468,0.0343463
2.06417,0.515803,-0.136357
1.90353,0.18765,-0.111394
1.94512,0.288272,0.0801119
2.01053,0.399191,-0.0954819
1.94802,0.288702,-0.103207
2.0004,0.397179,-0.0474568
1.93894,0.280788,-0.0570174
1.96032,0.283884,-0.396157
2.00617,0.391415,0
1.89928,0.180873,-0.0222112
2.0056,0.391303,-0.317908
1.95566,0.283208,-0.251526
1.95557,0.283196,-0.0114843
2.01025,0.39221,-0.22062
1.89911,0.180857,-0.178081
2.00956,0.392074,0.0476429
1.8953,0.180494,0.0221646
2.00912,0.391989,-0.14314
1.94123,0.281119,-0.160125
1.95134,0.282584,0.0344161
2.06199,0.508,-0.136102
1.90017,0.180958,-0.111162
1.94211,0.281247,0.0799491
2.00792,0.391756,-0.0952957
1.94897,0.28224,-0.103207
2.05601,0.49892,-0.0369293
1.94577,0.274845,-0.393019
1.99574,0.382152,0
1.90388,0.174607,-0.0222578
2.00307,0.383556,-0.317293
1.9527,0.275825,-0.251021
1.95258,0.275808,-0.0114611
2.00379,0.383694,-0.219763
1.8918,0.173499,-0.177337
1.9952,0.382049,0.0472707
1.88795,0.173146,0.0220715
2.00264,0.383472,-0.142582
1.93825,0.273783,-0.1598
1.9444,0.274652,0.0342765
1.89681,0.173959,-0.110929
1.93913,0.273907,0.0797863
2.00143,0.383241,-0.0949235
1.93807,0.273758,-0.102578
1.99127,0.381297,-0.0471777
2.05774,0.491742,-0.0369293
1.93506,0.266448,-0.390666
1.9892,0.373708,0
1.89253,0.166907,-0.0221181
2.00052,0.375833,-0.316679
1.94972,0.268467,-0.250516
1.94561,0.2679,-0.0114146
2.00512,0.376698,-0.219763
1.88843,0.166546,-0.176966
1.99259,0.374345,0.0471777
1.99612,0.375007,-0.142024
1.93524,0.266473,-0.159474
1.94138,0.267319,0.0342067
2.05384,0.49081,-0.135334
1.89343,0.166987,-0.110697
1.93611,0.266593,0.0796234
2.00275,0.376254,-0.0949235
1.93506,0.266448,-0.102369
1.99259,0.374345,-0.0471777
2.04776,0.481807,-0.0367199
1.92989,0.258874,-0.0566684
1.93598,0.259691,-0.390666
1.87715,0.15895,-0.0219318
1.99793,0.368131,-0.316064
1.94278,0.260604,-0.249506
1.9986,0.368255,-0.218906
1.88503,0.159616,-0.176594
1.98995,0.366662,0.0470846
1.87715,0.15895,0.0219318
1.99742,0.368037,-0.142024
1.93221,0.259185,-0.159149
1.93438,0.259476,0.0340671
2.04388,0.480894,-0.134567
1.9832,0.365417,0.117441
1.93307,0.259301,0.0794606
1.99227,0.367088,-0.0943651
1.93202,0.25916,-0.10216
1.98995,0.366662,-0.0470846
2.04554,0.473754,-0.0366501
1.92682,0.251618,-0.056552
1.93687,0.252931,-0.390666
1.98389,0.358388,0
1.88567,0.153043,-0.0220249
1.99531,0.360452,-0.315449
1.93975,0.253306,-0.249001
1.94347,0.253792,-0.0113914
1.99205,0.359862,-0.21805
1.88558,0.153035,-0.176594
1.99122,0.359713,0.0470846
1.8777,0.152396,0.0219318
1.99084,0.359643,-0.141466
1.92915,0.251922,-0.158823
1.93131,0.252204,0.0339973
1.88261,0.152794,-0.109999
1.93,0.252033,0.0792978
1.98567,0.35871,-0.0939929
1.92895,0.251897,-0.10195
1.97942,0.35758,-0.0468054
2.03548,0.463944,-0.0364406
1.91975,0.243883,-0.0563193
1.9875,0.35188,-0.56503
1.93385,0.245675,-0.389881
1.97725,0.350067,0
1.88221,0.14615,-0.0219784
1.99267,0.352796,-0.314834
1.94062,0.246534,-0.249001
1.98546,0.35152,-0.217193
1.88213,0.146144,-0.176222
1.98065,0.350669,0.0468054
1.87024,0.145221,0.0218387
1.98815,0.351996,-0.141187
1.92606,0.244685,-0.158498
1.93217,0.245461,0.0339973
2.03551,0.463952,-0.133799
1.88711,0.146531,-0.110232
1.92294,0.244288,0.0789721
1.98691,0.351777,-0.0939929
1.92586,0.244659,-0.101741
1.92059,0.23718,-0.0563193
1.97733,0.342965,-0.561795
1.92691,0.237961,-0.388312
1.97058,0.341795,0
1.93359,0.238786,-0.247991
1.92931,0.238257,-0.0112984
1.97884,0.343227,-0.216336
1.87468,0.138984,-0.175478
1.97398,0.342386,0.0466193
1.86276,0.1381,0.0217455
1.9815,0.34369,-0.140629
1.92295,0.237471,-0.158173
1.92905,0.238225,0.0339275
1.88363,0.139647,-0.109999
1.97118,0.341899,0.116511
1.91981,0.237084,0.0788093
1.98025,0.343473,-0.0936206
1.92274,0.237445,-0.101532
2.03181,0.455652,-0.084834
2.03086,0.448,-0.036301
1.92141,0.230475,-0.0563193
1.93162,0.231701,-0.389097
1.96782,0.334245,0
1.97949,0.336228,-0.312374
1.92219,0.230569,-0.0112519
1.98002,0.336318,-0.216336
1.87516,0.13244,-0.175478
1.97123,0.334824,0.0465263
1.87121,0.132161,0.0218387
1.97482,0.335435,-0.140071
1.91981,0.230283,-0.157847
1.92193,0.230537,0.0337879
2.03091,0.448011,-0.133288
1.88012,0.13279,-0.109766
1.91666,0.229905,0.0786465
1.9775,0.33589,-0.0934345
1.91959,0.230257,-0.101322
1.97123,0.334824,-0.0465263
2.0285,0.44006,-0.0362312
1.91029,0.222379,-0.0559702
1.96827,0.327257,-0.55856
1.92463,0.224049,-0.387528
1.87565,0.125896,-0.0218852
1.97676,0.328668,-0.311759
1.92733,0.224363,-0.246981
1.92695,0.22432,-0.0112751
1.96942,0.327447,-0.215051
1.86766,0.125359,-0.174735
1.96844,0.327285,0.0464332
1.8557,0.124557,0.0216524
1.97205,0.327885,-0.139792
1.91664,0.223119,-0.157522
1.91875,0.223364,0.033718
1.87659,0.125959,-0.109534
1.90951,0.222289,0.0783208
1.97472,0.328329,-0.0932484
1.92038,0.223554,-0.101322
1.97238,0.32794,-0.0465263
2.01829,0.430474,-0.0360218
1.90708,0.215262,-0.0558538
1.9618,0.319148,-0.556404
1.9215,0.21689,-0.386743
1.9622,0.319214,0
1.8681,0.11884,-0.0217921
1.97399,0.321131,-0.311144
1.92416,0.217189,-0.246476
1.91978,0.216695,-0.0112286
1.96662,0.319932,-0.214623
1.87206,0.119093,-0.175107
1.97351,0.321054,0.0465263
1.86011,0.118333,0.021699
1.96924,0.320359,-0.139513
1.90948,0.215533,-0.156871
1.91157,0.215768,0.0335784
1.86506,0.118647,-0.108836
1.9063,0.215174,0.078158
1.96797,0.320151,-0.0928761
1.91321,0.215954,-0.100904
2.02083,0.431016,-0.0841827
1.96167,0.319128,-0.0462471
1.90782,0.208604,-0.0558538
1.9591,0.311693,-0.555325
1.91445,0.209329,-0.385174
1.95541,0.311106,0
1.8685,0.112319,-0.0217921
1.9712,0.313618,-0.310529
1.92096,0.210041,-0.245971
1.91654,0.209558,-0.0112054
1.95594,0.311192,-0.213337
1.86451,0.11208,-0.174363
1.96278,0.312279,0.0462471
1.85253,0.111359,0.0216059
1.96641,0.312856,-0.139234
1.91419,0.2093,-0.157196
1.92026,0.209964,0.033718
1.86945,0.112376,-0.109069
1.91102,0.208953,0.0783208
1.96118,0.312025,-0.0925039
1.91395,0.209274,-0.100904
2.0145,0.42232,-0.083857
1.96278,0.312279,-0.0462471
2.00942,0.414303,-0.0358123
1.90055,0.201433,-0.0556211
1.90733,0.202152,-0.383605
1.86088,0.105668,-0.021699
1.97223,0.307079,-0.310529
1.9177,0.203251,-0.245465
1.90927,0.202358,-0.0111589
1.95696,0.304703,-0.213337
1.86488,0.105895,-0.174363
1.9559,0.304537,0.046061
1.8489,0.104988,0.0215593
1.95955,0.305105,-0.138676
1.91091,0.202531,-0.156871
1.90504,0.201909,0.0334388
1.86184,0.105723,-0.108604
1.89977,0.201351,0.0778323
1.95431,0.30429,-0.0921316
1.90669,0.202084,-0.100485
1.95985,0.305152,-0.0461541
1.90124,0.194797,-0.0556211
1.94975,0.296612,-0.55209
1.91193,0.195892,-0.38439
1.85724,0.0989588,-0.0216524
1.96547,0.299004,-0.3093
1.90599,0.195284,-0.0111356
1.95015,0.296673,-0.212481
1.86126,0.0991728,-0.173991
1.95695,0.297707,0.046061
1.84925,0.0985331,0.0215593
1.95271,0.297063,-0.138118
1.90763,0.195452,-0.156545
1.90175,0.19485,0.033369
1.85821,0.0990105,-0.108371
1.95141,0.296865,-0.0919455
1.90738,0.195426,-0.100485
2.00558,0.406217,-0.0833685
1.953,0.297106,-0.045968
2.00442,0.398705,-0.0356727
1.88997,0.186979,-0.055272
1.94315,0.288674,-0.549934
1.90089,0.18806,-0.382037
1.85358,0.0922776,-0.0216059
1.95477,0.2904,-0.307455
1.91117,0.189077,-0.244455
1.90666,0.188631,-0.0111356
1.95118,0.289866,-0.212481
1.85761,0.0924784,-0.17362
1.95007,0.289701,0.0458749
1.84159,0.0916809,0.0214662
1.94979,0.28966,-0.137839
1.90037,0.188008,-0.155894
1.89844,0.187818,0.0332992
1.85057,0.0921277,-0.107906
1.95243,0.290052,-0.0919455
1.9001,0.187982,-0.100066
1.95007,0.289701,-0.0458749
1.99802,0.389823,-0.0355331
1.89462,0.180429,-0.0553884
1.9442,0.281548,-0.549934
1.90157,0.18109,-0.382037
1.93977,0.280907,0
1.84991,0.0852977,-0.0215593
1.95582,0.283232,-0.307455
1.89937,0.180881,-0.0110891
1.94829,0.282141,-0.212052
1.85396,0.0854845,-0.173248
1.95111,0.28255,0.0458749
1.95084,0.28251,-0.137839
1.89708,0.180663,-0.155569
1.89514,0.180478,0.0332294
1.85488,0.085527,-0.108139
1.94953,0.28232,-0.0917594
1.90476,0.181394,-0.100276
1.94716,0.281977,-0.0457819
1.88327,0.173048,-0.0550393
1.95275,0.276179,-0.55209
1.90216,0.174784,-0.382037
1.83819,0.0786501,-0.0214196
1.94893,0.275638,-0.306225
1.89996,0.174582,-0.0110891
1.94134,0.274565,-0.211195
1.84628,0.078996,-0.172504
1.94412,0.274959,0.0456888
1.94386,0.274922,-0.137281
1.89767,0.174371,-0.155569
1.89572,0.174193,0.0332294
1.99159,0.381717,-0.129962
1.84319,0.0788638,-0.107441
1.9465,0.275295,-0.0915733
1.89341,0.17398,-0.0996477
1.94412,0.274959,-0.0456888
1.88784,0.166825,-0.0551557
1.84245,0.0723906,-0.0214662
1.94596,0.268294,-0.30561
1.89724,0.167656,-0.242435
1.88861,0.166893,-0.0110194
1.93441,0.266701,-0.210339
1.84256,0.0723948,-0.172132
1.94111,0.267625,0.0455958
1.9369,0.267045,-0.136723
1.89826,0.167746,-0.155569
1.88437,0.166518,0.03302
1.84744,0.0725866,-0.107673
1.93439,0.266699,0.11372
1.94349,0.267953,-0.0913871
1.89401,0.16737,-0.0996477
1.94507,0.268171,-0.0456888
1.88443,0.159896,-0.0550393
1.89551,0.160837,-0.380468
1.8387,0.0658152,-0.0214196
1.94297,0.260973,-0.304995
1.89715,0.160975,-0.0110659
1.93927,0.260476,-0.210767
1.94203,0.260847,0.0455958
1.92991,0.25922,-0.136165
1.88295,0.15977,-0.154267
1.88494,0.159939,0.03302
1.98635,0.366356,-0.12945
1.83571,0.0657083,-0.106976
1.9274,0.258882,0.113255
1.93253,0.259571,-0.0908288
1.88662,0.160082,-0.099229
1.93807,0.260315,-0.0455027
1.88896,0.153642,-0.0551557
1.89216,0.153901,-0.379683
1.83092,0.0591387,-0.0213265
1.93603,0.253165,-0.303765
1.88574,0.15338,-0.0109961
1.93228,0.252674,-0.20991
1.83506,0.0592724,-0.171389
1.93103,0.252511,0.0453166
1.93081,0.252482,-0.136165
1.87952,0.152874,-0.153942
1.88549,0.153359,0.03302
1.97976,0.358,-0.128938
1.83593,0.0593004,-0.106976
1.92433,0.251635,0.113022
1.93739,0.253342,-0.0910149
1.88717,0.153496,-0.099229
1.93896,0.253548,-0.0455027
1.88151,0.146427,-0.0549229
1.88877,0.146992,-0.378899
1.82712,0.0526324,-0.0212799
1.93298,0.245907,-0.303151
1.88702,0.146856,-0.24092
1.87829,0.146176,-0.0109496
1.92131,0.244422,-0.208625
1.83526,0.0528669,-0.171389
1.92772,0.245237,-0.135886
1.88402,0.146622,-0.154267
1.87405,0.145846,0.0328105
1.82415,0.0525469,-0.106278
1.9252,0.244916,0.113022
1.93033,0.24557,-0.0906426
1.87973,0.146288,-0.0988103
1.9319,0.24577,-0.0453166
1.86606,0.138673,-0.0544575
1.88145,0.139816,-0.37733
1.8153,0.0459501,-0.0211402
1.9299,0.238672,-0.302536
1.87961,0.139679,-0.23991
1.87879,0.139618,-0.0109496
1.82349,0.0461574,-0.170274
1.93275,0.239024,0.0453166
1.92064,0.237527,-0.135328
1.87657,0.139453,-0.153616
1.87454,0.139303,0.0328105
1.97435,0.342804,-0.128427
1.82432,0.0461787,-0.106278
1.86531,0.138616,0.076204
1.91532,0.236868,-0.0898981
1.88023,0.139725,-0.0988103
1.92878,0.238533,-0.0452235
1.87052,0.132441,-0.0545738
1.9268,0.231463,-0.301921
1.96772,0.334583,0.0116006
1.8633,0.13193,-0.0108567
1.82762,0.0398793,-0.170645
1.92563,0.231323,0.0451305
1.9175,0.230346,-0.135049
1.87306,0.132621,-0.153291
1.87502,0.132759,0.0328105
1.96766,0.334572,-0.127915
1.82048,0.0397236,-0.106046
1.91496,0.230041,0.112325
1.91613,0.230181,-0.0898981
1.86477,0.132033,-0.0979729
1.92166,0.230846,-0.0450374
1.96467,0.32701,-0.0347652
1.87097,0.12591,-0.0545738
1.87455,0.126151,-0.375761
1.9276,0.224736,-0.301921
1.96493,0.327055,0.0115773
1.86774,0.125693,-0.0108799
1.91982,0.223828,-0.208197
1.81978,0.033353,-0.169902
1.9304,0.225062,0.0452235
1.91036,0.222726,-0.13449
1.87352,0.126081,-0.153291
1.87148,0.125944,0.0327407
1.96882,0.327701,-0.127915
1.81662,0.033295,-0.105813
1.91179,0.222892,0.112092
1.91692,0.223491,-0.0898981
1.86522,0.125523,-0.0979729
1.96334,0.326789,-0.0810889
1.92245,0.224136,-0.0450374
1.96185,0.319508,-0.0346954
1.86741,0.119124,-0.0544575
1.90387,0.215236,0
1.91659,0.216674,-0.300076
1.87305,0.119484,-0.238899
1.86418,0.118918,-0.0108567
1.90478,0.215339,-0.206483
1.82387,0.0270601,-0.170274
1.92323,0.217424,0.0450374
1.91113,0.216057,-0.13449
1.85803,0.118526,-0.151989
1.86393,0.118902,0.0326011
1.81672,0.026954,-0.105813
1.91256,0.216218,0.112092
1.90578,0.215452,-0.0893398
1.86564,0.119011,-0.0979729
1.92323,0.217424,-0.0450374
1.95505,0.311399,-0.0345558
1.85983,0.112123,-0.0542248
1.90064,0.208153,0
1.91733,0.209982,-0.300076
1.86553,0.112467,-0.237889
1.8566,0.111928,-0.0108102
1.90156,0.208255,-0.206055
1.81599,0.0206025,-0.16953
1.90791,0.20895,-0.134211
1.85445,0.111799,-0.151663
1.85635,0.111913,0.0324615
1.80083,0.0204306,-0.104883
1.90139,0.208236,0.111394
1.91049,0.209233,-0.0895259
1.86206,0.112257,-0.0977636
1.91205,0.209403,-0.0447583
1.85619,0.106052,-0.0541084
1.90128,0.202182,0
1.91012,0.203122,-0.298846
1.95629,0.305297,0.0115076
1.84895,0.105639,-0.0107637
1.81206,0.014865,-0.169158
1.91667,0.203818,0.0448513
1.90458,0.202533,-0.133932
1.85878,0.1062,-0.151989
1.85669,0.106081,0.0324615
1.80488,0.0148061,-0.105115
1.90204,0.202262,0.111394
1.90717,0.202808,-0.0893398
1.8624,0.106407,-0.0977636
1.90474,0.20255,-0.0445722
1.91085,0.19612,-0.298846
1.86229,0.099555,-0.237384
1.85332,0.0990754,-0.0107869
1.80016,0.00816958,-0.168043
1.91343,0.196384,0.0447583
1.90134,0.195144,-0.133653
1.85119,0.0989614,-0.151338
1.84908,0.0988485,0.0323219
1.80093,0.00817309,-0.104883
1.89482,0.194474,0.110929
1.90392,0.195409,-0.0891536
1.85081,0.0989413,-0.0971355
1.90547,0.195568,-0.0445722
1.8907,0.187719,0
1.90756,0.189392,-0.298231
1.9465,0.289866,0.0114378
1.84565,0.0925289,-0.0107404
1.80814,0.00221011,-0.168786
1.89801,0.188444,-0.133374
1.85151,0.0928225,-0.151338
1.9465,0.289865,-0.126124
1.79695,0.00219644,-0.10465
1.89545,0.18819,0.110929
1.89661,0.188305,-0.0887814
1.84714,0.0926036,-0.0969262
1.90213,0.188853,-0.0444791
1.93937,0.281541,-0.0342067
1.84523,0.0857274,-0.0537593
1.8925,0.180894,-0.295772
1.85502,0.0861821,-0.236374
1.94359,0.282154,0.0114146
1.84598,0.0857622,-0.0107404
1.88842,0.180503,-0.204341
1.80415,-0.00440867,-0.168415
1.90679,0.182259,0.0445722
1.90266,0.181865,-0.133653
1.84785,0.0858494,-0.151012
1.79296,-0.00438132,-0.104418
1.89613,0.18124,0.110929
1.89331,0.180971,-0.0885953
1.84747,0.0858315,-0.0969262
1.89883,0.181498,-0.0443861
1.83753,0.078943,-0.0535266
1.88802,0.173817,0
1.88919,0.173925,-0.295157
1.83945,0.0790256,-0.234354
1.83428,0.0788034,-0.0106707
1.88508,0.173546,-0.203913
1.79616,-0.0106587,-0.167671
1.89136,0.174125,-0.132816
1.84416,0.0792279,-0.150687
1.78894,-0.0106158,-0.104185
1.88482,0.173523,0.110232
1.88995,0.173995,-0.0884091
1.84377,0.0792111,-0.0967169
1.88751,0.17377,-0.0441069
1.88978,0.167329,-0.295157
1.84368,0.0727611,-0.234859
1.93363,0.266938,0.0113449
1.83054,0.0722428,-0.0106474
1.88171,0.166615,-0.203484
1.78416,-0.0168154,-0.166556
1.90005,0.168238,0.0443861
1.88799,0.16717,-0.132537
1.84044,0.0726333,-0.150362
1.78889,-0.0168599,-0.104185
1.88144,0.166591,0.109999
1.88657,0.167045,-0.088223
1.84004,0.0726175,-0.0965075
1.89208,0.167533,-0.0442
1.93028,0.259955,-0.0339973
1.88118,0.160282,0
1.88245,0.16039,-0.293927
1.83598,0.0663596,-0.233849
1.83877,0.0664605,-0.0106939
1.88225,0.160373,-0.203484
1.78012,-0.0226815,-0.166184
1.89263,0.161257,0.0442
1.88853,0.160908,-0.132537
1.83669,0.0663853,-0.150036
1.92975,0.259884,0.0566684
1.92662,0.259462,-0.124589
1.78084,-0.0226907,-0.10372
1.88313,0.160448,-0.0880369
1.83229,0.0662263,-0.0960888
1.88068,0.160239,-0.0439208
1.93117,0.253216,-0.0339973
1.87376,0.153064,0
1.883,0.153819,-0.293927
1.83223,0.0598214,-0.233344
1.93143,0.25325,0.0113216
1.87091,0.152831,-0.202199
1.78003,-0.0288948,-0.166184
1.89318,0.15465,0.0442
1.88113,0.153665,-0.131979
1.82495,0.0595837,-0.14906
1.92356,0.252217,-0.124333
1.77676,-0.0288417,-0.103487
1.88368,0.153874,-0.0880369
1.87325,0.153022,-0.0437347
1.92812,0.24563,-0.0339275
1.87431,0.146195,0
1.87567,0.146301,-0.292697
1.82847,0.0529901,-0.232839
1.92441,0.245158,0.0112751
1.87542,0.146281,-0.202628
1.77991,-0.0354192,-0.166184
1.88975,0.147399,0.0441069
1.88168,0.146769,-0.131979
1.82117,0.0527786,-0.148734
1.87626,0.146347,-0.0876646
1.87779,0.146466,-0.0438278
1.87478,0.139979,0
1.8722,0.139786,-0.292082
1.82071,0.0467232,-0.231828
1.91728,0.23779,0.0112286
1.86796,0.13947,-0.201771
1.78376,-0.0414134,-0.166556
1.88624,0.140834,0.0440139
1.87419,0.139935,-0.131421
1.82533,0.0468417,-0.14906
1.87674,0.140125,-0.0876646
1.81691,0.0466257,-0.0952514
1.87029,0.139643,-0.0436417
1.91387,0.230587,-0.0336482
1.81479,0.0402332,-0.0528284
1.87526,0.133434,0
1.8648,0.132689,-0.290852
1.82086,0.0403678,-0.231828
1.91412,0.230618,0.0112054
1.86447,0.132667,-0.201342
1.87874,0.133682,0.0438278
1.87865,0.133675,-0.1317
1.82149,0.0403819,-0.148734
1.86924,0.133006,-0.0872924
1.81706,0.0402836,-0.0952514
1.91257,0.230431,-0.0784836
1.86278,0.132546,-0.0434555
1.86376,0.125753,0
1.86133,0.125588,-0.290237
1.81306,0.0335473,-0.230818
1.86098,0.125565,-0.200914
1.87523,0.126526,0.0437347
1.87117,0.126252,-0.131142
1.81764,0.0336321,-0.148409
1.91021,0.223047,0.0559702
1.9071,0.222685,-0.123054
1.86573,0.125885,-0.0871063
1.80921,0.0334761,-0.0948328
1.86326,0.125718,-0.0434555
1.90744,0.216651,-0.0335086
1.86016,0.119639,0
1.85777,0.119485,-0.289623
1.81712,0.0279108,-0.231323
1.9077,0.21668,0.0111589
1.86533,0.119971,-0.201342
1.87163,0.120376,0.0436417
1.87155,0.120372,-0.131142
1.80977,0.0277978,-0.147758
1.90779,0.216691,-0.123054
1.86213,0.119765,-0.0869201
1.8093,0.0277907,-0.0948328
1.85566,0.11935,-0.0432694
1.91216,0.21043,-0.0335784
1.85657,0.112903,0
1.85423,0.112761,-0.289008
1.80927,0.0214748,-0.230313
1.90049,0.209146,0.0111124
1.8578,0.112978,-0.200486
1.87203,0.113844,0.0436417
1.864,0.113355,-0.130584
1.9006,0.209158,-0.122543
1.86254,0.113266,-0.0869201
1.80939,0.0214762,-0.0948328
1.86006,0.113115,-0.0433625
1.905,0.202242,-0.0334388
1.85699,0.105773,0
1.8507,0.105415,-0.288393
1.80537,0.0144952,-0.229808
1.89731,0.201424,0.0110891
1.85425,0.105617,-0.200057
1.86048,0.105972,0.0433625
1.80593,0.0144997,-0.147432
1.89654,0.201343,0.0555047
1.85897,0.105886,-0.086734
1.80147,0.0144639,-0.0944141
1.8485,0.10529,-0.0430833
1.89369,0.195027,-0.0332294
1.85332,0.0997242,0
1.85102,0.0996006,-0.288393
1.80144,0.00880438,-0.229303
1.85457,0.0997917,-0.200057
1.86474,0.100339,-0.130584
1.79401,0.00876805,-0.146456
1.89408,0.195066,-0.122031
1.85929,0.100046,-0.086734
1.79751,0.00878516,-0.0942047
1.89639,0.195304,-0.0776695
1.84483,0.0992675,-0.0429903
1.89436,0.188415,-0.0332294
1.84167,0.0926509,0
1.84741,0.0929397,-0.287778
1.89462,0.188441,0.0110659
1.84299,0.0927174,-0.198772
1.85711,0.0934276,-0.130026
1.79403,0.00250525,-0.146456
1.88987,0.187968,0.055272
1.84766,0.092952,-0.0861756
1.79354,0.00250457,-0.0939954
1.8891,0.187892,-0.0773438
1.84517,0.0928267,-0.0429903
1.89507,0.18114,-0.0332294
1.83802,0.0853935,0
1.84381,0.0856624,-0.287163
1.89135,0.180784,0.0110426
1.83936,0.085456,-0.198344
1.8455,0.085741,-0.129189
1.89148,0.180797,-0.121775
1.848,0.0858573,-0.0861756
1.88981,0.180637,-0.0773438
1.83752,0.0853703,-0.0428042
1.88369,0.174081,-0.03302
1.83828,0.0796182,0
1.84012,0.079698,-0.286548
1.84757,0.0800207,-0.199201
1.84974,0.0801149,-0.129468
1.78603,-0.00997497,-0.145805
1.88409,0.174119,-0.121264
1.84427,0.0798778,-0.0859895
1.78552,-0.00997213,-0.0935767
1.88639,0.174331,-0.077181
1.83778,0.0795967,-0.0428042
1.8803,0.16715,-0.0329501
1.83455,0.0730413,0
1.83644,0.0731166,-0.285933
1.88055,0.167173,0.0109729
1.83989,0.0732541,-0.198344
1.84204,0.0733396,-0.12891
1.88866,0.167894,-0.121519
1.84054,0.0732801,-0.0858034
1.8308,0.0661728,0
1.83274,0.0662428,-0.285318
1.87717,0.15994,0.0109496
1.83617,0.0663668,-0.197915
1.84628,0.0667323,-0.129189
1.78193,-0.0227045,-0.14548
1.87733,0.159954,-0.120752
1.8408,0.0665341,-0.0858034
1.88361,0.160489,-0.0770182
1.83691,0.0599735,-0.285933
1.87373,0.15306,0.0109264
1.83639,0.0599565,-0.197915
1.83454,0.059896,-0.128352
1.77785,-0.0288602,-0.145154
1.87297,0.152998,0.0546902
1.87788,0.1534,-0.120752
1.82505,0.0595861,-0.0850589
1.87619,0.153262,-0.0766925
1.82653,0.0596346,-0.042525
1.86998,0.146514,-0.0327407
1.87422,0.146846,0.0109264
1.83658,0.0538668,-0.197915
1.83074,0.0536955,-0.128073
1.87838,0.147172,-0.120752
1.83322,0.0537683,-0.0854311
1.8727,0.146727,-0.0765297
1.82272,0.0534604,-0.042432
1.8665,0.139688,-0.0326709
1.82881,0.0472506,-0.197059
1.81895,0.0469959,-0.127236
1.86694,0.139721,-0.119984
1.82941,0.047266,-0.085245
1.8189,0.0469946,-0.0423389
1.86697,0.133171,-0.0326709
1.82498,0.0407773,-0.19663
1.82309,0.040735,-0.127515
1.7655,-0.046848,-0.144178
1.85945,0.132635,-0.119473
1.82157,0.040701,-0.0848728
1.86571,0.133081,-0.076204
1.81106,0.0404662,-0.0421528
1.81717,0.0339396,-0.195773
1.82323,0.0340528,-0.127515
1.76532,-0.0533186,-0.144178
1.85992,0.125819,-0.119473
1.81771,0.0339498,-0.0846866
1.8622,0.125972,-0.0760412
1.8559,0.11904,-0.0324615
1.85615,0.119056,0.0108102
1.81728,0.0275963,-0.195773
1.81137,0.0275066,-0.126678
1.85637,0.11907,-0.119217
1.80983,0.0274832,-0.0843144
1.85465,0.11896,-0.0757155
1.85228,0.112966,-0.0323917
1.80542,0.0217434,-0.194488
1.81145,0.0218159,-0.126678
1.85275,0.112994,-0.118961
1.8139,0.0218455,-0.0845005
1.85102,0.112889,-0.0755527
1.84868,0.105947,-0.0323219
1.79754,0.0150594,-0.193631
1.80752,0.015143,-0.126399
1.84917,0.105975,-0.118705
1.80997,0.0151636,-0.0843144
1.84507,0.0989564,-0.032252
1.79758,0.00847097,-0.193631
1.80757,0.00851802,-0.126399
1.80203,0.00849191,-0.0839422
1.84382,0.0988894,-0.0752271
1.80758,0.00283935,-0.126399
1.84187,0.0929829,-0.118194
1.79405,0.0028181,-0.0835699
1.84013,0.0928949,-0.0750642
1.79362,-0.00344351,-0.193203
1.79561,-0.00344733,-0.125562
1.84218,0.086553,-0.118194
1.83645,0.0862835,-0.0749014
1.834,0.0794328,-0.0320426
1.83425,0.0794436,0.0106707
1.78761,-0.00998398,-0.125004
1.8385,0.0796277,-0.117938
1.8015,-0.0163504,-0.19406
1.79155,-0.01626,-0.125283
1.83079,0.0728921,-0.117426
1.79746,-0.022275,-0.193631
1.79149,-0.022201,-0.125283
1.7874,-0.0287029,-0.125004
1.77932,-0.0344754,-0.124446
1.81947,0.0536829,-0.116659
1.8177,0.0536306,-0.0740873
1.81511,0.0472133,-0.0316936
1.81017,0.034441,-0.0737616
1.80237,0.0217066,-0.0734359
1.80024,0.0153962,-0.115379
1.79844,0.0153809,-0.0732731
1.78013,-0.0279645,-0.1141
