2.29799,0.0922972,-0.0267745
2.28631,0.0838359,-0.0266348
2.29458,0.0761193,-0.0267279
2.28684,0.0678714,-0.0266348
2.27906,0.0596794,-0.0265417
2.28326,0.0518149,-0.0265882
2.28342,0.043845,-0.0265882
2.27956,0.0358107,-0.0265417
2.27168,0.027755,-0.0264485
2.26776,0.0197907,-0.026402
2.26781,0.0122709,-0.026402
2.25581,0.012206,0.0262623
2.26784,0.00474989,-0.026402
2.27215,0.0047589,-0.132324
2.26384,-0.00355544,-0.0263554
2.25184,-0.00353659,0.0262157
2.26416,-0.00355594,-0.131859
2.26382,-0.0114583,-0.0263554
2.24782,-0.0113773,0.0261692
2.26813,-0.0114801,-0.132092
2.25177,-0.0192573,-0.0262157
2.2901,0.0923807,-0.0133209
2.24777,-0.0192231,0.0261692
2.26807,-0.0193968,-0.132092
2.29346,0.0848999,-0.0667919
2.24369,-0.026629,0.0261226
2.264,-0.0268701,-0.131859
2.24758,-0.034915,-0.0261692
2.25557,-0.0350393,0.0262623
2.2599,-0.0351064,-0.131627
2.28202,0.0681282,-0.0664428
2.25544,-0.042912,-0.0262623
2.29094,0.0683946,-0.0133209
2.24344,-0.0426838,0.0261226
2.25976,-0.0429942,-0.131627
2.24328,-0.0505152,-0.0261226
2.28317,0.0601859,-0.0132744
2.23928,-0.0504251,0.026076
2.25161,-0.0507029,-0.131162
2.27444,0.0520122,-0.0662101
2.24309,-0.0583449,-0.0261226
2.27937,0.0521248,-0.0132512
2.24309,-0.0583449,0.0261226
2.25541,-0.0586655,-0.131394
2.27861,0.0441494,-0.0663264
2.23887,-0.066057,-0.026076
2.27154,0.0440124,-0.0132047
2.2572,-0.0665977,-0.210797
2.23488,-0.0659391,0.0260295
2.2512,-0.0664208,-0.131162
2.27874,0.0369912,-0.0663264
2.23466,-0.0729594,-0.0260295
2.26766,0.0368115,-0.0131814
2.24902,-0.0734283,-0.210054
2.23466,-0.0729594,0.0260295
2.24699,-0.0733621,-0.130929
2.26687,0.0280931,-0.0659773
2.24236,-0.0818305,-0.0261226
2.26779,0.0281046,-0.0131814
2.24872,-0.0820628,-0.210054
2.23036,-0.0813929,0.0259829
2.26748,0.0281007,0.0395821
2.25069,-0.0821345,-0.131162
2.26695,0.0201795,-0.0659773
2.23007,-0.0891784,-0.0259829
2.26787,0.0201877,-0.0131814
2.2524,-0.0900715,-0.210425
2.22607,-0.0890186,0.0259363
2.26757,0.020185,0.0395821
2.2464,-0.0898314,-0.130929
2.2688,0.0201959,-0.118907
2.267,0.013058,-0.0659773
2.22978,-0.0961835,-0.0259829
2.26792,0.0130633,-0.0131814
2.25211,-0.0971468,-0.210425
2.22978,-0.0961835,0.0259829
2.2461,-0.0968878,-0.130929
2.26885,0.0130687,-0.118907
2.25904,0.00473163,-0.0657446
2.22541,-0.104169,-0.0259363
2.25596,0.00472517,-0.0131117
2.25173,-0.105401,-0.210425
2.22541,-0.104169,0.0259363
2.25965,0.00473291,0.0394424
2.23377,-0.10456,-0.130231
2.26489,0.00474388,-0.118698
2.25904,-0.00315344,-0.0657446
2.22504,-0.111936,-0.0259363
2.25196,-0.00314356,-0.0130884
2.23942,-0.11266,-0.20931
2.22504,-0.111936,0.0259363
2.26365,-0.00315988,0.0395123
2.23339,-0.112356,-0.130231
2.26888,-0.00316718,-0.118907
2.25902,-0.0106453,-0.0657446
2.22865,-0.119529,-0.0259829
2.25594,-0.0106308,-0.0131117
2.24301,-0.120299,-0.209682
2.21267,-0.118672,0.0257966
2.25563,-0.0106293,0.0393726
2.23699,-0.119976,-0.130464
2.26487,-0.0106729,-0.118698
2.29714,0.1015,-0.0535052
2.26296,-0.0189579,-0.065861
2.22021,-0.127238,-0.0258898
2.25188,-0.0188651,-0.0130884
2.23858,-0.128291,-0.20931
2.21621,-0.127009,0.0258432
2.2604,-0.0189365,-0.184535
2.26358,-0.0189631,0.0395123
2.22856,-0.127717,-0.129999
2.2728,-0.0190404,-0.119117
2.25489,-0.0267627,-0.0656282
2.22374,-0.135231,-0.0259363
2.2638,-0.0268686,-0.0131582
2.21176,-0.134502,0.0257966
2.2475,-0.0266751,0.039233
2.2281,-0.135496,-0.129999
2.24198,-0.0266096,0.0913472
2.26074,-0.0268322,-0.118489
2.28582,0.0846161,-0.0532261
2.25478,-0.0346331,-0.0656282
2.22326,-0.142992,-0.0259363
2.2517,-0.0345858,-0.0130884
2.23365,-0.14366,-0.208938
2.21128,-0.142222,0.0257966
2.24339,-0.0344582,0.0391632
2.22363,-0.143016,-0.129766
2.24188,-0.0344349,0.0913472
2.26462,-0.0347844,-0.118698
2.2821,0.0765031,-0.053133
2.24665,-0.0423534,-0.0653955
2.21476,-0.150211,-0.0258432
2.24756,-0.0423707,-0.0130652
2.21077,-0.14994,0.0257966
2.26008,-0.0426066,-0.184535
2.24326,-0.0422895,0.0391632
2.22312,-0.150777,-0.129766
2.23375,-0.0421103,0.0910215
2.2565,-0.0425392,-0.118279
2.27836,0.068416,-0.05304
2.24249,-0.0501067,-0.0652792
2.21422,-0.157941,-0.0258432
2.2474,-0.0502165,-0.0130652
2.22465,-0.158685,-0.208195
2.21023,-0.157657,0.0257966
2.25992,-0.0504961,-0.184535
2.2431,-0.0501203,0.0391632
2.22258,-0.158537,-0.129766
2.25235,-0.0503269,-0.11807
2.27858,0.060462,-0.05304
2.23831,-0.0578302,-0.0651628
2.2754,0.0524306,0
2.20967,-0.16537,-0.0257966
2.24721,-0.0580604,-0.0130652
2.20568,-0.165072,0.0257501
2.25574,-0.0582807,-0.184209
2.24291,-0.0579492,0.0391632
2.22201,-0.166294,-0.129766
2.22941,-0.0576003,0.0908587
2.24417,-0.0579818,-0.117651
2.27878,0.0525086,-0.05304
2.24209,-0.0657603,-0.0652792
2.27157,0.0444095,0
2.20908,-0.173082,-0.0257966
2.247,-0.0659043,-0.0130652
2.22746,-0.174523,-0.208567
2.20509,-0.17277,0.0257501
2.25552,-0.0661544,-0.184209
2.24269,-0.0657781,0.0391632
2.22142,-0.174049,-0.129766
2.22919,-0.065382,0.0908587
2.24795,-0.0659321,-0.117861
2.27895,0.0445538,-0.05304
2.24986,-0.0730632,-0.0655119
2.20852,-0.180022,-0.0257966
2.23878,-0.0727034,-0.0130187
2.2269,-0.181519,-0.208567
2.20852,-0.180022,0.0257966
2.25132,-0.0731106,-0.183884
2.23848,-0.0726936,0.0390934
2.20892,-0.180054,-0.129069
2.23297,-0.0725146,0.0910215
2.25172,-0.0731236,-0.11807
2.27108,0.0372629,-0.0528539
2.23759,-0.0808756,-0.0651628
2.27182,0.0289466,0
2.20785,-0.188115,-0.0257966
2.2345,-0.080764,-0.0129954
2.22225,-0.189342,-0.208195
2.20785,-0.188115,0.0257966
2.24705,-0.0812176,-0.183558
2.2382,-0.0808975,0.0390934
2.21222,-0.188488,-0.129301
2.22071,-0.0802653,0.090533
2.27335,0.0289661,-0.105905
2.24745,-0.0812318,-0.117861
2.2672,0.0288878,-0.0527608
2.2373,-0.0886857,-0.0651628
2.2679,0.0209793,0
2.21116,-0.196174,-0.0258432
2.23421,-0.0885634,-0.0129954
2.21364,-0.196394,-0.207451
2.19124,-0.194407,0.0256104
2.24676,-0.0890608,-0.183558
2.2379,-0.0887098,0.0390934
2.2036,-0.195503,-0.128836
2.22041,-0.0880165,0.090533
2.27344,0.0210305,-0.105905
2.23917,-0.0887599,-0.117442
2.26329,0.0209366,-0.0526678
2.22898,-0.0961502,-0.0649301
2.25996,0.0130166,0
2.19852,-0.202789,-0.0257035
2.23389,-0.0963617,-0.0129954
2.21294,-0.20412,-0.207451
2.26335,0.0130361,0.0526678
2.19055,-0.202055,0.0256104
2.24643,-0.0969029,-0.183558
2.23358,-0.0963486,0.0390236
2.20688,-0.20356,-0.129069
2.22009,-0.0957667,0.090533
2.2695,0.0130715,-0.105719
2.23086,-0.0962312,-0.117023
2.26335,0.0130361,-0.0526678
2.22466,-0.103356,-0.0648137
2.20181,-0.210459,-0.0257501
2.22956,-0.103583,-0.0129722
2.20829,-0.211078,-0.207079
2.26338,0.00553049,0.0526678
2.19385,-0.209698,0.0256569
2.24212,-0.104167,-0.183233
2.22127,-0.103198,0.0388142
2.20619,-0.210877,-0.129069
2.21976,-0.103128,0.090533
2.27353,0.00555529,-0.105905
2.23452,-0.103814,-0.117233
2.26338,0.00553049,-0.0526678
2.23225,-0.111909,-0.0650464
2.252,-0.00275133,0
2.19705,-0.218133,-0.0257035
2.2391,-0.112253,-0.285366
2.22916,-0.111754,-0.0129722
2.21147,-0.219564,-0.207451
2.26738,-0.00277013,0.0527608
2.23774,-0.112184,-0.182907
2.22087,-0.111339,0.0388142
2.20143,-0.218568,-0.128836
2.21538,-0.111063,0.0903702
2.26954,-0.00277276,-0.105719
2.23014,-0.111803,-0.117023
2.20588,-0.110587,0.180304
2.25539,-0.00275547,-0.0524816
2.3054,0.101865,-0.0402802
2.26398,-0.0106688,0
2.19229,-0.225392,-0.0256569
2.22077,-0.119106,-0.0129257
2.20276,-0.226468,-0.206708
2.25936,-0.0106471,0.0525747
2.19627,-0.225801,0.0257035
2.23335,-0.119781,-0.182582
2.22446,-0.119305,0.038884
2.19271,-0.225434,-0.128371
2.21498,-0.118796,0.0903702
2.26552,-0.0106761,-0.105533
2.22574,-0.119373,-0.116814
2.20548,-0.118287,0.180304
2.25536,-0.0106282,-0.0524816
2.28576,0.0930044,-0.0399311
2.25192,-0.0184731,0
2.19547,-0.233466,-0.0257035
2.22433,-0.127086,-0.0129489
2.20196,-0.234155,-0.206708
2.25931,-0.0185337,0.0525747
2.18752,-0.23262,0.0256104
2.2624,-0.018559,-0.158208
2.24088,-0.128031,-0.183233
2.22004,-0.126841,0.0388142
2.19191,-0.233087,-0.128371
2.21056,-0.126299,0.0902073
2.26147,-0.0185514,-0.105346
2.22531,-0.127142,-0.116814
2.20506,-0.125984,0.180304
2.29005,0.0855734,-0.0400009
2.21901,-0.134165,-0.0646974
2.25185,-0.0259406,0
2.18673,-0.239873,-0.0256104
2.2239,-0.134461,-0.0129489
2.20117,-0.241456,-0.206708
2.25924,-0.0260257,0.0525747
2.18673,-0.239873,0.0256104
2.26233,-0.0260613,-0.158208
2.23248,-0.13498,-0.182582
2.21562,-0.13396,0.0387443
2.19112,-0.240354,-0.128371
2.20614,-0.133387,0.0900445
2.2614,-0.0260506,-0.105346
2.22089,-0.134279,-0.116605
2.20065,-0.133055,0.179978
2.28635,0.0770446,-0.0399311
2.2185,-0.142298,-0.0646974
2.25174,-0.0341939,0
2.18187,-0.247435,-0.0255638
2.24127,-0.143758,-0.285871
2.22739,-0.142867,-0.0129722
2.19631,-0.249073,-0.206336
2.18584,-0.247886,0.0256104
2.25822,-0.0342923,-0.157929
2.22402,-0.142651,-0.181931
2.21511,-0.14208,0.0387443
2.19023,-0.248383,-0.128371
2.20563,-0.141472,0.0900445
2.2533,-0.0342175,-0.104974
2.22038,-0.142418,-0.116605
2.19617,-0.140865,0.179653
2.25113,-0.0341846,-0.0523886
2.29459,0.0697053,-0.0400707
2.22599,-0.150192,-0.0649301
2.25161,-0.0416607,0
2.18501,-0.255133,-0.0256104
2.23683,-0.150923,-0.285366
2.21493,-0.149445,-0.0129024
2.19943,-0.256817,-0.206708
2.18501,-0.255133,0.0256104
2.26209,-0.0418545,-0.158208
2.23149,-0.150562,-0.182582
2.20665,-0.148886,0.0386047
2.18542,-0.255182,-0.128138
2.20914,-0.149055,0.0902073
2.26116,-0.0418374,-0.105346
2.2199,-0.149781,-0.116605
2.19967,-0.148415,0.179978
2.24301,-0.0415015,-0.0522025
2.28283,0.0613728,-0.0398613
2.21349,-0.157112,-0.064581
2.24746,-0.0494321,0
2.17616,-0.261803,-0.0255173
2.23233,-0.158449,-0.284861
2.2104,-0.156893,-0.0128792
2.19457,-0.264017,-0.206336
2.24685,-0.0494187,0.0522955
2.18013,-0.262281,0.0255638
2.26193,-0.0497504,-0.158208
2.21902,-0.157504,-0.181606
2.2101,-0.156871,0.0386745
2.18056,-0.262332,-0.127906
2.20063,-0.156199,0.0898817
2.25301,-0.0495543,-0.104974
2.21936,-0.157529,-0.116605
2.19516,-0.15581,0.179653
2.24285,-0.0493308,-0.0522025
2.27903,0.0533103,-0.0397915
2.20496,-0.164243,-0.0643483
2.24727,-0.0572769,0
2.23572,-0.166535,-0.285366
2.27134,0.0531305,0.0132047
2.20984,-0.164607,-0.0128792
2.18968,-0.271187,-0.205964
2.24266,-0.0571595,0.0522025
2.1792,-0.269889,0.0255638
2.25376,-0.0574424,-0.15765
2.22243,-0.165545,-0.181931
2.20156,-0.163991,0.0385349
2.17963,-0.269942,-0.127906
2.2275,-0.056773,0.129766
2.19609,-0.163583,0.0897188
2.24883,-0.0573167,-0.104788
2.21083,-0.164681,-0.116186
2.19062,-0.163176,0.179327
2.2792,0.0453547,-0.0397915
2.20835,-0.17225,-0.0644646
2.24306,-0.0650051,0
2.17825,-0.277494,-0.0255638
2.23117,-0.174029,-0.284861
2.27151,0.0452017,0.0132047
2.20526,-0.172009,-0.012856
2.18082,-0.277822,-0.205221
2.24645,-0.0651034,0.0522955
2.17031,-0.276483,0.0254707
2.25355,-0.0653091,-0.15765
2.21786,-0.172992,-0.181606
2.20497,-0.171986,0.0386047
2.17867,-0.277548,-0.127906
2.22729,-0.0645481,0.129766
2.1955,-0.171248,0.0897188
2.25261,-0.065282,-0.104974
2.21024,-0.172397,-0.116186
2.19004,-0.170822,0.179327
2.27366,0.0452445,-0.0926498
2.23446,-0.0647558,-0.0520164
2.27534,0.03773,-0.0397217
2.20379,-0.179248,-0.0643483
2.23883,-0.0723139,0
2.17335,-0.284198,-0.0255173
2.22662,-0.181106,-0.284356
2.26365,0.0375362,0.0131582
2.21266,-0.17997,-0.0129024
2.18778,-0.286085,-0.205964
2.24222,-0.0724234,0.0522025
2.17335,-0.284198,0.0255173
2.24933,-0.072653,-0.157371
2.2133,-0.180022,-0.18128
2.20438,-0.179297,0.0386047
2.17774,-0.284772,-0.127906
2.22307,-0.0718048,0.129534
2.19492,-0.178527,0.0897188
2.24839,-0.0726225,-0.104788
2.20966,-0.179726,-0.116186
2.18549,-0.17776,0.179002
2.2738,0.0377045,-0.0926498
2.24222,-0.0724234,-0.0522025
2.27946,0.0298398,-0.0397915
2.20315,-0.18694,-0.0643483
2.23457,-0.0799853,0
2.17234,-0.291782,-0.0255173
2.22202,-0.188541,-0.283851
2.20803,-0.187354,-0.0128792
2.24556,-0.0803789,-0.242039
2.16838,-0.29125,0.0254707
2.24906,-0.0805042,-0.157371
2.20869,-0.18741,-0.180955
2.19179,-0.185976,0.0383953
2.17277,-0.29184,-0.127673
2.21882,-0.0794215,0.129301
2.19429,-0.186188,0.0897188
2.20504,-0.1871,-0.115976
2.18883,-0.185725,0.179327
2.27392,0.0297672,-0.0926498
2.23796,-0.0801067,-0.0521094
2.27155,0.0214095,-0.0396519
2.19448,-0.194308,-0.0641155
2.24225,-0.0884904,0
2.17522,-0.300289,-0.0255638
2.22527,-0.197034,-0.284356
2.25986,0.0212993,0.0131349
2.19936,-0.19474,-0.0128327
2.18568,-0.301733,-0.205964
2.23765,-0.0883087,0.0521094
2.1673,-0.299195,0.0254707
2.25274,-0.0889042,-0.15765
2.21196,-0.195856,-0.18128
2.19906,-0.194714,0.0385349
2.27523,0.0214442,-0.145823
2.16773,-0.299256,-0.127441
2.19359,-0.194229,0.0897188
2.24781,-0.0887097,-0.104788
2.20434,-0.195181,-0.115976
2.18416,-0.193394,0.179002
2.27002,0.021395,-0.0924869
2.22966,-0.0879933,-0.0519233
2.26362,0.0134327,-0.0395123
2.23394,-0.0959734,0
2.1702,-0.30732,-0.0255173
2.21667,-0.204073,-0.283346
2.25592,0.0133871,0.0131117
2.20663,-0.203149,-0.0128792
2.17673,-0.308244,-0.205221
2.23333,-0.0959474,0.0520164
2.1702,-0.30732,0.0255173
2.24444,-0.0964247,-0.157092
2.21126,-0.203576,-0.18128
2.259,0.0134054,0.0657446
2.19837,-0.202389,0.0385349
2.16668,-0.306821,-0.127441
2.2142,-0.0951255,0.129069
2.1929,-0.201885,0.0897188
2.2435,-0.096384,-0.104602
2.19967,-0.202508,-0.115767
2.18347,-0.201017,0.179002
2.27008,0.0134711,-0.0924869
2.22534,-0.0956041,-0.0518303
2.27165,0.00594719,-0.0396519
2.23361,-0.103381,0
2.16521,-0.313941,-0.0254707
2.21993,-0.2118,-0.283851
2.20196,-0.210086,-0.012856
2.24063,-0.103706,-0.241611
2.17175,-0.314889,-0.204849
2.22502,-0.102983,0.0518303
2.16125,-0.313367,0.0254241
2.23614,-0.103498,-0.156534
2.20264,-0.21015,-0.180629
2.25104,0.00589324,0.0655119
2.1937,-0.209298,0.0384651
2.26734,0.00593592,-0.145312
2.16169,-0.313431,-0.127208
2.21388,-0.102467,0.129069
2.18824,-0.208776,0.089556
2.23917,-0.103638,-0.104416
2.19501,-0.209422,-0.115558
2.17486,-0.207499,0.178351
2.26212,0.00592224,-0.0921613
2.22901,-0.103168,-0.0519233
2.26765,-0.0019789,-0.0395821
2.23323,-0.111177,0
2.1641,-0.321497,-0.0254707
2.21523,-0.219157,-0.283346
2.25196,-0.00196521,0.0130884
2.20122,-0.217771,-0.012856
2.17064,-0.322468,-0.204849
2.22464,-0.110749,0.0518303
2.16015,-0.320909,0.0254241
2.23577,-0.111303,-0.156534
2.20189,-0.217837,-0.180629
2.25105,-0.00196441,0.0655119
2.18898,-0.21656,0.0383953
2.26336,-0.00197515,-0.145056
2.16849,-0.322148,-0.127673
2.22148,-0.110592,0.129534
2.1875,-0.216413,0.089556
2.24279,-0.111653,-0.104602
2.19426,-0.217083,-0.115558
2.17412,-0.21509,0.178351
2.25813,-0.00197059,-0.0919985
2.23263,-0.111147,-0.0520164
2.25963,-0.00985957,-0.0394424
2.18364,-0.223731,-0.0638828
2.22484,-0.118546,0
2.15901,-0.328447,-0.0254241
2.2105,-0.226483,-0.282841
2.25194,-0.009826,0.0130884
2.19646,-0.225045,-0.0128327
2.24382,-0.119557,-0.242039
2.1695,-0.330043,-0.204849
2.22824,-0.118727,0.0519233
2.15901,-0.328447,0.0254241
2.23536,-0.119107,-0.156534
2.20112,-0.225522,-0.180629
2.24703,-0.00980456,0.0653955
2.18821,-0.2242,0.0383953
2.26333,-0.00987572,-0.145056
2.1634,-0.329115,-0.127441
2.18673,-0.224048,0.089556
2.19349,-0.224741,-0.115558
2.17732,-0.223084,0.178676
2.2621,-0.00987034,-0.0921613
2.22424,-0.118514,-0.0518303
2.25559,-0.0177157,-0.0393726
2.18284,-0.231352,-0.0638828
2.22442,-0.126312,0
2.1618,-0.336597,-0.0254707
2.2097,-0.234198,-0.282841
2.18771,-0.231868,-0.0127862
2.24339,-0.127389,-0.242039
2.1644,-0.337001,-0.204477
2.22381,-0.126277,0.0518303
2.1618,-0.336597,0.0254707
2.23493,-0.126909,-0.156534
2.19635,-0.232784,-0.180304
2.24698,-0.0176481,0.0653955
2.18741,-0.231837,0.0383953
2.25929,-0.0177448,-0.1448
2.15435,-0.335436,-0.126976
2.20471,-0.125192,0.128604
2.18593,-0.23168,0.089556
2.23796,-0.127081,-0.104416
2.18872,-0.231975,-0.115348
2.17256,-0.230263,0.178351
2.26205,-0.0177665,-0.0921613
2.21583,-0.125824,-0.0516442
2.25151,-0.0255437,-0.0393028
2.21598,-0.133594,0
2.16062,-0.344141,-0.0254707
2.20492,-0.241478,-0.282336
2.24382,-0.0254564,0.0130419
2.19484,-0.240374,-0.0128327
2.24293,-0.135219,-0.242039
2.15928,-0.343928,-0.204105
2.21538,-0.133558,0.0516442
2.15667,-0.343512,0.0254241
2.23049,-0.134469,-0.156255
2.19553,-0.240449,-0.180304
2.24291,-0.0254461,0.0652792
2.18262,-0.239035,0.0383255
2.25523,-0.0255859,-0.144544
2.16105,-0.34421,-0.127441
2.20824,-0.133128,0.128836
2.17717,-0.238438,0.0892304
2.23352,-0.134652,-0.10423
2.1879,-0.239614,-0.115348
2.17175,-0.237845,0.178351
2.25398,-0.0255718,-0.0918356
2.21937,-0.133799,-0.0517372
2.25941,-0.0335214,-0.0394424
2.1772,-0.246137,-0.0637664
2.2115,-0.141074,0
2.14756,-0.349752,-0.025331
2.20406,-0.249173,-0.282336
2.25171,-0.0334073,0.0130884
2.19001,-0.247585,-0.0128095
2.23847,-0.142794,-0.241611
2.15806,-0.351463,-0.204105
2.21889,-0.141545,0.0517372
2.15151,-0.350395,0.0253776
2.22603,-0.142,-0.155975
2.19467,-0.248111,-0.180304
2.23881,-0.0332158,0.0651628
2.17779,-0.246203,0.0382557
2.26311,-0.0335763,-0.145056
2.15195,-0.350468,-0.126976
2.20378,-0.140581,0.128604
2.18029,-0.246486,0.0893932
2.23304,-0.142447,-0.10423
2.16694,-0.244976,0.178025
2.24989,-0.0333802,-0.0916728
2.21889,-0.141545,-0.0517372
2.25528,-0.0413348,-0.0393726
2.17633,-0.253735,-0.0637664
2.2012,-0.256635,-0.443225
2.21499,-0.149061,0
2.15027,-0.357903,-0.0253776
2.19136,-0.255487,-0.280821
2.18516,-0.254764,-0.0127862
2.23003,-0.150073,-0.240754
2.15682,-0.358994,-0.204105
2.21838,-0.149289,0.0517372
2.14632,-0.357246,0.025331
2.2295,-0.150038,-0.156255
2.18983,-0.255309,-0.179978
2.18089,-0.254267,0.0383255
2.25499,-0.0413296,-0.144544
2.15466,-0.358633,-0.127208
2.19929,-0.148005,0.128371
2.17545,-0.253632,0.0892304
2.22854,-0.149973,-0.104044
2.1822,-0.25442,-0.115139
2.16607,-0.252539,0.178025
2.24576,-0.0411603,-0.09151
2.21838,-0.149289,-0.0517372
2.25512,-0.0492069,-0.0393726
2.17543,-0.26133,-0.0637664
2.21047,-0.156509,0
2.14901,-0.365407,-0.0253776
2.18651,-0.262661,-0.280315
2.23543,-0.0487773,0.0129954
2.18823,-0.262868,-0.0128095
2.22949,-0.157856,-0.240754
2.15163,-0.365853,-0.203733
2.21785,-0.157032,0.0517372
2.14901,-0.365407,0.0253776
2.22498,-0.157537,-0.155975
2.18893,-0.262952,-0.179978
2.23452,-0.0487574,0.0650464
2.17602,-0.261401,0.0382557
2.24685,-0.0490265,-0.144032
2.19478,-0.155399,0.128138
2.17852,-0.261701,0.0893932
2.1813,-0.262035,-0.115139
2.16518,-0.260099,0.178025
2.2496,-0.0490864,-0.0916728
2.20987,-0.156467,-0.0515511
2.24294,-0.0567748,-0.0391632
2.20991,-0.164224,0
2.14772,-0.372906,-0.0253776
2.19346,-0.271266,-0.281326
2.23924,-0.0566813,0.0130187
2.18333,-0.270013,-0.0127862
2.22496,-0.165343,-0.240326
2.15426,-0.374042,-0.204105
2.2133,-0.164476,0.0516442
2.22442,-0.165303,-0.155975
2.18404,-0.270101,-0.179653
2.23434,-0.0565571,0.0650464
2.1751,-0.268995,0.0382557
2.25066,-0.0569702,-0.144288
2.1403,-0.371617,-0.126511
2.19422,-0.163059,0.128138
2.17362,-0.268813,0.0892304
2.22345,-0.165231,-0.103857
2.18037,-0.269648,-0.115139
2.1603,-0.267165,0.1777
2.24542,-0.0568375,-0.09151
2.20931,-0.16418,-0.0515511
2.24274,-0.0642123,-0.0391632
2.19066,-0.278299,-0.441656
2.21334,-0.171861,0
2.14647,-0.380026,-0.0253776
2.19255,-0.278538,-0.281326
2.23904,-0.0641066,0.0130187
2.18242,-0.277252,-0.0127862
2.2244,-0.17272,-0.240326
2.14517,-0.379795,-0.203362
2.20875,-0.171505,0.0515511
2.14253,-0.379329,0.025331
2.21988,-0.17237,-0.155696
2.18709,-0.277845,-0.179978
2.23014,-0.0638517,0.0649301
2.17419,-0.276207,0.0382557
2.25046,-0.0644334,-0.144288
2.14298,-0.379409,-0.126743
2.19367,-0.170334,0.128138
2.17272,-0.27602,0.0892304
2.21492,-0.171985,-0.103485
2.17551,-0.276373,-0.11493
2.16336,-0.27483,0.178025
2.24122,-0.0641689,-0.0913472
2.20875,-0.171505,-0.0515511
2.25051,-0.0719046,-0.0393028
2.17268,-0.283338,-0.0637664
2.18973,-0.285562,-0.441656
2.20478,-0.178554,0
2.14126,-0.386431,-0.025331
2.18768,-0.285294,-0.280821
2.23482,-0.0714034,0.0129954
2.17753,-0.283971,-0.012763
2.22381,-0.180096,-0.240326
2.1439,-0.386907,-0.203362
2.20817,-0.178829,0.0515511
2.14126,-0.386431,0.025331
2.21532,-0.179408,-0.155417
2.1822,-0.28458,-0.179653
2.23391,-0.0713744,0.0650464
2.17326,-0.283415,0.0382557
2.25422,-0.0720233,-0.144544
2.14172,-0.386513,-0.126743
2.17179,-0.283223,0.0892304
2.21832,-0.179651,-0.103671
2.17458,-0.283586,-0.11493
2.15453,-0.280972,0.177375
2.24499,-0.0717283,-0.09151
2.13834,-0.278861,0.393177
2.20817,-0.178829,-0.0515511
2.16375,-0.289859,-0.0635337
2.18872,-0.293203,-0.441656
2.19617,-0.185576,0
2.1399,-0.393904,-0.025331
2.1906,-0.293456,-0.281326
2.23456,-0.079204,0.0129954
2.14253,-0.394388,-0.203362
2.20355,-0.186199,0.0514581
2.1399,-0.393904,0.025331
2.21468,-0.18714,-0.155417
2.17724,-0.291667,-0.179327
2.22566,-0.0788885,0.0648137
2.1683,-0.290468,0.0381859
2.24598,-0.0796088,-0.144032
2.14035,-0.393987,-0.126743
2.1845,-0.18459,0.127673
2.16683,-0.290272,0.0890675
2.21768,-0.187394,-0.103671
2.16566,-0.290114,-0.114511
2.18376,-0.184527,0.269088
2.15353,-0.288491,0.177375
2.23274,-0.0791397,-0.0910215
2.19956,-0.185862,-0.051365
2.24194,-0.0876943,-0.0391632
2.19928,-0.302829,-0.44401
2.19946,-0.193975,0
2.13451,-0.401006,-0.0252844
2.21663,-0.195489,-0.346194
2.17772,-0.299859,-0.27981
2.21851,-0.195655,-0.239897
2.14499,-0.402974,-0.203733
2.20285,-0.194274,0.0514581
2.12665,-0.399529,0.0251913
2.20603,-0.194555,-0.154859
2.17221,-0.299101,-0.179002
2.22536,-0.0870455,0.0648137
2.16326,-0.297868,0.0381161
2.23769,-0.0875281,-0.143521
2.13105,-0.400354,-0.126278
2.18381,-0.192595,0.127673
2.16575,-0.298212,0.0890675
2.213,-0.195169,-0.103485
2.16854,-0.298595,-0.11472
2.18307,-0.19253,0.269088
2.15641,-0.296926,0.1777
2.24043,-0.087635,-0.0913472
2.20285,-0.194274,-0.0514581
2.23365,-0.0947892,-0.0390236
2.15771,-0.304399,-0.0634174
2.18662,-0.308476,-0.441656
2.19881,-0.201268,0
2.14103,-0.409585,-0.0253776
2.21597,-0.202839,-0.346194
2.17671,-0.307079,-0.27981
2.22996,-0.0946325,0.0129722
2.17443,-0.306758,-0.012763
2.21388,-0.202648,-0.239469
2.19821,-0.201214,0.051365
2.13317,-0.408082,0.0252844
2.17121,-0.306303,-0.179002
2.22505,-0.0944245,0.0648137
2.16622,-0.305599,0.0381859
2.2334,-0.0947788,-0.143265
2.13363,-0.408169,-0.126511
2.18316,-0.199836,0.127673
2.16079,-0.304834,0.0889047
2.21234,-0.202507,-0.103485
2.16753,-0.305784,-0.11472
2.19033,-0.200492,0.270062
2.15542,-0.304075,0.1777
2.23613,-0.0948946,-0.0911843
2.19423,-0.200849,-0.051272
2.22929,-0.102791,-0.0389538
2.18159,-0.315926,-0.440872
2.19407,-0.208947,0
2.13951,-0.417429,-0.0253776
2.21914,-0.211334,-0.346809
2.17557,-0.315055,-0.27981
2.2216,-0.102437,0.0129257
2.20917,-0.210384,-0.239041
2.13039,-0.41565,-0.202618
2.19746,-0.209269,0.051365
2.12773,-0.415131,0.0252379
2.20859,-0.210329,-0.155138
2.17401,-0.31483,-0.179327
2.22469,-0.102579,0.0648137
2.16508,-0.313536,0.0381859
2.23703,-0.103148,-0.143521
2.13212,-0.415987,-0.126511
2.18241,-0.207836,0.127673
2.15966,-0.312751,0.0889047
2.20761,-0.210235,-0.103299
2.17035,-0.314299,-0.11493
2.18167,-0.207765,0.269088
2.15429,-0.311973,0.1777
2.23178,-0.102906,-0.0910215
2.1895,-0.208511,-0.0511789
2.22492,-0.110374,-0.038884
2.18935,-0.216211,0
2.13412,-0.424115,-0.025331
2.21053,-0.218302,-0.345579
2.17053,-0.322065,-0.279305
2.22523,-0.110389,0.0129489
2.16822,-0.321722,-0.0127397
2.20842,-0.218094,-0.239041
2.19274,-0.216545,0.051272
2.13412,-0.424115,0.025331
2.20784,-0.218037,-0.155138
2.16896,-0.321831,-0.179002
2.22033,-0.110146,0.0646974
2.16002,-0.320505,0.0381161
2.23267,-0.110758,-0.143265
2.13457,-0.424205,-0.126743
2.18167,-0.215453,0.127673
2.15856,-0.320288,0.0889047
2.16908,-0.214209,0.267625
2.15318,-0.319491,0.1777
2.22741,-0.110497,-0.0908587
2.19274,-0.216545,-0.051272
2.23251,-0.118564,-0.0390236
2.1504,-0.326753,-0.063301
2.17545,-0.33056,-0.440087
2.19256,-0.224259,0
2.20975,-0.226017,-0.345579
2.16547,-0.329043,-0.2788
2.21684,-0.117732,0.0129024
2.16709,-0.329289,-0.0127397
2.20765,-0.225802,-0.239041
2.12744,-0.430513,-0.202618
2.19197,-0.224198,0.051272
2.12478,-0.429976,0.0252379
2.2031,-0.225337,-0.154859
2.16388,-0.328802,-0.178676
2.21594,-0.117684,0.064581
2.15493,-0.327442,0.0380462
2.22828,-0.118339,-0.143009
2.12525,-0.430069,-0.126278
2.18091,-0.223067,0.127673
2.15743,-0.327821,0.0889047
2.20211,-0.225236,-0.103113
2.15626,-0.327643,-0.114302
2.17227,-0.222183,0.268113
2.14417,-0.325807,0.177049
2.22302,-0.11806,-0.0906958
2.19197,-0.224198,-0.051272
2.22412,-0.125516,-0.038884
2.17047,-0.33717,-0.439303
2.18783,-0.231108,0
2.13118,-0.438632,-0.025331
2.20113,-0.232513,-0.344349
2.21644,-0.125082,0.0129024
2.21084,-0.233539,-0.239469
2.126,-0.437566,-0.202618
2.12335,-0.437019,0.0252379
2.20234,-0.232641,-0.154859
2.15884,-0.335364,-0.178351
2.21953,-0.125257,0.0646974
2.15779,-0.3352,0.0381161
2.22389,-0.125503,-0.142753
2.12381,-0.437115,-0.126278
2.17618,-0.229878,0.127441
2.15633,-0.334973,0.0889047
2.19738,-0.232117,-0.102927
2.15516,-0.334792,-0.114302
2.16757,-0.228969,0.267625
2.13914,-0.332304,0.176724
2.22262,-0.125431,-0.0906958
2.18326,-0.230626,-0.0510859
2.21569,-0.1328,-0.0387443
2.14812,-0.341382,-0.063301
2.18303,-0.23831,0
2.12964,-0.446068,-0.025331
2.19637,-0.239766,-0.343735
2.15926,-0.343153,-0.278295
2.16085,-0.343404,-0.0127165
2.19815,-0.23996,-0.238184
2.12446,-0.444984,-0.202618
2.18642,-0.238679,0.0511789
2.12572,-0.445248,0.0252844
2.19755,-0.239894,-0.15458
2.16159,-0.343523,-0.178676
2.21509,-0.132764,0.064581
2.1487,-0.341475,0.0379764
2.22344,-0.133265,-0.142753
2.11836,-0.443707,-0.126045
2.1512,-0.341871,0.0887419
2.19655,-0.239786,-0.102927
2.15398,-0.342313,-0.114302
2.16676,-0.236533,0.267625
2.14191,-0.340394,0.177049
2.22217,-0.133189,-0.0906958
2.18244,-0.238245,-0.0510859
2.21518,-0.14092,-0.0387443
2.18214,-0.246309,0
2.12408,-0.453037,-0.0252844
2.19941,-0.248258,-0.344349
2.15799,-0.351064,-0.278295
2.21149,-0.140685,0.0128792
2.15562,-0.35068,-0.0126932
2.19726,-0.248015,-0.238184
2.11892,-0.451937,-0.202246
2.18553,-0.246691,0.0511789
2.12017,-0.452202,0.0252379
2.19269,-0.247499,-0.154301
2.15638,-0.350803,-0.178351
2.21059,-0.140628,0.0644646
2.14744,-0.349348,0.0379764
2.21895,-0.14116,-0.142497
2.12063,-0.452301,-0.126278
2.17052,-0.244997,0.127208
2.14599,-0.349111,0.0885791
2.19169,-0.247387,-0.102741
2.14876,-0.349564,-0.114092
2.16193,-0.244028,0.267138
2.14458,-0.348883,0.177375
2.22166,-0.141332,-0.0906958
2.18155,-0.246243,-0.0510859
2.21473,-0.147879,-0.0387443
2.1418,-0.355342,-0.0631846
2.17341,-0.252241,0
2.16079,-0.358492,-0.2788
2.21503,-0.147899,0.0129024
2.19252,-0.254458,-0.237755
2.11749,-0.458591,-0.202246
2.18077,-0.253095,0.0510859
2.11873,-0.458861,0.0252379
2.18794,-0.253927,-0.154022
2.15527,-0.357576,-0.178351
2.21413,-0.147839,0.064581
2.15028,-0.356747,0.0380462
2.22248,-0.148396,-0.142753
2.1192,-0.458961,-0.126278
2.1737,-0.252275,0.127441
2.14882,-0.356506,0.0887419
2.1909,-0.254271,-0.102741
2.14766,-0.356312,-0.114092
2.16116,-0.250819,0.267138
2.13561,-0.354313,0.176724
2.21722,-0.148045,-0.090533
2.1768,-0.252634,-0.0509928
2.21415,-0.156382,-0.0387443
2.18037,-0.261537,0
2.11696,-0.466993,-0.0252379
2.1937,-0.263136,-0.343735
2.15157,-0.365457,-0.27779
2.21046,-0.156121,0.0128792
2.15312,-0.36572,-0.0126932
2.19152,-0.262875,-0.237755
2.11571,-0.466719,-0.202246
2.17978,-0.261467,0.0510859
2.11696,-0.466993,0.0252379
2.19091,-0.262801,-0.154301
2.14995,-0.365181,-0.178025
2.20158,-0.155494,0.0642319
2.14495,-0.364331,0.0379764
2.21393,-0.156366,-0.142242
2.10962,-0.465374,-0.125813
2.17272,-0.260619,0.127441
2.1435,-0.364085,0.0885791
2.18198,-0.26173,-0.102368
2.16018,-0.259115,0.267138
2.1303,-0.361843,0.176398
2.20866,-0.155994,-0.0902073
2.17978,-0.261467,-0.0510859
2.2096,-0.163814,-0.0386745
2.1715,-0.268166,0
2.11531,-0.474379,-0.0252379
2.20591,-0.16354,0.012856
2.15183,-0.373234,-0.0126932
2.19059,-0.270523,-0.237755
2.11407,-0.474101,-0.202246
2.17885,-0.269074,0.0510859
2.10751,-0.472629,0.0251447
2.1781,-0.26898,-0.153464
2.14474,-0.372002,-0.1777
2.20103,-0.163178,0.0642319
2.14366,-0.371816,0.0379764
2.21337,-0.164094,-0.142242
2.10798,-0.472735,-0.125813
2.16387,-0.267223,0.126976
2.13827,-0.370882,0.0884162
2.18501,-0.269835,-0.102555
2.15532,-0.266167,0.26665
2.12902,-0.369277,0.176398
2.2081,-0.163703,-0.0902073
2.17092,-0.268094,-0.0508998
2.2011,-0.170138,-0.0385349
2.17065,-0.274987,0
2.11381,-0.481023,-0.0252379
2.1491,-0.379719,-0.27779
2.20538,-0.17047,0.012856
2.15065,-0.379992,-0.0126932
2.17789,-0.275904,-0.23647
2.17006,-0.274912,0.0508998
2.10601,-0.479248,0.0251447
2.17724,-0.275822,-0.153464
2.2005,-0.170092,0.0642319
2.13461,-0.377157,0.0378368
2.20887,-0.170739,-0.141986
2.11038,-0.480241,-0.126045
2.15906,-0.273518,0.126743
2.13316,-0.376902,0.0882534
2.18019,-0.276196,-0.102368
2.15447,-0.272937,0.26665
2.12785,-0.375964,0.176398
2.20359,-0.170331,-0.0900445
2.17006,-0.274912,-0.0508998
2.20049,-0.17782,-0.0385349
2.16175,-0.281529,0
2.11602,-0.489299,-0.0252844
2.187,-0.284818,-0.34312
2.20478,-0.178167,0.012856
2.18086,-0.284019,-0.236899
2.17306,-0.283002,0.0509928
2.10043,-0.485695,0.0250982
2.17626,-0.28342,-0.153464
2.1383,-0.385511,-0.177375
2.19591,-0.17745,0.0641155
2.13721,-0.385316,0.0379066
2.20826,-0.178448,-0.141986
2.1048,-0.486705,-0.125813
2.15809,-0.281053,0.126743
2.13183,-0.384346,0.0882534
2.17921,-0.283804,-0.102368
2.15351,-0.280456,0.26665
2.12653,-0.383389,0.176398
2.20697,-0.178344,-0.0902073
2.17306,-0.283002,-0.0509928
2.19982,-0.185884,-0.0385349
2.16466,-0.289981,0
2.14633,-0.395087,-0.27779
2.20012,-0.18591,0.0128327
2.17981,-0.29201,-0.236899
2.16408,-0.289903,0.0508067
2.09474,-0.492475,0.0250516
2.17126,-0.290864,-0.153185
2.13687,-0.393346,-0.177375
2.19126,-0.185161,0.0639992
2.13579,-0.393146,0.0379066
2.20759,-0.18654,-0.141986
2.15704,-0.288961,0.126743
2.13434,-0.39288,0.0884162
2.17816,-0.291789,-0.102368
2.14459,-0.287293,0.265675
2.12119,-0.390459,0.176073
2.20232,-0.186095,-0.0900445
2.172,-0.290965,-0.0509928
2.1992,-0.193178,-0.0385349
2.15973,-0.296614,0
2.10477,-0.502203,-0.0251913
2.14111,-0.401471,-0.277285
2.19949,-0.193204,0.0128327
2.17883,-0.299237,-0.236899
2.16707,-0.297622,0.0508998
2.10088,-0.501275,0.0251447
2.17818,-0.299149,-0.153743
2.18665,-0.192076,0.0638828
2.13054,-0.39949,0.0378368
2.20298,-0.193511,-0.14173
2.15212,-0.295569,0.126511
2.13303,-0.399956,0.0884162
2.17718,-0.299011,-0.102368
2.1515,-0.295483,0.26665
2.11988,-0.397491,0.176073
2.16707,-0.297622,-0.0508998
2.19851,-0.200854,-0.0385349
2.15472,-0.303593,0
2.10689,-0.510489,-0.0252379
2.17998,-0.307153,-0.342505
2.19482,-0.200517,0.0128095
2.17777,-0.306841,-0.236899
2.16997,-0.305742,0.0509928
2.09912,-0.508605,0.0251447
2.16922,-0.305637,-0.153185
2.13414,-0.407882,-0.177375
2.18597,-0.199708,0.0638828
2.13306,-0.407675,0.0379066
2.19832,-0.200836,-0.141474
2.09959,-0.50872,-0.125813
2.15107,-0.303079,0.126511
2.13162,-0.407399,0.0884162
2.17612,-0.306609,-0.102368
2.14652,-0.302438,0.266163
2.11456,-0.40414,0.175747
2.19702,-0.200718,-0.0898817
2.16601,-0.305184,-0.0508998
2.19381,-0.208149,-0.0384651
2.15364,-0.311112,0
2.10121,-0.516885,-0.0251913
2.19411,-0.208177,0.0128095
2.16098,-0.312172,0.0508067
2.09344,-0.514974,0.0250982
2.16814,-0.313207,-0.153185
2.18526,-0.207337,0.0638828
2.12377,-0.413589,0.037767
2.1976,-0.208508,-0.141474
2.09392,-0.515092,-0.12558
2.15,-0.310586,0.126511
2.12626,-0.414073,0.0882534
2.17504,-0.314203,-0.102368
2.12903,-0.414612,-0.113674
2.14152,-0.309361,0.265675
2.10923,-0.410757,0.175422
2.19631,-0.208386,-0.0898817
2.15702,-0.3116,-0.0507136
2.19701,-0.216581,-0.0385349
2.15249,-0.319004,0
2.0993,-0.524583,-0.0251913
2.13671,-0.424244,-0.277285
2.18537,-0.215433,0.012763
2.17158,-0.321833,-0.23647
2.15586,-0.319504,0.0507136
2.09154,-0.522643,0.0250982
2.16304,-0.320567,-0.152906
2.13508,-0.423919,-0.1777
2.18448,-0.215345,0.0638828
2.12224,-0.42137,0.037767
2.19285,-0.21617,-0.141218
2.14885,-0.318464,0.126511
2.12081,-0.421085,0.0880906
2.16597,-0.321001,-0.101996
2.12358,-0.421635,-0.113464
2.13645,-0.316626,0.265188
2.11553,-0.420037,0.176073
2.15586,-0.319504,-0.0507136
2.19227,-0.223842,-0.0384651
2.14741,-0.325915,0
2.09746,-0.531907,-0.0251913
2.16878,-0.329158,-0.341275
2.13522,-0.431699,-0.277285
2.18858,-0.223466,0.0127862
2.13281,-0.431212,-0.0126467
2.16651,-0.328815,-0.236042
2.16264,-0.328227,0.0508998
2.08583,-0.528958,0.0250516
2.1619,-0.328115,-0.152906
2.12577,-0.429789,-0.177049
2.18372,-0.222969,0.0638828
2.12468,-0.429568,0.0378368
2.19605,-0.224229,-0.141474
2.09018,-0.530062,-0.12558
2.14378,-0.325364,0.126278
2.11541,-0.427694,0.0879277
2.16088,-0.32796,-0.10181
2.13533,-0.324082,0.265188
2.11014,-0.426629,0.175747
2.18681,-0.223285,-0.089556
2.15869,-0.327627,-0.0508067
2.19151,-0.231111,-0.0384651
2.15027,-0.333648,0
2.09181,-0.537864,-0.0251447
2.12989,-0.437978,-0.27678
2.18385,-0.230303,0.012763
2.16541,-0.335997,-0.236042
2.08019,-0.534876,0.025005
2.17899,-0.22979,0.0637664
2.12716,-0.437417,0.0379066
2.19133,-0.231091,-0.141218
2.08841,-0.53699,-0.12558
2.14663,-0.333083,0.126511
2.11398,-0.434706,0.0879277
2.16373,-0.335737,-0.101996
2.13032,-0.330552,0.2647
2.10481,-0.432821,0.175422
2.15759,-0.334784,-0.0508067
2.19065,-0.239141,-0.0384651
2.14903,-0.341527,0
2.08982,-0.545527,-0.0251447
2.16642,-0.344291,-0.341275
2.12827,-0.445782,-0.27678
2.17902,-0.237872,0.0127397
2.16024,-0.343308,-0.235614
2.09633,-0.547226,-0.202246
2.15635,-0.34269,0.0508067
2.07821,-0.542496,0.025005
2.15562,-0.342574,-0.152627
2.18211,-0.238209,0.0638828
2.11771,-0.443571,0.037767
2.1865,-0.238688,-0.140962
2.08643,-0.544641,-0.12558
2.14145,-0.340322,0.126278
2.11237,-0.442451,0.0879277
2.16249,-0.343665,-0.101996
2.13301,-0.338981,0.265188
2.10711,-0.44135,0.175747
2.18122,-0.238112,-0.0893932
2.15635,-0.34269,-0.0508067
2.17796,-0.244683,-0.0382557
2.14795,-0.348276,0
2.09197,-0.553112,-0.0251913
2.16533,-0.351095,-0.341275
2.18224,-0.245163,0.012763
2.15526,-0.349462,0.0508067
2.08423,-0.551068,0.0250982
2.15453,-0.349344,-0.152627
2.17737,-0.244617,0.0637664
2.12022,-0.451054,0.0378368
2.18177,-0.24511,-0.140707
2.13643,-0.346409,0.126045
2.11097,-0.449086,0.0879277
2.15351,-0.349178,-0.101624
2.11373,-0.449673,-0.113255
2.13586,-0.346316,0.265675
2.10182,-0.447138,0.175422
2.18046,-0.244963,-0.0893932
2.14737,-0.348182,-0.0506206
2.18107,-0.252744,-0.0383255
2.09002,-0.560411,-0.0251913
2.12139,-0.459048,-0.276275
2.18137,-0.252778,0.012763
2.15399,-0.356977,-0.235185
2.14614,-0.355676,0.0506206
2.07843,-0.557304,0.0250516
2.17254,-0.251755,0.0636501
2.11082,-0.45676,0.0376972
2.18487,-0.253184,-0.140962
2.13127,-0.353212,0.125813
2.10158,-0.454761,0.0876021
2.15228,-0.356693,-0.101624
2.1268,-0.352471,0.2647
2.10024,-0.454472,0.175422
2.17959,-0.252573,-0.0893932
2.14614,-0.355676,-0.0506206
2.18017,-0.260356,-0.0383255
2.08806,-0.567703,-0.0251913
2.15503,-0.364884,-0.340045
2.11977,-0.46645,-0.276275
2.18047,-0.260391,0.012763
2.15273,-0.364494,-0.235185
2.08034,-0.565605,0.0250982
2.14417,-0.363045,-0.152069
2.17164,-0.259337,0.0636501
2.11312,-0.464985,0.037767
2.18001,-0.260336,-0.140707
2.13396,-0.361316,0.126045
2.10388,-0.462953,0.0877649
2.15102,-0.364204,-0.101624
2.12164,-0.35923,0.264213
2.09475,-0.460944,0.175096
2.17473,-0.259706,-0.0892304
2.14883,-0.363833,-0.0507136
2.18318,-0.268834,-0.0383953
2.13624,-0.36976,0
2.07825,-0.573226,-0.0250982
2.17553,-0.267893,0.0127397
2.1553,-0.37306,-0.235614
2.14354,-0.371024,0.0506206
2.07054,-0.571099,0.025005
2.15069,-0.372262,-0.152627
2.16671,-0.266806,0.0635337
2.1114,-0.472727,0.037767
2.17904,-0.268324,-0.140707
2.07487,-0.572295,-0.125348
2.13656,-0.369816,0.126278
2.10217,-0.470661,0.0877649
2.15361,-0.372767,-0.10181
2.12031,-0.367004,0.264213
2.09305,-0.468618,0.175096
2.14748,-0.371706,-0.0507136
2.17032,-0.274945,-0.0381859
2.13099,-0.376519,0
2.07624,-0.580477,-0.0250982
2.11638,-0.481607,-0.276275
2.17458,-0.275485,0.0127397
2.14615,-0.379197,-0.234757
2.07238,-0.5794,0.0250516
2.14545,-0.379073,-0.152348
2.11083,-0.480345,-0.176724
2.16577,-0.274368,0.0635337
2.10973,-0.480094,0.037767
2.17413,-0.275427,-0.140451
2.13132,-0.376577,0.126045
2.10051,-0.477996,0.0877649
2.14836,-0.379587,-0.101624
2.11902,-0.374403,0.264213
2.0914,-0.475922,0.175096
2.16885,-0.274759,-0.0890675
2.14223,-0.378504,-0.0506206
2.17336,-0.282656,-0.0382557
2.12973,-0.383583,0
2.0743,-0.587358,-0.0250982
2.16969,-0.282179,0.0127165
2.14096,-0.385606,0.0506206
2.0743,-0.587358,0.0250982
2.14418,-0.386185,-0.152348
2.16484,-0.281548,0.0635337
2.10423,-0.486188,0.0376972
2.1732,-0.282635,-0.140451
2.09892,-0.484959,0.0877649
2.13922,-0.385292,-0.101252
2.11777,-0.381428,0.264213
2.08981,-0.482854,0.175096
2.17189,-0.282465,-0.0892304
2.14096,-0.385606,-0.0506206
2.17633,-0.290771,-0.0383255
2.12838,-0.391015,0
2.07608,-0.595699,-0.0251447
2.10919,-0.495095,-0.27577
2.16869,-0.289751,0.0127165
2.13961,-0.393078,-0.234328
2.13567,-0.392354,0.0505275
2.06839,-0.593492,0.0250516
2.13889,-0.392946,-0.152069
2.16781,-0.289633,0.0636501
2.09863,-0.492616,0.0376274
2.1722,-0.29022,-0.140451
2.12478,-0.390354,0.125813
2.08943,-0.490456,0.0874392
2.13394,-0.392035,-0.101066
2.11252,-0.3881,0.263725
2.09587,-0.491968,0.175747
2.17089,-0.290045,-0.0892304
2.1396,-0.393077,-0.0506206
2.17134,-0.297822,-0.0382557
2.07399,-0.602942,-0.0251447
2.16767,-0.297319,0.0127165
2.10496,-0.501861,-0.012577
2.14213,-0.401276,-0.234757
2.13822,-0.400543,0.0506206
2.16283,-0.296655,0.0635337
2.10468,-0.501793,0.037767
2.17118,-0.2978,-0.140451
2.12733,-0.398503,0.126045
2.0877,-0.497746,0.0874392
2.13255,-0.399482,-0.101066
2.11895,-0.396934,0.2647
2.16591,-0.297078,-0.0890675
2.13822,-0.400543,-0.0506206
2.17023,-0.305779,-0.0382557
2.1216,-0.405484,0
2.06409,-0.608278,-0.0250516
2.1626,-0.304704,0.0126932
2.10311,-0.509573,-0.012577
2.14065,-0.409125,-0.234757
2.06025,-0.607147,0.025005
2.13211,-0.407493,-0.15179
2.15776,-0.304022,0.0634174
2.09894,-0.508562,0.0376972
2.16216,-0.304642,-0.139939
2.12586,-0.406298,0.126045
2.08587,-0.505395,0.0874392
2.135,-0.408045,-0.101252
2.10968,-0.403207,0.263725
2.16085,-0.304456,-0.0889047
2.13674,-0.408377,-0.0506206
2.16129,-0.311831,-0.0381161
2.12417,-0.413281,0
2.06973,-0.617406,-0.0251447
2.15762,-0.311302,0.01267
2.09364,-0.514635,-0.0125305
2.13928,-0.416221,-0.234757
2.12752,-0.413933,0.0504345
2.05823,-0.613976,0.025005
2.15674,-0.311176,0.0634174
2.09336,-0.514565,0.0376274
2.16114,-0.31181,-0.139939
2.06254,-0.615262,-0.125348
2.11666,-0.41182,0.12558
2.08806,-0.513263,0.0876021
2.13756,-0.415886,-0.101438
2.11223,-0.410959,0.264213
2.15983,-0.31162,-0.0889047
2.13145,-0.414697,-0.0505275
2.15617,-0.319165,-0.0380462
2.06362,-0.623831,-0.0250982
2.15647,-0.319208,0.01267
2.09174,-0.522305,-0.0125305
2.12994,-0.422512,-0.2339
2.12991,-0.422506,0.0505275
2.05979,-0.622673,0.0250516
2.1253,-0.421591,-0.151511
2.15559,-0.319079,0.0634174
2.09922,-0.524172,0.037767
2.15999,-0.319729,-0.139939
2.11122,-0.418798,0.125348
2.08616,-0.520913,0.0876021
2.1321,-0.42294,-0.101252
2.15472,-0.318949,-0.0887419
2.12599,-0.421728,-0.0504345
2.15505,-0.32669,-0.0380462
2.06908,-0.633372,-0.0251913
2.15929,-0.327333,0.0126932
2.09378,-0.530586,-0.0125537
2.12845,-0.429944,-0.2339
2.12058,-0.428355,0.0503414
2.05378,-0.628689,0.025005
2.15842,-0.3272,0.0635337
2.08962,-0.529532,0.0376274
2.11366,-0.426956,0.12558
2.08433,-0.528192,0.0876021
2.12842,-0.429939,-0.0505275
2.1579,-0.334447,-0.0381161
2.05933,-0.637863,-0.0250982
2.15424,-0.33388,0.01267
2.13091,-0.4378,-0.234328
2.11915,-0.435385,0.0503414
2.14547,-0.332519,0.0631846
2.08785,-0.536458,0.0376274
2.10832,-0.433159,0.125348
2.0787,-0.534106,0.0874392
2.12526,-0.436639,-0.101066
2.12307,-0.43619,-0.0504345
2.15277,-0.341351,-0.0380462
2.04946,-0.642654,-0.025005
2.15306,-0.341397,0.01267
2.09012,-0.544825,-0.0125537
2.12547,-0.444422,-0.2339
2.11762,-0.442779,0.0503414
2.14429,-0.340006,0.0631846
2.0821,-0.542734,0.0375576
2.15264,-0.341329,-0.139683
2.1107,-0.441333,0.12558
2.07682,-0.541359,0.0874392
2.11981,-0.443237,-0.100879
2.12153,-0.443598,-0.0504345
2.14768,-0.347848,-0.0379764
2.05494,-0.651865,-0.0250982
2.14797,-0.347896,0.0126467
2.0883,-0.551754,-0.0125537
2.12399,-0.451468,-0.2339
2.11614,-0.449799,0.0503414
2.13921,-0.346476,0.0630683
2.08029,-0.549636,0.0375576
2.10532,-0.447499,0.125348
2.07888,-0.549264,0.0876021
2.11833,-0.450264,-0.100879
2.14623,-0.347613,-0.0885791
2.12396,-0.451462,-0.0505275
2.14645,-0.355343,-0.0379764
2.05265,-0.659034,-0.0250982
2.14674,-0.355391,0.0126467
2.0825,-0.558004,-0.0125305
2.11456,-0.457183,0.0503414
2.11388,-0.457036,-0.151232
2.14193,-0.354594,0.0631846
2.07449,-0.555859,0.0374878
2.09984,-0.454002,0.125115
2.07309,-0.555482,0.0874392
2.11284,-0.456812,-0.100693
2.145,-0.355103,-0.0885791
2.11065,-0.456338,-0.0502484
2.14119,-0.36254,-0.0379066
2.05022,-0.666553,-0.0250982
2.14937,-0.363925,0.01267
2.07658,-0.564584,-0.0125072
2.11287,-0.46493,0.0503414
2.14061,-0.362442,0.0631846
2.0763,-0.564508,0.0375576
2.09816,-0.461695,0.125115
2.11677,-0.46579,-0.0504345
2.14386,-0.370694,-0.0379764
2.04028,-0.671206,-0.025005
2.14415,-0.370744,0.0126467
2.07845,-0.572892,-0.0125305
2.10733,-0.47143,0.0502484
2.13146,-0.368549,0.0629519
2.07432,-0.571752,0.0375576
2.14373,-0.370671,-0.139427
2.06521,-0.569241,0.0872764
2.10951,-0.471919,-0.100693
2.11513,-0.473176,-0.0504345
2.14255,-0.378175,-0.0379764
2.14284,-0.378226,0.0126467
2.07259,-0.579068,-0.0125072
2.10567,-0.478783,0.0502484
2.13016,-0.375987,0.0629519
2.06461,-0.576837,0.037418
2.09489,-0.476332,0.125115
2.10957,-0.479669,-0.0503414
2.13341,-0.383861,-0.0378368
2.1337,-0.383913,0.0126002
2.07066,-0.585937,-0.0125072
2.10017,-0.484863,0.0501553
2.13283,-0.383757,0.0630683
2.06653,-0.584769,0.0374878
2.09719,-0.484174,0.125348
2.10236,-0.485368,-0.100507
2.11186,-0.487562,-0.0504345
2.12806,-0.390955,-0.037767
2.09506,-0.491777,0
2.13228,-0.391731,0.0126002
2.06465,-0.592419,-0.012484
2.10228,-0.493471,0.0502484
2.13141,-0.391572,0.0630683
2.06437,-0.592339,0.0374878
2.09151,-0.490945,0.125115
2.10057,-0.49307,-0.100507
2.09838,-0.492558,-0.0501553
2.12675,-0.39801,-0.037767
2.13883,-0.400271,0.0126467
2.06652,-0.600379,-0.0125072
2.09285,-0.498587,0.0500623
2.1301,-0.398638,0.0630683
2.0624,-0.599182,0.0374878
2.08987,-0.497878,0.125115
2.09892,-0.500033,-0.100507
2.12924,-0.398476,-0.0882534
2.10452,-0.501367,-0.0503414
2.12927,-0.406181,-0.0378368
2.12956,-0.406236,0.0126002
2.06441,-0.607589,-0.0125072
2.09887,-0.50777,0.0502484
2.12084,-0.404572,0.0628356
2.06413,-0.607506,0.0375576
2.13308,-0.406907,-0.139172
2.08812,-0.50517,0.125115
2.09716,-0.507357,-0.100507
2.09887,-0.50777,-0.0502484
2.12784,-0.413611,-0.0378368
2.12421,-0.412904,0.012577
2.05844,-0.613648,-0.012484
2.0932,-0.514139,0.0501553
2.11549,-0.41121,0.0627192
2.05816,-0.613565,0.0374878
2.12773,-0.413589,-0.138916
2.08635,-0.512456,0.125115
2.09538,-0.514674,-0.100507
2.0932,-0.514139,-0.0501553
2.12246,-0.420259,-0.037767
2.12275,-0.420316,0.012577
2.05629,-0.62083,-0.012484
2.09139,-0.521443,0.0501553
2.11797,-0.419369,0.0628356
2.05601,-0.620746,0.0374878
2.08454,-0.519735,0.125115
2.09527,-0.52241,-0.0502484
2.11706,-0.426875,-0.0376972
2.12127,-0.427723,0.012577
2.05028,-0.626834,-0.0124607
2.08956,-0.52874,0.0501553
2.11257,-0.425969,0.0627192
2.05001,-0.62675,0.037418
2.12479,-0.428433,-0.138916
2.11955,-0.427376,-0.0880906
2.08956,-0.52874,-0.0501553
2.11977,-0.435125,0.012577
2.07995,-0.534041,0.0499692
2.1189,-0.434948,0.0629519
2.077,-0.533282,0.124883
2.09157,-0.537025,-0.0502484
2.12202,-0.442539,-0.0378368
2.11839,-0.441783,0.012577
2.0499,-0.641613,-0.012484
2.08601,-0.542586,0.0501553
2.11361,-0.440787,0.0628356
2.11799,-0.4417,-0.13866
2.08601,-0.542586,-0.0501553
2.12437,-0.450774,-0.0379066
2.11292,-0.448344,0.0125537
2.05146,-0.649973,-0.0125072
2.0841,-0.549865,0.0501553
2.10815,-0.447332,0.0627192
2.11644,-0.449091,-0.13866
2.085,-0.550102,0.12558
2.09183,-0.551905,-0.0503414
2.11106,-0.455655,-0.0376972
2.11525,-0.456561,0.012577
2.04156,-0.654687,-0.0124607
2.08217,-0.557136,0.0501553
2.10658,-0.454688,0.0627192
2.08047,-0.556683,-0.100321
2.08603,-0.55817,-0.0502484
2.10966,-0.463452,0.0125537
2.07239,-0.562668,0.0499692
2.08716,-0.566677,-0.151232
2.1049,-0.462406,0.0627192
2.07625,-0.563716,-0.0500623
2.10392,-0.469511,-0.0376274
2.10811,-0.470446,0.0125537
2.07052,-0.569537,0.0499692
2.10725,-0.470254,0.0628356
2.07823,-0.571659,-0.0501553
2.10227,-0.476852,-0.0376274
2.10645,-0.477801,0.0125537
2.06466,-0.575687,0.0498762
2.1017,-0.476723,0.0627192
2.08007,-0.579984,-0.0502484
2.10449,-0.485086,-0.0376972
2.09698,-0.483355,0.0125072
2.09613,-0.483158,0.0626028
2.07803,-0.587241,-0.0502484
2.09528,-0.490671,0.0125072
2.06444,-0.591188,0.0499692
2.09053,-0.48956,0.0624865
2.06828,-0.592289,-0.0500623
2.10134,-0.499834,0.0125537
2.05852,-0.597277,0.0498762
2.09659,-0.498705,0.0627192
2.0662,-0.599505,-0.0500623
2.09541,-0.506158,-0.0376274
2.09958,-0.507165,0.0125537
2.05642,-0.604458,0.0498762
2.09484,-0.506021,0.0627192
2.09399,-0.505815,-0.0877649
2.0641,-0.606714,-0.0500623
2.09751,-0.514422,-0.0376972
2.10168,-0.515444,0.012577
2.06197,-0.613915,0.0500623
2.09306,-0.51333,0.0627192
2.0658,-0.615056,-0.0501553
2.09191,-0.520409,-0.0376274
2.09608,-0.521445,0.0125537
2.06375,-0.621904,0.0501553
2.08358,-0.518337,0.0624865
2.06758,-0.623057,-0.0502484
2.0862,-0.526729,-0.0375576
2.09037,-0.527779,0.0125305
2.08564,-0.526586,0.0626028
2.05774,-0.627936,-0.0500623
2.08445,-0.534808,0.0125072
2.07973,-0.533597,0.0624865
2.08248,-0.54128,-0.0375576
2.08276,-0.541354,0.0125072
2.07804,-0.540128,0.0624865
2.04949,-0.641093,-0.0499692
2.08057,-0.548546,-0.0375576
2.08472,-0.54964,0.0125305
2.07614,-0.547378,0.0624865
2.05105,-0.64945,-0.0500623
2.07865,-0.555805,-0.0375576
2.07506,-0.554847,0.012484
2.07036,-0.553589,0.0623701
2.04877,-0.656606,-0.0500623
2.0766,-0.56342,-0.0375576
2.06832,-0.561174,0.0623701
2.04255,-0.662876,-0.0499692
2.06644,-0.568029,0.0623701
2.07299,-0.57762,0.0125072
2.0683,-0.576312,0.0624865
2.06684,-0.583687,-0.0374878
2.07096,-0.584853,0.0125072
2.06506,-0.590978,0.012484
2.06299,-0.598183,0.012484
2.05705,-0.604253,0.0124607
2.05876,-0.61257,0.012484
2.05661,-0.619753,0.012484
2.05416,-0.626843,-0.0374878
2.05444,-0.626928,0.012484
2.04852,-0.632557,0.0124607
