1.99261,-0.00730254,-0.116045
1.99077,-0.0072958,-0.0695198
1.98858,-0.01423,-0.115813
2.00273,-0.0143312,-0.0699386
1.99251,-0.0212144,-0.116045
1.98843,-0.0284595,-0.115813
1.98832,-0.0350538,-0.115813
1.98819,-0.0419928,-0.115813
1.98404,-0.0488348,-0.11558
1.99584,-0.0557489,-0.116278
1.98688,-0.062441,-0.0231425
1.98638,-0.0624251,-0.185516
1.98765,-0.062465,-0.115813
1.98342,-0.0696092,-0.11558
1.97794,-0.0759844,-0.184773
1.98716,-0.076339,-0.115813
1.97766,-0.0828878,-0.184773
1.98689,-0.0832746,-0.115813
1.97736,-0.0897912,-0.184773
1.98658,-0.0902101,-0.115813
1.98549,-0.0971072,-0.0231425
1.98499,-0.0970825,-0.185516
1.98227,-0.0969495,-0.11558
1.98115,-0.103828,-0.0230959
1.98989,-0.104286,-0.116045
1.98477,-0.110965,-0.0231425
1.98028,-0.110715,-0.185145
1.98952,-0.111231,-0.116045
1.98037,-0.117655,-0.0230959
1.97989,-0.117626,-0.185145
1.98912,-0.118174,-0.116045
1.97995,-0.124568,-0.0230959
1.98741,-0.125037,-0.185888
1.98793,-0.12507,0.023189
1.99268,-0.125368,-0.116278
1.98349,-0.131744,-0.0231425
1.98696,-0.131974,-0.185888
1.99148,-0.132274,0.0232356
1.98111,-0.0345806,-0.161753
1.98027,-0.13153,-0.11558
1.98701,-0.138945,-0.023189
1.98252,-0.138631,-0.185516
1.99499,-0.139503,0.0232822
1.98895,-0.0416623,-0.162403
1.98777,-0.138998,-0.116045
1.98484,-0.0415763,-0.104044
1.98599,-0.145842,-0.185888
1.98253,-0.145588,0.0231425
1.98879,-0.0486049,-0.162403
1.98727,-0.145936,-0.116045
1.97802,-0.1522,-0.0230959
1.9815,-0.152468,-0.185516
1.98998,-0.153121,0.0232356
1.98462,-0.0554355,-0.162078
1.99073,-0.153178,-0.116278
1.97704,-0.158375,-0.185145
1.9855,-0.159052,0.023189
1.98045,-0.0615463,-0.161753
1.98228,-0.158794,-0.115813
1.98092,-0.165995,-0.0231425
1.99288,-0.166997,0.0232822
1.98818,-0.0690814,-0.162403
1.98566,-0.166392,-0.116045
1.98408,-0.0689388,-0.104044
1.98833,-0.173257,-0.0232356
1.97192,-0.171827,-0.184773
1.98833,-0.173257,0.0232356
1.98396,-0.0755225,-0.162078
1.9851,-0.172976,-0.116045
1.9917,-0.180558,-0.0232822
1.97528,-0.179069,-0.185145
1.97975,-0.179474,0.0231425
1.98368,-0.0824473,-0.162078
1.98449,-0.179904,-0.116045
1.99105,-0.187509,-0.0232822
1.99794,-0.090027,-0.0116238
1.98257,-0.18671,-0.185888
1.98309,-0.186759,0.023189
1.9794,-0.0891917,-0.161753
1.98243,-0.19368,-0.023189
1.99362,-0.0968066,-0.0116006
1.97794,-0.193242,-0.185516
1.99039,-0.194458,0.0232822
1.98306,-0.0962939,-0.162078
1.98318,-0.193754,-0.116045
1.97895,-0.0960943,-0.103835
1.9897,-0.201404,-0.0232822
1.99327,-0.103765,-0.0116006
1.97726,-0.200145,-0.185516
1.98572,-0.201002,0.0232356
1.98271,-0.103215,-0.162078
1.98249,-0.200675,-0.116045
1.9786,-0.103002,-0.103835
1.98898,-0.208348,-0.0232822
1.98051,-0.207461,-0.185888
1.98103,-0.207515,0.023189
1.98234,-0.110136,-0.162078
1.99662,-0.110929,0.0349048
1.98178,-0.207594,-0.116045
1.98222,-0.110129,-0.104044
1.9882,-0.215637,-0.0232822
1.98848,-0.117789,-0.0115773
1.97577,-0.214289,-0.185516
1.9882,-0.215637,0.0232822
1.98192,-0.117401,-0.162078
1.98101,-0.214856,-0.116045
1.9835,-0.221785,-0.0232356
1.97505,-0.220839,-0.185516
1.9835,-0.221785,0.0232356
1.98152,-0.123972,-0.162078
1.98028,-0.221424,-0.116045
1.97741,-0.123715,-0.103835
1.98268,-0.229053,-0.0232356
1.97173,-0.130617,-0.251526
1.9916,-0.131933,-0.0116006
1.97819,-0.228534,-0.185888
1.98268,-0.229053,0.0232356
1.97708,-0.130971,-0.161753
1.98734,-0.131651,0.0347652
1.97695,-0.130962,-0.103835
1.98584,-0.236445,-0.0232822
1.97127,-0.137499,-0.251526
1.98714,-0.138606,-0.0115773
1.98133,-0.235909,-0.18626
1.98981,-0.236918,0.0233287
1.98058,-0.138149,-0.162078
1.99485,-0.139144,0.0349048
1.98261,-0.236061,-0.116278
1.98046,-0.13814,-0.104044
1.98906,-0.243168,-0.0233287
1.97083,-0.143691,-0.251526
1.99467,-0.14543,-0.0116238
1.97267,-0.241165,-0.185516
1.98906,-0.243168,0.0233287
1.98412,-0.14466,-0.162403
1.99041,-0.145119,0.034835
1.98186,-0.242289,-0.116278
1.984,-0.144652,-0.104253
1.98819,-0.25011,-0.0233287
1.97031,-0.150569,-0.251526
1.99415,-0.152391,-0.0116238
1.97182,-0.24805,-0.185516
1.98026,-0.249111,0.0232356
1.9836,-0.151585,-0.162403
1.99388,-0.152371,0.0349048
1.98497,-0.249704,-0.116511
1.98349,-0.151576,-0.104253
1.99071,-0.0545625,-0.0463402
1.97938,-0.256022,-0.0232356
1.97373,-0.157762,-0.252031
1.99361,-0.159351,-0.0116238
1.97094,-0.254931,-0.185516
1.97938,-0.256022,0.0232356
1.97114,-0.157555,-0.161427
1.98935,-0.159011,0.034835
1.98408,-0.256631,-0.116511
1.98295,-0.158499,-0.104253
1.99051,-0.0615111,-0.0463402
1.97838,-0.263621,-0.0232356
1.97311,-0.16534,-0.252031
1.96995,-0.262497,-0.185516
1.98234,-0.264149,0.0232822
1.97846,-0.165788,-0.162078
1.99271,-0.166982,0.0349048
1.98308,-0.264247,-0.116511
1.98232,-0.166112,-0.104253
1.99026,-0.0691536,-0.0463402
1.9757,-0.171809,-0.0577156
1.98547,-0.270916,-0.0233287
1.97653,-0.171881,-0.252536
1.98049,-0.172226,-0.0115541
1.98707,-0.0752936,-0.214194
1.97701,-0.269762,-0.18626
1.9815,-0.270375,0.0232822
1.97396,-0.171658,-0.161753
1.99218,-0.173242,0.0349048
1.97433,-0.269396,-0.116045
1.98577,-0.172685,-0.104463
1.98604,-0.0752544,-0.0462471
1.98451,-0.277845,-0.0233287
1.97592,-0.17878,-0.252536
1.98785,-0.179859,-0.0116006
1.97605,-0.276661,-0.18626
1.98847,-0.2784,0.0233753
1.96938,-0.178188,-0.161427
1.99554,-0.180555,0.0349746
1.97733,-0.27684,-0.116278
1.98516,-0.179615,-0.104463
1.98576,-0.0821865,-0.0462471
1.98353,-0.284771,-0.0233287
1.97528,-0.185676,-0.252536
1.98721,-0.186797,-0.0116006
1.97113,-0.282991,-0.185888
1.97957,-0.284202,0.0232822
1.97668,-0.185807,-0.162078
1.98694,-0.186771,0.034835
1.97635,-0.283741,-0.116278
1.97656,-0.185796,-0.104044
1.98546,-0.0891176,-0.0462471
1.97461,-0.290528,-0.0232356
1.97462,-0.19257,-0.252536
1.98654,-0.193732,-0.0116006
1.97407,-0.29045,-0.18626
1.97856,-0.29111,0.0232822
1.97602,-0.192706,-0.162078
1.99423,-0.194482,0.0349746
1.9793,-0.291219,-0.116511
1.97988,-0.193082,-0.104253
1.98514,-0.0960477,-0.0462471
1.98149,-0.298611,-0.0233287
1.96604,-0.198664,-0.251526
1.98983,-0.201067,-0.0116238
1.97698,-0.297932,-0.186632
1.98149,-0.298611,0.0233287
1.97534,-0.199602,-0.162078
1.98558,-0.200638,0.034835
1.97827,-0.298126,-0.116511
1.98027,-0.2001,0.0810889
1.97919,-0.102686,-0.0923178
1.97919,-0.199992,-0.104253
1.98879,-0.103184,-0.0463402
1.97643,-0.305261,-0.0232822
1.9732,-0.206695,-0.252536
1.98113,-0.207526,-0.0115773
1.97588,-0.305176,-0.186632
1.98038,-0.305872,0.0233287
1.97063,-0.206426,-0.161753
1.98881,-0.208331,0.0349048
1.97322,-0.304765,-0.116278
1.97952,-0.207357,0.0810889
1.97845,-0.207245,-0.104253
1.98041,-0.110029,-0.0461541
1.98331,-0.313061,-0.0233753
1.9725,-0.213237,-0.252536
1.98838,-0.214954,-0.0116238
1.96699,-0.310485,-0.185888
1.97786,-0.213816,-0.162403
1.98811,-0.214925,0.0349048
1.97614,-0.31193,-0.116511
1.97775,-0.213804,-0.104253
1.98403,-0.11683,-0.0462471
1.97825,-0.319344,-0.0233287
1.97174,-0.220121,-0.252536
1.98762,-0.221893,-0.0116238
1.97825,-0.319344,0.0233287
1.98106,-0.221161,-0.162729
1.98337,-0.22142,0.034835
1.96905,-0.21982,-0.103835
1.98361,-0.123755,-0.0462471
1.96923,-0.324945,-0.0232356
1.97096,-0.227002,-0.252536
1.98683,-0.22883,-0.0116238
1.9687,-0.324858,-0.18626
1.97713,-0.326248,0.0233287
1.97236,-0.227163,-0.162078
1.98656,-0.228799,0.0349048
1.97224,-0.227149,-0.104044
1.98715,-0.130941,-0.0463402
1.98729,-0.0402398,-0.0346954
1.97209,-0.332138,-0.0232822
1.96232,-0.232603,-0.251526
1.99003,-0.235888,-0.0116471
1.97154,-0.332046,-0.186632
1.97998,-0.333467,0.0233753
1.97555,-0.234172,-0.162403
1.98182,-0.234915,0.034835
1.97651,-0.234285,0.0810889
1.97544,-0.234158,-0.104253
1.98671,-0.13753,-0.0463402
1.97486,-0.339698,-0.0233287
1.96543,-0.239932,-0.252031
1.98523,-0.242349,-0.0116238
1.9743,-0.339601,-0.187003
1.9902,-0.144754,0.0464332
1.98274,-0.341054,0.0234219
1.97472,-0.241066,-0.162403
1.98496,-0.242316,0.0349048
1.97559,-0.339823,-0.116743
1.97568,-0.241183,0.0810889
1.97461,-0.241053,-0.104253
1.98621,-0.144464,-0.0463402
1.97366,-0.34659,-0.0233287
1.96852,-0.247286,-0.252536
1.98834,-0.249776,-0.0116471
1.96525,-0.345113,-0.18626
1.98171,-0.151093,0.0462471
1.97782,-0.248455,-0.162729
1.9841,-0.249243,0.0349048
1.97772,-0.248442,-0.104463
1.98171,-0.151093,-0.0462471
1.98032,-0.354888,-0.0234219
1.96765,-0.254156,-0.252536
1.98349,-0.256202,-0.0116238
1.98516,-0.158327,0.0463402
1.97244,-0.353477,0.0233287
1.97695,-0.255357,-0.162729
1.98719,-0.25668,0.0349746
1.9771,-0.354312,-0.116976
1.98188,-0.255994,0.0814146
1.97288,-0.254832,-0.104253
1.98516,-0.158327,-0.0463402
1.97513,-0.361079,-0.0233753
1.97068,-0.261545,-0.253042
1.98258,-0.263124,-0.0116238
1.99655,-0.166251,0.0466193
1.97513,-0.361079,0.0233753
1.97209,-0.261732,-0.162403
1.99024,-0.264141,0.0350444
1.97585,-0.361211,-0.116976
1.97701,-0.262385,0.0812517
1.97198,-0.261717,-0.104253
1.98858,-0.165588,-0.0464332
1.97386,-0.367971,-0.0233753
1.96582,-0.267886,-0.252536
1.99197,-0.172874,0.0465263
1.96993,-0.367238,0.0233287
1.97116,-0.268614,-0.162403
1.98535,-0.270547,0.0349746
1.97608,-0.269284,0.0812517
1.97105,-0.268599,-0.104253
1.98799,-0.172528,-0.0464332
1.96801,-0.275185,-0.057832
1.97649,-0.375606,-0.0234219
1.96095,-0.274197,-0.252031
1.9807,-0.276959,-0.0116238
1.97198,-0.374749,-0.187375
1.99534,-0.180186,0.0466193
1.98042,-0.376353,0.0234684
1.97416,-0.276045,-0.162729
1.98439,-0.277475,0.0349746
1.97513,-0.27618,0.0812517
1.9701,-0.275478,-0.104253
1.97543,-0.178387,-0.0461541
1.96704,-0.282053,-0.057832
1.95684,-0.28059,-0.395372
1.97517,-0.382503,-0.0234219
1.96783,-0.282167,-0.253042
1.98368,-0.284439,-0.0116471
1.96675,-0.380873,-0.187003
1.98673,-0.186402,0.0464332
1.97124,-0.381742,0.0233753
1.97713,-0.2835,-0.163054
1.98737,-0.284968,0.0350444
1.97196,-0.381882,-0.116976
1.97415,-0.283073,0.0812517
1.97704,-0.283487,-0.104672
1.98673,-0.186402,-0.0464332
1.95196,-0.286849,-0.394588
1.97382,-0.389395,-0.0234219
1.97076,-0.289611,-0.253547
1.97871,-0.29078,-0.0116238
1.96932,-0.388507,-0.187375
1.99005,-0.193724,0.0465263
1.97774,-0.390169,0.0234684
1.97613,-0.2904,-0.163054
1.97315,-0.289963,0.0812517
1.96813,-0.289225,-0.104253
1.98209,-0.192949,-0.0463402
1.96892,-0.296717,-0.0579483
1.96846,-0.395838,-0.0233753
1.96969,-0.296832,-0.253547
1.98159,-0.298626,-0.0116471
1.96398,-0.394937,-0.187003
1.99331,-0.201418,0.0466193
1.97238,-0.396627,0.0234219
1.979,-0.298235,-0.16338
1.97309,-0.39677,-0.117208
1.98253,-0.200329,0.116045
1.97998,-0.298384,0.0815774
1.97181,-0.199246,-0.0923178
1.97101,-0.297032,-0.104463
1.98535,-0.200614,-0.0464332
1.96398,-0.302636,-0.057832
1.97105,-0.403165,-0.0234219
1.96085,-0.302154,-0.252536
1.98454,-0.305805,-0.0116703
1.96656,-0.402246,-0.187375
1.99263,-0.208027,0.0466193
1.97889,-0.404768,0.023515
1.97406,-0.304189,-0.163054
1.97637,-0.304545,0.0349048
1.97177,-0.403311,-0.117208
1.98582,-0.207317,0.116278
1.97503,-0.304339,0.0814146
1.97114,-0.205784,-0.0923178
1.97001,-0.303566,-0.104463
1.94885,-0.307273,-0.394588
1.96572,-0.409228,-0.0233753
1.96762,-0.310233,-0.253547
1.97161,-0.310862,-0.0116006
1.99189,-0.214982,0.0466193
1.96774,-0.212375,-0.138397
1.97298,-0.311078,-0.163054
1.98715,-0.313311,0.0351142
1.96644,-0.409377,-0.116976
1.98509,-0.214248,0.116278
1.97396,-0.311232,0.0814146
1.97041,-0.212663,-0.0923178
1.96894,-0.310441,-0.104463
1.97895,-0.116185,-0.0807633
1.97996,-0.213694,-0.0463402
1.94777,-0.314074,-0.394588
1.9721,-0.417745,-0.0234684
1.96406,-0.218917,-0.307455
1.96653,-0.317099,-0.253547
1.98236,-0.319652,-0.0116703
1.9644,-0.218954,-0.212909
1.98318,-0.221047,0.0464332
1.96819,-0.416916,0.0234219
1.96795,-0.317328,-0.162729
1.98604,-0.320246,0.0351142
1.9689,-0.417066,-0.117208
1.98433,-0.221175,0.116278
1.97286,-0.31812,0.0814146
1.97573,-0.318584,-0.104881
1.98715,-0.22149,-0.0465263
1.94672,-0.320532,-0.394588
1.96546,-0.323619,-0.253547
1.96366,-0.225467,-0.212909
1.9662,-0.423313,-0.187747
1.99038,-0.228535,0.0466193
1.97071,-0.424282,0.0234684
1.97475,-0.325148,-0.16338
1.98497,-0.32683,0.0351142
1.97141,-0.424434,-0.117441
1.98755,-0.22821,0.116511
1.97179,-0.324661,0.0814146
1.96678,-0.323836,-0.104463
1.9821,-0.129914,-0.0809261
1.98641,-0.228079,-0.0465263
1.9614,-0.429448,-0.0233753
1.96824,-0.331136,-0.254052
1.96471,-0.430173,-0.187747
1.98957,-0.235481,0.0466193
1.97703,-0.43287,0.0235616
1.97361,-0.332039,-0.16338
1.96992,-0.431313,-0.117441
1.98674,-0.235147,0.116511
1.97459,-0.332205,0.0815774
1.97352,-0.332024,-0.104881
1.98163,-0.234541,-0.0464332
1.9624,-0.337201,-0.0579483
1.96379,-0.437161,-0.0234219
1.96316,-0.337332,-0.253547
1.98291,-0.340725,-0.0116936
1.96204,-0.239171,-0.212909
1.96709,-0.437894,-0.188119
1.99271,-0.242909,0.0467124
1.9716,-0.438899,0.023515
1.96851,-0.338251,-0.163054
1.9787,-0.340002,0.0350444
1.98195,-0.241597,0.116278
1.97342,-0.339095,0.0815774
1.96841,-0.338235,-0.104672
1.98477,-0.241941,-0.0465263
1.97006,-0.445779,-0.023515
1.96588,-0.344868,-0.254052
1.9817,-0.347645,-0.0116936
1.96555,-0.444758,-0.188119
1.99185,-0.249863,0.0467124
1.97006,-0.445779,0.023515
1.97124,-0.345809,-0.16338
1.98109,-0.248514,0.116278
1.97616,-0.346672,0.0817402
1.9704,-0.247173,-0.0925039
1.97509,-0.346484,-0.105091
1.97664,-0.15036,-0.0807633
1.97597,-0.247872,-0.0463402
1.94591,-0.348372,-0.395372
1.97239,-0.453549,-0.0235616
1.96466,-0.351728,-0.254052
1.97654,-0.353855,-0.0116703
1.96033,-0.252862,-0.212909
1.96398,-0.451616,-0.188119
1.987,-0.256303,0.0466193
1.96459,-0.451756,0.0234684
1.97395,-0.353391,-0.163705
1.98415,-0.355217,0.0351841
1.96919,-0.452813,-0.117673
1.98021,-0.255428,0.116278
1.96707,-0.35216,0.0814146
1.96993,-0.352673,-0.104881
1.97611,-0.157258,-0.0807633
1.97906,-0.25528,-0.0464332
1.97079,-0.460431,-0.0235616
1.96342,-0.358584,-0.254052
1.97529,-0.360753,-0.0116703
1.9624,-0.458469,-0.188119
1.98609,-0.263237,0.0466193
1.963,-0.458611,0.0234684
1.9727,-0.360279,-0.163705
1.98289,-0.362141,0.0351841
1.9637,-0.458775,-0.117441
1.96976,-0.359742,0.0815774
1.96869,-0.359547,-0.104881
1.97953,-0.164486,-0.0809261
1.98212,-0.262712,-0.0465263
1.96528,-0.466384,-0.023515
1.96216,-0.365436,-0.254052
1.96466,-0.466236,-0.188491
1.98516,-0.270168,0.0466193
1.97307,-0.468231,0.0236081
1.96359,-0.365703,-0.163054
1.96849,-0.366615,0.0815774
1.97135,-0.367148,-0.105091
1.9812,-0.269629,-0.0465263
1.96364,-0.473241,-0.023515
1.96087,-0.372283,-0.254052
1.96302,-0.473091,-0.188491
1.98816,-0.277649,0.0467124
1.97142,-0.475116,0.0236081
1.96622,-0.373298,-0.16338
1.98032,-0.375975,0.0351841
1.98138,-0.276702,0.116511
1.97113,-0.37423,0.0817402
1.96613,-0.373282,-0.104881
1.97014,-0.374042,0.163705
1.96586,-0.481044,-0.0235616
1.96345,-0.379879,-0.254557
1.97141,-0.381418,-0.0116703
1.98322,-0.28402,0.0466193
1.96586,-0.481044,0.0235616
1.96882,-0.380917,-0.163705
1.97899,-0.382886,0.0351841
1.95879,-0.479313,-0.117441
1.97645,-0.283051,0.116278
1.96981,-0.381108,0.0817402
1.96579,-0.281524,-0.0925039
1.96874,-0.380902,-0.105091
1.96882,-0.380917,0.163705
1.97372,-0.184834,-0.0807633
1.98322,-0.28402,-0.0466193
1.94338,-0.383038,-0.396157
1.96417,-0.487903,-0.0235616
1.95822,-0.385963,-0.254052
1.97006,-0.388297,-0.0116703
1.95967,-0.486784,-0.188491
1.98618,-0.291522,0.0467124
1.96748,-0.387787,-0.163705
1.97765,-0.389791,0.0351841
1.96486,-0.488073,-0.117906
1.97545,-0.289948,0.116278
1.96846,-0.387982,0.0817402
1.9674,-0.387771,-0.105091
1.97139,-0.388558,0.164031
1.97306,-0.191722,-0.0807633
1.98222,-0.290942,-0.0466193
1.96634,-0.495734,-0.0236081
1.95817,-0.294398,-0.30807
1.96464,-0.394358,-0.255062
1.96182,-0.494595,-0.188862
1.98515,-0.298454,0.0467124
1.97021,-0.496712,0.0236547
1.97002,-0.395437,-0.164031
1.97838,-0.297436,0.116511
1.9671,-0.394851,0.0817402
1.96378,-0.295241,-0.0925039
1.96212,-0.39385,-0.104881
1.97002,-0.395437,0.164031
1.97636,-0.199009,-0.0809261
1.97724,-0.297264,-0.0465263
1.95684,-0.500612,-0.023515
1.96326,-0.401213,-0.255062
1.97726,-0.206074,0.0115541
1.97514,-0.403643,-0.0117168
1.95749,-0.301287,-0.213337
1.96008,-0.50144,-0.188862
1.98014,-0.304773,0.0466193
1.96459,-0.502595,0.0236081
1.96863,-0.402311,-0.164031
1.97488,-0.403588,0.0351841
1.9614,-0.501778,-0.117906
1.97338,-0.303732,0.116278
1.96962,-0.402515,0.0819031
1.96273,-0.302094,-0.0925039
1.96464,-0.401497,-0.105091
1.98014,-0.304773,-0.0466193
1.97228,-0.212517,-0.0346256
1.95726,-0.407111,-0.0581811
1.94311,-0.404167,-0.396941
1.95896,-0.508444,-0.0235616
1.95796,-0.407256,-0.254557
1.97764,-0.411349,-0.0117401
1.95643,-0.308118,-0.213337
1.98301,-0.312305,0.0467124
1.96283,-0.509449,0.0236081
1.96721,-0.409181,-0.164031
1.97346,-0.410479,0.0351841
1.97625,-0.31124,0.116511
1.96821,-0.409388,0.0819031
1.96562,-0.309565,-0.09269
1.96714,-0.409166,-0.1053
1.97492,-0.212801,-0.0809261
1.98301,-0.312305,-0.0467124
1.95597,-0.413258,-0.0581811
1.94566,-0.41108,-0.397726
1.96508,-0.51663,-0.0236547
1.95667,-0.413405,-0.254557
1.96851,-0.415907,-0.0116936
1.98597,-0.319168,0.0468054
1.96895,-0.517647,0.0237012
1.96591,-0.315944,-0.139234
1.96202,-0.414535,-0.163705
1.97607,-0.417504,0.0352539
1.95803,-0.514776,-0.117906
1.97132,-0.316813,0.116278
1.97082,-0.416395,0.0820659
1.96463,-0.315738,-0.09269
1.96975,-0.416169,-0.105509
1.97424,-0.219005,-0.0809261
1.97808,-0.317899,-0.0466193
1.94031,-0.417384,-0.396941
1.96318,-0.523829,-0.0236547
1.95393,-0.321369,-0.30807
1.95902,-0.421408,-0.255062
1.97503,-0.226423,0.0115541
1.97479,-0.424801,-0.0117401
1.95481,-0.521597,-0.188862
1.98084,-0.325796,0.0467124
1.96704,-0.52486,0.0237012
1.96474,-0.323147,-0.139234
1.96048,-0.421723,-0.163705
1.97062,-0.423903,0.0351841
1.96385,-0.524008,-0.118371
1.97803,-0.325333,0.116743
1.96537,-0.422775,0.0819031
1.96346,-0.322937,-0.09269
1.96431,-0.422546,-0.1053
1.96946,-0.225784,-0.0807633
1.9769,-0.325147,-0.0466193
1.95279,-0.328187,-0.30807
1.96141,-0.429092,-0.255567
1.97423,-0.233316,0.0115541
1.9733,-0.431692,-0.0117401
1.98364,-0.333371,0.0468054
1.95748,-0.529634,0.0236081
1.96679,-0.430268,-0.164356
1.9774,-0.23369,0.0579483
1.97694,-0.432488,0.0353237
1.96201,-0.53086,-0.118371
1.96779,-0.430487,0.0820659
1.96232,-0.329789,-0.09269
1.96282,-0.4294,-0.1053
1.96679,-0.430268,0.164356
1.97659,-0.233595,-0.0810889
1.97575,-0.332045,-0.0466193
1.95947,-0.537522,-0.0236547
1.96378,-0.436797,-0.256072
1.98134,-0.241172,0.0116006
1.95591,-0.335736,-0.213766
1.95881,-0.537338,-0.189606
1.98246,-0.340293,0.0468054
1.96719,-0.539638,0.0237478
1.96527,-0.437131,-0.164356
1.97964,-0.339809,0.116976
1.96628,-0.437353,0.0820659
1.96116,-0.336637,-0.09269
1.96521,-0.437116,-0.105509
1.9718,-0.240011,-0.0809261
1.97852,-0.339617,-0.0467124
1.95391,-0.441409,-0.0582974
1.93974,-0.438206,-0.397726
1.96153,-0.545088,-0.0237012
1.95051,-0.341472,-0.30807
1.95458,-0.441558,-0.255062
1.95871,-0.342906,-0.214194
1.98132,-0.346865,0.0468054
1.96539,-0.546158,0.0237478
1.95738,-0.342673,-0.138955
1.96381,-0.443645,-0.164356
1.97576,-0.247144,0.0579483
1.95835,-0.544202,-0.118371
1.97457,-0.345684,0.116743
1.96871,-0.444752,0.0822287
1.96003,-0.343138,-0.09269
1.96375,-0.443631,-0.105509
1.94202,-0.445852,-0.39851
1.95577,-0.550847,-0.0236547
1.94931,-0.348278,-0.30807
1.96076,-0.450154,-0.256072
1.97569,-0.254143,0.0115773
1.96875,-0.451989,-0.0117401
1.95358,-0.349042,-0.213766
1.98404,-0.354483,0.0468985
1.96732,-0.5541,0.0237944
1.96614,-0.45139,-0.164682
1.97488,-0.25404,0.0579483
1.97628,-0.453717,0.0353935
1.96028,-0.552118,-0.118604
1.96942,-0.351872,0.116511
1.97105,-0.452516,0.0823915
1.96669,-0.351383,-0.0930622
1.97408,-0.253937,-0.0810889
1.97616,-0.353076,-0.0467124
1.94045,-0.452628,-0.39851
1.96153,-0.559866,-0.0237478
1.95197,-0.355789,-0.308685
1.95918,-0.456996,-0.256072
1.97082,-0.260514,0.0115541
1.95627,-0.356572,-0.214194
1.957,-0.558573,-0.189978
1.97885,-0.360689,0.0468054
1.95886,-0.357046,-0.139234
1.96067,-0.457344,-0.164356
1.97468,-0.460613,0.0353935
1.96818,-0.358744,0.116511
1.96556,-0.458485,0.0822287
1.9645,-0.458237,-0.105719
1.96922,-0.260302,-0.0809261
1.97492,-0.359972,-0.0467124
1.95946,-0.567052,-0.0237478
1.95749,-0.464173,-0.256072
1.97382,-0.268274,0.0115773
1.96936,-0.466988,-0.0117633
1.95495,-0.36374,-0.214194
1.97752,-0.367939,0.0468054
1.9633,-0.568164,0.0237944
1.95754,-0.364223,-0.139234
1.97302,-0.268165,0.0579483
1.97298,-0.467847,0.0353935
1.96012,-0.567241,-0.118836
1.97471,-0.367416,0.116976
1.96776,-0.466609,0.0823915
1.96413,-0.365448,-0.0930622
1.9628,-0.465434,-0.105719
1.97618,-0.268594,-0.0812517
1.97359,-0.367208,-0.0467124
1.96131,-0.575013,-0.0237944
1.95585,-0.471004,-0.256072
1.97683,-0.275715,0.0116006
1.9716,-0.474796,-0.0117866
1.95366,-0.370562,-0.214194
1.97622,-0.37484,0.0468054
1.96131,-0.575013,0.0237944
1.9651,-0.47323,-0.165007
1.97207,-0.275051,0.0579483
1.95812,-0.57408,-0.118836
1.97341,-0.374307,0.116976
1.97,-0.47441,0.0825544
1.95728,-0.471347,-0.105509
1.97127,-0.274939,-0.0810889
1.97622,-0.37484,-0.0468054
1.93941,-0.473854,-0.399295
1.95172,-0.579238,-0.0237012
1.95428,-0.477487,-0.256072
1.97195,-0.281703,0.0115773
1.95633,-0.377792,-0.214623
1.98282,-0.382908,0.0469915
1.96323,-0.582652,0.0238409
1.95502,-0.377539,-0.139234
1.96352,-0.479743,-0.165007
1.97115,-0.281589,0.0579483
1.97364,-0.482215,0.0354633
1.97608,-0.381606,0.117208
1.96842,-0.48094,0.0825544
1.96552,-0.379566,-0.0932484
1.95959,-0.478784,-0.105719
1.97035,-0.281474,-0.0810889
1.97497,-0.381391,-0.0468054
1.93766,-0.480959,-0.399295
1.95725,-0.588692,-0.0237944
1.95062,-0.384112,-0.3093
1.95252,-0.484646,-0.256072
1.97882,-0.290089,0.0116238
1.96824,-0.488549,-0.0117866
1.95493,-0.38496,-0.214623
1.9814,-0.390173,0.0469915
1.96108,-0.589844,0.0238409
1.95754,-0.385473,-0.139513
1.96175,-0.486937,-0.165007
1.95407,-0.587736,-0.118836
1.97075,-0.388075,0.116976
1.96276,-0.487189,0.0823915
1.96803,-0.38754,-0.0934345
1.96558,-0.487887,-0.106137
1.96562,-0.487897,0.165333
1.9693,-0.288694,-0.0810889
1.96963,-0.387855,-0.0467124
1.93606,-0.487382,-0.399295
1.95146,-0.594014,-0.0237478
1.94934,-0.390578,-0.3093
1.9509,-0.491119,-0.256072
1.96661,-0.495073,-0.0117866
1.95364,-0.391441,-0.214623
1.95457,-0.594962,-0.190721
1.97618,-0.395955,0.0468985
1.95625,-0.391962,-0.139513
1.97309,-0.295936,0.0580647
1.96593,-0.294863,-0.127403
1.96945,-0.394608,0.116976
1.96114,-0.493695,0.0823915
1.9589,-0.392494,-0.0930622
1.96395,-0.494403,-0.106137
1.96012,-0.49344,0.165007
1.96833,-0.295223,-0.0810889
1.97226,-0.39517,-0.0468054
1.95702,-0.603179,-0.0238409
1.94796,-0.39738,-0.3093
1.95302,-0.498908,-0.256577
1.96889,-0.302337,0.0115773
1.96487,-0.501935,-0.0117866
1.95616,-0.399053,-0.215051
1.9787,-0.40365,0.0469915
1.95702,-0.603179,0.0238409
1.96225,-0.501265,-0.165333
1.97204,-0.302821,0.0580647
1.96848,-0.502856,0.0354633
1.96095,-0.301118,-0.127148
1.97198,-0.402278,0.117208
1.96327,-0.501527,0.0825544
1.96535,-0.400926,-0.0934345
1.95834,-0.500266,-0.105928
1.96334,-0.301485,-0.0809261
1.97086,-0.402052,-0.0468054
1.93252,-0.501223,-0.399295
1.95097,-0.609155,-0.0237944
1.9465,-0.404517,-0.3093
1.97962,-0.311416,0.0116471
1.95469,-0.40622,-0.215051
1.97329,-0.410086,0.0468985
1.95861,-0.611539,0.0238875
1.9604,-0.508454,-0.165333
1.97882,-0.31129,0.0582974
1.97049,-0.409503,0.117208
1.96529,-0.509723,0.0827172
1.95995,-0.407314,-0.0932484
1.95649,-0.507441,-0.105928
1.94524,-0.614077,-0.0237478
1.95342,-0.513198,-0.257082
1.97073,-0.316366,0.0116006
1.96914,-0.51733,-0.0118331
1.95729,-0.41318,-0.215479
1.97982,-0.417935,0.0470846
1.96049,-0.618894,0.0239341
1.95601,-0.412909,-0.139792
1.95879,-0.51461,-0.165333
1.96993,-0.316238,0.0580647
1.96888,-0.51726,0.0355331
1.97701,-0.417341,0.117673
1.96368,-0.515894,0.0827172
1.96257,-0.414295,-0.0934345
1.95875,-0.5146,-0.106137
1.96519,-0.315476,-0.0810889
1.93276,-0.515714,-0.400079
1.95429,-0.625198,-0.0238875
1.94362,-0.418096,-0.3093
1.9476,-0.519672,-0.256577
1.96328,-0.523856,-0.0118098
1.94792,-0.41902,-0.214623
1.9782,-0.425534,0.0470846
1.96191,-0.627635,0.0239806
1.95441,-0.420417,-0.139792
1.9687,-0.323799,0.0580647
1.96688,-0.524816,0.0355331
1.96157,-0.322625,-0.127403
1.95112,-0.624183,-0.119301
1.96758,-0.42325,0.117208
1.96555,-0.524461,0.08288
1.96097,-0.421827,-0.0934345
1.96791,-0.323668,-0.0812517
1.97038,-0.423852,-0.0468985
1.93871,-0.523829,-0.401648
1.95993,-0.633796,-0.0239806
1.95775,-0.427574,-0.311759
1.95362,-0.527858,-0.257587
1.97242,-0.330778,0.0116238
1.95048,-0.425986,-0.215051
1.97685,-0.431747,0.0470846
1.95698,-0.427406,-0.140071
1.97162,-0.330644,0.0581811
1.96054,-0.328786,-0.127403
1.96624,-0.429429,0.117208
1.95617,-0.528548,0.0825544
1.95573,-0.427133,-0.0932484
1.96282,-0.530345,-0.106556
1.96285,-0.530352,0.165984
1.97082,-0.33051,-0.0814146
1.9631,-0.336265,-0.0347652
1.9474,-0.533478,-0.0587629
1.93308,-0.529557,-0.400864
1.9539,-0.63939,-0.0239341
1.94467,-0.431834,-0.309915
1.95176,-0.534674,-0.257587
1.96731,-0.336986,0.0116006
1.95286,-0.433654,-0.215479
1.97143,-0.437778,0.0469915
1.96151,-0.641877,0.0240272
1.95158,-0.43337,-0.139792
1.97834,-0.338874,0.0584138
1.96332,-0.336302,-0.127659
1.95453,-0.639593,-0.119766
1.97253,-0.438021,0.117673
1.95431,-0.535373,0.0825544
1.95813,-0.434824,-0.0934345
1.95711,-0.536138,-0.106347
1.96483,-0.538254,0.166309
1.96966,-0.337387,-0.0814146
1.96192,-0.343115,-0.0347652
1.94937,-0.541342,-0.0588792
1.93122,-0.536302,-0.400864
1.94786,-0.644949,-0.0238875
1.947,-0.43949,-0.310529
1.95371,-0.542545,-0.258092
1.97007,-0.34454,0.0116238
1.96558,-0.545843,-0.0118563
1.95133,-0.440468,-0.215479
1.97379,-0.445537,0.0470846
1.95166,-0.646206,0.0239341
1.95006,-0.440179,-0.139792
1.95526,-0.542976,-0.165658
1.96917,-0.546839,0.0356727
1.9582,-0.342465,-0.127403
1.95228,-0.646412,-0.119766
1.96709,-0.444025,0.117441
1.96014,-0.544331,0.08288
1.9605,-0.442536,-0.0936206
1.95907,-0.544036,-0.106556
1.96453,-0.343572,-0.0812517
1.96989,-0.444657,-0.0469915
1.93689,-0.545165,-0.402433
1.95716,-0.448969,0
1.94939,-0.653015,-0.0239341
1.94546,-0.446284,-0.310529
1.94416,-0.547211,-0.257082
1.96491,-0.350712,0.0116006
1.95366,-0.448166,-0.215908
1.95319,-0.654285,0.0239806
1.9524,-0.447876,-0.140071
1.96805,-0.351272,0.0581811
1.96725,-0.55371,0.0356727
1.96942,-0.451781,0.117673
1.96592,-0.553335,0.0832057
1.95894,-0.449376,-0.0936206
1.96332,-0.350427,-0.0812517
1.96833,-0.45153,-0.0469915
1.94535,-0.555617,-0.0588792
1.93856,-0.553675,-0.403217
1.95066,-0.66178,-0.0239806
1.95143,-0.455548,-0.311759
1.94968,-0.556852,-0.258092
1.96749,-0.358972,0.0116238
1.96153,-0.560237,-0.0118563
1.95445,-0.663065,0.0240272
1.95066,-0.455369,-0.140071
1.97455,-0.360261,0.0584138
1.95956,-0.357527,-0.127659
1.94749,-0.660705,-0.119766
1.96767,-0.45934,0.117673
1.95994,-0.559782,0.0830429
1.96109,-0.457803,-0.0938067
1.95506,-0.558389,0.165984
1.96196,-0.357963,-0.0812517
1.97047,-0.459994,-0.0470846
1.94857,-0.667905,-0.0239806
1.94614,-0.460765,-0.311144
1.95173,-0.564076,-0.258597
1.97028,-0.365882,0.0116471
1.9636,-0.567507,-0.0118796
1.95048,-0.461794,-0.215908
1.96902,-0.466182,0.0470846
1.95235,-0.669202,0.0240272
1.9531,-0.462414,-0.14035
1.97341,-0.366463,0.0584138
1.94918,-0.668115,-0.119999
1.96622,-0.465519,0.117673
1.96201,-0.567046,0.0832057
1.95964,-0.463962,-0.0938067
1.95712,-0.565635,0.166309
1.96475,-0.364855,-0.0814146
1.96902,-0.466182,-0.0470846
1.9648,-0.371963,-0.0349048
1.94623,-0.674703,-0.0239806
1.95605,-0.470328,-0.312989
1.94975,-0.570885,-0.258597
1.97292,-0.373501,0.0116703
1.95273,-0.469529,-0.216336
1.97127,-0.473987,0.0471777
1.95379,-0.677323,0.0240738
1.95148,-0.469229,-0.14035
1.95514,-0.572463,-0.166309
1.96819,-0.372606,0.0582974
1.95715,-0.370515,-0.127659
1.96847,-0.473314,0.117906
1.96002,-0.573891,0.0832057
1.9619,-0.471734,-0.0939929
1.95895,-0.57358,-0.106975
1.96739,-0.372454,-0.0815774
1.95949,-0.378403,-0.034835
1.94336,-0.576757,-0.0589956
1.94374,-0.681831,-0.0239806
1.95047,-0.476556,-0.312374
1.95145,-0.579157,-0.259102
1.96761,-0.379971,0.0116471
1.96333,-0.582682,-0.0119028
1.95486,-0.477627,-0.216764
1.9734,-0.482158,0.0472707
1.95506,-0.685803,0.0241203
1.94975,-0.476379,-0.14035
1.95303,-0.579625,-0.166309
1.9597,-0.378443,-0.127915
1.96284,-0.479577,0.117673
1.96556,-0.583346,0.0835313
1.95627,-0.477973,-0.0938067
1.95684,-0.580757,-0.106975
1.96209,-0.378905,-0.0814146
1.96563,-0.48026,-0.0470846
1.94901,-0.690946,-0.0240738
1.94888,-0.483021,-0.312374
1.94952,-0.585625,-0.259102
1.97027,-0.387265,0.0116703
1.9494,-0.48315,-0.216336
1.97179,-0.4887,0.0472707
1.95278,-0.692283,0.0241203
1.95203,-0.483801,-0.140629
1.95491,-0.587246,-0.166634
1.96495,-0.59026,0.0358123
1.96899,-0.488005,0.118138
1.95979,-0.588711,0.0833685
1.95855,-0.485419,-0.0939929
1.96475,-0.38618,-0.0815774
1.94311,-0.591474,-0.059112
1.955,-0.492152,0
1.94646,-0.698085,-0.0240738
1.95093,-0.491126,-0.312989
1.94356,-0.591611,-0.258597
1.96491,-0.393698,0.0116471
1.95921,-0.596374,-0.0119028
1.94762,-0.490292,-0.216336
1.97387,-0.496899,0.0473638
1.95399,-0.700786,0.0241669
1.95411,-0.491927,-0.140908
1.95894,-0.596293,0.0357425
1.94706,-0.698299,-0.120464
1.95944,-0.493269,0.117673
1.96144,-0.597053,0.0835313
1.95676,-0.492594,-0.0939929
1.96332,-0.393379,-0.0815774
1.96611,-0.494947,-0.0471777
1.95715,-0.499963,0
1.94778,-0.706239,-0.0241203
1.95303,-0.498911,-0.313604
1.94528,-0.59956,-0.259102
1.96745,-0.401354,0.0116703
1.95712,-0.603209,-0.0119028
1.9536,-0.499056,-0.217193
1.96824,-0.502797,0.0472707
1.9553,-0.708965,0.0242135
1.95238,-0.498745,-0.140908
1.97056,-0.40199,0.0585302
1.96449,-0.605484,0.0358821
1.96158,-0.501094,0.117906
1.95935,-0.603897,0.0835313
1.9589,-0.50041,-0.094179
1.95828,-0.603569,-0.107393
1.96193,-0.400229,-0.0815774
1.96824,-0.502797,-0.0472707
1.9506,-0.607917,-0.0594611
1.9493,-0.713729,-0.0241669
1.95146,-0.505044,-0.313604
1.94717,-0.606849,-0.259607
1.96226,-0.406721,0.0116471
1.95587,-0.506187,-0.217621
1.97053,-0.50998,0.0473638
1.94555,-0.712354,0.0241203
1.95081,-0.504876,-0.140908
1.97321,-0.408991,0.0586465
1.96258,-0.611652,0.0358821
1.95827,-0.405896,-0.128171
1.96386,-0.508254,0.118138
1.96125,-0.611238,0.0836942
1.95345,-0.505561,-0.0939929
1.95638,-0.609718,-0.107393
1.96849,-0.408013,-0.0819031
1.96049,-0.413855,-0.0349746
1.94073,-0.612655,-0.0592283
1.93917,-0.718091,-0.0240738
1.94577,-0.511189,-0.312989
1.94872,-0.615176,-0.260113
1.9725,-0.416389,0.0117168
1.95678,-0.617721,-0.011926
1.94631,-0.511332,-0.216764
1.96864,-0.517199,0.0473638
1.95042,-0.722258,0.0242135
1.9528,-0.513037,-0.141187
1.95413,-0.616883,-0.167285
1.97169,-0.41622,0.0586465
1.96068,-0.413895,-0.128427
1.96198,-0.515449,0.118138
1.959,-0.618423,0.0836942
1.95545,-0.513732,-0.094179
1.95916,-0.413575,-0.0815774
1.95911,-0.420354,-0.0349746
1.9425,-0.620304,-0.0593447
1.95585,-0.520778,0
1.94427,-0.727321,-0.0241669
1.94024,-0.516622,-0.312374
1.93911,-0.619221,-0.259102
1.96328,-0.42125,0.0116703
1.96692,-0.523724,0.0473638
1.94802,-0.728722,0.0242135
1.95109,-0.51951,-0.141187
1.95207,-0.62336,-0.167285
1.96248,-0.421078,0.0584138
1.95826,-0.625339,0.0358821
1.96798,-0.524007,0.118604
1.95694,-0.624915,0.0836942
1.96146,-0.52227,-0.0945512
1.95207,-0.623362,-0.107393
1.96169,-0.420908,-0.0817402
1.96692,-0.523724,-0.0473638
1.94402,-0.62865,-0.0594611
1.94534,-0.735857,-0.0242135
1.94215,-0.524761,-0.312989
1.94438,-0.628766,-0.260113
1.96172,-0.428443,0.0116703
1.95622,-0.632598,-0.0119493
1.95037,-0.526982,-0.217621
1.96885,-0.531973,0.0474568
1.94534,-0.735857,0.0242135
1.94917,-0.526657,-0.141187
1.94977,-0.630511,-0.167285
1.96483,-0.429122,0.0585302
1.95596,-0.632512,0.0358821
1.95834,-0.529133,0.118138
1.96224,-0.634543,0.0840198
1.95953,-0.529456,-0.0945512
1.96013,-0.428095,-0.0817402
1.96112,-0.529887,-0.0472707
1.95594,-0.535817,0
1.94649,-0.744071,-0.02426
1.95175,-0.53467,-0.314834
1.94594,-0.636783,-0.260618
1.96412,-0.436155,0.0116936
1.95236,-0.534837,-0.21805
1.96698,-0.538842,0.0474568
1.95502,-0.535566,-0.141745
1.96332,-0.435978,0.0585302
1.95374,-0.639335,0.0358821
1.96033,-0.537021,0.118371
1.95242,-0.638903,0.0836942
1.95382,-0.535237,-0.0943651
1.96643,-0.436667,-0.0820659
1.9546,-0.440846,-0.0349746
1.95029,-0.541231,0
1.94401,-0.750522,-0.02426
1.94996,-0.541139,-0.314834
1.94758,-0.644479,-0.261123
1.97047,-0.444426,0.0117401
1.95441,-0.542372,-0.218478
1.94554,-0.539913,-0.141187
1.96187,-0.442486,0.0585302
1.95089,-0.44001,-0.128171
1.96239,-0.544587,0.118604
1.95408,-0.646629,0.083857
1.94818,-0.540645,-0.094179
1.95302,-0.646279,-0.107812
1.96107,-0.442306,-0.0819031
1.95694,-0.448559,-0.0350444
1.94123,-0.649904,-0.0595774
1.95609,-0.550201,0
1.94511,-0.758757,-0.0243066
1.94806,-0.547942,-0.314834
1.94532,-0.651274,-0.261123
1.96501,-0.450408,0.0117168
1.95719,-0.655247,-0.0119958
1.94484,-0.547037,-0.217621
1.96711,-0.553301,0.0475499
1.95517,-0.549942,-0.142024
1.95074,-0.653086,-0.167936
1.96031,-0.449331,0.0585302
1.96072,-0.656428,0.0360916
1.95324,-0.447709,-0.128427
1.96047,-0.551433,0.118604
1.95939,-0.655984,0.0841827
1.95782,-0.550687,-0.0947374
1.95076,-0.653092,-0.107812
1.95952,-0.449149,-0.0819031
1.95918,-0.456637,-0.0351142
1.94262,-0.658298,-0.0596938
1.94231,-0.765881,-0.0243066
1.94984,-0.556163,-0.315449
1.93916,-0.657126,-0.260618
1.95555,-0.455791,0.0116703
1.95478,-0.662417,-0.0119958
1.9543,-0.557434,-0.218906
1.96892,-0.561604,0.0476429
1.95314,-0.557104,-0.142024
1.94833,-0.660231,-0.167936
1.96644,-0.458328,0.0587629
1.9583,-0.66361,0.0360916
1.95158,-0.454865,-0.128427
1.96612,-0.560806,0.119069
1.95698,-0.663161,0.0841827
1.95963,-0.558956,-0.0949235
1.95786,-0.456328,-0.0819031
1.95368,-0.462552,-0.0350444
1.93653,-0.663778,-0.0595774
1.95211,-0.564185,0
1.94334,-0.774136,-0.0243531
1.94789,-0.562966,-0.315449
1.94061,-0.665177,-0.261123
1.95784,-0.463536,0.0116936
1.95245,-0.669236,-0.0119958
1.94852,-0.563148,-0.218478
1.95502,-0.565026,-0.142303
1.96872,-0.466111,0.0588792
1.95597,-0.670442,0.0360916
1.95648,-0.565448,0.118604
1.95767,-0.565793,-0.0949235
1.96014,-0.46408,-0.0820659
1.9631,-0.567363,-0.0475499
1.93798,-0.671843,-0.0596938
1.9578,-0.573244,0
1.94063,-0.780915,-0.0243531
1.94203,-0.673247,-0.261628
1.96788,-0.473172,0.0117633
1.95011,-0.676047,-0.0119958
1.94273,-0.568829,-0.21805
1.95303,-0.571847,-0.142303
1.96319,-0.472045,0.0587629
1.95362,-0.677266,0.0360916
1.95612,-0.470345,-0.128938
1.95832,-0.573396,0.118836
1.95185,-0.5715,-0.0947374
1.96239,-0.471854,-0.0822287
1.96111,-0.574212,-0.0475499
1.93574,-0.678266,-0.0596938
1.94822,-0.577459,0
1.9478,-0.577334,-0.316064
1.94353,-0.680995,-0.262133
1.96241,-0.478747,0.0117401
1.95163,-0.683833,-0.012019
1.94464,-0.576398,-0.218478
1.96303,-0.581849,0.0476429
1.9473,-0.577186,-0.142024
1.96162,-0.478553,0.0587629
1.95136,-0.68374,0.0360916
1.95067,-0.475883,-0.128683
1.94228,-0.789074,-0.122092
1.95641,-0.579887,0.118836
1.94899,-0.682907,-0.108231
1.9647,-0.479306,-0.0823915
1.96055,-0.485187,-0.0352539
1.95396,-0.586215,0
1.93452,-0.580383,-0.314219
1.9647,-0.486213,0.0117633
1.96492,-0.589504,0.047736
1.94538,-0.583641,-0.142024
1.96778,-0.486976,0.0589956
1.95286,-0.691543,0.0361614
1.95683,-0.484267,-0.129194
1.96213,-0.588666,0.119301
1.95567,-0.586729,-0.0951096
1.95922,-0.484858,-0.0822287
1.95884,-0.492027,-0.0352539
1.93484,-0.692775,-0.0598101
1.94807,-0.59187,0
1.94761,-0.591728,-0.316679
1.96687,-0.494043,0.0117866
1.95446,-0.699798,-0.0120655
1.94828,-0.591934,-0.219335
1.95478,-0.593908,-0.142861
1.96219,-0.492868,0.0588792
1.95043,-0.698355,0.0361614
1.95126,-0.490122,-0.128938
1.96006,-0.595512,0.119301
1.96139,-0.492668,-0.0823915
1.9552,-0.594035,-0.0475499
1.95315,-0.498215,-0.0351841
1.94971,-0.600183,0
1.94543,-0.598863,-0.316679
1.96892,-0.502237,0.0118098
1.95188,-0.706957,-0.0120655
1.9499,-0.600241,-0.219763
1.94878,-0.599895,-0.142582
1.96812,-0.502033,0.059112
1.94786,-0.705499,0.0361614
1.94945,-0.497271,-0.128938
1.95405,-0.601517,0.119069
1.95524,-0.601884,-0.0952957
1.95958,-0.499854,-0.0823915
1.95301,-0.601197,-0.0475499
1.95149,-0.504689,-0.0351841
1.95153,-0.607834,0
1.96724,-0.508764,0.0118098
1.95328,-0.7148,-0.0120888
1.9517,-0.607886,-0.220192
1.95864,-0.610048,0.047736
1.95059,-0.60754,-0.142861
1.94551,-0.711954,0.0361614
1.95165,-0.504732,-0.129194
1.95967,-0.610369,0.119534
1.95323,-0.608364,-0.0952957
1.96178,-0.50735,-0.0825544
1.95482,-0.608859,-0.0476429
1.95358,-0.512513,-0.0352539
1.96159,-0.514612,0.0117866
1.95078,-0.721614,-0.0120888
1.96413,-0.619286,0.0479221
1.94845,-0.614345,-0.142861
1.96079,-0.514403,0.0589956
1.95374,-0.512555,-0.12945
1.95372,-0.616005,0.119301
1.94814,-0.720637,-0.108859
1.95999,-0.514195,-0.0825544
1.9565,-0.616881,-0.047736
1.95565,-0.520358,-0.0353237
1.93622,-0.723922,-0.0601592
1.95105,-0.62266,0
1.94669,-0.621267,-0.317908
1.96751,-0.523514,0.0118331
1.94825,-0.728419,-0.0120888
1.95814,-0.624923,0.047829
1.9463,-0.621143,-0.142861
1.94555,-0.727413,-0.169564
1.96285,-0.522273,0.059112
1.9558,-0.520398,-0.129706
1.95916,-0.625249,0.119766
1.95274,-0.6232,-0.0954819
1.95432,-0.520005,-0.0823915
1.95814,-0.624923,-0.047829
1.95373,-0.527522,-0.0353237
1.93729,-0.732428,-0.0602756
1.94876,-0.629807,0
1.93687,-0.625967,-0.316679
1.95785,-0.528636,0.0117866
1.9493,-0.736969,-0.012112
1.94401,-0.628272,-0.142861
1.96092,-0.529463,0.059112
1.94617,-0.525481,-0.129194
1.95626,-0.528207,-0.0825544
1.95584,-0.632096,-0.047829
1.95187,-0.534338,-0.0353237
1.93472,-0.739186,-0.0602756
1.95415,-0.639092,0
1.95985,-0.536523,0.0118098
1.94672,-0.743769,-0.012112
1.95318,-0.638775,-0.143698
1.95906,-0.536305,0.059112
1.95202,-0.53438,-0.129706
1.95826,-0.536087,-0.0827172
1.95362,-0.638919,-0.047829
1.95202,-0.645568,0
1.95421,-0.54195,0.0117866
1.94797,-0.751661,-0.0121353
1.95529,-0.646649,0.0479221
1.96112,-0.543867,0.0592283
1.94639,-0.539783,-0.12945
1.9537,-0.646124,-0.0958541
1.95647,-0.542578,-0.0827172
1.95529,-0.646649,-0.0479221
1.94819,-0.547612,-0.0353237
1.9371,-0.755243,-0.0605083
1.96386,-0.552016,0.0118563
1.94161,-0.757003,-0.012112
1.9606,-0.656009,0.0481082
1.94122,-0.649523,-0.14314
1.95921,-0.550709,0.0592283
1.95218,-0.548734,-0.129962
1.95143,-0.65294,-0.0958541
1.95842,-0.550486,-0.08288
1.95681,-0.65474,-0.0480151
1.95011,-0.555505,-0.0353935
1.93445,-0.762,-0.0605083
1.94746,-0.65918,0
1.95807,-0.557772,0.0118331
1.9464,-0.766708,-0.0121585
1.9583,-0.662848,0.0481082
1.9465,-0.658854,-0.143698
1.95343,-0.55645,0.059112
1.95026,-0.555545,-0.129962
1.95292,-0.661029,-0.0960402
1.95648,-0.557319,-0.08288
1.95201,-0.563418,-0.0354633
1.93549,-0.770226,-0.0606247
1.94894,-0.66727,0
1.95227,-0.563494,0.0118098
1.94796,-0.666937,-0.143977
1.95532,-0.564374,0.0592283
1.94831,-0.56235,-0.129962
1.95061,-0.667841,-0.0960402
1.94479,-0.773927,-0.109696
1.95452,-0.564145,-0.08288
1.94619,-0.569105,-0.0353935
1.94021,-0.77996,-0.0608574
1.94659,-0.674069,0
1.95797,-0.572551,0.0118563
1.94667,-0.674096,-0.221905
1.95717,-0.572318,0.0593447
1.95016,-0.570267,-0.130218
1.95254,-0.570964,-0.08288
1.94985,-0.675195,-0.0480151
1.94419,-0.575895,-0.0353935
1.93007,-0.78372,-0.0606247
1.95556,-0.684826,0
1.95979,-0.580518,0.0118796
1.94431,-0.680887,-0.221905
1.9588,-0.685962,0.0482943
1.94326,-0.68052,-0.143977
1.95516,-0.579146,0.0593447
1.94816,-0.577071,-0.130218
1.9459,-0.681443,-0.0960402
1.95437,-0.578911,-0.0830429
1.95125,-0.683319,-0.0481082
1.94983,-0.584977,-0.0355331
1.92732,-0.790452,-0.0606247
1.94184,-0.687642,0
1.95776,-0.587355,0.0118796
1.95639,-0.692796,0.0482943
1.9484,-0.689963,-0.144535
1.95313,-0.585967,0.0593447
1.95378,-0.586162,-0.130729
1.94028,-0.795766,-0.109906
1.95234,-0.58573,-0.0830429
1.94886,-0.690126,-0.0481082
1.94778,-0.59178,-0.0355331
1.9432,-0.695765,0
1.96335,-0.596511,0.011926
1.9502,-0.698272,0.0482012
1.94598,-0.69676,-0.144535
1.9549,-0.593944,0.0594611
1.9479,-0.591818,-0.130473
1.95028,-0.592541,-0.0830429
1.9502,-0.698272,-0.0482012
1.9457,-0.598575,-0.0355331
1.92544,-0.805431,-0.060741
1.94075,-0.702543,0
1.95743,-0.602184,0.0119028
1.94728,-0.704907,-0.144814
1.94899,-0.599588,0.0593447
1.94583,-0.598614,-0.130473
1.95202,-0.60052,-0.0832057
1.94775,-0.705076,-0.0482012
1.95123,-0.607742,-0.0356727
1.9263,-0.813703,-0.0608574
1.9458,-0.712063,0
1.96296,-0.611392,0.0119493
1.94481,-0.7117,-0.144814
1.95452,-0.608766,0.0595774
1.95135,-0.607777,-0.130985
1.9392,-0.819149,-0.110324
1.94991,-0.60733,-0.0832057
1.94528,-0.71187,-0.0482012
1.9491,-0.614549,-0.0356727
1.93955,-0.717463,0
1.96081,-0.618241,0.0119493
1.94606,-0.719868,-0.145093
1.94857,-0.614383,0.0594611
1.94921,-0.614585,-0.130985
1.95159,-0.615335,-0.0833685
1.94278,-0.718656,-0.0482012
1.95075,-0.622565,-0.0357425
1.93704,-0.724229,0
1.95864,-0.625081,0.0119493
1.9398,-0.72526,-0.144814
1.95403,-0.623612,0.0596938
1.95086,-0.622599,-0.131241
1.94617,-0.727642,-0.0967847
1.95324,-0.623359,-0.0835313
1.94401,-0.726834,-0.0482943
1.95248,-0.630259,-0.0358123
1.94211,-0.733475,0
1.94815,-0.62886,0.0595774
1.95258,-0.630291,-0.131497
1.94374,-0.734092,-0.0967847
1.94736,-0.628605,-0.0833685
1.94158,-0.733276,-0.0482943
1.95027,-0.637071,-0.0358123
1.94701,-0.743102,0
1.95434,-0.638399,0.0119493
1.94594,-0.635656,0.0595774
1.94658,-0.635863,-0.131241
1.95275,-0.63788,-0.0836942
1.95022,-0.744327,-0.0485734
1.94435,-0.64228,-0.0357425
1.9408,-0.748116,0
1.95221,-0.644876,0.0119493
1.9398,-0.747729,-0.145372
1.95142,-0.644614,0.0598101
1.94446,-0.642315,-0.131241
1.94616,-0.75018,-0.097157
1.95063,-0.644352,-0.0836942
1.94028,-0.747914,-0.0483873
1.94198,-0.649402,-0.0357425
1.95742,-0.654564,0.0119958
1.95663,-0.654298,0.0600429
1.94966,-0.651969,-0.131753
1.95204,-0.652765,-0.083857
1.94498,-0.757924,-0.0485734
1.95107,-0.660022,-0.035952
1.95891,-0.662675,0.012019
1.95054,-0.659843,0.0599265
1.94737,-0.658771,-0.131753
1.94975,-0.659575,-0.083857
1.94604,-0.766173,-0.0486665
1.94876,-0.666828,-0.035952
1.95659,-0.669509,0.012019
1.93915,-0.771288,-0.145931
1.94366,-0.665083,-0.0836942
1.93964,-0.771484,-0.0485734
1.94653,-0.673287,-0.035952
1.95436,-0.675993,0.012019
1.94028,-0.779201,-0.14621
1.94978,-0.674411,0.0600429
1.94284,-0.672011,-0.131753
1.94899,-0.674138,-0.0840198
1.94449,-0.780892,-0.0487595
1.94783,-0.681738,-0.0360218
1.95187,-0.683152,0.012019
1.9473,-0.681553,0.0600429
1.9479,-0.681764,-0.132264
1.94374,-0.788876,-0.0977154
1.95028,-0.682597,-0.0841827
1.94162,-0.788014,-0.0487595
1.94167,-0.687199,-0.035952
1.95701,-0.69263,0.0120655
1.94551,-0.68856,-0.132264
1.95165,-0.690734,-0.0843455
1.93145,-0.791753,-0.0485734
1.94679,-0.696667,-0.0360916
1.95082,-0.698109,0.0120423
1.94188,-0.803955,-0.0979015
1.94447,-0.703119,-0.0360916
1.95601,-0.707295,0.0120888
1.94829,-0.704501,-0.132776
1.94315,-0.702643,-0.0841827
1.94939,-0.712989,-0.0362312
1.94965,-0.713085,0.0120655
1.94569,-0.711637,-0.132776
1.94056,-0.70976,-0.0841827
1.93938,-0.717015,-0.0360916
1.94715,-0.719886,0.0120655
1.94694,-0.719809,-0.133032
1.94557,-0.719302,-0.0845083
1.94062,-0.725181,-0.0361614
1.94463,-0.726679,0.0120655
1.94442,-0.726601,-0.133032
1.9493,-0.736189,-0.0363708
1.94582,-0.734876,0.0120888
1.9456,-0.734794,-0.133288
1.94672,-0.742989,-0.0363708
1.94166,-0.741061,-0.0846712
1.94411,-0.74978,-0.0363708
1.94415,-0.749795,-0.133543
1.94652,-0.750711,-0.0849968
1.94174,-0.755884,-0.0363708
1.94178,-0.755899,-0.133543
1.93896,-0.762995,-0.0363708
1.94,-0.771237,-0.0364406
1.94115,-0.779155,-0.0365104
1.94198,-0.787768,-0.0365802
1.942,-0.787776,-0.134311
1.94054,-0.818916,-0.085811
