2.45408,0.295673,-0.0287768
2.4551,0.287105,-0.0287768
2.47888,0.289885,-0.145348
2.45604,0.278962,-0.0287768
2.46889,0.271696,-0.14465
2.46982,0.263076,-0.14465
2.47072,0.254453,-0.14465
2.45974,0.244214,-0.0287768
2.47561,0.24579,-0.144882
2.46058,0.235627,-0.0287768
2.47248,0.236767,-0.14465
2.4613,0.227896,-0.0287768
2.47321,0.228998,-0.14465
2.47801,0.220285,-0.144882
2.45885,0.210365,-0.0287302
2.48271,0.212406,-0.145115
2.46356,0.202109,-0.0287768
2.47945,0.203414,-0.144882
2.46425,0.193508,-0.0287768
2.47617,0.194444,-0.14465
2.46491,0.184906,-0.0287768
2.48081,0.186099,-0.144882
2.46557,0.175869,-0.0287768
2.49479,0.177954,-0.233476
2.46218,0.166992,-0.0287302
2.49539,0.169245,-0.233476
2.48208,0.168342,-0.144882
2.46772,0.289019,-0.130212
2.46704,0.280648,-0.0722609
2.46272,0.158825,-0.0287302
2.46407,0.280309,-0.0144135
2.49594,0.160968,-0.233476
2.45473,0.158311,0.0286371
2.47864,0.159852,-0.14465
2.46867,0.280833,-0.130212
2.4601,0.270728,-0.0720282
2.47127,0.150283,-0.0288233
2.45315,0.269963,-0.0143438
2.4553,0.149312,0.0286371
2.47921,0.150766,-0.14465
2.47365,0.272219,-0.130421
2.46103,0.26214,-0.0720282
2.46778,0.141427,-0.0287768
2.45805,0.261823,-0.0143671
2.48908,0.142648,-0.232732
2.48371,0.14234,-0.144882
2.47223,0.133459,-0.0288233
2.45891,0.25367,-0.0143671
2.48954,0.134393,-0.232732
2.48816,0.134319,-0.145115
2.47545,0.255377,-0.130421
2.46869,0.124626,-0.0287768
2.47172,0.246275,-0.0144368
2.49397,0.125903,-0.233104
2.4607,0.124223,0.0286836
2.4926,0.125833,-0.145348
2.47632,0.246733,-0.130421
2.4636,0.236784,-0.0720282
2.46511,0.115821,-0.0287302
2.4646,0.23688,-0.0143903
2.49837,0.117384,-0.233476
2.46112,0.115633,0.0286836
2.48504,0.116758,-0.144882
2.46922,0.237324,-0.130003
2.47749,0.107736,-0.0288699
2.46143,0.227907,-0.0143671
2.50274,0.108834,-0.233847
2.45313,0.227138,0.0430027
2.48544,0.108082,-0.144882
2.47401,0.229071,-0.130212
2.46986,0.0987684,-0.0287768
2.46619,0.219669,-0.0143903
2.49515,0.0997798,-0.233104
2.45391,0.218574,0.0430027
2.48979,0.0995654,-0.145115
2.47877,0.220789,-0.130421
2.47417,0.0907245,-0.0288233
2.46691,0.21149,-0.0143903
2.49547,0.0915055,-0.233104
2.49055,0.213516,-0.204062
2.45064,0.210094,0.0429329
2.49409,0.0914552,-0.145348
2.47551,0.212227,-0.130212
2.45697,0.332197,-0.0576926
2.47449,0.081655,-0.0288233
2.46368,0.202119,-0.0143671
2.49579,0.0823579,-0.233104
2.48734,0.20406,-0.203737
2.45139,0.20111,0.0429329
2.49441,0.0823126,-0.145348
2.47627,0.203152,-0.130212
2.46732,0.194182,-0.0720282
2.47474,0.0734482,-0.0288233
2.46035,0.193633,-0.0143438
2.49604,0.0740804,-0.233104
2.46675,0.0732109,0.0287302
2.49595,0.196435,-0.204388
2.45603,0.193293,0.0430027
2.49467,0.0740397,-0.145348
2.48091,0.195252,-0.130421
2.47898,0.0649145,-0.0288699
2.465,0.185344,-0.0143671
2.50027,0.0654719,-0.233476
2.47099,0.0647051,0.0287768
2.49662,0.187722,-0.204388
2.45669,0.18472,0.0430027
2.49492,0.0653317,-0.145348
2.4776,0.186291,-0.130212
2.4792,0.0558287,-0.0288699
2.46566,0.176309,-0.0143671
2.49651,0.0562184,-0.233104
2.46321,0.0554685,0.0286836
2.4973,0.178571,-0.204388
2.46134,0.176,0.0430725
2.49115,0.0560976,-0.145115
2.46339,0.297667,-0.115583
2.47428,0.176925,-0.130003
2.45517,0.287982,0
2.47139,0.0470215,-0.0287768
2.47424,0.168243,-0.0144135
2.49393,0.169581,-0.204062
2.45795,0.167135,0.0430027
2.49133,0.0474009,-0.145115
2.47488,0.168286,-0.130003
2.47378,0.159973,-0.0721445
2.47553,0.0388891,-0.0288233
2.47479,0.160038,-0.0144135
2.49684,0.0392239,-0.233104
2.46753,0.0387635,0.0287302
2.47788,0.282319,-0.174391
2.49447,0.161311,-0.204062
2.46248,0.159242,0.0430725
2.49946,0.0392651,-0.14558
2.46536,0.280893,-0.115583
2.47543,0.160079,-0.130003
2.47034,0.151092,-0.0720282
2.47565,0.030247,-0.0288233
2.46735,0.150909,-0.0143671
2.50094,0.0305561,-0.233476
2.46365,0.0301004,0.0286836
2.48678,0.274543,-0.174949
2.49502,0.152602,-0.204062
2.45903,0.150401,0.0430027
2.49558,0.0304906,-0.145348
2.46632,0.272285,-0.115583
2.47996,0.15168,-0.130212
2.47484,0.142699,-0.0721445
2.47974,0.0216406,-0.0288699
2.46387,0.142066,-0.0143438
2.49705,0.0217917,-0.233104
2.47574,0.0216057,0.0288233
2.49554,0.143892,-0.204062
2.46353,0.142047,0.0430725
2.49568,0.0217797,-0.145348
2.46726,0.263674,-0.115583
2.48845,0.143483,-0.130631
2.47133,0.133842,-0.0720282
2.4838,0.0130049,-0.0289165
2.47234,0.133897,-0.0143903
2.49711,0.0130746,-0.233104
2.50001,0.135395,-0.204388
2.46401,0.133446,0.0430725
2.50372,0.0131092,-0.145813
2.48494,0.134579,-0.130421
2.46222,0.254445,-0.0575995
2.47178,0.125216,-0.0720282
2.47983,0.00432947,-0.0288699
2.46879,0.125065,-0.0143671
2.49714,0.00435969,-0.233104
2.48555,0.248092,-0.17467
2.4925,0.126266,-0.203737
2.46446,0.124846,0.0430725
2.49976,0.00436427,-0.14558
2.48141,0.125704,-0.130212
2.4566,0.236977,0
2.47583,-0.00388837,-0.0288233
2.50496,0.11857,-0.319206
2.47319,0.117066,-0.0143903
2.49714,-0.00392184,-0.233104
2.47183,-0.00388209,0.0287768
2.47842,0.239081,-0.174112
2.49689,0.118188,-0.204062
2.45687,0.116294,0.0429329
2.50375,-0.00393223,-0.145813
2.47382,0.238638,-0.115769
2.4858,0.117663,-0.130421
2.4717,0.361023,-0.101768
2.46389,0.237681,-0.0575995
2.47657,0.108563,-0.0721445
2.4798,-0.0125515,-0.0288699
2.46559,0.108081,-0.0143438
2.50508,-0.0126794,-0.233847
2.4678,-0.0124908,0.0287302
2.48718,0.231167,-0.17467
2.50127,0.109645,-0.204388
2.46126,0.107891,0.0430027
2.50373,-0.0126726,-0.145813
2.47066,0.229631,-0.115583
2.4862,0.108984,-0.130421
2.46471,0.229078,-0.0575995
2.47294,0.0997564,-0.0720282
2.45819,0.219821,0
2.48774,-0.0212754,-0.028963
2.51762,0.101559,-0.320721
2.46995,0.0996358,-0.0143671
2.50103,-0.0213891,-0.233476
2.46774,-0.0211044,0.0287302
2.48797,0.222484,-0.17467
2.49765,0.100753,-0.204062
2.46162,0.0992999,0.0430027
2.49967,-0.0213775,-0.14558
2.47145,0.221006,-0.115583
2.49055,0.100467,-0.130631
2.46549,0.220474,-0.0575995
2.45318,0.332557,-0.0432122
2.47326,0.0915558,-0.0720282
2.45492,0.211325,0
2.49166,-0.0295719,-0.0290096
2.47027,0.091445,-0.0143671
2.50493,-0.0297295,-0.233847
2.47566,-0.0293821,0.0288233
2.48472,0.213891,-0.174391
2.49399,0.0923232,-0.203737
2.46993,0.0914326,0.0431423
2.49959,-0.0296661,-0.14558
2.48688,0.0920601,-0.130421
2.46621,0.212297,-0.0575995
2.47358,0.0824896,-0.0720282
2.45568,0.202325,0
2.48753,-0.0386426,-0.028963
2.47858,0.0826565,-0.0144135
2.50481,-0.038911,-0.233847
2.459,0.202599,0.0574134
2.46754,-0.038332,0.0287302
2.48549,0.204781,-0.174391
2.4983,0.0833139,-0.204062
2.46625,0.0822454,0.0430725
2.50346,-0.03889,-0.145813
2.47293,0.203747,-0.115583
2.4872,0.082944,-0.130421
2.47096,0.203584,-0.0576926
2.45947,0.315502,-0.043282
2.47385,0.0738552,-0.0720282
2.46036,0.194067,0
2.48738,-0.0473249,-0.028963
2.51855,0.0751897,-0.320721
2.47885,0.0740046,-0.0144135
2.50466,-0.0476536,-0.233847
2.45571,0.1937,0.0573204
2.47139,-0.0470206,0.0287768
2.49017,0.196419,-0.17467
2.49459,0.0744743,-0.203737
2.46253,0.0735172,0.0430027
2.5033,-0.0476279,-0.145813
2.46964,0.1948,-0.115397
2.49147,0.0743812,-0.130631
2.46767,0.194644,-0.0575995
2.45653,0.306848,-0.0432122
2.47808,0.0657566,-0.0721445
2.46099,0.185907,0
2.48321,-0.0554845,-0.0289165
2.52275,0.066942,-0.321226
2.47909,0.0657833,-0.0144135
2.50448,-0.0559598,-0.233847
2.45633,0.185555,0.0573204
2.47521,-0.0553058,0.0288233
2.48682,0.187859,-0.174391
2.49881,0.0663066,-0.204062
2.46676,0.0654562,0.0430725
2.50313,-0.0559296,-0.145813
2.47426,0.186909,-0.115583
2.48771,0.0660122,-0.130421
2.46431,0.186158,-0.0575065
2.4823,0.0567655,-0.0722609
2.46165,0.176886,0
2.48299,-0.064585,-0.0289165
2.51901,0.057605,-0.320721
2.47131,0.0565142,-0.0143671
2.50426,-0.0651383,-0.233847
2.457,0.176552,0.0573204
2.471,-0.064273,0.0287768
2.49546,0.179315,-0.174949
2.49903,0.0571481,-0.204062
2.46698,0.0564151,0.0430725
2.49892,-0.0649993,-0.14558
2.47493,0.17784,-0.115583
2.49193,0.0569857,-0.130631
2.46498,0.177125,-0.0575065
2.45867,0.289262,-0.0432122
2.49075,-0.0734884,-0.0290096
2.5192,0.048811,-0.320721
2.47949,0.0480417,-0.0144135
2.50402,-0.07388,-0.233847
2.47076,-0.0728986,0.0287768
2.48811,0.170058,-0.174391
2.50719,0.0485783,-0.204713
2.46316,0.0477253,0.0430027
2.50267,-0.0738402,-0.145813
2.47155,0.168927,-0.115397
2.49211,0.0482862,-0.130631
2.46494,0.29,-0.101117
2.47356,0.169064,-0.0576926
2.45564,0.280654,-0.0431423
2.47463,0.0397393,-0.0720282
2.4628,0.160126,0
2.49049,-0.0817472,-0.0290096
2.52331,0.040521,-0.321226
2.47564,0.0397554,-0.0143903
2.50774,-0.0823134,-0.234219
2.45814,0.159823,0.0573204
2.4705,-0.0810911,0.0287768
2.49264,0.162066,-0.17467
2.50335,0.0402004,-0.204388
2.4713,0.0396858,0.0431423
2.50241,-0.0821384,-0.145813
2.47608,0.16099,-0.115583
2.48826,0.0399582,-0.130421
2.47411,0.160861,-0.0576926
2.4646,0.272531,-0.043282
2.47876,0.0307191,-0.0721445
2.46736,0.151344,0
2.49417,-0.09102,-0.0290561
2.51551,0.0311746,-0.320216
2.47977,0.0307316,-0.0144135
2.50742,-0.0915036,-0.234219
2.4627,0.151058,0.0574134
2.47419,-0.0902907,0.0288233
2.48923,0.152685,-0.174391
2.49949,0.0309761,-0.204062
2.46743,0.0305788,0.0430725
2.50209,-0.0913091,-0.145813
2.48064,0.152158,-0.115769
2.49239,0.030888,-0.130631
2.47069,0.151548,-0.0575995
2.46554,0.263926,-0.043282
2.47885,0.0220658,-0.0721445
2.49384,-0.0997264,-0.0290561
2.5156,0.0223929,-0.320216
2.47986,0.0220748,-0.0144135
2.50133,0.144664,-0.269885
2.51903,-0.100734,-0.235334
2.46721,0.142691,0.0575065
2.47386,-0.0989273,0.0288233
2.48975,0.143995,-0.174391
2.50357,0.0222858,-0.204388
2.46353,0.0219294,0.0430027
2.47277,0.2647,-0.159382
2.50575,-0.100203,-0.146045
2.48116,0.143498,-0.115769
2.48849,0.0221515,-0.130421
2.46721,0.142691,-0.0575065
2.4584,0.255353,-0.0431423
2.47891,0.0142786,-0.0721445
2.46831,0.134976,0
2.48552,-0.107215,-0.028963
2.51963,0.0145132,-0.320721
2.47592,0.0142614,-0.0143903
2.4978,0.136589,-0.269456
2.50278,-0.10796,-0.233847
2.46365,0.134721,0.0574134
2.47353,-0.106698,0.0288233
2.48621,0.135955,-0.174112
2.49964,0.014398,-0.204062
2.46758,0.0142134,0.0430725
2.47756,0.257343,-0.159638
2.50542,-0.108074,-0.146045
2.47761,0.135485,-0.115583
2.49254,0.0143571,-0.130631
2.46764,0.13494,-0.0575065
2.45927,0.246769,-0.0431423
2.46477,0.126154,0
2.49312,-0.116264,-0.0290561
2.51966,0.00571725,-0.320721
2.47595,0.00561806,-0.0143903
2.50637,-0.116882,-0.234219
2.46011,0.125916,0.0573204
2.47314,-0.115332,0.0288233
2.49065,0.127479,-0.174391
2.51164,0.00569904,-0.205038
2.46762,0.00559915,0.0430725
2.47844,0.248693,-0.159638
2.50503,-0.116819,-0.146045
2.47408,0.12663,-0.115397
2.49257,0.00565578,-0.130631
2.4681,0.126325,-0.0575065
2.47895,-0.00389423,-0.0721445
2.49266,-0.125837,-0.0290561
2.52364,-0.00396443,-0.321226
2.48796,-0.00390838,-0.01446
2.49476,0.118086,-0.269028
2.50988,-0.126706,-0.234591
2.46457,0.116657,0.0574134
2.47268,-0.124828,0.0288233
2.48714,0.117725,-0.174112
2.50765,-0.00393933,-0.204713
2.47162,-0.00388272,0.0431423
2.47541,0.23879,-0.159382
2.50456,-0.126438,-0.146045
2.47853,0.117318,-0.115583
2.48858,-0.00390937,-0.130421
2.47256,0.117035,-0.0575995
2.48292,-0.0117004,-0.0722609
2.46559,0.108944,0
2.48426,-0.133238,-0.028963
2.52361,-0.0118922,-0.321226
2.48393,-0.0117052,-0.0144368
2.49512,0.110248,-0.269028
2.50947,-0.13459,-0.234591
2.46493,0.108914,0.0574134
2.49148,0.110088,-0.174391
2.50364,-0.0117981,-0.204388
2.4756,-0.0116659,0.0432122
2.48409,0.231755,-0.159894
2.51213,-0.134733,-0.14651
2.48288,0.109708,-0.115769
2.49255,-0.0117458,-0.130631
2.48091,0.10962,-0.0577856
2.46172,0.221003,-0.0431423
2.47887,-0.020334,-0.0721445
2.46996,0.1005,0
2.48777,-0.142137,-0.0290096
2.51959,-0.020668,-0.320721
2.47588,-0.0203095,-0.0143903
2.49549,0.101539,-0.269028
2.51296,-0.143575,-0.234963
2.46529,0.10031,0.0574134
2.47979,-0.14168,0.0289165
2.49185,0.101391,-0.174391
2.50359,-0.0205368,-0.204388
2.46754,-0.0202411,0.0430725
2.48091,0.222726,-0.159638
2.50367,-0.143045,-0.146045
2.48325,0.101041,-0.115769
2.4925,-0.0204458,-0.130631
2.46802,0.221568,-0.100954
2.47328,0.100635,-0.0575995
2.4665,0.212321,-0.0432122
2.48277,-0.0294675,-0.0722609
2.46631,0.0912976,0
2.49921,-0.151983,-0.0291493
2.51949,-0.0299033,-0.320721
2.47578,-0.0293845,-0.0143903
2.51639,-0.153027,-0.235334
2.46964,0.0914209,0.0575065
2.48324,-0.151012,0.028963
2.49619,0.0924037,-0.17467
2.50748,-0.0297607,-0.204713
2.47145,-0.0293331,0.0431423
2.50313,-0.152221,-0.146045
2.4964,-0.0296292,-0.13084
2.46726,0.20328,-0.0432122
2.46663,0.0822581,0
2.49465,-0.160884,-0.0291027
2.52333,-0.0391986,-0.321226
2.48366,-0.0385822,-0.0144368
2.49616,0.0832431,-0.269028
2.50786,-0.161736,-0.234591
2.46196,0.0821025,0.0573204
2.48267,-0.160112,0.028963
2.49651,0.0832547,-0.17467
2.51134,-0.0390123,-0.205038
2.47932,-0.0385149,0.043282
2.4785,0.204206,-0.159382
2.50654,-0.161651,-0.146278
2.48792,0.082968,-0.115956
2.50027,-0.0388402,-0.131049
2.47395,0.0825024,-0.0575995
2.46789,0.195528,-0.0432122
2.48252,-0.0463654,-0.0722609
2.49413,-0.16872,-0.0291027
2.52717,-0.0471993,-0.321731
2.49152,-0.0465336,-0.0144833
2.49641,0.0754012,-0.269028
2.51926,-0.17042,-0.235706
2.4702,0.0746096,0.0575065
2.49277,0.0752913,-0.174391
2.51121,-0.0469012,-0.205038
2.47519,-0.0462286,0.0432122
2.47913,0.196419,-0.159382
2.51,-0.169793,-0.14651
2.44674,0.0739008,0.142557
2.48018,0.0749108,-0.115583
2.49214,-0.0465452,-0.130631
2.4742,0.0747303,-0.0575995
2.47258,0.186781,-0.043282
2.48633,-0.0555551,-0.0723772
2.46713,0.0654652,0
2.49349,-0.177862,-0.0291027
2.52698,-0.0564633,-0.321731
2.48734,-0.0555776,-0.01446
2.50065,0.0663546,-0.269456
2.51862,-0.179654,-0.235706
2.48153,-0.177008,0.028963
2.49702,0.0662583,-0.17467
2.50703,-0.0560177,-0.204713
2.47501,-0.0553021,0.0432122
2.47983,0.187329,-0.159382
2.51334,-0.179278,-0.146743
2.45098,0.0650367,0.142789
2.48044,0.0658182,-0.115583
2.49196,-0.0556809,-0.130631
2.48245,0.0658718,-0.0577856
2.47321,0.17815,-0.043282
2.48212,-0.0641296,-0.0722609
2.49685,-0.186862,-0.0291493
2.52676,-0.065283,-0.321731
2.49113,-0.0643623,-0.0144833
2.51401,-0.188147,-0.235334
2.47467,0.0570225,0.0575995
2.48089,-0.185668,0.028963
2.50123,0.0576343,-0.174949
2.51081,-0.0648708,-0.205038
2.4708,-0.0638371,0.0431423
2.48445,0.17896,-0.159638
2.50872,-0.187751,-0.14651
2.48465,0.0572523,-0.115769
2.49973,-0.0645847,-0.131049
2.47467,0.0570225,-0.0575995
2.46983,0.169242,-0.0432122
2.48188,-0.0727934,-0.0722609
2.47153,0.0483188,0
2.49219,-0.195265,-0.0291027
2.52652,-0.0741027,-0.321731
2.47889,-0.0727058,-0.0144135
2.51731,-0.197232,-0.235706
2.47486,0.0483839,0.0575995
2.48821,-0.194952,0.0290561
2.50141,0.0489031,-0.174949
2.51057,-0.0736347,-0.205038
2.47456,-0.0725787,0.0432122
2.48108,0.170013,-0.159382
2.51203,-0.196819,-0.146743
2.44739,0.0478468,0.142557
2.48883,0.048657,-0.115956
2.50349,-0.0734271,-0.131259
2.47886,0.0484621,-0.0576926
2.47041,0.16062,-0.0432122
2.53638,-0.0832539,-0.507552
2.46768,0.039627,0
2.49947,-0.204615,-0.0291958
2.52924,0.0406156,-0.393542
2.52625,-0.0829214,-0.321731
2.47862,-0.0813583,-0.0144135
2.5166,-0.206018,-0.235706
2.46701,0.0396163,0.0574134
2.47954,-0.202984,0.028963
2.50157,0.0401712,-0.174949
2.51029,-0.0823978,-0.205038
2.47829,-0.0813472,0.043282
2.48166,0.161352,-0.159382
2.51133,-0.205586,-0.146743
2.45552,0.0394318,0.143022
2.48498,0.0399049,-0.115769
2.49922,-0.0820344,-0.131049
2.47501,0.0397447,-0.0575995
2.47492,0.152673,-0.043282
2.49479,-0.212563,-0.0291493
2.52992,-0.0914416,-0.322237
2.49033,-0.0900107,-0.0144833
2.52384,-0.215039,-0.23645
2.46713,0.0314352,0.0574134
2.4977,0.0318247,-0.17467
2.51001,-0.0907218,-0.205038
2.482,-0.0897096,0.0433518
2.48616,0.153367,-0.159638
2.51063,-0.213913,-0.146743
2.4851,0.0316642,-0.115769
2.49894,-0.0903217,-0.131049
2.47546,0.143601,-0.043282
2.4759,0.0224712,0
2.494,-0.221706,-0.0291493
2.52561,-0.100556,-0.321731
2.48199,-0.0988193,-0.0144368
2.52304,-0.224287,-0.23645
2.47523,0.0224651,0.0575995
2.48603,-0.220997,0.0290561
2.50179,0.0227061,-0.174949
2.50966,-0.0999208,-0.205038
2.47366,-0.0984877,0.0432122
2.48671,0.144254,-0.159638
2.51381,-0.223467,-0.146975
2.45174,0.0222519,0.142789
2.49319,0.0226281,-0.116142
2.50258,-0.099639,-0.131259
2.47379,0.143504,-0.100954
2.47923,0.0225014,-0.0576926
2.46796,0.134524,-0.0431423
2.48462,-0.107612,-0.0723772
2.47196,0.0138062,0
2.49719,-0.230778,-0.0291958
2.52163,0.0140836,-0.392312
2.52127,-0.109199,-0.321226
2.48563,-0.107656,-0.01446
2.52224,-0.233093,-0.23645
2.47529,0.0138248,0.0575995
2.48126,-0.229306,0.0290096
2.49387,0.0139286,-0.174391
2.51328,-0.108853,-0.205364
2.4773,-0.107295,0.043282
2.48321,0.135355,-0.159382
2.50904,-0.231873,-0.146743
2.49326,0.0139251,-0.116142
2.50222,-0.108374,-0.131259
2.47529,0.0138248,-0.0575995
2.4764,0.126316,-0.043282
2.48423,-0.116284,-0.0723772
2.47199,0.00517735,0
2.50035,-0.239875,-0.0292424
2.52561,0.00528964,-0.392927
2.52484,-0.118185,-0.321731
2.48524,-0.116331,-0.01446
2.51348,-0.241135,-0.235706
2.47133,0.00517594,0.0575065
2.48841,-0.23873,0.0291027
2.50588,0.00524831,-0.175228
2.5089,-0.117439,-0.205038
2.48091,-0.116129,0.0433518
2.48367,0.126686,-0.159382
2.50821,-0.24063,-0.146743
2.46725,-0.115489,0.100628
2.4893,0.00521358,-0.115956
2.49783,-0.116921,-0.131049
2.47932,0.0051927,-0.0576926
2.47679,0.118535,-0.043282
2.472,-0.00258867,0
2.49958,-0.247729,-0.0292424
2.52562,-0.00264482,-0.392927
2.52842,-0.126315,-0.322237
2.46114,0.117787,0.0143206
2.49684,-0.124737,-0.0145298
2.52064,-0.249816,-0.23645
2.47533,-0.00259216,0.0575995
2.48764,-0.246546,0.0291027
2.50189,-0.00261997,-0.174949
2.50852,-0.12532,-0.205038
2.47254,-0.123523,0.0432122
2.48406,0.118883,-0.159382
2.50745,-0.248509,-0.146743
2.45184,-0.00256757,0.142789
2.4853,-0.00260261,-0.115769
2.50144,-0.124967,-0.131259
2.4791,0.118646,-0.101117
2.48333,-0.00260054,-0.0577856
2.4812,0.109633,-0.0433518
2.48737,-0.133405,-0.0724936
2.50264,-0.257298,-0.029289
2.52559,-0.0119016,-0.392927
2.52794,-0.135581,-0.322237
2.49238,-0.133673,-0.0145065
2.5015,-0.0117881,-0.269456
2.51574,-0.258646,-0.236078
2.4753,-0.0116647,0.0575995
2.48672,-0.255662,0.0291027
2.50186,-0.0117898,-0.174949
2.51202,-0.134727,-0.205364
2.47606,-0.132799,0.043282
2.48846,0.109954,-0.159638
2.51049,-0.258106,-0.146975
2.45182,-0.011554,0.142789
2.48528,-0.0117117,-0.115769
2.49698,-0.13392,-0.131049
2.47952,0.109559,-0.101117
2.4833,-0.0117024,-0.0577856
2.47757,0.100809,-0.043282
2.47192,-0.0202777,0
2.49775,-0.265609,-0.0292424
2.51763,-0.0206527,-0.391698
2.52745,-0.144404,-0.322237
2.46192,0.100172,0.0143206
2.49189,-0.142373,-0.0145065
2.52275,-0.268268,-0.236822
2.47525,-0.020305,0.0575995
2.48979,-0.264764,0.0291493
2.50181,-0.0205229,-0.174949
2.50756,-0.143267,-0.205038
2.47958,-0.141669,0.0433518
2.49282,0.101429,-0.159894
2.51355,-0.267289,-0.147208
2.45176,-0.0201124,0.142789
2.48522,-0.0203868,-0.115769
2.50447,-0.143091,-0.131468
2.48724,-0.0204034,-0.0578787
2.47789,0.0925925,-0.043282
2.49439,-0.150815,-0.0727263
2.47584,-0.0285208,0
2.49288,-0.273455,-0.0291958
2.52545,-0.0290924,-0.392927
2.52696,-0.152785,-0.322237
2.4954,-0.150877,-0.0145298
2.51788,-0.276198,-0.23645
2.48095,-0.272146,0.0290561
2.50571,-0.028865,-0.175228
2.51503,-0.152063,-0.205689
2.48309,-0.150132,0.0434216
2.48915,0.0930132,-0.159638
2.50471,-0.274752,-0.146743
2.46545,-0.149066,0.100628
2.49713,-0.0287661,-0.116328
2.5,-0.151155,-0.131259
2.48021,0.0926791,-0.101117
2.47916,-0.0285592,-0.0576926
2.47822,0.0835099,-0.043282
2.47571,-0.037595,0
2.50378,-0.283942,-0.0293355
2.52137,-0.0382884,-0.392312
2.53034,-0.1623,-0.322742
2.48685,-0.15951,-0.0144833
2.52477,-0.286322,-0.237193
2.47904,-0.0376456,0.0576926
2.48788,-0.282139,0.0291493
2.50958,-0.0381093,-0.175507
2.51445,-0.16128,-0.205689
2.48252,-0.159232,0.0434216
2.48948,0.0838894,-0.159638
2.51162,-0.284831,-0.147208
2.48901,-0.037797,-0.115956
2.50341,-0.160572,-0.131468
2.43741,-0.0370134,0.299311
2.48453,0.0837226,-0.10128
2.47904,-0.0376456,-0.0576926
2.47849,0.0748588,-0.043282
2.47557,-0.0462367,0
2.50277,-0.29268,-0.0293355
2.52913,-0.047237,-0.393542
2.52976,-0.171131,-0.322742
2.49426,-0.168729,-0.0145298
2.51584,-0.294208,-0.23645
2.4749,-0.0462242,0.0575995
2.48688,-0.290822,0.0291493
2.50544,-0.0467947,-0.175228
2.51785,-0.170325,-0.206015
2.47796,-0.167627,0.0433518
2.48975,0.075199,-0.159638
2.51457,-0.29406,-0.147441
2.48887,-0.0464851,-0.115956
2.50682,-0.169579,-0.131677
2.48081,0.0749288,-0.101117
2.4829,-0.0463735,-0.0577856
2.48272,0.0667469,-0.0433518
2.49782,-0.3005,-0.029289
2.52106,-0.0554498,-0.392312
2.53314,-0.1798,-0.323247
2.48969,-0.176717,-0.0145065
2.5049,-0.0550945,-0.269885
2.52276,-0.303501,-0.237193
2.48273,-0.0546068,0.0577856
2.50528,-0.0551028,-0.175228
2.50932,-0.178109,-0.205364
2.48537,-0.176409,0.0434914
2.49398,0.0670495,-0.159894
2.51359,-0.302397,-0.147441
2.45525,-0.0540024,0.143022
2.49269,-0.054826,-0.116142
2.49828,-0.177326,-0.131259
2.48104,0.0667018,-0.101117
2.48273,-0.0546068,-0.0577856
2.48695,0.0577397,-0.0434216
2.48802,-0.185765,-0.07261
2.47519,-0.0635181,0
2.4967,-0.309653,-0.029289
2.53246,-0.189083,-0.323247
2.50866,-0.0643771,-0.270313
2.52163,-0.312745,-0.237193
2.47851,-0.0636035,0.0576926
2.48876,-0.308668,0.0291958
2.50506,-0.0642847,-0.175228
2.51262,-0.187602,-0.205689
2.48072,-0.18522,0.0434216
2.49421,0.0579082,-0.159894
2.51246,-0.311608,-0.147441
2.45503,-0.0630009,0.143022
2.49647,-0.0640643,-0.116328
2.50159,-0.186779,-0.131468
2.47728,0.0575151,-0.100954
2.49051,-0.0639113,-0.0579717
2.47514,0.0488216,-0.0432122
2.47495,-0.0721578,0
2.50751,-0.319885,-0.0294287
2.53179,-0.197922,-0.323247
2.49235,-0.194839,-0.0145298
2.51637,-0.0733654,-0.27117
2.52448,-0.32205,-0.237565
2.48227,-0.0723713,0.0577856
2.4956,-0.318366,0.029289
2.51279,-0.0732611,-0.175786
2.5199,-0.196993,-0.20634
2.47607,-0.193566,0.0433518
2.48641,0.049044,-0.159382
2.51532,-0.320881,-0.147673
2.45879,-0.0716866,0.143255
2.49623,-0.0727783,-0.116328
2.50491,-0.195821,-0.131677
2.48146,0.0489462,-0.101117
2.48627,-0.0724879,-0.0578787
2.48329,0.0403113,-0.0433518
2.48268,-0.0810575,0
2.50241,-0.328116,-0.0293821
2.52712,-0.206435,-0.322742
2.46363,0.0399921,0.0143206
2.49166,-0.203538,-0.0145298
2.52334,-0.33086,-0.237565
2.48201,-0.0810356,0.0577856
2.49844,-0.327596,0.0293355
2.51252,-0.082032,-0.175786
2.51523,-0.205463,-0.206015
2.47936,-0.202534,0.0434216
2.49056,0.0404293,-0.159638
2.50626,-0.328621,-0.147208
2.49596,-0.0814913,-0.116328
2.50421,-0.204564,-0.131677
2.48561,0.0403489,-0.10128
2.48201,-0.0810356,-0.0577856
2.47942,0.0315918,-0.043282
2.48992,-0.212148,-0.0727263
2.48238,-0.0897232,0
2.50521,-0.337382,-0.0294287
2.52792,-0.0913692,-0.393542
2.53034,-0.215592,-0.323247
2.49093,-0.212234,-0.0145298
2.50785,-0.0906437,-0.270313
2.52611,-0.340197,-0.237937
2.47771,-0.0895545,0.0576926
2.50823,-0.0906577,-0.175507
2.51847,-0.21458,-0.20634
2.48661,-0.211866,0.0435612
2.49468,0.0317862,-0.159894
2.49167,-0.090059,-0.116142
2.50348,-0.213304,-0.131677
2.48973,0.0317231,-0.101443
2.4857,-0.0898434,-0.0578787
2.48351,0.0234072,-0.0433518
2.47807,-0.0977968,0
2.50012,-0.345141,-0.0293821
2.53357,-0.224332,-0.323752
2.4942,-0.220846,-0.014553
2.50753,-0.0989595,-0.270313
2.4814,-0.0979281,0.0577856
2.48823,-0.3435,0.0292424
2.50393,-0.0988174,-0.175228
2.51377,-0.222579,-0.206015
2.48988,-0.220464,0.043631
2.49477,0.0235133,-0.159894
2.51188,-0.346765,-0.147673
2.4659,-0.0973165,0.14372
2.49136,-0.0983212,-0.116142
2.50276,-0.221604,-0.131677
2.48982,0.0234667,-0.101443
2.48539,-0.0980858,-0.0578787
2.48358,0.014738,-0.0433518
2.47771,-0.106446,0
2.50682,-0.354988,-0.0294752
2.52724,-0.108574,-0.393542
2.53277,-0.233174,-0.323752
2.50138,-0.230285,-0.0145995
2.51512,-0.108053,-0.27117
2.48104,-0.106589,0.0577856
2.50756,-0.107728,-0.175507
2.51298,-0.231353,-0.206015
2.48511,-0.228787,0.0435612
2.49883,0.0148285,-0.16015
2.51066,-0.355531,-0.147673
2.46155,-0.105752,0.143487
2.49499,-0.107189,-0.116328
2.50197,-0.230339,-0.131677
2.43941,-0.104801,0.299799
2.48589,0.0147518,-0.10128
2.48503,-0.106761,-0.0578787
2.49161,0.00652306,-0.0434914
2.48134,-0.114847,0
2.50563,-0.363299,-0.0294752
2.53081,-0.117137,-0.394157
2.52803,-0.241195,-0.323247
2.49264,-0.237819,-0.014553
2.51475,-0.116393,-0.27117
2.5032,-0.115859,-0.175228
2.51617,-0.240063,-0.20634
2.48036,-0.236647,0.0434914
2.49487,0.0065316,-0.159894
2.4747,-0.236107,0.10128
2.5026,-0.115831,-0.1167
2.50517,-0.239014,-0.131887
2.43905,-0.11289,0.299799
2.48993,0.00651865,-0.101443
2.49266,-0.115371,-0.0580648
2.48762,-0.002605,-0.0434216
2.49472,-0.247247,-0.0729591
2.4849,-0.12414,0
2.50824,-0.373068,-0.0295218
2.52642,-0.126215,-0.393542
2.53503,-0.251242,-0.324257
2.47196,-0.0025886,0.0143671
2.49573,-0.247347,-0.0145763
2.5143,-0.125609,-0.27117
2.48024,-0.123907,0.0577856
2.49241,-0.370715,0.0293355
2.50675,-0.125232,-0.175507
2.5232,-0.25007,-0.206991
2.45896,-0.00257499,0.0715627
2.48743,-0.246525,0.043631
2.49887,-0.00261679,-0.16015
2.49817,-0.124803,-0.116514
2.51223,-0.248982,-0.132305
2.43862,-0.121828,0.299799
2.49393,-0.00261161,-0.101605
2.49222,-0.124506,-0.0580648
2.49159,-0.0113066,-0.0434914
2.49384,-0.255954,-0.0729591
2.48445,-0.132814,0
2.50692,-0.381821,-0.0295218
2.5378,-0.135666,-0.395387
2.49485,-0.256058,-0.0145763
2.51385,-0.134385,-0.27117
2.47579,-0.132351,0.0576926
2.4911,-0.379412,0.0293355
2.50629,-0.133981,-0.175507
2.51835,-0.258469,-0.206666
2.46293,-0.0111765,0.0716791
2.48656,-0.255206,0.043631
2.49885,-0.0113395,-0.16015
2.51469,-0.383005,-0.148138
2.46031,-0.131523,0.143487
2.49772,-0.133523,-0.116514
2.51134,-0.25775,-0.132305
2.458,-0.1314,0.302236
2.48991,-0.0112989,-0.101443
2.48777,-0.132991,-0.0579717
2.49695,-0.264643,-0.0730754
2.484,-0.141052,0
2.50169,-0.389517,-0.0294752
2.52945,-0.143632,-0.394157
2.47188,-0.0194145,0.0143671
2.49797,-0.264751,-0.0145995
2.51339,-0.142721,-0.27117
2.48732,-0.14124,0.0579717
2.48983,-0.387671,0.0293355
2.50583,-0.142292,-0.175507
2.52541,-0.267659,-0.207317
2.49365,-0.264294,0.0437706
2.4988,-0.0196259,-0.16015
2.45986,-0.139681,0.143487
2.49726,-0.141805,-0.116514
2.50253,-0.265235,-0.131887
2.49385,-0.0195871,-0.101605
2.49131,-0.141467,-0.0580648
2.48746,-0.0282206,-0.0434216
2.4795,-0.149481,0
2.50426,-0.398876,-0.0295218
2.49703,-0.273469,-0.0145995
2.51684,-0.151732,-0.271598
2.48681,-0.149922,0.0579717
2.49241,-0.396989,0.0293821
2.50532,-0.151038,-0.175507
2.51257,-0.275171,-0.20634
2.48874,-0.272561,0.0437008
2.5027,-0.0283935,-0.160406
2.51202,-0.400113,-0.148138
2.46733,-0.148747,0.143952
2.49675,-0.150521,-0.116514
2.50556,-0.274403,-0.132096
2.48977,-0.0282468,-0.101443
2.4908,-0.150162,-0.0580648
2.48734,-0.0373374,-0.0434216
2.49499,-0.282504,-0.0730754
2.48692,-0.159078,0
2.50673,-0.408696,-0.0295684
2.49601,-0.282619,-0.0145995
2.51627,-0.160956,-0.271598
2.49024,-0.159291,0.0580648
2.50475,-0.160219,-0.175507
2.52343,-0.285724,-0.207317
2.46668,-0.0370272,0.0717954
2.48375,-0.281231,0.043631
2.4946,-0.0374463,-0.159894
2.50416,-0.160181,-0.116886
2.50851,-0.284034,-0.132305
2.49365,-0.0374321,-0.101605
2.49423,-0.159546,-0.0581579
2.4872,-0.0460196,-0.0434216
2.48635,-0.167758,0
2.50529,-0.417444,-0.0295684
2.53172,-0.17082,-0.394772
2.47154,-0.0457298,0.0143671
2.49898,-0.291794,-0.0146228
2.48966,-0.167982,0.0580648
2.51612,-0.169767,-0.176344
2.51846,-0.294068,-0.206991
2.46254,-0.0455633,0.0716791
2.4907,-0.290827,0.0437706
2.51304,-0.418735,-0.148371
2.4662,-0.166399,0.143952
2.4996,-0.168653,-0.1167
2.5075,-0.292789,-0.132305
2.4975,-0.0462102,-0.101768
2.48966,-0.167982,-0.0580648
2.49103,-0.0543544,-0.0434914
2.48179,-0.17572,0
2.50783,-0.42642,-0.0296149
2.53902,-0.179773,-0.396002
2.498,-0.300079,-0.0146228
2.51512,-0.17808,-0.271598
2.4851,-0.175955,0.0579717
2.5036,-0.177265,-0.175507
2.52142,-0.302893,-0.207317
2.47037,-0.0539036,0.0719118
2.48972,-0.299085,0.0437706
2.49828,-0.0545126,-0.16015
2.46962,-0.174859,0.144185
2.49903,-0.176941,-0.1167
2.51048,-0.301579,-0.132515
2.49733,-0.054492,-0.101768
2.49707,-0.176802,-0.0582509
2.49482,-0.0631506,-0.0435612
2.48116,-0.184382,0
2.50239,-0.434487,-0.0295684
2.47916,-0.0627543,0.0144135
2.50091,-0.309288,-0.014646
2.51448,-0.186858,-0.271598
2.48846,-0.184925,0.0580648
2.50695,-0.186299,-0.175786
2.52035,-0.311693,-0.207317
2.49263,-0.308264,0.0438404
2.50206,-0.0633339,-0.160406
2.47298,-0.183774,0.144417
2.47508,-0.306094,0.101605
2.50238,-0.185959,-0.116886
2.50545,-0.30985,-0.132305
2.49313,-0.0631079,-0.101605
2.49644,-0.185517,-0.0582509
2.49059,-0.0717436,-0.0434914
2.48449,-0.193352,0
2.50086,-0.443219,-0.0295684
2.47093,-0.0711774,0.0143671
2.49981,-0.318016,-0.014646
2.52174,-0.196251,-0.272455
2.48382,-0.1933,0.0579717
2.51026,-0.195358,-0.176065
2.51925,-0.320489,-0.207317
2.48757,-0.316459,0.0437706
2.50183,-0.0720674,-0.160406
2.47232,-0.192405,0.144417
2.49773,-0.194383,-0.1167
2.50435,-0.318594,-0.132305
2.4929,-0.0718101,-0.101605
2.49976,-0.194541,-0.058344
2.48632,-0.0803078,-0.0434216
2.49767,-0.326607,-0.0733081
2.4838,-0.202023,0
2.50717,-0.453369,-0.0296615
2.49869,-0.32674,-0.014646
2.48711,-0.202293,0.0580648
2.50956,-0.204119,-0.176065
2.51416,-0.328764,-0.206991
2.46567,-0.0796407,0.0717954
2.49042,-0.325659,0.0438404
2.50156,-0.0807999,-0.160406
2.47164,-0.201034,0.144417
2.50102,-0.203424,-0.116886
2.50719,-0.327852,-0.132515
2.49263,-0.0805115,-0.101605
2.49508,-0.202941,-0.0582509
2.48603,-0.0889862,-0.0434216
2.48308,-0.210692,0
2.5095,-0.462844,-0.029708
2.50149,-0.335993,-0.0146693
2.49037,-0.211311,0.0581579
2.51281,-0.213215,-0.176344
2.51695,-0.338069,-0.207317
2.49323,-0.334882,0.0439103
2.50525,-0.0896743,-0.160661
2.46694,-0.209323,0.144185
2.50826,-0.212829,-0.117258
2.51394,-0.337665,-0.132933
2.49633,-0.0893549,-0.101768
2.49834,-0.211988,-0.058344
2.4937,-0.0979776,-0.0435612
2.48233,-0.219358,0
2.50394,-0.470862,-0.0296615
2.47805,-0.0973627,0.0144135
2.50427,-0.345269,-0.0146925
2.51955,-0.222648,-0.272455
2.48962,-0.220003,0.0581579
2.51205,-0.221985,-0.176344
2.52365,-0.347941,-0.207968
2.46505,-0.0968522,0.0717954
2.49601,-0.344129,0.0439801
2.50492,-0.0984187,-0.160661
2.47415,-0.218636,0.14465
2.49556,-0.220528,-0.1167
2.50879,-0.345892,-0.132724
2.5,-0.0982251,-0.101931
2.49361,-0.220355,-0.0582509
2.49737,-0.105981,-0.043631
2.48163,-0.227156,0
2.47773,-0.105147,0.0144135
2.50317,-0.353134,-0.0146925
2.48892,-0.227823,0.0581579
2.50737,-0.229512,-0.176065
2.52649,-0.356425,-0.208293
2.47273,-0.104935,0.0720282
2.49491,-0.351969,0.0439801
2.50859,-0.106457,-0.160917
2.47345,-0.226408,0.14465
2.49883,-0.228731,-0.116886
2.50769,-0.353772,-0.132724
2.49568,-0.105909,-0.101768
2.49688,-0.228552,-0.058344
2.4848,-0.236195,0
2.47735,-0.113795,0.0144135
2.50588,-0.362442,-0.0147158
2.52198,-0.239729,-0.272883
2.48811,-0.23651,0.0581579
2.5145,-0.239018,-0.176623
2.46835,-0.113382,0.0719118
2.48971,-0.360103,0.0439103
2.50422,-0.11503,-0.160661
2.4806,-0.235796,0.145115
2.5104,-0.363095,-0.132933
2.49929,-0.114803,-0.101931
2.50403,-0.238024,-0.0585301
2.49653,-0.124284,-0.043631
2.48387,-0.245735,0
2.47689,-0.123307,0.0144135
2.50843,-0.372649,-0.014739
2.51708,-0.24902,-0.272455
2.49116,-0.246456,0.0582509
2.51753,-0.249064,-0.176902
2.47189,-0.123058,0.0720282
2.48831,-0.36966,0.0439103
2.49977,-0.124446,-0.160406
2.47173,-0.244533,0.14465
2.50504,-0.247829,-0.117258
2.49883,-0.124399,-0.101931
2.49514,-0.246849,-0.058344
2.49211,-0.132351,-0.0435612
2.48702,-0.254377,0
2.49927,-0.379764,-0.0146925
2.48635,-0.254308,0.0581579
2.51272,-0.257006,-0.176623
2.46748,-0.131042,0.0719118
2.49102,-0.378511,0.0439801
2.50333,-0.132946,-0.160661
2.47885,-0.25354,0.145115
2.51168,-0.38165,-0.133143
2.4984,-0.132685,-0.101931
2.49829,-0.255529,-0.058437
2.49964,-0.141065,-0.0437008
2.48617,-0.262623,0
2.47602,-0.139731,0.0144135
2.5059,-0.389278,-0.014739
2.52328,-0.266544,-0.273312
2.49345,-0.263392,0.058344
2.51979,-0.266175,-0.177181
2.479,-0.1399,0.0722609
2.50686,-0.141472,-0.160917
2.47005,-0.26092,0.14465
2.49937,-0.264017,-0.117072
2.50194,-0.141194,-0.102094
2.5014,-0.264232,-0.0585301
2.48524,-0.2713,0
2.48749,-0.149091,0.0144833
2.50058,-0.397395,-0.0147158
2.51838,-0.274918,-0.272883
2.49251,-0.272094,0.058344
2.51092,-0.274103,-0.176623
2.47052,-0.148074,0.0720282
2.50635,-0.150222,-0.160917
2.47309,-0.269974,0.144882
2.5024,-0.273174,-0.117258
2.49744,-0.149688,-0.101931
2.50046,-0.272962,-0.0585301
2.49857,-0.158948,-0.0437008
2.48294,-0.157954,0.01446
2.50305,-0.407199,-0.014739
2.52131,-0.284593,-0.273312
2.4915,-0.281228,0.058344
2.51386,-0.283752,-0.176902
2.50578,-0.159407,-0.160917
2.48002,-0.279932,0.145348
2.50139,-0.282344,-0.117258
2.51149,-0.408572,-0.133352
2.49289,-0.158587,-0.101768
2.49547,-0.281676,-0.058437
2.49803,-0.167233,-0.0437008
2.49123,-0.289567,0
2.50563,-0.416153,-0.0147623
2.52825,-0.293871,-0.274168
2.49055,-0.289488,0.058344
2.5129,-0.292086,-0.176902
2.47341,-0.165585,0.0721445
2.50922,-0.167982,-0.161173
2.50837,-0.29156,-0.117631
2.51012,-0.416899,-0.133352
2.50032,-0.167386,-0.102094
2.50247,-0.290874,-0.0586231
2.50142,-0.176232,-0.0437706
2.4902,-0.298261,0
2.48181,-0.174851,0.01446
2.49628,-0.423558,-0.0147158
2.48953,-0.29818,0.058344
2.51979,-0.301805,-0.17746
2.47282,-0.174218,0.0721445
2.50066,-0.176179,-0.160661
2.51259,-0.426326,-0.133561
2.49973,-0.176113,-0.102094
2.4935,-0.298656,-0.058437
2.50076,-0.185399,-0.0437706
2.48115,-0.183946,0.01446
2.50653,-0.434756,-0.0147855
2.48445,-0.306813,0.0582509
2.51075,-0.310061,-0.176902
2.47615,-0.183575,0.0722609
2.50796,-0.185933,-0.161173
2.50226,-0.309012,-0.117445
2.51495,-0.436215,-0.133771
2.50703,-0.185865,-0.10242
2.50032,-0.308773,-0.0586231
2.50408,-0.194437,-0.0438404
2.48847,-0.193225,0.0145065
2.4913,-0.316491,0.058437
2.51361,-0.319326,-0.177181
2.4755,-0.192218,0.0722609
2.51127,-0.194996,-0.161429
2.50513,-0.318248,-0.117631
2.50637,-0.194615,-0.10242
2.50717,-0.318507,-0.0588092
2.49947,-0.201981,-0.0437706
2.47987,-0.200397,0.01446
2.49822,-0.325349,0.0586231
2.51655,-0.327736,-0.17746
2.47887,-0.200316,0.0723772
2.51463,-0.203206,-0.161685
2.50412,-0.326117,-0.117631
2.50176,-0.202166,-0.102257
2.50219,-0.325866,-0.0587162
2.50266,-0.211914,-0.0438404
2.48706,-0.210593,0.0145065
2.49695,-0.334939,0.0586231
2.51132,-0.336866,-0.177181
2.48206,-0.21017,0.0724936
2.50985,-0.212523,-0.161429
2.50681,-0.336261,-0.117817
2.50495,-0.212108,-0.10242
2.50092,-0.335471,-0.0587162
2.50191,-0.220649,-0.0438404
2.49029,-0.219624,0.0145298
2.49181,-0.343108,0.0585301
2.51408,-0.346175,-0.17746
2.48131,-0.218833,0.0724936
2.50114,-0.220581,-0.160917
2.50562,-0.345009,-0.117817
2.50419,-0.22085,-0.10242
2.49973,-0.344199,-0.0587162
2.5012,-0.228507,-0.0438404
2.48561,-0.227083,0.0145065
2.49468,-0.351492,0.0586231
2.51298,-0.354071,-0.17746
2.47663,-0.226263,0.0723772
2.51236,-0.229527,-0.161685
2.50848,-0.353436,-0.118003
2.50349,-0.228716,-0.10242
2.50039,-0.237237,-0.0438404
2.49015,-0.359724,0
2.4848,-0.235758,0.0145065
2.49344,-0.360198,0.0586231
2.51568,-0.363411,-0.17774
2.48379,-0.235662,0.07261
2.51154,-0.238295,-0.161685
2.50723,-0.36219,-0.118003
2.50268,-0.237454,-0.10242
2.50927,-0.362485,-0.0589953
2.50751,-0.246747,-0.0439801
2.48794,-0.244822,0.0145298
2.49216,-0.3689,0.0586231
2.5144,-0.372191,-0.17774
2.47499,-0.243547,0.0723772
2.50673,-0.24667,-0.161429
2.50595,-0.37094,-0.118003
2.49785,-0.245797,-0.102257
2.50799,-0.371242,-0.0589953
2.50256,-0.255966,-0.0439103
2.483,-0.253966,0.0145065
2.51295,-0.381842,-0.17774
2.48199,-0.253863,0.07261
2.50973,-0.256699,-0.161685
2.50484,-0.2562,-0.102582
2.49864,-0.379668,-0.0588092
2.50174,-0.263827,-0.0439103
2.49415,-0.387007,0
2.49015,-0.262604,0.014553
2.51568,-0.390347,-0.178019
2.47721,-0.261239,0.0724936
2.51288,-0.265001,-0.161941
2.50403,-0.264067,-0.102582
2.50533,-0.388742,-0.0589953
2.50474,-0.273428,-0.0439801
2.48917,-0.271729,0.014553
2.48021,-0.270751,0.07261
2.51189,-0.27421,-0.161941
2.50701,-0.273677,-0.102745
2.49994,-0.397294,-0.0589023
2.50377,-0.28217,-0.0439801
2.49616,-0.281312,0.0145995
2.47925,-0.279407,0.07261
2.51489,-0.283423,-0.162196
2.50207,-0.281979,-0.102582
2.50249,-0.406659,-0.0589953
2.51076,-0.291393,-0.0441197
2.48726,-0.288666,0.014553
2.48228,-0.288088,0.0727263
2.51393,-0.291761,-0.162196
2.50112,-0.290275,-0.102582
2.50507,-0.41561,-0.0590884
2.50973,-0.300156,-0.0441197
2.49815,-0.298771,0.0146228
2.4892,-0.2977,0.0729591
2.51686,-0.301009,-0.162452
2.50803,-0.299953,-0.102908
2.5036,-0.424352,-0.0590884
2.5047,-0.308426,-0.0440499
2.4949,-0.431841,0
2.49313,-0.307001,0.0145995
2.48418,-0.305899,0.0728427
2.5158,-0.309793,-0.162452
2.51094,-0.309194,-0.103071
2.50211,-0.433089,-0.0590884
2.50355,-0.317604,-0.0440499
2.49199,-0.316137,0.0145995
2.48701,-0.315505,0.0729591
2.51465,-0.319011,-0.162452
2.51421,-0.444681,-0.118934
2.50979,-0.318395,-0.103071
2.50444,-0.442953,-0.0591814
2.50639,-0.326858,-0.0441197
2.4988,-0.325868,0.014646
2.48192,-0.323667,0.0728427
2.51352,-0.327787,-0.162452
2.50866,-0.327154,-0.103071
2.50288,-0.451692,-0.0591814
2.51316,-0.336667,-0.0442593
2.49368,-0.334057,0.0146228
2.48474,-0.33286,0.0729591
2.51631,-0.337089,-0.162708
2.50354,-0.335378,-0.102908
2.50522,-0.46115,-0.0592745
2.50411,-0.343911,-0.0441197
2.49652,-0.342869,0.014646
2.49551,-0.34273,0.0733081
2.51123,-0.344888,-0.162452
2.50241,-0.343678,-0.102908
2.50761,-0.470192,-0.0593675
2.49497,-0.351534,-0.0439801
2.49927,-0.352139,0.0146693
2.48638,-0.350323,0.0730754
2.51396,-0.354209,-0.162708
2.50912,-0.353526,-0.103234
2.50595,-0.478942,-0.0593675
2.49763,-0.361248,-0.0440499
2.49401,-0.360725,0.014646
2.51265,-0.363421,-0.162708
2.5078,-0.36272,-0.103234
2.50439,-0.370263,-0.0441895
2.49682,-0.369143,0.0146693
2.51939,-0.37248,-0.16322
2.50665,-0.370597,-0.103234
2.50697,-0.380039,-0.0442593
2.49149,-0.377692,0.014646
2.51406,-0.381114,-0.162964
2.50528,-0.379782,-0.103234
2.50563,-0.388788,-0.0442593
2.49411,-0.387,0.0146693
2.51666,-0.390499,-0.16322
2.50788,-0.389137,-0.103397
2.50828,-0.397721,-0.0443291
2.50072,-0.396522,0.0147158
2.51535,-0.398842,-0.16322
2.5068,-0.406911,-0.0443291
2.49925,-0.405685,0.0147158
2.50905,-0.407276,-0.103559
2.50938,-0.415876,-0.0443989
2.51186,-0.4253,-0.0444687
2.51016,-0.425013,-0.103722
2.50642,-0.433384,-0.0443989
2.50866,-0.433772,-0.103722
2.50489,-0.442131,-0.0443989
2.51107,-0.443221,-0.103885
2.50727,-0.451581,-0.0444687
2.50568,-0.46033,-0.0444687
2.51192,-0.470546,-0.0446084
