1.79269,0.452289,-0.107673
1.80349,0.441978,-0.108139
1.79636,0.43326,-0.0215127
1.80509,0.435365,-0.108139
1.80168,0.428225,-0.0215593
1.80317,0.421933,-0.0215593
1.81579,0.424887,-0.108604
1.8125,0.417115,-0.0216524
1.80955,0.416438,-0.108139
1.81004,0.409904,-0.0216059
1.82174,0.412554,0.0217455
1.80749,0.403028,-0.0215593
1.8167,0.39843,-0.0216524
1.82842,0.401,0.0217921
1.82205,0.392611,-0.021699
1.82733,0.387077,-0.0217455
1.82733,0.387078,-0.174363
1.83636,0.382968,0.0218387
1.77773,0.455781,-0.0534102
1.82985,0.374949,-0.0217455
1.83769,0.376555,0.0218387
1.79152,0.459317,-0.0969262
1.79885,0.453842,-0.053992
1.84304,0.370284,-0.0218852
1.84697,0.371072,0.0219318
1.78474,0.444325,-0.0535266
1.84027,0.363716,-0.0218387
1.8442,0.364492,0.0218852
1.84904,0.365448,-0.109766
1.80243,0.448729,-0.0973449
1.84546,0.358053,-0.0218852
1.85323,0.359561,-0.176222
1.85331,0.359576,0.0219784
1.79176,0.43248,-0.0536429
1.85462,0.352781,-0.0219784
1.8389,0.349791,0.0217921
1.80172,0.434882,-0.0971355
1.79319,0.426536,-0.0536429
1.84791,0.34516,-0.0218852
1.85971,0.347363,0.0220249
1.80315,0.428905,-0.0971355
1.85304,0.339429,-0.0219318
1.85304,0.339429,0.0219318
1.8163,0.425341,-0.0977636
1.86215,0.334047,-0.0220249
1.81641,0.418351,-0.0108334
1.86718,0.328562,-0.0220715
1.81779,0.412324,-0.0108334
1.86718,0.328562,0.0220715
1.82312,0.413534,-0.0979729
1.86832,0.322044,-0.0220715
1.87213,0.322701,-0.177337
1.86832,0.322044,0.0220715
1.82066,0.406298,-0.0977636
1.86554,0.314529,-0.0220249
1.87723,0.316499,-0.177709
1.86554,0.314529,0.0220249
1.83027,0.401406,-0.152965
1.82603,0.400478,-0.0979729
1.81729,0.39258,-0.0541084
1.87836,0.310623,-0.0221646
1.82585,0.394429,-0.0108567
1.87441,0.309971,0.0221181
1.83119,0.395582,-0.0981823
1.82256,0.387065,-0.0542248
1.88338,0.304704,-0.0222112
1.82722,0.388054,-0.0108567
1.87548,0.303426,0.0221181
1.83679,0.390086,-0.153291
1.83647,0.390018,-0.0983916
1.83639,0.383308,-0.0109032
1.88821,0.298725,-0.178453
1.88443,0.298128,0.0222112
1.83782,0.383605,-0.0983916
1.88942,0.29216,-0.0222578
1.8338,0.376092,-0.0108799
1.89317,0.292741,-0.178824
1.88942,0.29216,0.0222578
1.78034,0.456784,-0.0856173
1.83523,0.376386,-0.0981823
1.88647,0.284965,-0.0222112
1.84294,0.371268,-0.0109264
1.89438,0.28616,0.0223043
1.84468,0.371618,-0.153616
1.78967,0.452525,-0.0859895
1.79888,0.454854,-0.0431764
1.8357,0.362813,-0.0544575
1.89541,0.279215,-0.0223043
1.84429,0.364511,-0.0109264
1.84994,0.365628,-0.153942
1.80054,0.448258,-0.0431764
1.84082,0.357485,-0.0545738
1.89633,0.272928,-0.0223043
1.84549,0.358393,-0.0109264
1.85114,0.359491,-0.153942
1.84917,0.359107,0.0328803
1.80443,0.442877,-0.0865479
1.79813,0.441331,-0.0430833
1.83812,0.350308,-0.0544575
1.90519,0.267418,-0.0223974
1.85459,0.353446,-0.0109729
1.90496,0.267386,-0.179568
1.90123,0.266862,0.0223509
1.79964,0.435046,-0.129468
1.80597,0.436575,-0.0865479
1.80743,0.43693,-0.0432694
1.85512,0.346506,-0.0549229
1.91012,0.260975,-0.022444
1.85665,0.346792,-0.240415
1.8598,0.347381,-0.0109961
1.90988,0.260942,-0.17994
1.90616,0.260434,0.0223974
1.85436,0.346365,0.0768554
1.80755,0.429953,-0.0865479
1.86121,0.347644,-0.099229
1.84446,0.338189,-0.0545738
1.91494,0.255168,-0.0224906
1.91098,0.25464,0.022444
1.85873,0.340806,-0.154267
1.85943,0.340935,0.0770182
1.81286,0.424869,-0.086734
1.81044,0.424302,-0.0432694
1.8535,0.333163,-0.0548066
1.90789,0.247453,-0.0223974
1.91951,0.24896,-0.180683
1.90789,0.247453,0.0223974
1.80799,0.417074,-0.129747
1.86455,0.335149,0.077181
1.81433,0.418538,-0.086734
1.86252,0.328079,-0.0550393
1.80995,0.410879,0
1.92065,0.242294,-0.0225371
1.86403,0.328344,-0.24092
1.86722,0.328906,-0.0110194
1.91271,0.241293,0.022444
1.80943,0.410761,-0.129747
1.81578,0.412203,-0.086734
1.81726,0.412538,-0.0433625
1.85972,0.320895,-0.0549229
1.82308,0.407173,0
1.86517,0.321835,-0.24092
1.86836,0.322386,-0.0110194
1.9212,0.235553,-0.180683
1.91751,0.235101,0.0224906
1.81475,0.405312,-0.130026
1.86684,0.322124,0.077181
1.81721,0.405861,-0.086734
1.82259,0.407063,-0.0434555
1.86471,0.315393,-0.0550393
1.81661,0.399408,0
1.87405,0.316972,-0.24193
1.92592,0.229653,-0.181055
1.92622,0.229688,0.0225837
1.81608,0.399292,-0.130026
1.87578,0.317265,0.0775067
1.82635,0.401549,-0.0871063
1.82784,0.401876,-0.0435486
1.8658,0.308883,-0.0550393
1.81799,0.393065,0
1.92701,0.222964,-0.0225837
1.88297,0.311725,-0.24294
1.92701,0.222964,0.0225837
1.82137,0.393794,-0.130305
1.88007,0.311245,-0.155569
1.87293,0.310063,0.0773438
1.82774,0.395172,-0.0871063
1.77197,0.474799,-0.0747386
1.82923,0.395494,-0.0435486
1.88271,0.304596,-0.0555047
1.82333,0.387229,0
1.93577,0.216789,-0.0226768
1.88019,0.304187,-0.242435
1.93543,0.216752,-0.181799
1.93577,0.216789,0.0226768
1.8228,0.387115,-0.130305
1.88514,0.304988,-0.155894
1.88195,0.304472,0.0776695
1.82527,0.38764,-0.0869201
1.7737,0.4683,-0.0747386
1.83458,0.389617,-0.0436417
1.87581,0.297099,-0.055272
1.82461,0.38118,0
1.88118,0.29795,-0.242435
1.88843,0.299097,-0.0111124
1.9401,0.210762,-0.18217
1.83188,0.3827,-0.130863
1.88689,0.298855,0.0778323
1.77524,0.462415,-0.0747386
1.83586,0.38353,-0.0436417
1.88079,0.291162,-0.0553884
1.83376,0.376418,0
1.88613,0.291989,-0.24294
1.88946,0.292504,-0.0111124
1.94083,0.203989,-0.18217
1.8411,0.377924,0.0437347
1.94118,0.204026,0.0227234
1.8293,0.375501,-0.130584
1.88398,0.291655,0.0776695
1.83961,0.377617,-0.0874785
1.8411,0.377924,-0.0437347
1.88575,0.285192,-0.0555047
1.83115,0.369224,0
1.89499,0.28659,-0.24395
1.93756,0.19681,-0.181799
1.9379,0.196844,0.0226768
1.83451,0.369902,-0.130863
1.78787,0.4524,-0.118194
1.88894,0.285674,0.0778323
1.88818,0.285559,0.155894
1.79392,0.453932,-0.0753899
1.84633,0.372285,-0.0438278
1.89464,0.279778,-0.0557375
1.8442,0.365161,0
1.89937,0.280476,-0.0111589
1.94617,0.190824,-0.182542
1.94255,0.19047,0.0227234
1.84362,0.365047,-0.131421
1.89705,0.280133,-0.156545
1.88992,0.27908,0.0778323
1.78774,0.445735,-0.0750642
1.7905,0.439789,-0.0321822
1.89165,0.272592,-0.0556211
1.84546,0.358721,0
1.89694,0.273354,-0.24395
1.84265,0.358176,-0.202199
1.94285,0.183654,-0.18217
1.95515,0.184817,0.0228631
1.8488,0.35937,-0.1317
1.90275,0.274191,0.0783208
1.89012,0.272371,0.155894
1.79317,0.440445,-0.0752271
1.79202,0.433536,-0.0321822
1.89259,0.265986,-0.0556211
1.85456,0.353776,0
1.89788,0.26673,-0.24395
1.90128,0.267208,-0.0111589
1.8478,0.352486,-0.202628
1.95142,0.177593,-0.182914
1.95578,0.17799,0.0228631
1.85396,0.353662,-0.131979
1.9037,0.267547,0.0783208
1.89106,0.265771,0.155894
1.7947,0.434182,-0.0752271
1.85406,0.35368,-0.0439208
1.79742,0.428205,-0.032252
1.89351,0.259379,-0.0556211
1.85185,0.346565,0
1.90667,0.261181,-0.24496
1.90617,0.261113,-0.0111821
1.95599,0.171127,-0.183286
1.85126,0.346454,-0.1317
1.79789,0.428319,-0.118449
1.90066,0.260358,0.078158
1.89593,0.25971,0.15622
1.80398,0.429768,-0.0755527
1.85921,0.347942,-0.0440139
1.7989,0.421928,-0.032252
1.89837,0.253296,-0.0557375
1.85698,0.34082,0
1.9115,0.255048,-0.245465
1.90707,0.254457,-0.0111821
1.86195,0.341731,-0.203913
1.96055,0.164631,-0.183657
1.96097,0.164667,0.0229097
1.85246,0.33999,-0.1317
1.80326,0.422951,-0.118705
1.90552,0.25425,0.0783208
1.86283,0.341893,-0.088223
1.90473,0.254145,0.156871
1.80546,0.423468,-0.0755527
1.86041,0.34145,-0.0440139
1.80816,0.417446,-0.0323917
1.89924,0.246668,-0.0557375
1.8621,0.335045,0
1.96551,0.158142,-0.0229562
1.91238,0.248375,-0.245465
1.85922,0.334526,-0.203484
1.96508,0.158107,-0.184029
1.96551,0.158142,0.0229562
1.86542,0.335642,-0.132537
1.91746,0.249035,-0.157847
1.80473,0.416655,-0.118705
1.91036,0.248112,0.0784836
1.90165,0.246981,0.156545
1.81083,0.418062,-0.0757155
1.91199,0.241541,-0.0560866
1.86326,0.328543,0
1.91717,0.242196,-0.245971
1.81765,0.41296,0.0108334
1.86821,0.329416,-0.204341
1.96959,0.151552,-0.184401
1.97004,0.151587,0.0230028
1.86265,0.328436,-0.132258
1.92228,0.242841,-0.158173
1.86797,0.329374,0.110464
1.91914,0.242445,0.0788093
1.90646,0.240842,0.156871
1.81227,0.411739,-0.0757155
1.91282,0.234865,-0.0560866
1.86833,0.322717,0
1.918,0.235501,-0.245971
1.81908,0.406612,0.0108334
1.86151,0.321538,-0.203484
1.97011,0.144676,-0.184401
1.86771,0.32261,-0.132537
1.81149,0.404916,-0.118961
1.97532,0.145059,-0.115348
1.87304,0.323531,0.110697
1.91998,0.235744,0.0788093
1.87418,0.323728,-0.0885953
1.90728,0.234185,0.156871
1.8176,0.406282,-0.0758784
1.91752,0.229329,-0.0562029
1.87723,0.318183,0
1.92267,0.229946,-0.246476
1.82425,0.401756,0.0108567
1.87427,0.317683,-0.20477
1.97055,0.138486,-0.184401
1.87265,0.317408,-0.132816
1.81275,0.399223,-0.118961
1.91674,0.229236,0.0786465
1.87519,0.317839,-0.0885953
1.91197,0.228666,0.157196
1.81887,0.40057,-0.0758784
1.87672,0.318097,-0.044293
1.81367,0.392793,-0.0323917
1.91831,0.222635,-0.0562029
1.87438,0.310974,0
1.92741,0.223691,-0.246981
1.82564,0.395386,0.0108567
1.93101,0.224109,-0.0112984
1.87537,0.311139,-0.20477
1.975,0.131872,-0.184773
1.97946,0.13217,0.0230959
1.86981,0.310217,-0.132537
1.82194,0.394583,-0.119473
1.9215,0.223006,0.0788093
1.88023,0.311946,-0.0887814
1.92068,0.22291,0.157847
1.83197,0.396757,-0.0763669
1.82285,0.388125,-0.0325313
1.91907,0.215937,-0.0562029
1.88335,0.305711,0
1.98789,0.125765,-0.023189
1.92423,0.216518,-0.246476
1.83093,0.389844,0.0108799
1.87252,0.303953,-0.204341
1.97942,0.125229,-0.185145
1.97991,0.125259,0.0230959
1.87876,0.304966,-0.133095
1.93729,0.217987,-0.159149
1.82721,0.389052,-0.119729
1.93021,0.21719,0.079135
1.88525,0.30602,-0.0889675
1.91748,0.215758,0.157522
1.82944,0.389527,-0.076204
1.82811,0.382578,-0.0326011
1.93174,0.210536,-0.056552
1.88441,0.299135,0
1.98832,0.118824,-0.023189
1.93287,0.210659,-0.247486
1.82836,0.38263,0.0108567
1.88535,0.299285,-0.205626
1.9878,0.118793,-0.185888
1.99231,0.119063,0.0232356
1.87981,0.298406,-0.133095
1.82855,0.382671,-0.119729
1.93095,0.210451,0.079135
1.92219,0.209495,0.157847
1.82688,0.38232,-0.0760412
1.8295,0.375876,-0.0326011
1.9325,0.203455,-0.056552
1.88944,0.292839,0
1.92968,0.203158,-0.246981
1.83367,0.376732,0.0108799
1.94124,0.204375,-0.0113449
1.87464,0.290546,-0.204341
1.99219,0.11173,-0.18626
1.99673,0.111984,0.0232822
1.88484,0.292126,-0.133374
1.94276,0.204536,-0.159474
1.83684,0.377383,0.0545738
1.82603,0.375163,-0.119473
1.93966,0.204209,0.0794606
1.93087,0.203284,0.158498
1.83609,0.37723,-0.0763669
1.88498,0.292147,-0.0443861
1.83074,0.369806,-0.0326011
1.93316,0.197045,-0.056552
1.93154,0.19688,-0.388312
1.89436,0.287171,0
1.94219,0.197965,-0.248496
1.83883,0.371441,0.0109032
1.94588,0.198342,-0.0113681
1.88346,0.285519,-0.205198
1.99255,0.105123,-0.18626
1.9474,0.198496,-0.1598
1.83808,0.37129,0.0545738
1.83509,0.370686,-0.119984
2.00182,0.105611,-0.116743
1.94033,0.197775,0.0794606
1.89231,0.28686,-0.0891536
1.93947,0.197687,0.159149
1.84125,0.37193,-0.0765297
1.88989,0.286494,-0.0444791
1.83594,0.364193,-0.0326709
1.93384,0.190297,-0.056552
1.89139,0.279972,0
1.94681,0.191574,-0.249001
1.84404,0.365799,0.0109264
1.94258,0.191158,-0.0113449
1.89232,0.280109,-0.206055
1.98893,0.097972,-0.185888
2.00144,0.098588,0.0233287
1.89468,0.280459,-0.133932
1.84329,0.365651,0.0546902
1.83638,0.36428,-0.119984
2.00616,0.0988209,-0.116976
1.94498,0.191394,0.0796234
1.94014,0.190918,0.159149
1.84646,0.36628,-0.0766925
1.89484,0.280482,-0.0445722
1.84505,0.359311,-0.0328105
1.94245,0.1843,-0.0567847
1.89632,0.27394,0
2.00577,0.0917834,-0.0233753
1.95142,0.185151,-0.249506
1.84923,0.360124,0.0109496
1.89722,0.27407,-0.206483
1.99324,0.0912103,-0.18626
1.8996,0.274413,-0.134211
1.84848,0.359978,0.0548066
1.85331,0.360919,-0.121008
2.0065,0.0918169,-0.116976
1.94962,0.184981,0.0797863
1.93683,0.183767,0.158823
1.84773,0.359832,-0.0766925
1.8463,0.352868,-0.0328105
1.94706,0.177882,-0.0569011
1.94131,0.177356,-0.389881
1.90122,0.267876,0
1.9481,0.177977,-0.249001
1.84655,0.352916,0.0109264
1.89816,0.267445,-0.206483
2.00548,0.084756,-0.187375
2.00208,0.084612,0.0233287
1.90449,0.268337,-0.13449
1.85365,0.354273,0.0549229
1.8428,0.352199,-0.12024
2.01079,0.0849804,-0.117208
1.95423,0.178537,0.0799491
1.90708,0.268701,-0.089712
1.93746,0.177005,0.158823
1.8529,0.35413,-0.0768554
1.84758,0.346099,-0.0328105
1.95169,0.171094,-0.0570174
1.94585,0.170583,-0.390666
1.90615,0.26145,0
2.01436,0.0777366,-0.0234684
1.9527,0.171183,-0.249506
1.85569,0.347619,0.0109729
1.89125,0.259406,-0.205626
2.01772,0.0778661,-0.188491
2.01436,0.0777366,0.0234684
1.90151,0.260813,-0.134211
1.85887,0.348214,0.0550393
1.84407,0.345443,-0.12024
2.0071,0.0774564,-0.116976
1.94604,0.170599,0.159474
1.85811,0.348072,-0.0770182
1.90168,0.260836,-0.0446652
1.85265,0.340693,-0.0328803
1.95813,0.165117,-0.393019
2.01461,0.0710558,-0.0234684
1.95721,0.165039,-0.250011
1.8529,0.340739,0.0109496
1.96499,0.165696,-0.0114611
2.01001,0.0708934,-0.187747
1.91027,0.255564,-0.134769
1.85608,0.341324,0.0549229
1.85306,0.340769,-0.120752
2.01134,0.0709404,-0.117208
1.95941,0.165225,0.0801119
1.95851,0.165149,0.160451
1.86319,0.342631,-0.077181
1.8617,0.335643,-0.03302
1.95479,0.157966,-0.392235
1.90392,0.247952,0
1.96568,0.158846,-0.251021
1.86589,0.336399,0.0110194
2.01024,0.0638771,-0.187747
2.01884,0.0641505,0.023515
1.91115,0.248894,-0.134769
1.971,0.159275,-0.161427
1.86119,0.335553,0.0550393
1.85817,0.335007,-0.121008
2.01956,0.0641731,-0.117673
1.91771,0.249748,-0.0900843
1.95908,0.158312,0.160451
1.91134,0.248918,-0.0448513
1.87068,0.330862,-0.0331596
1.9573,0.151638,-0.0571338
1.91267,0.242645,0
2.02304,0.0575696,-0.0235616
1.97015,0.152633,-0.251526
1.90562,0.24175,-0.206912
2.0184,0.0574376,-0.188491
2.02304,0.0575696,0.0235616
1.90801,0.242054,-0.13449
1.8623,0.329379,0.0550393
1.85927,0.328844,-0.121008
2.02375,0.0575897,-0.117906
1.97245,0.152811,0.0806004
1.95561,0.151507,0.160125
1.86941,0.330638,-0.0773438
1.95782,0.144804,-0.0571338
1.92145,0.236945,0
2.02723,0.0506068,-0.0236081
1.96672,0.145462,-0.251021
1.86813,0.32369,0.0110194
1.91039,0.235583,-0.20734
2.02257,0.0504905,-0.188862
2.02723,0.0506068,0.0236081
1.91677,0.236368,-0.135049
1.86343,0.322876,0.0550393
1.85647,0.32167,-0.120752
2.02793,0.0506242,-0.118138
1.97297,0.145925,0.0806004
1.92333,0.237178,-0.0902704
1.96408,0.145267,0.160776
1.87055,0.32411,-0.0773438
1.86505,0.316455,-0.03302
1.96629,0.138531,-0.0573665
1.96805,0.138655,-0.394588
1.92226,0.230236,0
2.03139,0.0436154,-0.0236547
1.97117,0.138875,-0.251526
1.87319,0.317836,0.0110426
1.91515,0.229385,-0.207768
2.0307,0.0436005,-0.189606
1.9255,0.230625,-0.135607
1.87243,0.317707,0.055272
1.86546,0.316523,-0.121264
2.03209,0.0436303,-0.118371
1.96458,0.13841,0.160776
1.87561,0.318246,-0.0775067
1.87809,0.311254,-0.0332294
1.96857,0.131098,-0.394588
1.9271,0.223315,0
2.03954,0.0359576,-0.0237478
1.97169,0.131306,-0.251526
1.87835,0.311296,0.0110659
1.91997,0.222489,-0.208197
2.03085,0.0358044,-0.189606
2.03555,0.0358871,0.0237012
1.92637,0.223231,-0.135607
1.98499,0.132192,-0.162403
1.8706,0.310011,-0.121519
2.03224,0.0358288,-0.118371
1.97399,0.131459,0.0806004
1.92502,0.223074,-0.0902704
1.97703,0.131662,0.161753
1.88077,0.311697,-0.0776695
1.98285,0.132049,0.362325
1.87511,0.304709,-0.0331596
1.9278,0.217259,0
2.03965,0.0295484,-0.0237478
1.98397,0.125863,-0.253042
1.88326,0.306034,0.0110891
1.92066,0.216455,-0.208197
2.03892,0.0295379,-0.190349
2.03965,0.0295484,0.0237478
1.92707,0.217176,-0.135607
1.8755,0.304772,-0.121775
2.03634,0.0295004,-0.118604
1.98636,0.126015,0.0810889
1.93365,0.217918,-0.0906426
1.98927,0.126199,-0.104463
1.98141,0.125701,0.162078
1.98718,0.126067,0.363043
1.88802,0.300047,-0.033369
1.93252,0.210964,0
2.03974,0.0224299,-0.0237478
1.98836,0.119176,-0.253547
1.88432,0.299459,0.0110891
1.92536,0.210182,-0.208625
2.04299,0.0224657,-0.190721
2.04374,0.0224739,0.0237944
1.93178,0.210883,-0.135886
1.99378,0.119501,-0.163054
1.87961,0.29871,0.0553884
1.88444,0.299478,-0.122287
2.04841,0.0225252,-0.119301
1.98279,0.118842,0.0809261
1.9344,0.211169,-0.0906426
1.9339,0.211114,0.238864
1.98184,0.118785,0.162078
1.88279,0.299216,-0.0776695
1.88905,0.293454,-0.033369
1.98001,0.11174,-0.0577156
1.93324,0.204216,0
2.0398,0.0153093,-0.0237478
1.9848,0.112011,-0.253042
1.88535,0.29288,0.0110891
1.93003,0.203877,-0.209053
2.04704,0.0153636,-0.191093
2.0398,0.0153093,0.0237478
1.93647,0.204557,-0.136165
1.99816,0.112765,-0.16338
1.88854,0.293374,0.0556211
1.88153,0.292285,-0.122031
2.04847,0.0153743,-0.119301
1.99118,0.11237,0.0812517
1.9391,0.204834,-0.0908288
1.98224,0.111866,0.162078
1.88777,0.293255,-0.0778323
1.98408,0.11197,0.362325
1.89006,0.286858,-0.033369
1.98039,0.104828,-0.0577156
1.93395,0.197467,0
2.04385,0.00820539,-0.0237944
1.98914,0.105292,-0.253547
2.05903,0.00826636,-0.192208
2.05184,0.0082375,0.0238875
1.94114,0.198202,-0.136444
1.99854,0.105789,-0.16338
1.88955,0.286781,0.0556211
1.88648,0.286315,-0.122287
2.05251,0.00824015,-0.119534
1.94775,0.198876,-0.091201
1.9866,0.105157,0.162403
1.99625,0.105668,0.364478
1.89105,0.280259,-0.033369
1.94258,0.191499,0
2.05186,0.00107462,-0.0238875
1.99743,0.098739,-0.254557
1.89527,0.280883,0.0111356
2.05108,0.00107422,-0.191465
2.05986,0.00107881,0.0239806
1.94579,0.191816,-0.136723
1.89845,0.281355,0.0558538
1.89142,0.280313,-0.122543
2.05652,0.00107706,-0.119766
1.9999,0.0988612,0.0815774
1.94446,0.191684,-0.0910149
1.9989,0.098812,0.16338
2.00054,0.0988929,0.365195
1.89598,0.274228,-0.0334388
1.98906,0.0913661,-0.0579483
1.94324,0.184717,0
2.05985,-0.00611199,-0.0239806
2.00172,0.0919477,-0.255062
1.90019,0.274838,0.0111589
2.05904,-0.00610958,-0.192208
2.05985,-0.00611199,0.0239806
1.94248,0.184644,-0.136444
1.89942,0.274726,0.0558538
1.90029,0.274851,-0.123054
2.0605,-0.00611391,-0.119999
2.00821,0.0922459,0.0819031
1.94909,0.185273,-0.091201
1.99525,0.0916505,0.163054
1.89692,0.267608,-0.0334388
1.94786,0.178297,0
2.05582,-0.0132759,-0.0239341
2.00599,0.0851285,-0.255567
1.90114,0.268203,0.0111589
2.06299,-0.0133222,-0.19258
2.06782,-0.0133534,0.0240738
1.94709,0.178227,-0.136723
2.00751,0.0851927,-0.164031
1.89641,0.267536,0.0557375
1.90123,0.268216,-0.123054
2.06845,-0.0133575,-0.120464
2.00453,0.0850664,0.0817402
1.94575,0.178104,-0.0910149
1.95706,0.17914,0.241301
1.99556,0.0846856,0.163054
1.90577,0.262075,-0.0335784
1.94847,0.171497,0
2.05576,-0.0204515,-0.0239341
2.00628,0.0781261,-0.255567
1.8981,0.261021,0.0111356
2.06691,-0.0205625,-0.192952
2.06376,-0.0205311,0.0240272
1.95167,0.171779,-0.137002
1.90526,0.262004,0.0559702
1.8982,0.261035,-0.122798
2.0128,0.0783802,0.0820659
1.95432,0.172012,-0.0913871
2.00381,0.07803,0.163705
1.90844,0.262443,-0.0784836
1.90271,0.254891,-0.0335086
1.95703,0.165369,0
2.06767,-0.0277882,-0.0240738
2.01051,0.0712634,-0.256072
1.90693,0.255457,0.0111821
2.07877,-0.0279373,-0.194067
2.06767,-0.0277882,0.0240738
1.95623,0.165302,-0.137281
2.02001,0.0716002,-0.165007
1.90616,0.255353,0.0559702
1.90306,0.254938,-0.123054
2.0723,-0.0278504,-0.120697
1.95889,0.165526,-0.0915733
2.01996,0.0715985,-0.105928
2.01204,0.0713178,0.164356
1.96447,0.165998,-0.0458749
1.90751,0.249097,-0.0335784
1.95756,0.158878,0
2.06757,-0.0346452,-0.0240738
2.0147,0.0647228,-0.256577
1.91174,0.249649,0.0112054
2.07469,-0.0347645,-0.193695
2.07557,-0.0347792,0.0241669
1.96075,0.159136,-0.13756
2.02023,0.0649007,-0.165007
1.91096,0.249547,0.0560866
1.91577,0.250176,-0.123822
2.07619,-0.0347897,-0.120929
2.01329,0.0646776,0.0820659
1.95943,0.159029,-0.0915733
2.01625,0.0647727,0.164682
1.9163,0.243445,-0.033718
1.95412,0.151734,0
2.07943,-0.0421057,-0.0242135
1.95453,0.151766,-0.304995
2.01491,0.0576893,-0.256577
1.9126,0.242974,0.0112054
2.08252,-0.0421681,-0.194439
2.07143,-0.0419437,0.0241203
1.96129,0.152291,-0.13756
2.02842,0.058076,-0.165658
1.91578,0.243379,0.0562029
1.92059,0.243989,-0.124078
2.08404,-0.042199,-0.121394
2.02149,0.0578778,0.0823915
1.95997,0.152188,-0.0915733
2.02439,0.0579607,-0.106137
1.97122,0.153061,0.242764
2.02443,0.0579619,0.165333
1.91317,0.236264,-0.0336482
1.96261,0.145503,0
2.027,0.0509551,-0.258092
1.92137,0.237277,0.0112519
1.96322,0.145549,-0.212052
2.08634,-0.0495313,-0.194811
2.07527,-0.0492686,0.0241669
1.96579,0.145739,-0.137839
2.02462,0.0508954,-0.165333
1.91662,0.23669,0.0562029
1.92143,0.237284,-0.124078
2.09187,-0.0496625,-0.121859
2.02568,0.0509219,0.0825544
1.96447,0.145641,-0.0917594
2.02857,0.0509947,-0.106347
1.97174,0.14618,0.242764
2.02064,0.0507952,0.165007
1.92378,0.237574,-0.0789721
1.92193,0.230538,-0.0337879
1.9671,0.138934,0
2.08309,-0.0567297,-0.02426
2.01923,0.043708,-0.257082
1.92616,0.231045,0.0112751
2.09013,-0.0569216,-0.195183
2.07509,-0.0565119,0.0241669
1.97027,0.139158,-0.138118
2.02877,0.0439145,-0.165658
1.92141,0.230475,0.0563193
2.03521,0.0440539,0.0355331
1.91829,0.230101,-0.123822
2.09168,-0.0569637,-0.121859
2.02984,0.0439376,0.0827172
1.96895,0.139065,-0.0919455
2.03273,0.0440002,-0.106556
2.02877,0.0439145,0.165658
1.9246,0.230858,-0.0789721
1.92669,0.224289,-0.0338577
1.96757,0.132066,0
2.08687,-0.0641241,-0.0243066
2.02334,0.0367308,-0.257587
1.92695,0.22432,0.0112751
2.09789,-0.0644624,-0.195926
2.09487,-0.0643698,0.0243997
1.97472,0.132546,-0.138397
2.03689,0.0369767,-0.166309
1.92617,0.224229,0.0564356
1.92701,0.224326,-0.124333
2.09546,-0.0643879,-0.122092
2.03797,0.0369964,0.0830429
1.97342,0.132458,-0.0921316
2.04086,0.0370489,-0.106975
1.98064,0.132943,0.243739
2.02892,0.036832,0.165658
1.92936,0.2246,-0.079135
1.92349,0.217115,-0.0337879
1.97201,0.125451,0
2.09063,-0.0715446,-0.0243531
2.03139,0.0297845,-0.258597
1.92773,0.217593,0.0112751
2.09765,-0.0717846,-0.195926
2.09063,-0.0715446,0.0243531
1.98314,0.126159,-0.138955
2.04099,0.0299253,-0.166634
1.93489,0.218401,0.0566684
2.04347,0.0299616,0.0356727
1.92778,0.217598,-0.124333
2.09123,-0.071565,-0.121859
2.03809,0.0298828,0.0830429
1.97387,0.125569,-0.0921316
2.04497,0.0299837,-0.107184
2.037,0.0298669,0.166309
1.9341,0.218312,-0.0792978
1.93219,0.211268,-0.0339275
1.97244,0.118567,0
2.10236,-0.0792946,-0.0244928
2.03545,0.0227373,-0.259102
2.04384,0.022831,-0.0118796
2.10136,-0.079257,-0.196298
2.09037,-0.0788424,0.0243531
1.9756,0.118757,-0.138397
2.04507,0.0228447,-0.16696
1.92853,0.210867,-0.124333
2.10294,-0.0793164,-0.122557
2.04218,0.0228124,0.0832057
1.98227,0.119157,-0.0925039
2.04507,0.0228447,-0.107184
1.98944,0.119589,0.244714
2.0371,0.0227557,0.166309
1.93883,0.211994,-0.0794606
1.93291,0.204521,-0.0339275
2.09408,-0.0863039,-0.0243997
2.03552,0.0156315,-0.259102
1.97738,0.111937,-0.213337
2.10505,-0.0867562,-0.19667
2.09008,-0.0861392,0.0243531
1.97999,0.112085,-0.138676
2.04514,0.0157054,-0.16696
1.94034,0.205307,0.0567847
1.94116,0.205394,-0.125101
2.11063,-0.086986,-0.123022
2.04624,0.0157139,0.0833685
1.98267,0.112237,-0.0925039
2.05312,0.0157667,-0.107603
1.98985,0.112643,0.244714
2.03716,0.0156442,0.166309
1.93759,0.198181,-0.0339973
2.10176,-0.093969,-0.0244928
2.03953,0.00854419,-0.259607
1.94184,0.198615,0.0113449
2.05195,0.00859622,-0.011926
2.10872,-0.0942801,-0.197041
1.98037,0.105174,-0.138676
2.05315,0.00860127,-0.167611
1.93707,0.198128,0.0566684
2.05567,0.00861181,0.0358821
1.93392,0.197806,-0.124589
2.11031,-0.0943514,-0.123022
2.05428,0.00860598,0.0836942
1.99103,0.10574,-0.0928761
2.05716,0.00861805,-0.107812
1.99816,0.106119,0.245689
2.04119,0.00855116,0.166634
1.93031,0.19063,-0.0338577
2.10541,-0.101498,-0.0245394
2.04351,0.00142709,-0.260113
1.9465,0.192228,0.0113681
2.05196,0.00143299,-0.011926
2.12031,-0.102216,-0.198157
2.10541,-0.101498,0.0245394
1.98869,0.0986555,-0.139234
2.05317,0.00143383,-0.167611
1.94969,0.192543,0.0570174
2.04769,0.00143,0.0357425
1.94255,0.191838,-0.125101
2.11795,-0.102102,-0.123487
2.05829,0.00143741,0.083857
1.99538,0.0989872,-0.0930622
2.05318,0.00143384,-0.107603
1.99455,0.098946,0.245201
2.04121,0.00142548,0.166634
1.94889,0.192465,-0.0797863
2.00499,0.099464,-0.0467124
1.94689,0.185408,-0.0341369
1.98989,0.0917531,0
2.10505,-0.108846,-0.0245394
1.95114,0.185812,0.0113914
2.05596,-0.00574045,-0.0119493
1.99036,0.091775,-0.214623
2.11596,-0.109411,-0.197785
2.10505,-0.108846,0.0245394
1.997,0.092081,-0.139792
2.05715,-0.00574378,-0.167936
1.95433,0.186116,0.0571338
2.06368,-0.00576201,0.0360218
1.94718,0.185435,-0.125357
2.12157,-0.109701,-0.12372
2.06228,-0.00575811,0.0840198
1.99571,0.0920219,-0.0930622
2.06516,-0.00576614,-0.108231
2.00282,0.0923493,0.246176
2.04918,-0.00572152,0.167285
1.95353,0.18604,-0.0799491
1.94753,0.17861,-0.0341369
2.11264,-0.116635,-0.0246325
2.06392,-0.0129679,-0.0119958
1.99464,0.0849956,-0.215051
2.12352,-0.117236,-0.198529
2.10865,-0.116415,0.024586
1.99731,0.0851091,-0.139792
2.06908,-0.0130002,-0.168913
1.95496,0.179292,0.0571338
2.06764,-0.0129912,0.0360916
1.95179,0.179001,-0.125613
2.12516,-0.117326,-0.123952
2.01077,0.0856826,0.117208
2.06225,-0.0129573,0.0840198
2.00001,0.0852245,-0.0932484
2.06113,-0.0129503,-0.108021
2.00313,0.0853571,0.246176
2.05712,-0.0129251,0.167936
1.95815,0.179584,-0.0801119
1.94814,0.171811,-0.0341369
2.1202,-0.124478,-0.0247257
2.05929,-0.020128,-0.262133
2.07187,-0.020251,-0.0120423
2.11912,-0.124415,-0.198157
2.11222,-0.124009,0.0246325
2.00158,0.0782921,-0.140071
2.06104,-0.0201452,-0.168262
1.95956,0.172818,0.0572502
2.07159,-0.0202482,0.0361614
1.96035,0.172888,-0.126124
2.12872,-0.124978,-0.124185
2.07018,-0.0202345,0.0843455
2.00429,0.0783983,-0.0934345
2.06507,-0.0201845,-0.108231
2.00738,0.078519,0.246664
2.06104,-0.0201452,0.168262
1.95877,0.172748,-0.0801119
1.95667,0.166026,-0.0342765
1.99872,0.0715434,0
2.12776,-0.132003,-0.0248188
1.95693,0.166049,0.0114146
2.07179,-0.027121,-0.0120423
2.13062,-0.132181,-0.199272
2.11978,-0.131508,0.0247257
2.00581,0.0717974,-0.14035
2.06495,-0.0270315,-0.168587
1.95614,0.165981,0.0571338
2.07151,-0.0271173,0.0361614
1.94898,0.165374,-0.125357
2.13228,-0.132283,-0.124418
2.01928,0.0722795,0.117673
2.07011,-0.027099,0.0843455
2.01652,0.0721806,-0.0939929
2.0116,0.0720043,0.247151
2.05698,-0.0269272,0.167936
1.96331,0.166589,-0.0802748
1.95325,0.158871,-0.0342067
2.00695,0.0648248,0
2.13128,-0.139691,-0.0248654
1.96548,0.159865,0.0114611
2.07168,-0.0343523,-0.0120423
2.13412,-0.139877,-0.199644
2.00605,0.0647958,-0.14035
2.07282,-0.0343712,-0.169238
1.96468,0.159801,0.0573665
2.0714,-0.0343476,0.0361614
1.95751,0.159217,-0.125868
2.13579,-0.139986,-0.12465
2.01952,0.0652309,0.117673
2.08199,-0.0345232,0.084834
2.01676,0.0651416,-0.0939929
2.08086,-0.0345045,-0.109068
2.01977,0.0652388,0.248126
2.06485,-0.034239,0.168587
1.95778,0.152362,-0.0342765
2.01516,0.0580487,0
2.13477,-0.147406,-0.0249119
1.96602,0.153003,0.0114611
2.07555,-0.0416644,-0.0120655
2.12965,-0.147052,-0.199272
2.13078,-0.14713,0.0248654
2.01424,0.0580222,-0.140908
2.07667,-0.041687,-0.169564
1.96921,0.153251,0.0574829
2.08326,-0.0418193,0.0363708
1.96601,0.153002,-0.12638
2.13927,-0.147717,-0.124883
2.02772,0.0584104,0.118138
2.07386,-0.0416306,0.0845083
2.00899,0.0578708,-0.0936206
2.01999,0.0581876,0.248126
2.0687,-0.041527,0.168913
1.96841,0.153189,-0.0804376
2.02661,0.0583784,-0.0471777
1.96628,0.14612,-0.0344161
2.13424,-0.154856,-0.0249119
1.96654,0.14614,0.0114611
2.07939,-0.049003,-0.0120888
2.01569,0.051023,-0.217193
2.13707,-0.155061,-0.200016
2.01443,0.0509912,-0.140908
2.08847,-0.049217,-0.17054
1.97372,0.146673,0.0575993
2.0871,-0.0491848,0.0364406
1.97051,0.146435,-0.126636
2.14671,-0.155761,-0.125348
2.08569,-0.0491515,0.0849968
2.02515,0.0512626,-0.0943651
2.08456,-0.0491249,-0.109277
2.01621,0.0510361,0.247639
2.07651,-0.0489352,0.169564
1.9769,0.14691,-0.0807633
2.0308,0.0514055,-0.0472707
1.97079,0.139194,-0.034486
2.07435,-0.0564926,-0.060392
2.01953,0.0437136,0
2.14164,-0.163286,-0.025005
2.07845,-0.0566043,-0.264658
1.97904,0.139776,0.0115308
2.07919,-0.0566245,-0.0120888
2.02382,0.0438064,-0.21805
2.14046,-0.163196,-0.200387
2.09226,-0.0569804,-0.170865
1.97823,0.139719,0.0577156
2.0949,-0.0570523,0.0365802
1.97502,0.139492,-0.126892
2.03607,0.0440717,0.118604
2.0855,-0.0567961,0.0849968
2.02932,0.0439257,-0.0945512
2.08836,-0.0568741,-0.109487
2.02432,0.0438173,0.248613
2.08031,-0.0566548,0.169889
1.97344,0.139381,-0.0806004
1.97523,0.132926,-0.0345558
2.02366,0.0370897,0
2.14906,-0.171022,-0.0250982
1.97949,0.133213,0.0115308
2.08699,-0.0637633,-0.0121353
2.14784,-0.170925,-0.201131
2.03511,0.0372995,0.0473638
2.14507,-0.170705,0.0250516
2.02272,0.0370724,-0.141466
2.09605,-0.06404,-0.171191
1.97869,0.133159,0.0577156
2.0947,-0.063999,0.0365802
1.97547,0.132942,-0.126892
2.16149,-0.172011,-0.126278
2.03621,0.0373196,0.118604
2.0813,-0.0635895,0.084834
2.02946,0.0371959,-0.0945512
2.09614,-0.064043,-0.109906
2.03239,0.0372497,0.249588
1.97788,0.133105,-0.0807633
2.03911,0.0373727,-0.0474568
1.97169,0.125776,-0.034486
2.03178,0.0301442,0
2.14845,-0.178522,-0.0250982
2.08992,-0.0711555,-0.266173
1.98393,0.126557,0.0115541
2.09075,-0.071184,-0.0121585
2.02804,0.0300888,-0.218478
2.04322,0.030314,0.0475499
2.02683,0.0300708,-0.141745
1.98313,0.126505,0.057832
2.10246,-0.0715827,0.0367199
1.97592,0.126046,-0.126892
2.1569,-0.179225,-0.126045
2.03633,0.0302117,0.118604
2.09305,-0.0712622,0.0853225
2.03357,0.0301708,-0.0947374
2.0999,-0.0714954,-0.110115
2.03251,0.0301551,0.249588
1.98631,0.126708,-0.0810889
2.03922,0.0302547,-0.0474568
2.03187,0.0230518,0
2.15578,-0.186711,-0.0251913
2.09362,-0.0785991,-0.266678
1.99235,0.120112,0.0116006
2.09449,-0.0786317,-0.0121818
2.04332,0.0231817,0.0475499
2.0349,0.0230862,-0.142303
2.10352,-0.0789706,-0.171842
1.99154,0.120063,0.0580647
2.1062,-0.0790712,0.0367897
1.98432,0.119628,-0.127403
2.15626,-0.186752,-0.126045
2.0444,0.023194,0.119069
2.08879,-0.0784179,0.0851596
2.03766,0.0231175,-0.0949235
2.10762,-0.0791247,-0.110534
2.03657,0.0231052,0.250076
1.97876,0.119293,-0.0807633
2.04332,0.0231817,-0.0475499
1.9845,0.112688,-0.0346954
2.15512,-0.194235,-0.0251913
2.0973,-0.0860695,-0.267184
1.99675,0.113384,0.0116238
2.0942,-0.0859424,-0.0121818
2.04338,0.016049,0.0475499
1.99594,0.113338,0.0581811
2.1099,-0.0865867,0.0368595
1.98472,0.112701,-0.127403
2.16753,-0.195353,-0.126743
2.04447,0.0160576,0.119069
2.0925,-0.0858726,0.0853225
2.04172,0.016036,-0.0951096
2.11132,-0.086645,-0.110743
2.04061,0.0160273,0.250563
1.98715,0.112838,-0.0810889
2.04738,0.0160804,-0.0476429
1.98888,0.105973,-0.0347652
2.03598,0.00888369,0
2.15841,-0.20213,-0.0252379
2.10095,-0.0935664,-0.267689
2.10188,-0.0936079,-0.0122283
2.04416,0.00891936,-0.220192
2.05542,0.00896853,0.047829
2.039,0.00889688,-0.142582
2.11088,-0.0940086,-0.172493
1.99233,0.106157,0.0580647
2.11358,-0.0941291,0.0369293
1.99706,0.106409,-0.128171
2.17081,-0.203291,-0.126976
2.0525,0.00895579,0.119534
2.10017,-0.0935319,0.0856481
2.04576,0.00892638,-0.0952957
2.10702,-0.0938367,-0.110534
1.98753,0.105901,-0.0810889
2.05542,0.00896853,-0.047829
1.98923,0.0990299,-0.0347652
2.04,0.00178024,0
1.99749,0.0994411,0.0116238
2.10953,-0.101328,-0.0122748
2.04417,0.00178388,-0.220192
2.05944,0.0017972,0.0479221
2.047,0.00178634,-0.14314
2.1185,-0.101759,-0.173144
2.00067,0.0995995,0.0582974
2.11324,-0.101506,0.0369293
1.99344,0.0992391,-0.127915
2.17803,-0.211639,-0.127441
2.05651,0.00179465,0.119766
2.10383,-0.101054,0.085811
2.05377,0.00179225,-0.095668
2.11865,-0.101766,-0.111162
1.99587,0.0993603,-0.0814146
2.05944,0.0017972,-0.0479221
1.98957,0.0920856,-0.0347652
2.05199,-0.00537212,0
2.17684,-0.219197,-0.0254707
2.00582,0.0928378,0.0116703
2.11316,-0.108897,-0.012298
2.06343,-0.00540207,0.0480151
2.05498,-0.00537992,-0.143698
2.12212,-0.109358,-0.173469
2.005,0.0928001,0.0584138
2.12486,-0.1095,0.0371387
1.99377,0.0922801,-0.127915
2.17728,-0.219241,-0.127441
2.0605,-0.00539439,0.119999
2.11144,-0.108809,0.0861366
2.05776,-0.00538722,-0.0958541
2.12227,-0.109366,-0.111371
1.99621,0.0923928,-0.0814146
2.05944,-0.0053916,-0.0479221
1.99787,0.085482,-0.0349048
2.05196,-0.0125349,0
2.00213,0.0856646,0.0116471
2.11277,-0.116273,-0.012298
2.05209,-0.0125357,-0.221048
2.0634,-0.0126048,0.0480151
2.05494,-0.0125531,-0.143698
2.12968,-0.117204,-0.17412
2.00532,0.0858007,0.0584138
2.12446,-0.116916,0.0371387
2.00605,0.0858319,-0.128683
2.06047,-0.0125869,0.119999
2.11504,-0.116398,0.0862994
2.05773,-0.0125701,-0.0958541
2.12586,-0.116993,-0.11158
2.0045,0.0857659,-0.0817402
2.0634,-0.0126048,-0.0480151
1.99815,0.0785077,-0.0349048
2.11548,-0.12383,-0.0616719
2.05191,-0.0196975,0
2.19514,-0.236531,-0.0257035
2.01441,0.0791464,0.0117168
2.11634,-0.123881,-0.0123213
2.05999,-0.0197751,-0.221905
2.07134,-0.0198841,0.0482012
2.12926,-0.124637,-0.17412
2.0096,0.0789573,0.0585302
2.00633,0.078829,-0.128683
2.0684,-0.0198558,0.120464
2.07366,-0.0199063,-0.0965986
2.12943,-0.124647,-0.11179
2.00878,0.0789253,-0.0819031
2.06335,-0.0198073,-0.0480151
1.99839,0.0722299,-0.0349048
2.05983,-0.0262456,0
2.12792,-0.131267,-0.012391
2.05992,-0.0262466,-0.221905
2.07527,-0.0264422,0.0482943
2.05881,-0.0262325,-0.143977
2.12488,-0.13108,-0.173795
2.00984,0.0726436,0.0585302
2.13561,-0.131742,0.0373482
2.01056,0.0726698,-0.128938
2.07232,-0.0264047,0.120697
2.07358,-0.0264208,-0.0965986
2.137,-0.131828,-0.112208
2.00902,0.0726141,-0.0819031
2.07127,-0.0263913,-0.0482012
2.00264,0.0650348,-0.0349746
2.06372,-0.0338607,0
2.0189,0.0655629,0.0117401
2.1394,-0.139849,-0.0124607
2.06776,-0.0339269,-0.222762
2.07916,-0.0341139,0.0483873
2.07066,-0.0339746,-0.144814
2.13234,-0.139387,-0.174445
2.01808,0.0655362,0.0587629
2.13512,-0.139569,0.0373482
2.00682,0.0651706,-0.128683
2.0762,-0.0340654,0.120929
2.08146,-0.0341517,-0.0969709
2.1365,-0.139659,-0.112208
2.01327,0.0653799,-0.0820659
2.07916,-0.0341139,-0.0483873
2.00685,0.0581597,-0.0350444
2.06759,-0.0411438,0
2.01912,0.0585152,0.0117401
2.12693,-0.146491,-0.012391
2.08302,-0.0414509,0.0484804
2.07452,-0.0412817,-0.145093
2.13582,-0.147104,-0.174771
2.0143,0.0583756,0.0586465
2.01103,0.0582808,-0.128938
2.08006,-0.041392,0.121162
2.08133,-0.0414172,-0.0969709
2.14796,-0.14794,-0.112836
2.01748,0.0584677,-0.0822287
2.07503,-0.0412918,-0.0482943
2.01505,0.0510062,-0.0351841
2.07542,-0.0489101,0
2.02732,0.0513168,0.0117866
2.13834,-0.155154,-0.0124607
2.07144,-0.0488162,-0.22319
2.08686,-0.0491795,0.0485734
2.07835,-0.048979,-0.145372
2.14322,-0.155508,-0.175422
2.02649,0.051296,0.0589956
2.14603,-0.155712,0.0375576
2.0799,-0.0490155,0.121162
2.07717,-0.0489512,-0.0967847
2.15138,-0.1561,-0.113046
2.01768,0.0510729,-0.0822287
2.08286,-0.0490853,-0.0484804
2.0192,0.0447642,-0.0352539
2.07526,-0.05543,0
2.0901,-0.0558264,-0.325287
2.03147,0.0450362,0.0118098
2.14582,-0.162475,-0.0125072
2.08669,-0.0557353,0.0485734
2.14669,-0.162541,-0.175747
2.03064,0.0450179,0.059112
2.14952,-0.162755,0.0376274
2.01537,0.0446794,-0.129194
2.08772,-0.0557627,0.121627
2.085,-0.05569,-0.097157
2.1469,-0.162557,-0.112836
2.02982,0.0449997,-0.0827172
2.08269,-0.0556285,-0.0484804
2.02334,0.0377903,-0.0353237
2.08305,-0.0629151,0
2.03561,0.0380195,0.0118331
2.14923,-0.17028,-0.0125305
2.083,-0.0629135,-0.224475
2.09448,-0.0632603,0.0487595
2.08595,-0.0630028,-0.145931
2.14214,-0.169719,-0.175422
2.02679,0.0378547,0.0589956
2.15691,-0.170889,0.037767
2.02749,0.0378678,-0.129962
2.0915,-0.0631704,0.121859
2.09278,-0.0632089,-0.0975292
2.15428,-0.170681,-0.113255
2.02597,0.0378394,-0.0825544
2.09448,-0.0632603,-0.0487595
2.03146,0.0304942,-0.0354633
2.0908,-0.0708203,0
2.03974,0.0306184,0.0118563
2.15656,-0.178818,-0.012577
2.08673,-0.0706823,-0.224904
2.10223,-0.0712073,0.0489456
2.0897,-0.0707829,-0.14621
2.14548,-0.177898,-0.175747
2.03491,0.0305459,0.0592283
2.10323,-0.0712412,0.122557
2.10052,-0.0711494,-0.0979015
2.15762,-0.178906,-0.113464
2.03808,0.0305935,-0.0830429
2.09423,-0.0709365,-0.0487595
2.09454,-0.0782675,0
2.04383,0.0235443,0.0118796
2.15593,-0.186344,-0.012577
2.09044,-0.0781144,-0.225332
2.10596,-0.0786943,0.0490387
2.08944,-0.0780768,-0.14621
2.1647,-0.187103,-0.177375
2.035,0.0234426,0.0592283
2.02771,0.0233585,-0.129962
2.10297,-0.0785824,0.122557
2.10824,-0.0787795,-0.0982737
2.16495,-0.187124,-0.113883
2.03418,0.0234331,-0.08288
2.09797,-0.0783956,-0.0488526
2.03163,0.0163113,-0.0354633
2.10225,-0.085905,0
2.0439,0.0164098,0.0118796
2.15925,-0.194227,-0.0126002
2.09413,-0.0855733,-0.225761
2.1051,-0.0860215,-0.147326
2.04307,0.0164032,0.0594611
2.03177,0.0163124,-0.130218
2.10268,-0.0859227,0.122557
2.09997,-0.0858119,-0.0979015
2.16826,-0.195038,-0.114092
2.03824,0.0163644,-0.0830429
2.10567,-0.086045,-0.0490387
2.05194,0.00966961,0.011926
2.17054,-0.202501,-0.01267
2.09781,-0.0926927,-0.226189
2.10937,-0.0932037,0.0491318
2.10082,-0.0928257,-0.147047
2.03911,0.00960916,0.0593447
2.03979,0.00961236,-0.130729
2.11435,-0.0934238,0.123255
2.11564,-0.0934807,-0.098646
2.17158,-0.202598,-0.114302
2.04628,0.00964293,-0.0833685
2.10937,-0.0932037,-0.0491318
2.03969,0.00249194,-0.0356029
2.1096,-0.100593,0
2.05596,0.00251182,0.0119493
2.17778,-0.210847,-0.0127165
2.10144,-0.100204,-0.226617
2.11702,-0.100947,0.0493179
2.10048,-0.100158,-0.147047
2.04313,0.00249615,0.0594611
2.0478,0.00250184,-0.131241
2.11929,-0.101055,-0.0988321
2.17483,-0.210562,-0.114511
2.0503,0.0025049,-0.0835313
2.10903,-0.100566,-0.0491318
2.04768,-0.00464607,-0.0357425
2.10924,-0.107957,0
2.05596,-0.00466485,0.0119493
2.18499,-0.219247,-0.012763
2.113,-0.108149,-0.227903
2.10809,-0.107898,-0.147605
2.04713,-0.00464481,0.0595774
2.0438,-0.00463726,-0.130985
2.12292,-0.108657,-0.0990182
2.17806,-0.218551,-0.11472
2.05429,-0.00466106,-0.0836942
2.11666,-0.108336,-0.0493179
2.04765,-0.0121512,-0.0357425
2.12481,-0.116563,0
2.05993,-0.012224,0.0119725
2.11565,-0.116061,-0.148163
2.05509,-0.0121953,0.0598101
2.1225,-0.116437,-0.0990182
2.18122,-0.226946,-0.11493
2.05826,-0.0122141,-0.083857
2.11624,-0.116094,-0.0493179
2.12039,-0.123746,0
2.06387,-0.0194521,0.0119958
2.13179,-0.124412,0.0496901
2.12319,-0.12391,-0.148721
2.05504,-0.0193689,0.0598101
2.05968,-0.0194126,-0.132008
2.12208,-0.123845,-0.0990182
2.19233,-0.23584,-0.115558
2.06619,-0.019474,-0.0841827
2.12381,-0.123946,-0.049504
2.05552,-0.0258318,-0.0358821
2.116,-0.130162,0
2.0718,-0.0260364,0.0120423
2.11971,-0.13039,-0.228759
2.13538,-0.131354,0.0497831
2.12279,-0.130579,-0.148721
2.06696,-0.0259756,0.0601592
2.0636,-0.0259334,-0.132264
2.12567,-0.130757,-0.0992044
2.06612,-0.025965,-0.0841827
2.1274,-0.130863,-0.049597
2.12349,-0.138437,0
2.07569,-0.0336947,0.0120655
2.13906,-0.139451,-0.230901
2.14287,-0.1397,0.0499692
2.12628,-0.138619,-0.149
2.06749,-0.0335615,-0.13252
2.12917,-0.138807,-0.0993905
2.07001,-0.0336025,-0.0843455
2.1309,-0.138919,-0.0496901
2.07527,-0.0412967,-0.0362312
2.12696,-0.146494,0
2.06756,-0.0411431,0.012019
2.13372,-0.146959,-0.149558
2.06672,-0.0411264,0.0601592
2.13662,-0.147159,-0.0997627
2.07387,-0.0412687,-0.0845083
2.14633,-0.147828,-0.0500623
2.07941,-0.0479147,0.0120888
2.13723,-0.153948,-0.149837
2.07457,-0.0478031,0.060392
2.07519,-0.0478174,-0.133032
2.14013,-0.154157,-0.0999489
2.08172,-0.0479679,-0.084834
2.14187,-0.154283,-0.0499692
2.13791,-0.161501,0
2.08723,-0.0553851,0.0121353
2.15328,-0.162662,0.0502484
2.14066,-0.161708,-0.150116
2.07439,-0.0550444,0.060392
2.079,-0.0551668,-0.133288
2.13559,-0.161326,-0.0997627
2.08554,-0.0553401,-0.0849968
2.14531,-0.162059,-0.0500623
2.08272,-0.0632691,-0.0363708
2.087,-0.0633991,0.0121353
2.08216,-0.0632519,0.0606247
2.08276,-0.0632704,-0.133543
2.14292,-0.170157,-0.100135
2.0933,-0.0635903,-0.0853225
2.16061,-0.171562,-0.0504345
2.08651,-0.0699458,-0.0364406
2.1447,-0.17708,0
2.08679,-0.0699553,0.0121353
2.08195,-0.0697929,0.0606247
2.09053,-0.0700807,-0.134055
2.15034,-0.177546,-0.100507
2.0851,-0.0698985,-0.0849968
2.15608,-0.17802,-0.0503414
2.09024,-0.0777414,-0.0365104
2.09052,-0.077752,0.0121585
2.15074,-0.185518,-0.150953
2.09026,-0.0777424,-0.134055
2.15366,-0.18577,-0.100693
2.09681,-0.0779859,-0.0854853
2.17135,-0.187295,-0.0507136
2.08995,-0.0850372,-0.0365104
2.15533,-0.193496,0
2.09423,-0.0852114,0.0121818
2.09738,-0.0853393,0.0610901
2.16096,-0.194001,-0.101066
2.1085,-0.0857921,-0.0859738
2.16271,-0.194159,-0.0505275
2.15866,-0.201013,0
2.10193,-0.0925074,0.0122283
2.16135,-0.201263,-0.15179
2.10507,-0.0926456,0.0613228
2.10165,-0.092495,-0.134823
2.1122,-0.0929594,-0.0861366
2.16206,-0.201329,-0.0505275
2.10529,-0.100388,-0.0367897
2.17782,-0.210851,0
2.10557,-0.100401,0.0122515
2.10472,-0.10036,0.0613228
2.10927,-0.100578,-0.135334
2.11584,-0.100891,-0.0862994
2.17325,-0.210408,-0.0508067
2.11291,-0.108145,-0.0369293
2.1092,-0.107955,0.0122748
2.10435,-0.107707,0.0613228
2.11289,-0.108144,-0.13559
2.17073,-0.217816,-0.101624
2.10749,-0.107867,-0.0859738
2.18444,-0.219191,-0.0510859
2.11652,-0.115738,-0.0369991
2.11281,-0.115535,0.012298
2.10796,-0.11527,0.0614392
2.1125,-0.115518,-0.13559
2.17393,-0.225805,-0.10181
2.11907,-0.115878,-0.0864623
2.18764,-0.227228,-0.0511789
2.11243,-0.122172,0.012298
2.12355,-0.122815,0.0619047
2.11612,-0.122385,-0.135846
2.17719,-0.233059,-0.101996
2.12269,-0.122765,-0.0866251
2.17896,-0.233248,-0.0509928
2.11996,-0.130405,0.0123445
2.1191,-0.130352,0.0617883
2.12761,-0.130875,-0.136613
2.1922,-0.242796,-0.102741
2.1302,-0.131035,-0.0869508
2.19399,-0.242994,-0.051365
2.12317,-0.138416,-0.0371387
2.13144,-0.138955,0.0124142
2.13456,-0.139158,0.0622537
2.13109,-0.138932,-0.136869
2.1337,-0.139102,-0.0871136
2.13469,-0.145903,-0.0373482
2.127,-0.145377,0.012391
2.1381,-0.146136,0.0623701
2.13861,-0.146171,-0.137381
2.13325,-0.145804,-0.0871136
2.13414,-0.153726,-0.0373482
2.13806,-0.154008,-0.137381
2.14067,-0.154196,-0.0874392
2.13388,-0.161197,0.0124375
2.13751,-0.161471,-0.137381
2.14411,-0.161969,-0.0876021
2.14102,-0.168878,-0.0374878
2.14131,-0.168901,0.012484
2.1489,-0.1695,-0.138148
2.15153,-0.169707,-0.0879277
2.14438,-0.177053,-0.0375576
2.14865,-0.177406,0.0125305
2.14827,-0.177375,-0.138148
2.15487,-0.17792,-0.0880906
2.15171,-0.185224,-0.0376972
2.15599,-0.185592,0.012577
2.15559,-0.185557,-0.13866
2.15424,-0.185441,-0.0880906
2.15902,-0.193447,-0.0378368
2.1589,-0.193437,-0.138916
2.16154,-0.193673,-0.0884162
2.15825,-0.200595,-0.138916
2.16487,-0.20121,-0.0885791
2.16164,-0.208523,-0.0379066
2.16813,-0.209149,-0.0887419
2.16885,-0.216863,-0.0380462
2.17534,-0.217511,-0.0890675
2.17206,-0.224844,-0.0381161
2.17457,-0.225103,-0.0890675
2.17774,-0.233118,-0.0892304
2.18486,-0.241597,-0.089556
