1.92041,0.300042,-0.0339275
2.00886,0.115128,-0.402433
1.95295,0.208022,0
1.96904,0.209736,-0.30807
1.99659,0.114425,-0.254557
1.91671,0.299465,0.0112751
1.98471,0.113744,-0.0115541
2.0311,0.0170174,-0.189606
1.95242,0.207966,0.0456888
1.9601,0.208783,-0.137839
1.9901,0.114053,-0.162729
1.90803,0.298109,0.0562029
1.98045,0.1135,0.0346256
2.02849,0.0169955,-0.118138
1.93774,0.206401,0.113487
1.95878,0.208643,-0.0917594
1.99,0.114047,-0.104463
1.94845,0.207542,-0.0455958
1.92534,0.294276,-0.0339973
1.98427,0.107118,-0.057832
2.00531,0.108253,-0.401648
1.94965,0.201134,0
1.96973,0.203205,-0.30807
2.00092,0.108016,-0.255062
1.9177,0.293107,0.0112751
1.98907,0.107377,-0.0115773
1.95426,0.201609,-0.211624
2.03114,0.0102813,-0.189606
1.9531,0.20149,0.0456888
1.95681,0.201872,-0.13756
2.00241,0.108097,-0.163705
1.91692,0.292988,0.0564356
1.98481,0.107147,0.0346954
1.91775,0.293115,-0.124333
2.03253,0.0102883,-0.118371
1.95946,0.202146,-0.0917594
1.99037,0.107447,-0.104463
1.92009,0.293473,-0.079135
1.9531,0.20149,-0.0456888
1.92641,0.287217,-0.0339973
1.98465,0.0998436,-0.057832
2.01353,0.101296,-0.403217
1.95436,0.194382,0
1.97439,0.196374,-0.308685
2.00526,0.100881,-0.255567
1.92271,0.286666,0.0112984
1.98945,0.100085,-0.0115773
1.95895,0.194838,-0.212052
2.03515,0.0028418,-0.189978
1.95383,0.194329,0.0456888
1.96151,0.195093,-0.137839
1.99085,0.100156,-0.162729
1.99318,0.100273,0.034835
1.92671,0.287261,-0.124845
2.03255,0.00283818,-0.118371
1.96019,0.194962,-0.0917594
1.99075,0.10015,-0.104463
1.9172,0.285844,-0.0789721
1.95781,0.194725,-0.0457819
1.93527,0.28198,-0.0341369
1.99296,0.0936365,-0.0580647
2.0021,0.094066,-0.400864
1.95101,0.187517,0
1.97896,0.190204,-0.3093
2.00162,0.0940437,-0.255062
1.9197,0.279711,0.0112751
1.96354,0.188721,-0.212481
2.03515,-0.00390758,-0.189978
1.95844,0.188231,0.0457819
1.96214,0.188587,-0.137839
1.99515,0.0937398,-0.163054
1.91892,0.279597,0.0564356
1.9895,0.0934742,0.0347652
1.9237,0.280294,-0.124589
1.95168,0.187582,0.114185
1.99107,0.0935478,-0.104463
1.92209,0.28006,-0.079135
1.95446,0.187849,-0.0456888
1.93228,0.27466,-0.0340671
1.99327,0.0866796,-0.0580647
1.95165,0.180706,0
1.97962,0.183295,-0.3093
2.0059,0.087229,-0.255567
1.93254,0.274697,0.0113449
2.00207,0.0870624,-0.0116471
1.96419,0.181866,-0.212481
2.03911,-0.0110327,-0.190349
1.96307,0.181763,0.0458749
1.97074,0.182473,-0.138397
2.00344,0.0871216,-0.163705
1.92384,0.27346,0.056552
1.98982,0.0865293,0.0347652
1.92467,0.273578,-0.124589
1.95233,0.180768,0.114185
1.96943,0.182352,-0.0921316
2.00336,0.0871181,-0.105091
1.92306,0.273349,-0.079135
1.95909,0.181394,-0.0457819
1.9253,0.266816,-0.0339275
1.98957,0.0795619,-0.0579483
1.96024,0.174602,0
1.98418,0.176735,-0.309915
2.00223,0.0800684,-0.255062
1.92953,0.267401,0.0113216
2.00237,0.0800738,-0.0116471
1.96481,0.175009,-0.212481
2.04702,-0.0182209,-0.191093
1.96369,0.17491,0.0458749
1.97136,0.175593,-0.138397
2.01169,0.0804468,-0.164356
1.92478,0.266744,0.056552
1.92956,0.267406,-0.124845
2.03647,-0.018127,-0.118604
1.96608,0.175122,-0.0919455
1.99966,0.0799654,-0.104881
1.924,0.266635,-0.079135
1.95971,0.174555,-0.0457819
1.93023,0.260292,-0.0339973
2.00183,0.0727041,-0.0582974
1.96087,0.167416,0
2.01441,0.0731608,-0.256577
1.93049,0.260327,0.0113216
2.00265,0.0727337,-0.0116471
1.97336,0.168483,-0.213337
2.03897,-0.0256239,-0.190349
1.96432,0.167711,0.0458749
1.97199,0.168366,-0.138397
2.01198,0.0730725,-0.164356
1.93367,0.260755,0.0567847
1.93053,0.260332,-0.124845
2.04038,-0.0256416,-0.118836
1.9667,0.167914,-0.0919455
1.99195,0.0723452,-0.104463
1.93289,0.26065,-0.0794606
1.9683,0.168051,-0.045968
1.93505,0.254411,-0.0340671
1.99807,0.0659339,-0.0581811
1.96141,0.160913,0
1.98143,0.162555,-0.3093
2.01464,0.0664808,-0.256577
1.93928,0.254967,0.0113681
1.99888,0.0659607,-0.0116238
1.96995,0.161613,-0.212909
2.04684,-0.0325113,-0.191093
1.96487,0.161196,0.0458749
1.96856,0.1615,-0.138118
2.01221,0.0664006,-0.164356
1.9266,0.2533,0.056552
1.93138,0.253929,-0.124845
2.04827,-0.032534,-0.119301
1.95411,0.160314,0.114185
1.97522,0.162046,-0.0923178
2.00016,0.0660032,-0.104881
1.92978,0.253718,-0.0792978
1.96487,0.161196,-0.0458749
1.94783,0.249177,-0.0342765
1.99828,0.0589584,-0.0581811
1.96196,0.154065,0
1.98592,0.155947,-0.309915
2.01486,0.0594475,-0.256577
1.94016,0.248195,0.0113681
2.00709,0.0592183,-0.0116703
1.97843,0.155358,-0.213766
2.05468,-0.0398108,-0.191837
1.96542,0.154336,0.0458749
1.97707,0.155251,-0.138676
2.00446,0.0591406,-0.163705
1.92747,0.246573,0.056552
1.93226,0.247185,-0.124845
2.05214,-0.0397615,-0.119534
1.97577,0.155149,-0.0923178
2.00837,0.059256,-0.1053
1.93065,0.24698,-0.0792978
1.97738,0.155275,-0.0461541
1.93678,0.240896,-0.0340671
2.00647,0.0521911,-0.0584138
1.97046,0.147814,0
1.99434,0.149605,-0.311144
2.01505,0.0524144,-0.256577
1.93307,0.240434,0.0113216
2.00329,0.0521083,-0.0116471
1.97896,0.148452,-0.213766
2.05055,-0.0468912,-0.191465
1.96993,0.147774,0.045968
1.98556,0.148947,-0.139234
2.01661,0.0524548,-0.164682
1.92832,0.239843,0.056552
1.94499,0.241917,-0.125613
1.98427,0.14885,-0.09269
2.00856,0.0522455,-0.1053
1.9434,0.241719,-0.0797863
1.97791,0.148373,-0.0461541
1.93757,0.234472,-0.0340671
2.00663,0.0455375,-0.0584138
1.97094,0.14128,0
1.99482,0.142991,-0.311144
2.02315,0.0459124,-0.257587
1.94577,0.235465,0.0113914
2.01145,0.0456468,-0.0116936
1.97547,0.141604,-0.213337
2.05834,-0.0538989,-0.192208
1.97041,0.141241,0.045968
1.98604,0.142362,-0.139234
1.93704,0.234408,0.0567847
1.94182,0.234987,-0.125357
2.05182,-0.0537281,-0.119534
1.98076,0.141984,-0.0925039
2.01272,0.0456756,-0.105509
1.94419,0.235274,-0.0797863
1.9744,0.141527,-0.046061
1.94632,0.22864,-0.0342067
2.00678,0.0385323,-0.0584138
1.96743,0.134126,0
1.99925,0.136296,-0.311759
2.0233,0.0388494,-0.257587
1.94261,0.228204,0.0113681
2.01959,0.0387783,-0.0117401
1.97992,0.134978,-0.213766
2.05814,-0.0610841,-0.192208
1.97089,0.134362,0.045968
1.98653,0.135428,-0.139234
2.02489,0.03888,-0.165333
1.94579,0.228578,0.0570174
1.94263,0.228207,-0.125357
1.98125,0.135068,-0.0925039
2.00887,0.0385724,-0.1053
1.94897,0.228952,-0.0799491
1.98286,0.135178,-0.0462471
1.95112,0.221957,-0.0342765
1.9958,0.128713,-0.311144
2.03136,0.0315571,-0.258597
1.94741,0.221535,0.0113914
1.99231,0.128488,-0.215051
2.06188,-0.0687594,-0.19258
1.97137,0.127138,0.045968
1.98303,0.12789,-0.138955
2.01705,0.0313347,-0.164682
1.93867,0.220541,0.0567847
1.94345,0.221085,-0.125357
1.97774,0.127549,-0.0923178
2.01699,0.0313338,-0.105719
1.94185,0.220904,-0.0796234
1.97935,0.127653,-0.0461541
1.95582,0.215924,-0.0343463
2.01899,0.0246679,-0.0587629
1.97631,0.120876,0
1.99621,0.122093,-0.311144
2.02352,0.0247232,-0.257587
1.94415,0.214637,0.0113681
1.98876,0.121638,-0.214623
2.06563,-0.075743,-0.192952
1.97976,0.121088,0.0461541
1.98344,0.121312,-0.138955
2.02511,0.0247426,-0.165333
1.93939,0.214111,0.0567847
1.94814,0.215077,-0.125613
1.99012,0.121721,-0.0928761
2.02108,0.0246933,-0.105928
1.95052,0.21534,-0.0799491
1.98375,0.121332,-0.0462471
1.94861,0.208245,-0.0342067
2.01907,0.0176196,-0.0587629
1.97672,0.113976,0
1.99663,0.115124,-0.311144
2.03153,0.0177284,-0.258597
1.94887,0.208274,0.0113914
1.99314,0.114923,-0.215051
2.06933,-0.0831133,-0.193324
1.98017,0.114176,0.0461541
1.99182,0.114847,-0.139513
2.02917,0.0177078,-0.165658
1.9441,0.207764,0.0569011
1.99452,0.115003,-0.0930622
2.02115,0.0176378,-0.105928
1.95126,0.208529,-0.0799491
1.98816,0.114636,-0.0463402
1.95333,0.201513,-0.0342765
2.01512,0.0101994,-0.0586465
1.98511,0.107162,0
2.00098,0.108019,-0.311759
2.03555,0.0103028,-0.259102
1.9536,0.20154,0.0114146
1.99355,0.107618,-0.215051
2.06503,-0.0905224,-0.192952
1.98857,0.107349,0.0463402
2.0002,0.107977,-0.140071
2.02922,0.0102708,-0.165658
1.94883,0.201048,0.0570174
1.94963,0.201131,-0.125613
1.99094,0.107477,-0.0928761
2.02519,0.0102504,-0.106137
1.95201,0.201376,-0.0799491
1.98857,0.107349,-0.0463402
1.95399,0.195035,-0.0342765
2.02314,0.00353136,-0.0588792
1.98146,0.100377,0
2.00922,0.101783,-0.312989
2.03557,0.00355306,-0.259102
1.95426,0.195061,0.0114146
1.99389,0.101007,-0.215051
2.06074,-0.0971817,-0.19258
1.98092,0.10035,0.0461541
2.00054,0.101343,-0.140071
2.03722,0.00355594,-0.166309
1.94948,0.194585,0.0570174
1.95823,0.195458,-0.126124
1.99528,0.101077,-0.0930622
2.02522,0.00353499,-0.106137
1.96062,0.195697,-0.0802748
1.98891,0.100754,-0.0463402
1.95466,0.188213,-0.0342765
1.9818,0.0934599,0
2.00957,0.0947694,-0.312989
2.04351,-0.00356586,-0.260113
1.95891,0.188622,0.0114378
1.99423,0.0940465,-0.215051
2.06834,-0.104777,-0.193324
1.99324,0.0939998,0.0464332
1.9969,0.0941721,-0.139792
2.03722,-0.00355488,-0.166309
1.95015,0.187779,0.0570174
1.95493,0.188239,-0.125868
2.0036,0.094488,-0.0934345
2.02921,-0.00354091,-0.106347
1.95334,0.188086,-0.0799491
1.99324,0.0939998,-0.0464332
1.95929,0.181758,-0.0343463
1.9901,0.08689,0
2.01383,0.087926,-0.313604
2.04348,-0.0106996,-0.260113
1.95955,0.181782,0.0114378
1.99852,0.0872576,-0.215479
2.07592,-0.112428,-0.194067
2.0372,-0.0106666,-0.166309
1.95079,0.18097,0.0570174
1.95955,0.181782,-0.126124
2.02919,-0.0106247,-0.106347
1.96194,0.182004,-0.0802748
1.98957,0.0868665,-0.0463402
1.96389,0.175273,-0.0344161
1.9904,0.0799422,0
2.01018,0.0807367,-0.312989
2.04343,-0.0178331,-0.260113
1.96416,0.175296,0.0114611
2.00676,0.0805996,-0.216336
2.00548,0.0805481,-0.14035
2.04113,-0.017813,-0.166634
1.9554,0.174514,0.0571338
2.00022,0.0803367,-0.0932484
2.02914,-0.0177084,-0.106347
1.96257,0.175154,-0.0802748
1.98986,0.0799206,-0.0463402
1.96449,0.168417,-0.0344161
1.99466,0.0731409,0
2.01045,0.0737198,-0.312989
2.04733,-0.025014,-0.260618
1.96476,0.168439,0.0114611
2.00306,0.0734489,-0.215908
2.00974,0.0736939,-0.140629
2.04504,-0.0249861,-0.16696
1.96396,0.168371,0.0573665
1.96077,0.168097,-0.126124
2.00847,0.0736474,-0.0936206
2.03705,-0.0248884,-0.106765
1.96715,0.168644,-0.0804376
1.99412,0.0731211,-0.0464332
1.96507,0.161558,-0.0344161
1.9909,0.0660447,0
2.01859,0.0669632,-0.314219
2.05119,-0.0322232,-0.261123
1.96932,0.161907,0.0114843
2.00728,0.0665878,-0.216336
2.01397,0.0668099,-0.140908
1.96454,0.161514,0.0573665
1.96532,0.161579,-0.12638
2.01271,0.066768,-0.0938067
2.03695,-0.0319995,-0.106765
1.97569,0.162431,-0.0807633
2.00236,0.0664245,-0.0466193
1.96961,0.155012,-0.034486
1.99512,0.0592147,0
2.01486,0.0598007,-0.313604
2.05504,-0.0394578,-0.261628
1.97386,0.155347,0.0115076
2.0075,0.0595821,-0.216336
2.0102,0.0596624,-0.140629
2.04881,-0.0393381,-0.167285
1.9611,0.154343,0.0572502
1.96986,0.155032,-0.126636
2.00494,0.0595062,-0.0934345
2.04482,-0.0392615,-0.107184
1.96828,0.154908,-0.0804376
2.01057,0.0596733,-0.0468054
1.97413,0.148436,-0.0345558
1.99532,0.0522496,0
2.01506,0.0527666,-0.313604
1.9704,0.148156,0.0114843
2.01962,0.052886,-0.217621
2.0104,0.0526446,-0.140629
2.04467,-0.0463997,-0.16696
1.96163,0.147496,0.0572502
2.01313,0.052716,-0.0938067
1.97279,0.148335,-0.0806004
2.01077,0.0526542,-0.0468054
1.97463,0.141543,-0.0345558
2.01523,0.045732,-0.313604
1.9749,0.141563,0.0115076
2.01582,0.0457453,-0.217193
2.01855,0.0458073,-0.141187
1.97011,0.141219,0.0574829
1.97089,0.141275,-0.126636
2.0133,0.0456881,-0.0938067
1.96931,0.141162,-0.0804376
2.01094,0.0456346,-0.0468054
1.97509,0.134994,-0.0345558
2.02328,0.0392022,-0.314834
1.97536,0.135013,0.0115076
2.01596,0.0390604,-0.217193
2.05228,-0.0605517,-0.167611
1.97057,0.134685,0.0574829
1.97533,0.135011,-0.126892
2.01344,0.0390115,-0.0938067
1.97375,0.134903,-0.0806004
2.01508,0.0390433,-0.0468985
1.97557,0.127755,-0.0345558
2.02341,0.0317862,-0.314834
1.97983,0.12803,0.0115308
2.02802,0.0318586,-0.218478
2.06001,-0.0683376,-0.168262
1.97105,0.127462,0.0574829
1.97979,0.128028,-0.127148
2.02156,0.0317572,-0.094179
1.98221,0.128184,-0.0809261
2.01121,0.0315946,-0.0468054
1.98399,0.121346,-0.0346954
2.02746,0.0247713,-0.315449
1.98825,0.121607,0.0115773
2.02414,0.0247308,-0.21805
2.03089,0.0248132,-0.142024
2.05976,-0.0755279,-0.168262
1.9882,0.121603,-0.127659
2.01766,0.0246516,-0.0939929
1.99063,0.121752,-0.0812517
2.0153,0.0246228,-0.0468985
1.98837,0.114997,-0.0347652
2.03148,0.0180831,-0.316064
1.98465,0.114782,0.0115541
2.02819,0.0180537,-0.218478
2.02697,0.0180429,-0.141745
2.05551,-0.0821986,-0.167936
1.97586,0.114273,0.0575993
1.98461,0.114779,-0.127403
2.02972,0.0180674,-0.0945512
1.98304,0.114689,-0.0809261
2.02737,0.0180465,-0.0471777
1.98876,0.108056,-0.0347652
1.98504,0.107853,0.0115541
2.02426,0.0109524,-0.21805
2.03101,0.0109889,-0.142024
2.0592,-0.0895464,-0.168262
1.98499,0.107851,-0.127403
2.02977,0.0109822,-0.0945512
1.98742,0.107983,-0.0810889
2.01942,0.0109262,-0.0469915
1.98512,0.101256,-0.0346954
1.98938,0.101474,0.0115773
2.02429,0.00423966,-0.21805
2.03503,0.00426216,-0.142303
2.06287,-0.0965609,-0.168587
1.98933,0.101471,-0.127659
1.98776,0.101391,-0.0810889
1.99346,0.0943581,-0.034835
1.99373,0.0943709,0.0116006
2.02429,-0.00317974,-0.21805
2.03902,-0.00320288,-0.142582
1.99367,0.094368,-0.127915
2.03779,-0.00320095,-0.0949235
1.99611,0.0944832,-0.0814146
1.98579,0.0870487,-0.0346954
1.99405,0.0874109,0.0116006
2.02824,-0.0102659,-0.218478
2.03899,-0.0103204,-0.142582
2.00197,0.0877578,-0.128427
1.99643,0.0875149,-0.0814146
1.99806,0.0809488,-0.0349048
1.99433,0.0807979,0.0116006
2.0441,-0.017125,-0.220192
2.03895,-0.0170819,-0.142582
1.99427,0.0807954,-0.127915
1.99271,0.0807323,-0.0812517
1.99035,0.0733305,-0.0347652
1.99861,0.073635,0.0116238
2.0321,-0.0244733,-0.218906
2.04286,-0.0246029,-0.142861
1.99455,0.0734855,-0.127915
2.04563,-0.0246363,-0.0952957
1.99699,0.0735752,-0.0814146
2.00256,0.0674814,-0.0349746
2.00283,0.0674905,0.0116471
2.03996,-0.0309779,-0.219763
2.00275,0.0674879,-0.128427
2.0012,0.0674357,-0.0815774
2.0068,0.059911,-0.0350444
2.04778,-0.0389619,-0.22062
2.05062,-0.0390159,-0.143419
2.003,0.0597974,-0.128427
2.00944,0.0599897,-0.0819031
2.01499,0.0531164,-0.0351841
2.04763,-0.0461097,-0.22062
2.05047,-0.0461737,-0.143419
2.01516,0.0531209,-0.129194
2.00963,0.0529751,-0.0819031
2.01117,0.045991,-0.0351142
2.05144,-0.0533604,-0.221048
2.0503,-0.0533309,-0.143419
2.01534,0.0460863,-0.129194
2.00981,0.0459599,-0.0819031
2.01132,0.0389704,-0.0351142
2.05124,-0.060521,-0.221048
2.05808,-0.0607228,-0.143977
2.0075,0.0388965,-0.128683
2.01395,0.0390215,-0.0820659
2.01543,0.0327164,-0.0351841
2.05501,-0.0670946,-0.221477
2.01959,0.032784,-0.12945
2.01806,0.0327591,-0.0822287
2.02354,0.0250766,-0.0353237
2.05871,-0.0751298,-0.221905
2.0576,-0.0750893,-0.143977
2.02369,0.0250786,-0.129706
2.01817,0.0250101,-0.0822287
2.02377,0.0180144,-0.129706
2.02224,0.0180008,-0.0823915
2.01983,0.0109284,-0.12945
2.02629,0.0109634,-0.0825544
2.02384,0.00423874,-0.129706
2.02631,0.00424391,-0.0825544
2.15003,-0.213844,-1.00752
2.02784,-0.00283139,-0.129962
2.03431,-0.00284043,-0.08288
2.02782,-0.00955594,-0.129962
2.03829,-0.00960527,-0.0830429
2.03974,-0.0170885,-0.130729
2.15848,-0.237536,-1.01259
2.03967,-0.0242085,-0.130729
2.15404,-0.24466,-1.0109
2.03957,-0.0313281,-0.130729
2.15326,-0.251426,-1.0109
2.04346,-0.0378093,-0.130985
2.14868,-0.259258,-1.00921
2.0433,-0.0456553,-0.130985
2.15136,-0.267203,-1.0109
2.04712,-0.0528906,-0.131241
2.15046,-0.274336,-1.0109
2.04294,-0.0595624,-0.130985
2.15308,-0.282312,-1.01259
1.80681,0.639825,-0.111627
1.8128,0.634834,-0.111859
1.80746,0.625889,-0.111394
1.8133,0.621186,-0.111627
1.81924,0.616134,-0.111859
1.82506,0.611366,-0.112092
1.82246,0.603075,-0.179196
1.78521,0.689214,-0.15622
1.81971,0.602163,-0.111627
1.818,0.594567,-0.111394
1.83147,0.591902,-0.112092
1.82099,0.581853,-0.178453
1.78848,0.669397,-0.155894
1.82962,0.584609,-0.111859
1.82311,0.575175,-0.178453
1.82794,0.576698,-0.111627
1.82491,0.569444,-0.178453
1.83355,0.572142,-0.111859
1.82708,0.562432,-0.178453
1.83192,0.563922,-0.111627
1.82903,0.556052,-0.178453
1.83388,0.557525,-0.111627
1.8388,0.552016,-0.0223509
1.81024,0.641394,-0.244455
1.84346,0.553416,-0.112092
1.83304,0.543321,-0.0222578
1.81246,0.635072,-0.244455
1.80222,0.631481,-0.155894
1.84155,0.545843,-0.111859
1.83474,0.537559,-0.0222578
1.8107,0.628073,-0.24395
1.83839,0.538628,-0.178824
1.80419,0.625816,-0.155894
1.84709,0.541178,-0.112092
1.84832,0.53384,-0.0223974
1.81685,0.622402,-0.244455
1.83662,0.53046,-0.178453
1.81035,0.620175,-0.15622
1.84532,0.532973,-0.111859
1.80633,0.618796,-0.100066
1.84633,0.526288,-0.0223509
1.82653,0.618602,-0.245465
1.84229,0.525138,-0.178824
1.81251,0.613853,-0.15622
1.85485,0.528718,-0.112325
1.80848,0.612488,-0.100066
1.8443,0.518757,-0.0223043
1.82492,0.610962,-0.24496
1.84411,0.518703,-0.178824
1.81464,0.607521,-0.15622
1.85284,0.521158,-0.112092
1.84996,0.513387,-0.0223509
1.8308,0.605836,-0.245465
1.84975,0.513329,-0.179196
1.81296,0.599932,-0.155894
1.85465,0.514689,-0.112092
1.81271,0.599848,-0.100066
1.81631,0.594713,-0.0556211
1.85156,0.507571,-0.0223509
1.82139,0.596376,-0.24395
1.79786,0.687614,-0.20734
1.84751,0.506461,-0.178824
1.83999,0.504399,0.0222112
1.85626,0.508858,-0.112092
1.85341,0.500782,-0.0223509
1.82734,0.590918,-0.244455
1.8532,0.500726,-0.179196
1.84568,0.498695,0.0222578
1.8208,0.588804,-0.15622
1.85425,0.50101,-0.111859
1.83306,0.586064,-0.24496
1.85485,0.494578,-0.179196
1.85119,0.493603,0.0223043
1.81894,0.581549,-0.155894
1.85976,0.495888,-0.112092
1.86073,0.488848,-0.0223974
1.8352,0.579341,-0.24496
1.8605,0.488788,-0.179568
1.84912,0.485799,0.0222578
1.82106,0.574879,-0.155894
1.82081,0.574798,-0.100066
1.86242,0.482349,-0.0223974
1.83721,0.572931,-0.24496
1.86605,0.483289,-0.17994
1.82306,0.568518,-0.155894
1.8228,0.568438,-0.100066
1.82269,0.561429,-0.0555047
1.86409,0.475845,-0.0223974
1.83541,0.565347,-0.244455
1.86387,0.475788,-0.179568
1.82884,0.563325,-0.15622
1.86881,0.477048,-0.112325
1.82859,0.563248,-0.100276
1.86566,0.469661,-0.0223974
1.84486,0.561568,-0.245465
1.8693,0.470576,-0.17994
1.85403,0.466731,0.0222578
1.8307,0.557256,-0.15622
1.87038,0.470848,-0.112325
1.83045,0.557181,-0.100276
1.85071,0.555944,-0.245971
1.86328,0.461805,-0.179196
1.83273,0.550542,-0.15622
1.87209,0.463989,-0.112325
1.83631,0.551617,-0.100485
1.87262,0.457188,-0.17994
1.83464,0.544142,-0.15622
1.87758,0.458399,-0.112557
1.83056,0.542932,-0.100066
1.83783,0.538813,-0.0557375
1.85436,0.543658,-0.245971
1.87792,0.452235,-0.180312
1.84017,0.539498,-0.156545
1.87513,0.451563,-0.112325
1.83211,0.529852,-0.0555047
1.87982,0.44541,-0.0224906
1.85634,0.536857,-0.245971
1.84054,0.53229,-0.0111356
1.87956,0.445349,-0.180312
1.86036,0.440799,0.0222578
1.88065,0.445608,-0.112557
1.80285,0.618309,-0.0887814
1.83805,0.531569,-0.100276
1.83395,0.523454,-0.0555047
1.88136,0.438846,-0.0224906
1.85438,0.529285,-0.245465
1.83854,0.524764,-0.0111124
1.87723,0.437881,-0.17994
1.86968,0.43612,0.0223509
1.84398,0.526316,-0.156545
1.87831,0.438134,-0.112325
1.84374,0.526247,-0.100485
1.86004,0.523884,-0.245971
1.84421,0.519427,-0.0111356
1.87874,0.431325,-0.17994
1.87119,0.429591,0.0223509
1.80846,0.606155,-0.133374
1.84581,0.519875,-0.156545
1.87983,0.431574,-0.112325
1.84556,0.519807,-0.100485
1.84518,0.513101,-0.0557375
1.85363,0.515452,-0.0111821
1.88793,0.426849,-0.180683
1.84752,0.513752,-0.156545
1.88514,0.426219,-0.112557
1.84728,0.513685,-0.100485
1.84705,0.506335,-0.0557375
1.85165,0.507598,-0.0111589
1.88948,0.419927,-0.180683
1.87805,0.417386,0.0223974
1.85708,0.509086,-0.157196
1.89059,0.420173,-0.11279
1.853,0.507967,-0.100694
1.8488,0.499884,-0.0557375
1.87046,0.50574,-0.387528
1.89122,0.413389,-0.0225371
1.86542,0.504378,-0.245971
1.85341,0.501131,-0.0111589
1.89094,0.413329,-0.180683
1.85115,0.500518,-0.156545
1.88814,0.412718,-0.112557
1.85476,0.501495,-0.100694
1.83718,0.587381,-0.300076
1.87101,0.498886,-0.246476
1.85515,0.494659,-0.0111589
1.82207,0.58255,-0.206055
1.89237,0.406726,-0.180683
1.87701,0.403424,0.0223509
1.86059,0.496108,-0.157196
1.8549,0.494592,0.0335086
1.88957,0.406125,-0.112557
1.8565,0.495018,-0.100694
1.84829,0.486271,-0.0556211
1.87765,0.493996,-0.388312
1.84289,0.582477,-0.300691
1.86881,0.49167,-0.245971
1.85678,0.488504,-0.0111589
1.89371,0.400449,-0.180683
1.88225,0.398025,0.0223974
1.86222,0.489936,-0.157196
1.85266,0.487421,0.0334388
1.89482,0.400683,-0.11279
1.86199,0.489876,-0.100904
1.87945,0.487109,-0.388312
1.89544,0.393562,-0.0225371
1.84501,0.575717,-0.300691
1.87444,0.485811,-0.246476
1.85856,0.481694,-0.0111589
1.89516,0.393504,-0.180683
1.85629,0.481106,-0.156545
1.86218,0.482632,0.0335784
1.90018,0.394546,-0.113022
1.85604,0.481042,-0.100485
1.82089,0.568191,-0.0443861
1.85173,0.473032,-0.0556211
1.87734,0.479575,-0.387528
1.84323,0.568109,-0.300076
1.87613,0.479265,-0.246476
1.86798,0.477184,-0.0112054
1.90043,0.387683,-0.181055
1.89288,0.386144,0.0224906
1.82654,0.562965,-0.133653
1.86568,0.476597,-0.157196
1.85998,0.47514,0.0335086
1.86158,0.47555,-0.100694
1.82669,0.563009,-0.0444791
1.85329,0.466889,-0.0556211
1.88272,0.474305,-0.388312
1.84511,0.561994,-0.300076
1.87386,0.472072,-0.245971
1.8618,0.469033,-0.0111589
1.90561,0.382162,-0.181427
1.88631,0.378292,0.0223974
1.8284,0.556906,-0.133653
1.86725,0.470408,-0.157196
1.85379,0.467016,0.033369
1.86315,0.469374,-0.100694
1.82854,0.556949,-0.0444791
1.85878,0.46138,-0.0557375
1.84706,0.55555,-0.300076
1.8755,0.465528,-0.245971
1.86342,0.462531,-0.0111589
1.90302,0.374738,-0.181055
1.89547,0.37325,0.0224906
1.87275,0.464847,-0.157522
1.86705,0.463432,0.0335784
1.86478,0.462867,-0.100694
1.82665,0.549411,-0.0443861
1.88599,0.46115,-0.388312
1.88096,0.459921,-0.246476
1.83378,0.544583,-0.206055
1.90432,0.368093,-0.181055
1.88891,0.365114,0.0223974
1.87436,0.458307,-0.157522
1.86089,0.455012,0.0334388
1.90936,0.369068,-0.113255
1.86638,0.456355,-0.100694
1.86188,0.448718,-0.0557375
1.88751,0.454894,-0.388312
1.8508,0.542965,-0.300076
1.90944,0.362519,-0.181427
1.89404,0.359595,0.022444
1.872,0.451155,-0.157196
1.86627,0.449776,0.0335086
1.8025,0.625933,-0.122287
1.86501,0.449472,0.078158
1.83269,0.537654,-0.0889675
1.87177,0.4511,-0.100904
1.83035,0.536965,-0.0443861
1.87129,0.443736,-0.0559702
1.89298,0.448878,-0.389097
1.85277,0.536178,-0.300076
1.88799,0.447695,-0.246981
1.83754,0.531769,-0.206055
1.91076,0.355519,-0.181427
1.89534,0.352651,0.022444
1.83983,0.532433,-0.133932
1.87364,0.444292,-0.157196
1.86791,0.442933,0.0335086
1.91189,0.35573,-0.113255
1.86276,0.441712,0.0779952
1.83849,0.532044,-0.0891536
1.87341,0.444237,-0.100904
1.83998,0.532477,-0.0445722
1.86894,0.436292,-0.0558538
1.85843,0.530793,-0.300691
1.88954,0.441101,-0.246981
1.87749,0.438288,-0.0112054
1.84703,0.527535,-0.206912
1.91591,0.349561,-0.181799
1.90443,0.347468,0.0225371
1.84168,0.526007,-0.133932
1.88294,0.439561,-0.157847
1.87334,0.437319,0.0335784
1.87207,0.437023,0.0783208
1.84033,0.525623,-0.0891536
1.87106,0.436786,-0.100694
1.83414,0.523854,-0.0443861
1.87037,0.430091,-0.0558538
1.89217,0.435102,-0.388312
1.85638,0.523554,-0.300076
1.87893,0.432059,-0.0112054
1.91313,0.342504,-0.181427
1.84725,0.520979,-0.134211
1.88827,0.434207,-0.158173
1.87478,0.431104,0.0335784
1.9182,0.343411,-0.113487
1.86962,0.429917,0.078158
1.84207,0.519517,-0.0891536
1.88028,0.432369,-0.101113
1.83972,0.518854,-0.0444791
1.86201,0.518129,-0.300691
1.88043,0.425497,-0.0112054
1.92216,0.337199,-0.18217
1.91069,0.335187,0.0225837
1.84137,0.512388,-0.133653
1.88978,0.427613,-0.158173
1.87627,0.424557,0.0335784
1.87111,0.423387,0.078158
1.84387,0.513083,-0.0891536
1.87788,0.424921,-0.100904
1.84537,0.5135,-0.0445722
1.87333,0.417024,-0.0558538
1.90282,0.423588,-0.389881
1.8638,0.511628,-0.300691
1.8819,0.418932,-0.0112054
1.92333,0.330489,-0.18217
1.90791,0.327839,0.0225371
1.84315,0.505959,-0.133653
1.88737,0.420149,-0.157847
1.87384,0.417137,0.0335086
1.86867,0.415986,0.0779952
1.85336,0.50876,-0.0895259
1.87935,0.418365,-0.100904
1.84715,0.507057,-0.0445722
1.87868,0.411337,-0.0559702
1.90045,0.416103,-0.389097
1.86558,0.505118,-0.300691
1.89932,0.415856,-0.247486
1.88726,0.413215,-0.0112286
1.9284,0.324434,-0.182542
1.90904,0.321177,0.0225371
1.84876,0.500564,-0.133932
1.88882,0.413557,-0.157847
1.87528,0.410593,0.0335086
1.87792,0.41117,0.0783208
1.84741,0.500199,-0.0891536
1.88471,0.412656,-0.101113
1.84891,0.500606,-0.0445722
1.88402,0.405619,-0.0560866
1.84342,0.492219,0
1.87115,0.499623,-0.301306
1.88869,0.406625,-0.0112286
1.85203,0.494518,-0.206483
1.92952,0.317701,-0.182542
1.92199,0.316461,0.0226768
1.85435,0.495137,-0.134211
1.89415,0.407801,-0.158173
1.87671,0.404045,0.0335086
1.88325,0.405454,0.0784836
1.853,0.494778,-0.0893398
1.89004,0.406916,-0.101322
1.85064,0.494149,-0.0445722
1.88542,0.399039,-0.0560866
1.86906,0.492082,-0.300691
1.8901,0.40003,-0.0112286
1.85374,0.48805,-0.206483
1.85606,0.488661,-0.134211
1.89557,0.401186,-0.158173
1.88202,0.398319,0.0335784
1.81927,0.57536,-0.122287
1.88465,0.398877,0.0784836
1.85085,0.487289,-0.0891536
1.81768,0.574858,-0.0776695
1.85623,0.488704,-0.0446652
1.84681,0.479337,0
1.90357,0.395943,-0.247486
1.85928,0.482574,-0.206912
1.93169,0.304221,-0.182542
1.85405,0.481216,0.0445722
1.92415,0.303034,0.0226768
1.85776,0.482179,-0.134211
1.90086,0.395379,-0.158498
1.88731,0.392561,0.0336482
1.82127,0.569006,-0.122287
1.93286,0.304406,-0.113952
1.88604,0.392296,0.0784836
1.85254,0.480825,-0.0891536
1.89283,0.39371,-0.101322
1.81968,0.568509,-0.0776695
1.85792,0.482221,-0.0446652
1.88424,0.385066,-0.0559702
1.91376,0.391099,-0.390666
1.87628,0.480001,-0.301306
1.90883,0.390091,-0.247991
1.89676,0.387625,-0.0112519
1.8571,0.475096,-0.206483
1.85959,0.475733,0.0446652
1.92124,0.295708,0.0226303
1.8633,0.47668,-0.13449
1.89832,0.387943,-0.158173
1.88867,0.385971,0.0336482
1.82324,0.562645,-0.122287
1.88348,0.38491,0.0783208
1.85421,0.474356,-0.0891536
1.8942,0.387101,-0.101322
1.82547,0.563332,-0.0778323
1.85959,0.475733,-0.0446652
1.82484,0.556168,-0.0332992
1.88949,0.379274,-0.0560866
1.87794,0.473449,-0.301306
1.86646,0.470555,-0.20734
1.9377,0.291321,-0.182914
1.85736,0.468262,0.0445722
1.86108,0.469198,-0.134211
1.90357,0.382099,-0.158498
1.89393,0.380164,0.033718
1.8252,0.556278,-0.122287
1.88873,0.37912,0.0784836
1.8636,0.469835,-0.0895259
1.89945,0.381273,-0.101532
1.869,0.471194,-0.0448513
1.8305,0.551267,-0.033369
1.89859,0.374553,-0.0563193
1.91638,0.378063,-0.390666
1.85553,0.461259,0
1.8795,0.467219,-0.301306
1.90328,0.37548,-0.0112751
1.86415,0.463404,-0.206912
1.86279,0.463064,0.0446652
1.92717,0.283205,0.0226768
1.85875,0.462061,-0.133932
1.90483,0.375784,-0.158498
1.89518,0.373881,0.033718
1.8939,0.373628,0.0786465
1.86515,0.463652,-0.0895259
1.90071,0.374971,-0.101532
1.86279,0.463064,-0.0446652
1.82849,0.544052,-0.0332992
1.89197,0.366733,-0.0560866
1.88104,0.460983,-0.301306
1.86568,0.457219,-0.206912
1.86431,0.456884,0.0446652
1.9281,0.276812,0.0226768
1.86803,0.457794,-0.13449
1.90606,0.369465,-0.158498
1.89641,0.367593,0.033718
1.83267,0.545298,-0.122543
1.89512,0.367345,0.0786465
1.86668,0.457463,-0.0895259
1.90586,0.369426,-0.101741
1.83491,0.545964,-0.0779952
1.87208,0.458787,-0.0448513
1.83805,0.539922,-0.0334388
1.89716,0.360875,-0.0562029
1.92276,0.365744,-0.39145
1.9058,0.362516,-0.0112751
1.87113,0.451638,-0.20734
1.94055,0.271692,-0.182914
1.86978,0.451313,0.0447583
1.93698,0.271191,0.02277
1.86961,0.451272,-0.13449
1.90161,0.36172,0.0337879
1.88854,0.359235,0.0783208
1.86438,0.450008,-0.0893398
1.90322,0.362026,-0.101532
1.8368,0.539557,-0.0779952
1.86978,0.451313,-0.0447583
1.83617,0.532069,-0.033369
1.89847,0.353919,-0.0562029
1.92409,0.358695,-0.39145
1.87664,0.445696,-0.207768
1.94548,0.265116,-0.183286
1.86364,0.442609,0.0445722
1.93399,0.26355,0.0227234
1.87125,0.444416,-0.13449
1.90866,0.355818,-0.158498
1.89506,0.353282,0.0336482
1.83653,0.532172,-0.122543
1.89378,0.353043,0.0784836
1.87379,0.445019,-0.089712
1.90453,0.355048,-0.101532
1.83493,0.531709,-0.0778323
1.87532,0.445381,-0.0448513
1.83793,0.525977,-0.033369
1.90357,0.348341,-0.0563193
1.92527,0.352312,-0.39145
1.86171,0.435633,0
1.88576,0.441261,-0.301306
1.91221,0.349923,-0.0112984
1.87811,0.43947,-0.207768
1.9503,0.259187,-0.183657
1.87289,0.438248,0.0447583
1.94279,0.258188,0.0228165
1.87272,0.438208,-0.13449
1.91375,0.350204,-0.158823
1.90409,0.348436,0.0337879
1.83828,0.526078,-0.122543
1.86245,0.435806,0.111394
1.89887,0.34748,0.0786465
1.87137,0.437892,-0.0895259
1.9057,0.34873,-0.101532
1.88068,0.44007,-0.0449444
1.83975,0.519557,-0.033369
1.90478,0.341694,-0.0563193
1.92649,0.345589,-0.39145
1.89114,0.435562,-0.301921
1.87441,0.431708,0.0447583
1.94368,0.251405,0.0228165
1.87812,0.432564,-0.134769
1.91888,0.344225,-0.159149
1.89348,0.339668,0.0335784
1.84011,0.519658,-0.122543
1.904,0.341555,0.0788093
1.87288,0.431357,-0.0895259
1.91477,0.343486,-0.10195
1.83851,0.519206,-0.0778323
1.8783,0.432605,-0.0448513
1.83779,0.511739,-0.0332992
1.90995,0.335402,-0.0564356
1.89658,0.429501,-0.302536
1.83804,0.511808,0.0110891
1.87733,0.425141,-0.20734
1.87598,0.424835,0.0447583
1.88359,0.426559,-0.135049
1.92013,0.33719,-0.159149
1.90653,0.334801,0.0337879
1.842,0.51291,-0.122543
1.87331,0.424231,0.111859
1.89737,0.333192,0.0784836
1.87835,0.425372,-0.089712
1.91995,0.337157,-0.10216
1.84425,0.513536,-0.0779952
1.88378,0.426601,-0.0449444
1.84728,0.507439,-0.0334388
1.91111,0.328733,-0.0564356
1.89807,0.422878,-0.302536
1.88268,0.41945,-0.207768
1.87745,0.418283,0.0447583
1.94543,0.23749,0.0228165
1.88117,0.419113,-0.134769
1.92523,0.331161,-0.159474
1.91163,0.328822,0.0338577
1.84763,0.507534,-0.122798
1.86698,0.415952,0.111394
1.91034,0.328599,0.0789721
1.87592,0.417944,-0.0895259
1.91717,0.329775,-0.10195
1.89772,0.32643,0.157196
1.84218,0.506037,-0.0778323
1.88135,0.419153,-0.0448513
1.85281,0.502357,-0.0335086
1.92008,0.323723,-0.0566684
1.87152,0.410453,0
1.89946,0.416582,-0.302536
1.84148,0.499285,0.0110891
1.88795,0.414057,-0.208197
1.95768,0.2324,-0.184029
1.87883,0.412056,0.0447583
1.9462,0.231037,0.0228165
1.88645,0.413728,-0.135049
1.92632,0.324775,-0.159474
1.85315,0.502449,-0.123054
1.87225,0.410615,0.111627
1.90747,0.321598,0.0788093
1.8773,0.411721,-0.0895259
1.91432,0.322752,-0.101741
1.88273,0.412912,-0.0448513
1.85455,0.495887,-0.0335086
1.91331,0.315717,-0.0564356
1.93886,0.319935,-0.393019
1.87294,0.403919,0
1.9009,0.409949,-0.302536
1.84321,0.492854,0.0110891
1.88938,0.407464,-0.208197
1.88025,0.405495,0.0447583
1.95097,0.224701,0.0228631
1.88788,0.407141,-0.135049
1.9235,0.3174,-0.159149
1.91382,0.315803,0.0338577
1.85104,0.494947,-0.122798
1.87758,0.404919,0.111859
1.91253,0.315589,0.0789721
1.88654,0.40685,-0.0898981
1.92332,0.317369,-0.10216
1.8999,0.313506,0.157196
1.89198,0.408024,-0.0450374
1.85636,0.489086,-0.0335086
1.91445,0.308702,-0.0564356
1.93615,0.312201,-0.392235
1.88223,0.398708,0
1.90626,0.403798,-0.303151
1.93519,0.312046,-0.249506
1.84501,0.486095,0.0110891
1.89086,0.400536,-0.208197
1.88564,0.399429,0.0448513
1.95576,0.217991,0.0229097
1.88546,0.399391,-0.134769
1.92859,0.310982,-0.159474
1.91102,0.308149,0.0337879
1.85284,0.488159,-0.122798
1.88296,0.398862,0.112092
1.90973,0.307941,0.0788093
1.88801,0.399933,-0.0898981
1.91658,0.309045,-0.101741
1.90104,0.30654,0.157196
1.8551,0.488755,-0.078158
1.88173,0.398601,-0.0447583
1.85789,0.483251,-0.0335086
1.91541,0.302686,-0.0564356
1.88348,0.392793,0
1.8504,0.481302,0.0111124
1.92804,0.304682,-0.0113449
1.88688,0.393503,0.0448513
1.89452,0.395094,-0.135328
1.84965,0.481107,0.0556211
1.91593,0.302768,0.0338577
1.85437,0.482335,-0.122798
1.88029,0.392128,0.111859
1.91858,0.303187,0.079135
1.89317,0.394815,-0.0900843
1.92938,0.304893,-0.102369
1.90593,0.301187,0.157522
1.85276,0.481918,-0.0779952
1.88688,0.393503,-0.0448513
1.85973,0.476114,-0.0335086
1.91656,0.295329,-0.0564356
1.94604,0.299872,-0.393804
1.88497,0.385558,0
1.85223,0.474194,0.0111124
1.9292,0.297277,-0.0113449
1.90141,0.38892,-0.209053
1.88838,0.386255,0.0448513
1.96121,0.204747,0.0229562
1.89602,0.387818,-0.135328
1.85148,0.474002,0.0556211
1.92498,0.296627,0.0339973
1.86007,0.476201,-0.123054
1.8857,0.385706,0.112092
1.91578,0.295209,0.0789721
1.89076,0.386742,-0.0898981
1.92659,0.296874,-0.10216
1.91101,0.294475,0.157847
1.8546,0.4748,-0.0779952
1.90013,0.388659,-0.0451305
1.86138,0.46962,-0.0335086
1.92153,0.289233,-0.056552
1.94319,0.292493,-0.393019
1.88239,0.378189,0
1.85775,0.468705,0.0111356
1.89885,0.381497,-0.208625
1.89364,0.380449,0.0449444
1.95793,0.197499,0.0229097
1.89736,0.381197,-0.135328
1.85312,0.467536,0.0556211
1.85785,0.46873,-0.122798
1.88703,0.379122,0.112092
1.9168,0.288521,0.0789721
1.89602,0.380927,-0.0900843
1.92761,0.290148,-0.10216
1.89756,0.381237,-0.0450374
1.86285,0.463769,-0.0335086
1.93034,0.28436,-0.0567847
1.94798,0.286958,-0.393804
1.88749,0.373048,0
1.90394,0.3763,-0.209053
1.89482,0.374498,0.0449444
1.89855,0.375234,-0.135328
1.93264,0.284699,-0.159474
1.85458,0.461712,0.0556211
1.93087,0.284437,0.0340671
1.86319,0.463854,-0.123054
1.88821,0.373191,0.112092
1.9256,0.283662,0.0792978
1.8972,0.374968,-0.0900843
1.92851,0.28409,-0.10216
1.889,0.373347,0.236427
1.90267,0.376049,-0.0451305
1.86445,0.457264,-0.0335086
1.93528,0.278189,-0.0569011
1.88878,0.366458,0
1.94417,0.279467,-0.250011
1.96716,0.185259,0.0230028
1.90376,0.369365,-0.135607
1.86006,0.456188,0.0557375
1.93185,0.277695,0.0340671
1.86092,0.456397,-0.122798
1.88558,0.365838,0.111859
1.92658,0.276939,0.0792978
1.8985,0.368344,-0.0900843
1.9374,0.278494,-0.102578
1.86319,0.456955,-0.078158
1.89612,0.367882,-0.0449444
1.86223,0.449489,-0.0334388
1.92837,0.269985,-0.0566684
1.92609,0.366376,-0.548855
1.89797,0.361027,0
1.94911,0.272889,-0.250516
1.90138,0.361677,0.0450374
1.91295,0.363876,-0.136165
1.94253,0.271967,-0.160125
1.86561,0.450305,0.0558538
1.93681,0.271167,0.0341369
1.86646,0.45051,-0.123054
1.89476,0.360416,0.112325
1.92363,0.269321,0.079135
1.89591,0.360636,-0.0898981
1.93445,0.270837,-0.102369
1.91489,0.268098,0.157847
1.86485,0.450122,-0.078158
1.90531,0.362424,-0.0451305
1.87538,0.446087,-0.0336482
1.92925,0.263588,-0.0566684
1.92729,0.359986,-0.548855
1.89916,0.354731,0
1.87174,0.445222,0.0111821
1.94193,0.26532,-0.0113914
1.89996,0.354881,-0.208197
1.97986,0.172518,-0.185516
1.89864,0.354635,0.0449444
1.97239,0.171868,0.0230493
1.91022,0.356797,-0.135886
1.87098,0.445041,0.0559702
1.93374,0.264201,0.0340671
1.87183,0.445241,-0.12331
1.89202,0.353397,0.112092
1.92451,0.26294,0.079135
1.90103,0.35508,-0.0900843
1.9393,0.26496,-0.102578
1.92762,0.263365,0.158823
1.86634,0.443935,-0.078158
1.89864,0.354635,-0.0449444
1.877,0.439211,-0.0336482
1.93417,0.257042,-0.0567847
1.93239,0.353614,-0.549934
1.95962,0.260425,-0.395372
1.89651,0.347048,0
1.87336,0.438359,0.0111821
1.94289,0.258201,-0.0113914
1.91298,0.350063,-0.209482
1.90759,0.349076,-0.135607
1.94438,0.258399,-0.160125
1.86482,0.436359,0.0557375
1.94262,0.258166,0.0342067
1.87345,0.438378,-0.12331
1.8933,0.346461,0.112092
1.93338,0.256938,0.0794606
1.94817,0.258904,-0.102997
1.92067,0.255248,0.158173
1.86795,0.437092,-0.078158
1.9078,0.349113,-0.0451305
1.87853,0.432656,-0.0336482
1.93902,0.250803,-0.0569011
1.92982,0.346187,-0.548855
1.89771,0.340426,0
1.92572,0.345452,-0.30438
1.86709,0.430022,0.0111356
1.91811,0.344086,-0.20991
1.91294,0.343158,0.0452235
1.97357,0.15775,0.0230493
1.91665,0.343824,-0.136165
1.94922,0.252122,-0.160451
1.87022,0.430744,0.0558538
1.93955,0.250871,0.0341369
1.87497,0.431836,-0.12331
1.90236,0.34126,0.112557
1.93031,0.249675,0.0792978
1.90745,0.342174,-0.0902704
1.9451,0.25159,-0.102788
1.92155,0.248543,0.158173
1.86947,0.430569,-0.078158
1.91294,0.343158,-0.0452235
1.88393,0.426981,-0.033718
1.94385,0.244532,-0.0570174
1.93102,0.339449,-0.548855
1.90282,0.334493,0
1.91538,0.3367,-0.209482
1.91391,0.336441,-0.135886
1.87172,0.424214,0.0558538
1.94041,0.244099,0.0341369
1.87257,0.424407,-0.123054
1.89567,0.333236,0.112092
1.94306,0.244433,0.0797863
1.91257,0.336206,-0.0904565
1.94597,0.244799,-0.102788
1.9224,0.241834,0.158173
1.87485,0.424925,-0.0783208
1.91019,0.335787,-0.0451305
1.87369,0.41779,-0.0335086
1.94072,0.23726,-0.0569011
1.93599,0.333359,-0.549934
1.90792,0.328527,0
1.87004,0.416976,0.0111356
1.94945,0.238327,-0.0114146
1.90871,0.328662,-0.208625
1.91529,0.329795,0.0452235
1.919,0.330435,-0.136165
1.95489,0.238992,-0.160776
1.87319,0.417677,0.0558538
1.94522,0.237809,0.0342067
1.88183,0.419605,-0.123566
1.89682,0.326616,0.112092
1.93994,0.237163,0.0796234
1.91373,0.329527,-0.0904565
1.95474,0.238974,-0.103207
1.92719,0.235605,0.158498
1.88023,0.419247,-0.0784836
1.90741,0.328438,-0.0450374
1.88288,0.413289,-0.0336482
1.93753,0.23035,-0.0567847
1.93328,0.326296,-0.548855
1.90506,0.321532,0
1.96224,0.233288,-0.251526
1.87142,0.410772,0.0111356
1.91763,0.323654,-0.209482
1.92009,0.324069,-0.136165
1.87847,0.41232,0.0559702
1.94203,0.230885,0.0341369
1.87931,0.412506,-0.12331
1.90183,0.320988,0.112325
1.93674,0.230257,0.0794606
1.92269,0.324509,-0.0908288
1.95553,0.23249,-0.103207
1.89869,0.320457,0.236427
1.93192,0.229684,0.158823
1.88161,0.413009,-0.0784836
1.91243,0.322776,-0.0451305
1.88822,0.407558,-0.033718
1.95421,0.225418,-0.0572502
1.93821,0.320174,-0.549934
1.97162,0.227427,-0.396941
1.90617,0.31488,0
1.87675,0.405082,0.0111589
1.93052,0.318903,-0.210767
1.98354,0.131051,0.0231425
1.92515,0.318015,-0.136444
1.96044,0.226137,-0.161102
1.87989,0.405761,0.0559702
1.88464,0.406786,-0.123566
1.90688,0.314999,0.112557
1.94945,0.224869,0.0799491
1.95633,0.225663,-0.103207
1.92875,0.222482,0.158498
1.88304,0.406439,-0.0784836
1.92143,0.317402,-0.0453166
1.89362,0.401465,-0.0337879
1.95105,0.217811,-0.0571338
1.93937,0.313068,-0.549934
1.91126,0.30853,0
1.93536,0.312421,-0.304995
1.9678,0.219681,-0.252031
1.88213,0.39903,0.0111821
1.93167,0.311826,-0.210767
1.9263,0.310958,-0.136444
1.96125,0.21895,-0.161102
1.88137,0.398868,0.0559702
1.95158,0.21787,0.0342765
1.88612,0.399876,-0.123566
1.91197,0.308644,0.11279
1.94628,0.217279,0.0797863
1.92891,0.311379,-0.0910149
1.95714,0.218491,-0.103207
1.90485,0.307495,0.236914
1.94144,0.216739,0.159474
1.88842,0.400364,-0.0786465
1.92258,0.310358,-0.0453166
1.89095,0.394696,-0.033718
1.9557,0.212111,-0.0572502
1.94415,0.307575,-0.551012
1.91222,0.302523,0
1.99237,0.11802,-0.0232356
1.96848,0.213498,-0.252031
1.87946,0.392298,0.0111589
1.92872,0.305133,-0.210339
1.92355,0.304316,0.0453166
1.98439,0.117547,0.0231425
1.92727,0.304904,-0.136444
1.96589,0.213217,-0.161427
1.88653,0.393772,0.0560866
1.95623,0.212169,0.0343463
1.88737,0.393948,-0.123566
1.90504,0.301388,0.112325
1.95093,0.211594,0.0799491
1.95782,0.212341,-0.103207
1.88967,0.394429,-0.0786465
1.92355,0.304316,-0.0453166
1.90015,0.3897,-0.0338577
1.9604,0.205701,-0.0573665
1.94902,0.301376,-0.55209
1.91326,0.295847,0
1.88866,0.387342,0.0112054
1.92977,0.2984,-0.210339
1.99277,0.111065,0.0232356
1.93226,0.298785,-0.136723
1.88397,0.386382,0.0559702
1.95696,0.205339,0.0343463
1.88873,0.387358,-0.123566
1.90608,0.294736,0.112325
1.95166,0.204783,0.0799491
1.93093,0.298579,-0.0910149
1.96252,0.205923,-0.103416
1.89104,0.387831,-0.0786465
1.92855,0.298211,-0.0454097
1.89373,0.381155,-0.033718
1.95319,0.197709,-0.0571338
1.9463,0.293655,-0.551012
1.91829,0.289429,0
1.88614,0.379628,0.0111821
1.93478,0.291917,-0.210767
1.99317,0.10376,0.0232356
1.93334,0.2917,-0.136723
1.96737,0.199144,-0.161427
1.8893,0.380262,0.0560866
1.9577,0.198165,0.0343463
1.89405,0.38122,-0.123822
1.91504,0.288939,0.11279
1.9524,0.197628,0.0799491
1.93201,0.2915,-0.0910149
1.96326,0.198728,-0.103416
1.90792,0.287864,0.236914
1.89637,0.381685,-0.0788093
1.92963,0.29114,-0.0454097
1.90283,0.376426,-0.0338577
1.96179,0.192011,-0.0573665
1.95489,0.288325,-0.553169
1.91924,0.283067,0
1.89524,0.374925,0.0112286
1.93181,0.284921,-0.210339
1.9895,0.0969561,0.023189
1.9343,0.285289,-0.136723
1.89055,0.373996,0.0560866
1.89922,0.375713,-0.124078
1.91599,0.282588,0.11279
1.95702,0.191544,0.0801119
1.93297,0.285093,-0.0910149
1.96391,0.192218,-0.103416
1.90886,0.281537,0.236914
1.90154,0.376172,-0.0789721
1.93454,0.285325,-0.0455027
1.90413,0.369781,-0.0338577
1.96643,0.185537,-0.0574829
1.95207,0.28095,-0.55209
1.92417,0.276935,0
2.00182,0.0905525,-0.0233287
1.94825,0.2804,-0.306225
1.89654,0.368306,0.0112286
1.93673,0.278742,-0.210767
1.93923,0.279103,-0.137002
1.89577,0.368157,0.0562029
1.96696,0.185587,0.034486
1.90052,0.36908,-0.124078
1.92092,0.276467,0.113022
1.96165,0.185086,0.0802748
1.90284,0.369531,-0.0789721
1.93553,0.278569,-0.0455027
1.96707,0.178671,-0.0574829
1.95685,0.274669,-0.553169
1.92513,0.270217,0
1.89781,0.361683,0.0112286
1.94556,0.273085,-0.211624
1.93649,0.271811,0.0455027
1.9402,0.272332,-0.137002
1.97726,0.179596,-0.162078
1.89704,0.361536,0.0562029
1.96362,0.178358,0.0344161
1.89788,0.361696,-0.123822
1.92187,0.26976,0.113022
1.96627,0.178598,0.0804376
1.93491,0.27159,-0.0910149
1.97316,0.179224,-0.103835
1.90412,0.362886,-0.0789721
1.94045,0.272367,-0.0455958
1.96768,0.171804,-0.0574829
1.9578,0.267837,-0.553169
1.93399,0.26458,0
1.89906,0.355057,0.0112286
1.9465,0.266292,-0.211624
1.94509,0.266099,-0.137281
1.89829,0.354913,0.0562029
1.96821,0.171851,0.034486
1.90305,0.355803,-0.124078
1.9228,0.26305,0.113022
1.9629,0.171387,0.0802748
1.94377,0.265918,-0.0913871
1.90538,0.356238,-0.0789721
1.93742,0.26505,-0.0455027
1.91189,0.350208,-0.0339275
1.97626,0.165257,-0.0577156
1.96258,0.261167,-0.554247
1.93098,0.256961,0
1.90428,0.348814,0.0112519
1.94747,0.259156,-0.211624
1.93838,0.257947,0.0455027
1.90744,0.349393,0.0564356
1.97281,0.164968,0.0345558
1.90827,0.349545,-0.124333
1.92375,0.256,0.113022
1.96351,0.164191,0.0802748
1.94473,0.258791,-0.0913871
1.97439,0.1651,-0.103835
1.9106,0.349971,-0.079135
1.94235,0.258474,-0.0455958
1.91304,0.343867,-0.0339275
1.97281,0.158383,-0.0575993
1.9558,0.253667,-0.55209
1.92785,0.250043,0
2.01088,0.0628436,-0.0234219
1.90543,0.342498,0.0112519
1.94832,0.252697,-0.211624
1.95086,0.253026,-0.13756
1.983,0.159201,-0.162403
1.90072,0.341652,0.0562029
1.90942,0.343215,-0.124333
1.93251,0.250647,0.113487
1.96405,0.157679,0.0802748
1.94161,0.251827,-0.091201
1.98289,0.159192,-0.104253
1.90782,0.342927,-0.0789721
1.93923,0.251518,-0.0455027
1.91429,0.336852,-0.0339275
1.97338,0.15115,-0.0575993
1.96818,0.247941,-0.555325
1.94066,0.244474,0
2.0151,0.0555827,-0.0234684
1.91061,0.336205,0.0112751
1.94923,0.245554,-0.211624
1.9441,0.244908,0.0455958
1.98755,0.152235,-0.162729
1.9059,0.335375,0.0563193
1.9779,0.151497,0.0346256
1.91066,0.336214,-0.124333
1.93738,0.244061,0.11372
1.97657,0.151394,0.0807633
1.90906,0.335932,-0.0789721
1.98187,0.144844,-0.057832
1.97286,0.241538,-0.556404
1.94547,0.238185,0
1.91177,0.329534,0.0112751
1.97443,0.144301,0.0345558
1.91183,0.329543,-0.124333
1.93029,0.236326,0.113255
1.91416,0.329945,-0.079135
1.92048,0.324482,-0.0339973
1.97437,0.137715,-0.0575993
1.94625,0.231733,0
1.99502,0.139156,-0.254557
1.9168,0.323859,0.0112984
1.9497,0.232143,0.0456888
1.91208,0.323061,0.0564356
1.97889,0.138031,0.0346256
1.91684,0.323867,-0.124589
1.93107,0.229924,0.113255
1.92313,0.324928,-0.0794606
1.94573,0.23167,-0.0455958
1.92161,0.317775,-0.0339973
1.97882,0.131087,-0.0577156
1.94308,0.224478,0
1.91792,0.317166,0.0112984
1.95956,0.226382,-0.212481
1.91714,0.317037,0.056552
1.98335,0.131386,0.0346954
1.9219,0.317824,-0.124845
1.93979,0.224098,0.11372
1.92031,0.31756,-0.0792978
1.9505,0.225335,-0.0456888
1.92265,0.311401,-0.0339973
1.99122,0.125276,-0.0580647
1.94779,0.218479,0
1.96425,0.220325,-0.212909
1.95521,0.219311,0.0457819
1.96287,0.22017,-0.138118
1.91818,0.310677,0.056552
1.92295,0.311449,-0.124845
1.93655,0.217219,0.113487
1.99332,0.125409,-0.104672
1.92135,0.31119,-0.0792978
1.92372,0.304689,-0.0339973
1.94854,0.21168,0
1.92398,0.30473,0.0113216
1.96501,0.213469,-0.212909
1.96362,0.213319,-0.138118
1.99782,0.118693,-0.16338
1.9153,0.303355,0.0564356
1.98819,0.118121,0.0347652
1.92402,0.304736,-0.124845
1.94524,0.211322,0.113952
1.92637,0.305108,-0.0794606
1.92478,0.297971,-0.0339973
1.95324,0.205294,0
1.92899,0.298624,0.0113449
1.96969,0.207024,-0.213337
1.92425,0.297891,0.0566684
1.99258,0.111403,0.034835
1.92507,0.298017,-0.124845
1.94199,0.204112,0.11372
1.99813,0.111713,-0.104881
1.92742,0.298381,-0.0794606
1.95669,0.205657,-0.0457819
1.9219,0.290318,-0.0339275
1.96194,0.198941,0
1.93007,0.291552,0.0113449
1.99724,0.104322,-0.0116238
1.96141,0.198888,0.0458749
1.92138,0.290239,0.056552
1.99298,0.1041,0.034835
1.9301,0.291556,-0.125101
1.9467,0.197396,0.113952
1.93246,0.291912,-0.0796234
1.96141,0.198888,-0.0458749
1.92681,0.284527,-0.0339973
2.00076,0.0978539,-0.0582974
1.96259,0.192434,0
1.92629,0.28445,0.0566684
1.935,0.285737,-0.125357
1.95529,0.191719,0.114418
1.93737,0.286086,-0.0797863
