2.12988,0.351071,-0.201503
2.1237,0.350052,-0.125348
2.13614,0.345214,-0.0251913
2.12704,0.343743,-0.201131
2.12479,0.343379,-0.125348
2.12569,0.451054,-0.113883
2.13338,0.33713,-0.0251447
2.12822,0.336315,-0.201131
2.12992,0.336583,-0.12558
2.12334,0.442815,-0.113674
2.13065,0.3287,-0.0250982
2.13731,0.329728,-0.201875
2.12719,0.328166,-0.125348
2.12104,0.434229,-0.113464
2.13568,0.322229,-0.0251447
2.13052,0.321451,-0.201131
2.13964,0.322826,0.0251913
2.12432,0.320515,-0.125115
2.12246,0.427193,-0.113464
2.13289,0.313817,-0.0250982
2.13168,0.313639,-0.201131
2.13289,0.313817,0.0250982
2.12548,0.312726,-0.125115
2.12402,0.419411,-0.113464
2.13793,0.306938,-0.0251447
2.12882,0.30563,-0.200759
2.12606,0.305232,0.025005
2.13051,0.305872,-0.125348
2.12155,0.411233,-0.113255
2.13498,0.299291,-0.0250982
2.13377,0.299122,-0.201131
2.13894,0.299847,0.0251447
2.13151,0.298805,-0.125348
2.1229,0.404196,-0.113255
2.13997,0.292379,-0.0251447
2.14269,0.292751,-0.201875
2.13601,0.291838,0.0250982
2.12858,0.290823,-0.125115
2.1243,0.396784,-0.113255
2.13191,0.283322,-0.200759
2.1331,0.28348,0.0250516
2.13359,0.283546,-0.125348
2.12967,0.389715,-0.113464
2.14191,0.277806,-0.0251447
2.13674,0.277134,-0.201131
2.13398,0.276777,0.0250516
2.13065,0.382981,-0.176724
2.12655,0.275814,-0.124883
2.12302,0.381608,-0.113046
2.1389,0.269827,-0.0250982
2.12979,0.268678,-0.200387
2.1389,0.269827,0.0250982
2.12805,0.37485,-0.176398
2.13147,0.268889,-0.125115
2.12433,0.374196,-0.113046
2.13983,0.262359,-0.0250982
2.13071,0.261241,-0.200387
2.13189,0.261385,0.025005
2.12542,0.366741,-0.176073
2.13636,0.261933,-0.125348
2.12563,0.366778,-0.113046
2.13561,0.2539,-0.200759
2.13283,0.25357,0.025005
2.12937,0.253159,-0.124883
2.12696,0.358985,-0.113046
2.14161,0.247414,-0.0250982
2.12313,0.351101,-0.0125072
2.13248,0.246359,-0.200387
2.14161,0.247414,0.0250982
2.13186,0.352544,-0.176398
2.12854,0.459817,-0.101438
2.13208,0.352581,-0.113255
2.14246,0.239937,-0.0250982
2.14014,0.346243,-0.0126002
2.13451,0.239047,0.025005
2.12521,0.343828,-0.175747
2.13104,0.238659,-0.124883
2.12231,0.450725,-0.101066
2.12935,0.344499,-0.113046
2.14333,0.232082,-0.0250982
2.13349,0.337148,-0.0125537
2.13023,0.230665,-0.200016
2.13537,0.231221,0.025005
2.13039,0.336658,-0.176073
2.13587,0.231276,-0.125115
2.12786,0.443758,-0.101252
2.1306,0.336691,-0.113046
2.13459,0.330071,-0.0125537
2.13495,0.224015,-0.200387
2.14011,0.224557,0.0250516
2.12755,0.328983,-0.175747
2.13266,0.223775,-0.124883
2.12541,0.435897,-0.101066
2.13565,0.330235,-0.113255
2.12306,0.320326,-0.0624865
2.14091,0.216712,-0.0250516
2.13183,0.321649,-0.0125305
2.14368,0.216992,-0.201131
2.13693,0.216309,0.025005
2.13269,0.321778,-0.176073
2.13346,0.215958,-0.124883
2.13483,0.429682,-0.101438
2.1329,0.32181,-0.113046
2.14166,0.209237,-0.0250516
2.1369,0.314788,-0.0125537
2.1365,0.208732,-0.200387
2.12985,0.31375,-0.175747
2.14057,0.315328,0.037767
2.13421,0.208509,-0.124883
2.12455,0.419902,-0.100879
2.13796,0.314944,-0.113255
2.14234,0.202133,-0.0250516
2.13793,0.3077,-0.0125537
2.13718,0.201646,-0.200387
2.13438,0.201381,0.0249585
2.12697,0.413056,-0.151511
2.13483,0.307253,-0.176073
2.13765,0.307658,0.0376972
2.13886,0.201805,-0.125115
2.12594,0.412854,-0.100879
2.13109,0.306714,-0.112836
2.139,0.300236,-0.0125537
2.13787,0.194186,-0.200387
2.13905,0.194293,0.025005
2.1284,0.40563,-0.151511
2.13194,0.299246,-0.175747
2.13557,0.193978,-0.124883
2.13129,0.40618,-0.101066
2.1361,0.29983,-0.113046
2.13971,0.186825,-0.025005
2.14259,0.293118,-0.275265
2.14003,0.292768,-0.0125537
2.13853,0.186722,-0.200387
2.13971,0.186825,0.025005
2.13974,0.292728,0.0376972
2.13624,0.186521,-0.124883
2.12877,0.398003,-0.100879
2.13713,0.292371,-0.113046
2.12657,0.397592,-0.0503414
2.12427,0.283437,-0.0623701
2.14431,0.180062,-0.0250516
2.13569,0.284961,-0.274255
2.13306,0.284611,-0.0125072
2.13914,0.179628,-0.200387
2.13634,0.179393,0.0249585
2.13111,0.391132,-0.151511
2.12998,0.284199,-0.175422
2.1407,0.28563,0.0376972
2.12889,0.178767,-0.124418
2.13007,0.390941,-0.100879
2.13809,0.285282,-0.113046
2.12394,0.389816,-0.0502484
2.14492,0.172577,-0.0250516
2.14061,0.278016,-0.27476
2.13404,0.277164,-0.0125072
2.14372,0.17248,-0.200759
2.14492,0.172577,0.0250516
2.12854,0.382985,-0.151232
2.13095,0.276763,-0.175422
2.14168,0.278156,0.0376972
2.13348,0.171656,-0.12465
2.12438,0.275909,0.0872764
2.13536,0.384212,-0.101066
2.12529,0.3824,-0.0502484
2.14156,0.270543,-0.27476
2.14293,0.270716,-0.0125537
2.14034,0.164691,-0.200387
2.12593,0.37486,-0.150953
2.13982,0.270323,-0.176073
2.13805,0.164514,-0.124883
2.14003,0.270349,-0.113046
2.13055,0.375674,-0.0503414
2.1461,0.157223,-0.0250516
2.14648,0.263174,-0.275265
2.13696,0.156553,-0.200016
2.13812,0.156639,0.0249585
2.12892,0.261022,-0.175096
2.13465,0.156385,-0.12465
2.13423,0.261673,0.0876021
2.13018,0.367563,-0.100693
2.13704,0.262017,-0.112836
2.13191,0.367862,-0.0503414
2.14664,0.149732,-0.0250516
2.1395,0.254742,-0.274255
2.14084,0.254902,-0.0125305
2.13352,0.148816,-0.199644
2.14265,0.149453,0.025005
2.12856,0.359637,-0.150953
2.12982,0.253589,-0.175096
2.14055,0.254867,0.0376274
2.13917,0.149211,-0.124883
2.13117,0.253749,0.0874392
2.12357,0.358794,-0.100321
2.13794,0.254557,-0.112836
2.13318,0.360418,-0.0503414
2.1231,0.351477,0
2.14712,0.142612,-0.0250516
2.14034,0.247645,-0.274255
2.14195,0.142268,-0.200387
2.1258,0.351925,-0.150674
2.13461,0.246983,-0.175422
2.13965,0.142116,-0.124883
2.13597,0.24714,0.0876021
2.12869,0.352402,-0.100507
2.13878,0.247465,-0.112836
2.12647,0.352035,-0.0501553
2.14119,0.240173,-0.274255
2.13855,0.239878,-0.0125072
2.14243,0.134791,-0.200387
2.1349,0.345779,-0.151232
2.1315,0.239086,-0.175096
2.14224,0.240291,0.0376274
2.14014,0.134646,-0.124883
2.13284,0.239237,0.0874392
2.12596,0.344331,-0.100321
2.13963,0.239998,-0.112836
2.13558,0.34589,-0.0503414
2.14407,0.127381,-0.025005
2.14596,0.233126,-0.27476
2.13891,0.127075,-0.200016
2.14008,0.127144,0.0249585
2.12821,0.337075,-0.150674
2.14025,0.232505,-0.175747
2.14306,0.232811,0.0376274
2.14059,0.127174,-0.124883
2.13367,0.23179,0.0874392
2.1311,0.337532,-0.100507
2.13648,0.232096,-0.112627
2.13283,0.337807,-0.0502484
2.14676,0.225633,-0.27476
2.1362,0.224523,-0.012484
2.13016,0.329765,-0.232186
2.14332,0.119829,-0.200387
2.12543,0.329033,-0.150395
2.13312,0.224199,-0.175096
2.14501,0.119924,-0.125115
2.13446,0.22434,0.0874392
2.13226,0.330091,-0.100507
2.13331,0.224219,-0.112418
2.13795,0.330971,-0.0503414
2.14359,0.217738,-0.274255
2.13129,0.322329,-0.232186
2.13975,0.11214,-0.200016
2.14092,0.112201,0.0249585
2.12657,0.321614,-0.150395
2.13388,0.216753,-0.175096
2.14542,0.112437,-0.125115
2.12945,0.32205,-0.100321
2.13407,0.216772,-0.112418
2.13909,0.323508,-0.0503414
2.14529,0.104922,-0.025005
2.13643,0.209479,-0.273244
2.13241,0.314887,-0.232186
2.1441,0.104864,-0.200387
2.13625,0.315454,0.0502484
2.14529,0.104922,0.025005
2.13463,0.209302,-0.175096
2.1458,0.104947,-0.125115
2.13598,0.209434,0.0874392
2.14242,0.316365,-0.100879
2.13879,0.209711,-0.112627
2.14021,0.316038,-0.0503414
2.13,0.306938,0
2.14505,0.202768,-0.274255
2.12956,0.306874,-0.231758
2.14048,0.0971992,-0.200016
2.12876,0.30676,-0.150395
2.13535,0.20185,-0.175096
2.13418,0.0969132,-0.124418
2.13669,0.201978,0.0874392
2.1356,0.307745,-0.100507
2.13951,0.202244,-0.112627
2.13734,0.307996,-0.0502484
2.12313,0.298387,0
2.1418,0.194919,-0.27375
2.14311,0.195038,-0.0125072
2.14081,0.0897264,-0.200016
2.13444,0.299976,0.0501553
2.13377,0.299882,-0.150674
2.14001,0.194756,-0.175422
2.14282,0.195012,0.0375576
2.14249,0.0897968,-0.124883
2.13739,0.194517,0.0874392
2.12875,0.299176,-0.100135
2.14021,0.194774,-0.112627
2.1384,0.300533,-0.0502484
2.14627,0.0824509,-0.025005
2.15037,0.188132,-0.27476
2.13165,0.291999,-0.231758
2.14509,0.0824054,-0.200387
2.13547,0.292523,0.0501553
2.14227,0.0822974,0.0249585
2.1269,0.291348,-0.150116
2.13273,0.186589,-0.174771
2.12664,0.39799,-0.13866
2.14279,0.082317,-0.124883
2.13407,0.186707,0.0872764
2.13374,0.292285,-0.100321
2.14087,0.187302,-0.112627
2.13547,0.292523,-0.0501553
2.12419,0.389862,-0.0376972
2.12517,0.283558,0
2.14311,0.179962,-0.27375
2.13265,0.284557,-0.231758
2.14138,0.0747786,-0.200016
2.13648,0.285068,0.0501553
2.14655,0.074959,0.025005
2.13186,0.28445,-0.150395
2.13734,0.179478,-0.175096
2.15104,0.075116,-0.125348
2.13869,0.179591,0.0874392
2.13475,0.284836,-0.100321
2.13753,0.179494,-0.112418
2.1294,0.17881,0.174445
2.14045,0.285596,-0.0502484
2.12816,0.171976,-0.0621374
2.1397,0.172909,-0.273244
2.13748,0.278369,-0.232186
2.14558,0.0681778,-0.200387
2.1334,0.277838,0.0500623
2.14277,0.0680884,0.0249585
2.13669,0.278267,-0.150674
2.1379,0.172762,-0.175096
2.14728,0.0682315,-0.125115
2.14323,0.173194,0.0876021
2.13167,0.277612,-0.100135
2.14605,0.173421,-0.112836
2.122,0.171478,0.173795
2.13737,0.278355,-0.0501553
2.12279,0.375069,-0.0376274
2.12875,0.164545,-0.0621374
2.12303,0.268954,0
2.147,0.0607208,-0.025005
2.14425,0.165744,-0.27375
2.14556,0.165845,-0.0125072
2.13449,0.270406,-0.231758
2.14183,0.0605747,-0.200016
2.13436,0.270389,0.0500623
2.13369,0.270305,-0.150395
2.14246,0.165605,-0.175422
2.13952,0.0605093,-0.12465
2.13984,0.165403,0.0874392
2.13262,0.270169,-0.100135
2.14664,0.165929,-0.112836
2.12656,0.164376,0.17412
2.13436,0.270389,-0.0500623
2.12409,0.367658,-0.0376274
2.12396,0.261542,0
2.14482,0.158259,-0.27375
2.14203,0.0530984,-0.200016
2.13132,0.262449,0.0499692
2.13463,0.262856,-0.150395
2.14303,0.158126,-0.175422
2.15169,0.053338,-0.125348
2.1404,0.157933,0.0874392
2.12959,0.262235,-0.0999489
2.13924,0.157847,-0.112418
2.12712,0.156953,0.17412
2.13926,0.263426,-0.0501553
2.1293,0.36091,-0.0376972
2.12486,0.254127,0
2.13238,0.255027,-0.23133
2.14618,0.0457063,-0.200387
2.13619,0.255483,0.0500623
2.14337,0.0456464,0.0249585
2.12761,0.254456,-0.149837
2.13959,0.150366,-0.175096
2.1292,0.360893,-0.138404
2.14787,0.0457423,-0.125115
2.13446,0.255275,-0.100135
2.13978,0.150379,-0.112418
2.12766,0.149527,0.17412
2.12392,0.359997,-0.0877649
2.14017,0.255958,-0.0501553
2.1266,0.35282,-0.0376274
2.14751,0.0382349,-0.025005
2.14587,0.143281,-0.27375
2.12931,0.247123,-0.230901
2.15031,0.0382847,-0.200759
2.1331,0.247563,0.0499692
2.14751,0.0382349,0.025005
2.13641,0.247947,-0.150395
2.13612,0.14263,-0.174771
2.14003,0.0381018,-0.12465
2.1261,0.246751,0.12465
2.13137,0.247362,-0.0999489
2.14428,0.143175,-0.112627
2.12419,0.141833,0.173795
2.13707,0.248024,-0.0500623
2.12387,0.344754,-0.0375576
2.13084,0.134808,-0.0621374
2.14514,0.135713,-0.429889
2.14763,0.030739,-0.025005
2.1424,0.13554,-0.273244
2.13411,0.240134,-0.23133
2.14645,0.030722,-0.200387
2.1419,0.24101,0.0501553
2.13726,0.240488,-0.150395
2.14059,0.135425,-0.175096
2.14339,0.135602,0.0374878
2.14415,0.030689,-0.124883
2.13619,0.240368,-0.100135
2.14476,0.135689,-0.112627
2.12865,0.13467,0.17412
2.1419,0.24101,-0.0501553
2.12901,0.337965,-0.0376274
2.1456,0.128224,-0.429889
2.14141,0.233388,-0.335126
2.14682,0.128297,-0.27375
2.13325,0.338637,0.0125537
2.14414,0.128136,-0.012484
2.13098,0.232251,-0.230901
2.15052,0.0232718,-0.200759
2.13875,0.233098,0.0500623
2.13412,0.232593,-0.150116
2.13707,0.127714,-0.174771
2.14385,0.128119,0.0374878
2.14424,0.0232038,-0.124883
2.12777,0.231902,0.12465
2.14496,0.233775,-0.100507
2.14921,0.12844,-0.112836
2.12911,0.127238,0.17412
2.12363,0.337109,-0.0876021
2.14273,0.233532,-0.0501553
2.13018,0.33053,-0.0376274
2.14604,0.120733,-0.429889
2.15007,0.22674,-0.336356
2.14329,0.120578,-0.273244
2.12652,0.329962,0.0125072
2.13178,0.224811,-0.230901
2.14263,0.015706,-0.200016
2.13558,0.225211,0.0499692
2.13095,0.224724,-0.149837
2.14148,0.120477,-0.175096
2.13009,0.330516,-0.138148
2.14032,0.0156891,-0.12465
2.13254,0.224891,0.124883
2.13884,0.120328,0.0872764
2.13384,0.225028,-0.0999489
2.14566,0.120712,-0.112627
2.12556,0.119581,0.173795
2.12737,0.322495,-0.0375576
2.13213,0.112487,-0.0621374
2.14253,0.113036,-0.429105
2.14784,0.00824805,-0.025005
2.13905,0.218032,-0.334511
2.15162,0.113516,-0.274255
2.13161,0.323138,0.0125305
2.13255,0.21737,-0.230901
2.15462,0.00827408,-0.201131
2.13635,0.217757,0.0499692
2.14384,0.00823269,0.0249585
2.13172,0.217285,-0.149837
2.14189,0.113002,-0.175096
2.12728,0.322482,-0.137892
2.14834,0.00824999,-0.125115
2.13729,0.217852,0.125115
2.14324,0.113073,0.0874392
2.13859,0.217985,-0.100135
2.14208,0.113012,-0.112418
2.12596,0.112162,0.173795
2.13244,0.315652,-0.0376274
2.14291,0.105556,-0.429105
2.14385,0.000748669,-0.0249585
2.13587,0.210177,-0.333896
2.14408,0.105614,-0.273244
2.12877,0.315109,0.0125072
2.1333,0.209924,-0.230901
2.14667,0.000749651,-0.200387
2.1371,0.210298,0.0499692
2.13644,0.210233,-0.150116
2.13829,0.105328,-0.174771
2.15235,0.000751637,-0.125348
2.13803,0.21039,0.125115
2.13934,0.210518,-0.100135
2.14645,0.10573,-0.112627
2.13032,0.104936,0.17412
2.14506,0.211081,-0.0501553
2.13358,0.307834,-0.0376274
2.13288,0.0972274,-0.0621374
2.1472,0.0978802,-0.429889
2.14784,-0.00712173,-0.025005
2.14056,0.20272,-0.334511
2.14445,0.0977549,-0.273244
2.12595,0.306734,0.012484
2.14666,-0.00711779,-0.200387
2.13785,0.202464,0.0499692
2.14784,-0.00712173,0.025005
2.13322,0.202025,-0.149837
2.13866,0.0974907,-0.174771
2.12558,0.306681,-0.137637
2.14036,-0.00709692,-0.12465
2.13084,0.2018,0.12465
2.14399,0.0977339,0.0874392
2.13612,0.202299,-0.0999489
2.14682,0.0978629,-0.112627
2.12671,0.0969461,0.173795
2.14183,0.202841,-0.0500623
2.13068,0.299827,-0.0375576
2.13321,0.0897811,-0.0621374
2.14753,0.0903839,-0.429889
2.12718,0.193963,0
2.1518,-0.0146469,-0.0250516
2.14519,0.195605,-0.335126
2.14478,0.0902682,-0.273244
2.13493,0.300425,0.0125305
2.14264,-0.0145845,-0.200016
2.13456,0.194636,0.0498762
2.1478,-0.0146196,0.025005
2.13789,0.19494,-0.150116
2.14695,0.0903595,-0.175422
2.12664,0.299259,-0.137637
2.14831,-0.0146231,-0.125115
2.12755,0.193997,0.124418
2.14432,0.0902488,0.0874392
2.13681,0.194841,-0.0999489
2.14715,0.0903679,-0.112627
2.12704,0.0895213,0.173795
2.14253,0.195363,-0.0500623
2.12369,0.292043,-0.037418
2.13997,0.083332,-0.42832
2.14579,0.188865,-0.335126
2.14505,0.0835301,-0.273244
2.1319,0.293172,0.0125072
2.13534,0.187946,-0.230901
2.14656,-0.0213549,-0.200387
2.13915,0.188281,0.0499692
2.13975,-0.0212871,0.0249119
2.13452,0.187873,-0.149837
2.14324,0.0834595,-0.175096
2.13103,0.293053,0.0626028
2.14426,-0.021332,-0.124883
2.13611,0.188013,0.124883
2.1406,0.0833567,0.0872764
2.14139,0.188478,-0.100135
2.14343,0.0834669,-0.112418
2.13527,0.0831492,0.174445
2.12621,0.292389,-0.0874392
2.14313,0.188631,-0.0500623
2.12469,0.284628,-0.037418
2.14416,0.076001,-0.429105
2.15166,-0.0289169,-0.0250516
2.13856,0.180709,-0.333896
2.15326,0.0763236,-0.274255
2.12895,0.285198,0.012484
2.13599,0.180491,-0.230901
2.14647,-0.0288472,-0.200387
2.14378,0.18115,0.0500623
2.14766,-0.0288631,0.025005
2.13118,0.180085,-0.149558
2.1475,0.0761194,-0.175422
2.13204,0.285613,0.0626028
2.12858,0.285149,-0.137637
2.14817,-0.0288699,-0.125115
2.13675,0.180556,0.124883
2.14088,0.0758846,0.0872764
2.13805,0.180666,-0.0999489
2.14371,0.0759849,-0.112418
2.13555,0.0756957,0.174445
2.14378,0.18115,-0.0500623
2.13757,0.278761,-0.0376274
2.14442,0.0685154,-0.429105
2.14355,-0.0362926,-0.0249585
2.13918,0.173242,-0.333896
2.14558,0.0685528,-0.273244
2.1339,0.278281,0.0125072
2.13264,0.172713,-0.230473
2.14636,-0.0363402,-0.200387
2.14041,0.173342,0.0499692
2.15155,-0.036428,0.0250516
2.1318,0.172644,-0.149558
2.13979,0.0683675,-0.174771
2.12906,0.277651,0.0624865
2.14805,-0.0363688,-0.125115
2.13737,0.173096,0.124883
2.14113,0.0684105,0.0872764
2.13867,0.173201,-0.0999489
2.14795,0.0686285,-0.112627
2.13182,0.0681129,0.17412
2.1444,0.173665,-0.0500623
2.1306,0.27029,-0.0374878
2.14464,0.0610291,-0.429105
2.15141,-0.0439386,-0.0250516
2.13583,0.165468,-0.333281
2.14581,0.0610623,-0.273244
2.13089,0.270327,0.012484
2.13323,0.165267,-0.230473
2.14622,-0.0438327,-0.200387
2.14741,-0.043857,0.025005
2.14034,0.165818,-0.150116
2.144,0.0610107,-0.175096
2.13002,0.270217,0.0624865
2.1468,0.0610906,0.0374878
2.14392,-0.0437857,-0.124883
2.13398,0.165325,0.12465
2.14535,0.0610492,0.0874392
2.14325,0.166043,-0.100135
2.14818,0.0611298,-0.112627
2.14001,0.0608973,0.174771
2.12519,0.269604,-0.0872764
2.14499,0.166178,-0.0500623
2.1355,0.263341,-0.0375576
2.13443,0.053283,-0.0621374
2.14484,0.0535429,-0.429105
2.15124,-0.0514477,-0.0250516
2.14034,0.158304,-0.333896
2.14601,0.0535721,-0.273244
2.13182,0.262888,0.012484
2.13379,0.15782,-0.230473
2.15004,-0.0514189,-0.200759
2.14324,-0.0512565,0.0249585
2.13693,0.158052,-0.149837
2.14818,0.0536263,-0.175422
2.13492,0.26327,0.0626028
2.14375,-0.0512687,-0.124883
2.13454,0.157875,0.12465
2.14156,0.0534609,0.0872764
2.13983,0.158266,-0.0999489
2.13224,0.0532284,0.17412
2.12612,0.262185,-0.0872764
2.14157,0.158395,-0.0499692
2.1364,0.255885,-0.0375576
2.14109,0.0459709,-0.42832
2.15105,-0.0589572,-0.0250516
2.14482,0.151109,-0.334511
2.14618,0.0460802,-0.273244
2.12875,0.254968,0.0124607
2.14586,-0.0588151,-0.200387
2.14211,0.150918,0.0499692
2.14705,-0.0588476,0.025005
2.13747,0.150591,-0.149837
2.14836,0.0461269,-0.175422
2.13582,0.255816,0.0626028
2.13235,0.2554,-0.137637
2.14356,-0.058752,-0.124883
2.13508,0.150423,0.12465
2.13773,0.0458988,0.0871136
2.13638,0.150514,-0.0997627
2.14057,0.0459596,-0.112208
2.14038,0.0459557,0.174771
2.13099,0.255237,-0.0874392
2.14211,0.150918,-0.0499692
2.13331,0.247966,-0.0374878
2.13475,0.0383816,-0.0621374
2.14516,0.0385688,-0.429105
2.14533,0.143622,-0.334511
2.15427,0.0387325,-0.274255
2.1336,0.247999,0.012484
2.13881,0.143186,-0.230901
2.14564,-0.0663037,-0.200387
2.13863,0.143174,0.0498762
2.14283,-0.0662168,0.0249585
2.13798,0.14313,-0.149837
2.14053,0.0384856,-0.174771
2.12876,0.247437,0.0623701
2.12927,0.247496,-0.137381
2.14734,-0.066356,-0.125115
2.13559,0.14297,0.12465
2.14188,0.0385097,0.0872764
2.13689,0.143058,-0.0997627
2.14072,0.0384889,-0.112208
2.13655,0.0384139,0.174445
2.14211,0.241413,-0.0376274
2.13487,0.0309291,-0.0621374
2.14529,0.03108,-0.429105
2.12772,0.134984,0
2.15058,-0.0739719,-0.0250516
2.14188,0.135882,-0.333896
2.14645,0.0310969,-0.273244
2.13843,0.240998,0.0125072
2.13533,0.135467,-0.230473
2.14938,-0.0739305,-0.200759
2.13449,0.135413,-0.149558
2.14464,0.0310707,-0.175096
2.13756,0.2409,0.0626028
2.13012,0.240061,-0.137381
2.14709,-0.0738517,-0.125115
2.13608,0.135514,0.12465
2.14599,0.0310903,0.0874392
2.14536,0.136103,-0.100135
2.14483,0.0310734,-0.112418
2.13667,0.0309551,0.174445
2.13499,0.233065,-0.0374878
2.13497,0.0234763,-0.0621374
2.1493,0.0236339,-0.429889
2.12818,0.127556,0
2.15031,-0.0814789,-0.0250516
2.14234,0.128404,-0.333896
2.15052,0.0236473,-0.27375
2.13528,0.233097,0.012484
2.13976,0.12825,-0.230901
2.14911,-0.0814333,-0.200759
2.14232,-0.081176,0.0249585
2.13495,0.127961,-0.149558
2.14474,0.0235837,-0.175096
2.13044,0.232568,0.0623701
2.14682,-0.0813466,-0.125115
2.13654,0.128057,0.12465
2.14609,0.0235986,0.0874392
2.14582,0.128613,-0.100135
2.14493,0.0235858,-0.112418
2.13676,0.023496,0.174445
2.14357,0.128478,-0.0499692
2.13579,0.225612,-0.0374878
2.13504,0.0160242,-0.0621374
2.14937,0.0161318,-0.429889
2.12861,0.120127,0
2.15401,-0.0891493,-0.0250982
2.14672,0.121148,-0.334511
2.15456,0.0161707,-0.274255
2.13608,0.225642,0.012484
2.15279,-0.0890988,-0.201131
2.14335,0.120958,-0.150116
2.1448,0.0160975,-0.175096
2.13521,0.225551,0.0624865
2.12777,0.224765,-0.137125
2.14253,-0.0886743,-0.124883
2.13299,0.120373,0.124418
2.14616,0.0161076,0.0874392
2.14226,0.120897,-0.0999489
2.141,0.0160689,-0.112208
2.13284,0.0160077,0.17412
2.14001,0.12077,-0.0498762
2.14054,0.218561,-0.0375576
2.14549,0.00861265,-0.429105
2.13924,0.113236,-0.333281
2.14666,0.00861734,-0.273244
2.13685,0.218184,0.012484
2.13663,0.113098,-0.230473
2.14451,-0.0962564,-0.200387
2.14442,0.11351,0.0499692
2.14569,-0.0963096,0.025005
2.1318,0.112842,-0.149279
2.14485,0.00861006,-0.175096
2.13201,0.217689,0.0623701
2.14766,0.00862133,0.0374878
2.13251,0.217741,-0.137381
2.14221,-0.0961532,-0.124883
2.13339,0.112927,0.124418
2.14221,0.00859945,0.0872764
2.13868,0.113207,-0.0997627
2.14104,0.00859479,-0.112208
2.14086,0.00859405,0.174771
2.13114,0.217601,-0.0872764
2.14042,0.113299,-0.0498762
2.14129,0.211088,-0.0375576
2.14551,0.00112387,-0.429105
2.13962,0.105768,-0.333281
2.15065,0.00112657,-0.27375
2.13362,0.210332,0.0124607
2.14416,-0.103741,-0.200387
2.1448,0.106024,0.0499692
2.14934,-0.103992,0.0250516
2.14015,0.105795,-0.149837
2.14486,0.00112354,-0.175096
2.13673,0.210639,0.0624865
2.13326,0.210296,-0.137381
2.14585,-0.103823,-0.125115
2.13776,0.105677,0.12465
2.14622,0.00112425,0.0874392
2.14306,0.105938,-0.0999489
2.14106,0.00112154,-0.112208
2.13689,0.00111936,0.174445
2.12791,0.209769,-0.0871136
2.14081,0.105827,-0.0498762
2.138,0.203607,-0.0374878
2.13509,-0.00596139,-0.0621374
2.1455,-0.00599047,-0.429105
2.12974,0.0982017,0
2.15298,-0.111325,-0.0250982
2.13996,0.0986729,-0.333281
2.15064,-0.00600481,-0.27375
2.13829,0.203635,0.012484
2.13338,0.0983696,-0.230044
2.15176,-0.111262,-0.201131
2.14114,0.0987277,0.0498762
2.14499,-0.110912,0.025005
2.14847,0.0990652,-0.150395
2.14087,-0.00597754,-0.174771
2.13742,0.203552,0.0624865
2.12997,0.202843,-0.137125
2.14549,-0.110938,-0.125115
2.1381,0.0985873,0.12465
2.14621,-0.00599245,0.0874392
2.14739,0.0990155,-0.100135
2.14505,-0.0059892,-0.112418
2.1329,-0.00595527,0.17412
2.1286,0.202712,-0.0871136
2.14913,0.0990961,-0.0500623
2.1387,0.196143,-0.0374878
2.13905,-0.0134399,-0.0622537
2.14155,-0.0134556,-0.42832
2.14424,0.0913701,-0.333896
2.15061,-0.0135125,-0.27375
2.135,0.195804,0.0124607
2.13768,0.0910909,-0.230473
2.15533,-0.118992,-0.201503
2.15258,-0.11884,0.0250982
2.14481,0.0913946,-0.150116
2.14482,-0.0134762,-0.175096
2.13812,0.196089,0.0624865
2.13067,0.195406,-0.137125
2.14509,-0.118427,-0.125115
2.13444,0.0909528,0.124418
2.14772,0.0915186,-0.100135
2.14901,-0.0135025,-0.112627
2.13402,0.0909349,0.262263
2.13685,-0.0134261,0.174445
2.12929,0.19528,-0.0871136
2.14148,0.0912525,-0.0498762
2.13539,0.188324,-0.037418
2.13499,-0.020868,-0.0621374
2.14933,-0.0210081,-0.429889
2.13037,0.0833299,0
2.14849,0.0840387,-0.334511
2.15055,-0.02102,-0.27375
2.13169,0.187998,0.0124375
2.15186,-0.0210329,-0.0125072
2.13401,0.0834724,-0.230044
2.14695,-0.126049,-0.200759
2.14578,0.0839325,0.0499692
2.14113,0.0837507,-0.149837
2.14078,-0.0209245,-0.174771
2.13481,0.188273,0.0623701
2.13134,0.187967,-0.137125
2.14467,-0.125914,-0.125115
2.13475,0.0835011,0.124418
2.14612,-0.0209767,0.0874392
2.14403,0.0838643,-0.0999489
2.14495,-0.0209653,-0.112418
2.13036,0.0833295,0.261775
2.1328,-0.0208466,0.17412
2.12996,0.187846,-0.0871136
2.14178,0.0837762,-0.0498762
2.13603,0.180869,-0.037418
2.13891,-0.028373,-0.0622537
2.14924,-0.0285101,-0.429889
2.15569,-0.134113,-0.0251447
2.14087,0.0762576,-0.333281
2.15046,-0.0285262,-0.27375
2.13632,0.180894,0.0124607
2.15177,-0.0285437,-0.0125072
2.13827,0.0761648,-0.230473
2.15048,-0.133789,-0.201131
2.14206,0.0763,0.0498762
2.14371,-0.133368,0.025005
2.14141,0.0762767,-0.149837
2.14866,-0.0285024,-0.175422
2.13943,0.181158,0.0624865
2.13198,0.180527,-0.137125
2.14421,-0.1334,-0.125115
2.13902,0.0761915,0.12465
2.14603,-0.0284675,0.0874392
2.14431,0.0763802,-0.0999489
2.14487,-0.028452,-0.112418
2.13064,0.0758931,0.261775
2.14069,-0.0283966,0.174771
2.13458,0.180747,-0.0872764
2.14606,0.0764423,-0.0499692
2.13665,0.173412,-0.037418
2.15121,-0.141375,-0.0250982
2.14113,0.0687835,-0.333281
2.15431,-0.0360996,-0.274255
2.13694,0.173435,0.0124607
2.15166,-0.0360552,-0.0125072
2.13454,0.0685721,-0.230044
2.15397,-0.141557,-0.201503
2.14631,0.0689501,0.0499692
2.15121,-0.141375,0.0250982
2.14565,0.0689289,-0.150116
2.14058,-0.0358694,-0.174771
2.13607,0.173365,0.0623701
2.13658,0.173406,-0.137381
2.14374,-0.140884,-0.125115
2.13927,0.0687239,0.12465
2.14991,-0.0360259,0.0876021
2.14457,0.0688941,-0.0999489
2.14476,-0.0359394,-0.112418
2.13089,0.0684547,0.261775
2.13659,-0.0358026,0.174445
2.13122,0.172971,-0.0871136
2.14631,0.0689501,-0.0499692
2.13724,0.165954,-0.037418
2.13866,-0.0433036,-0.0622537
2.14899,-0.0435129,-0.429889
2.1374,0.0611975,-0.332666
2.15417,-0.0436178,-0.274255
2.13753,0.165976,0.0124607
2.13875,0.0612361,-0.230473
2.14949,-0.148798,-0.201131
2.14654,0.0614592,0.0499692
2.15071,-0.148882,0.0250982
2.14189,0.061326,-0.149837
2.14443,-0.0434205,-0.175096
2.13267,0.165599,0.0622537
2.15123,-0.0435583,0.0375576
2.12921,0.16533,-0.136869
2.14721,-0.14864,-0.125348
2.13551,0.0611432,0.124418
2.14578,-0.0434479,0.0874392
2.14479,0.0614092,-0.0999489
2.14462,-0.0434243,-0.112418
2.13112,0.0610176,0.261775
2.13247,-0.0431783,0.17412
2.14654,0.0614592,-0.0499692
2.14179,0.158788,-0.0374878
2.13449,-0.0506744,-0.0621374
2.15416,-0.156679,-0.0251447
2.1455,0.0539343,-0.333896
2.14608,-0.0509493,-0.273244
2.13012,0.157922,0.0124142
2.13895,0.0537695,-0.230473
2.15293,-0.15659,-0.201503
2.14674,0.0539654,0.0499692
2.15017,-0.156389,0.0250982
2.14209,0.0538485,-0.149837
2.14426,-0.0509062,-0.175096
2.12925,0.157858,0.0621374
2.15107,-0.0510678,0.0375576
2.12977,0.157896,-0.136869
2.14668,-0.156135,-0.125348
2.13571,0.053688,0.124418
2.14899,0.054022,-0.100135
2.14445,-0.0509107,-0.112418
2.13132,0.0535776,0.261775
2.13629,-0.050717,0.174445
2.12839,0.157794,-0.0869508
2.14274,0.0538649,-0.0498762
2.13037,0.150464,-0.0372783
2.1383,-0.0582342,-0.0622537
2.14864,-0.0585157,-0.429889
2.1315,0.0461373,0
2.1536,-0.164198,-0.0251447
2.14568,0.0464442,-0.333896
2.15382,-0.0586568,-0.274255
2.13864,0.151048,0.0124607
2.15117,-0.0585846,-0.0125072
2.1484,-0.163802,-0.201131
2.14692,0.046471,0.0499692
2.1536,-0.164198,0.0251447
2.14626,0.0464567,-0.150116
2.14806,-0.0584999,-0.175422
2.13378,0.150705,0.0622537
2.15087,-0.0585766,0.0375576
2.13031,0.15046,-0.136869
2.13987,0.0463185,0.12465
2.14517,0.0464332,-0.0999489
2.14426,-0.0583965,-0.112418
2.13943,0.0463089,0.26275
2.14008,-0.0582828,0.174771
2.13291,0.150644,-0.0871136
2.14692,0.046471,-0.0499692
2.14285,0.143831,-0.0374878
2.1445,-0.065895,-0.429105
2.14978,0.0390259,-0.334511
2.1536,-0.0661746,-0.274255
2.14314,0.14385,0.012484
2.13927,0.0388351,-0.230473
2.14706,0.0389766,0.0499692
2.14241,0.0388921,-0.149837
2.14784,-0.0659976,-0.175422
2.14227,0.143792,0.0624865
2.15066,-0.0660842,0.0375576
2.13082,0.143023,-0.136869
2.14952,-0.171436,-0.12558
2.14401,0.0389212,0.124883
2.1492,-0.0660395,0.0876021
2.14932,0.0390174,-0.100135
2.14005,-0.0657584,-0.112208
2.13164,0.0386965,0.261775
2.13987,-0.0657527,0.174771
2.12944,0.14293,-0.0869508
2.14706,0.0389766,-0.0499692
2.13935,0.136096,-0.037418
2.14425,-0.0733803,-0.429105
2.15639,-0.179561,-0.0251913
2.14595,0.0314636,-0.333896
2.15336,-0.0736917,-0.274255
2.13565,0.13586,0.0124375
2.15071,-0.073601,-0.0125072
2.13542,0.0313091,-0.230044
2.1472,-0.178796,-0.201131
2.14719,0.0314817,0.0499692
2.1524,-0.179229,0.0251447
2.14254,0.0314135,-0.149837
2.14759,-0.0734946,-0.175422
2.13877,0.136059,0.0623701
2.13529,0.135838,-0.137125
2.14493,-0.178607,-0.125348
2.13615,0.0313198,0.124418
2.14544,0.0314561,-0.0999489
2.13981,-0.0732281,-0.112208
2.13176,0.0312555,0.261775
2.13564,-0.0730855,0.174445
2.12992,0.135496,-0.0869508
2.13919,0.0313644,-0.0497831
2.1438,0.128867,-0.0374878
2.14399,-0.0808647,-0.429105
2.14778,-0.186396,-0.0250982
2.13814,0.0238843,-0.332666
2.15308,-0.0812079,-0.274255
2.1401,0.128645,0.0124607
2.14347,0.0239437,-0.230901
2.1545,-0.186979,-0.201875
2.14778,-0.186396,0.0250982
2.13864,0.0238899,-0.149558
2.14334,-0.0808404,-0.175096
2.13524,0.128353,0.0622537
2.13576,0.128384,-0.137125
2.15225,-0.186783,-0.125813
2.13625,0.0238631,0.124418
2.14554,0.0239669,-0.0999489
2.14353,-0.0808476,-0.112418
2.13583,0.0238584,0.262263
2.13537,-0.0805398,0.174445
2.13038,0.128061,-0.0869508
2.14424,0.121383,-0.0374878
2.14127,-0.0882485,-0.0623701
2.14761,-0.0885096,-0.429889
2.13194,0.0163724,0
2.15508,-0.194611,-0.0251913
2.14612,0.0164813,-0.333896
2.14486,-0.0883962,-0.273244
2.13654,0.120948,0.0124375
2.13956,0.016431,-0.230473
2.15383,-0.194498,-0.201875
2.14736,0.0164908,0.0499692
2.1511,-0.194251,0.0251447
2.1427,0.0164551,-0.149837
2.14703,-0.0884857,-0.175422
2.13967,0.121124,0.0623701
2.13619,0.120928,-0.137125
2.14761,-0.193936,-0.12558
2.13632,0.0164061,0.124418
2.14324,-0.0883294,-0.112418
2.13193,0.0163723,0.261775
2.13082,0.120624,-0.0869508
2.14336,0.0164601,-0.0498762
2.14066,0.113686,-0.037418
2.13696,-0.0955439,-0.0622537
2.15439,-0.202133,-0.0251913
2.14616,0.00898988,-0.333896
2.15247,-0.0962371,-0.274255
2.14095,0.113701,0.0124607
2.15381,-0.0962973,-0.0125305
2.1396,0.00896241,-0.230473
2.14918,-0.201643,-0.201503
2.15073,0.00900901,-0.150395
2.15069,-0.0961577,-0.175747
2.14008,0.113655,0.0623701
2.14953,-0.0961057,0.0375576
2.13261,0.113259,-0.136869
2.13237,0.0089321,0.124185
2.14565,0.00898775,-0.0999489
2.14691,-0.0959886,-0.112627
2.13991,0.00896369,0.26275
2.13476,-0.0954455,0.174445
2.13522,0.113397,-0.0871136
2.1434,0.00897831,-0.0498762
2.132,0.00148842,0
2.15367,-0.209652,-0.0251913
2.14618,0.00149832,-0.333896
2.15212,-0.10375,-0.274255
2.13734,0.106029,0.0124375
2.13962,0.00149374,-0.230473
2.1445,-0.208758,-0.201131
2.14742,0.00149918,0.0499692
2.14571,-0.208877,0.0250982
2.14277,0.00149594,-0.149837
2.15432,-0.103856,-0.176073
2.14046,0.106184,0.0623701
2.15317,-0.103801,0.0376274
2.13698,0.106011,-0.137125
2.1462,-0.208924,-0.12558
2.13239,0.00148869,0.124185
2.15171,-0.103731,0.0877649
2.14567,0.00149796,-0.0999489
2.14257,-0.10329,-0.112418
2.13199,0.00148841,0.261775
2.14238,-0.103281,0.175096
2.13161,0.105745,-0.0869508
2.14742,0.00149918,-0.0499692
2.14539,0.0989227,-0.0374878
2.15691,-0.217569,-0.0252379
2.14617,-0.00599326,-0.333896
2.15174,-0.111262,-0.274255
2.14169,0.0987518,0.0124607
2.13961,-0.00597494,-0.230473
2.15564,-0.217442,-0.202246
2.15293,-0.217168,0.0251913
2.14276,-0.00598372,-0.149837
2.14599,-0.110964,-0.175422
2.13682,0.0985275,0.0622537
2.1528,-0.111316,0.0376274
2.13734,0.0985513,-0.137125
2.14943,-0.216815,-0.125813
2.14037,-0.00597704,0.12465
2.15134,-0.111241,0.0877649
2.14167,-0.00598068,-0.0997627
2.14219,-0.110768,-0.112418
2.13198,-0.00595362,0.261775
2.13196,0.0983035,-0.0869508
2.14741,-0.00599671,-0.0499692
2.14171,0.0916368,-0.037418
2.1522,-0.224306,-0.0251913
2.15136,-0.118397,-0.274255
2.142,0.0916492,0.0124607
2.13958,-0.0130701,-0.230473
2.14699,-0.223763,-0.201503
2.14738,-0.0131178,0.0499692
2.14822,-0.223892,0.0251447
2.14672,-0.0131137,-0.150116
2.14561,-0.11808,-0.175422
2.13314,0.0912701,0.0621374
2.15241,-0.118455,0.0376274
2.13765,0.0914631,-0.137125
2.15267,-0.224356,-0.126045
2.13634,-0.0130503,0.124418
2.14563,-0.0131071,-0.0999489
2.14182,-0.117871,-0.112418
2.13195,-0.0130235,0.261775
2.14738,-0.0131178,-0.0499692
2.14202,0.0841602,-0.037418
2.15538,-0.232246,-0.0252379
2.14608,-0.0206015,-0.333896
2.14301,-0.125442,-0.273244
2.13432,0.0838575,0.0124142
2.15228,-0.125984,-0.0125305
2.15411,-0.23211,-0.202246
2.15538,-0.232246,0.0252379
2.15065,-0.0206454,-0.150395
2.14916,-0.125802,-0.175747
2.14144,0.0841374,0.0623701
2.15199,-0.125967,0.0376274
2.13796,0.0840007,-0.137125
2.14791,-0.231441,-0.125813
2.14427,-0.0205841,0.124883
2.15357,-0.0206734,-0.100321
2.14538,-0.12558,-0.112627
2.13189,-0.0204653,0.261775
2.13258,0.0837895,-0.0869508
2.14732,-0.0206134,-0.0499692
2.1383,0.0765396,-0.0373482
2.13582,-0.0279594,0
2.15455,-0.239768,-0.0252379
2.14995,-0.0281444,-0.334511
2.15048,-0.133413,-0.274255
2.13859,0.07655,0.0124375
2.14342,-0.0280589,-0.230901
2.14933,-0.239187,-0.201875
2.15455,-0.239768,0.0252379
2.14657,-0.0281002,-0.150116
2.14871,-0.133303,-0.175747
2.13773,0.0765189,0.0622537
2.15154,-0.133478,0.0376274
2.14223,0.0766801,-0.137381
2.1362,-0.0279643,0.124418
2.15348,-0.0281906,-0.100321
2.1529,-0.133563,-0.113046
2.13686,0.0764878,-0.0871136
2.14723,-0.0281088,-0.0499692
2.14655,0.0693333,-0.0374878
2.1537,-0.247288,-0.0252379
2.15379,-0.0357145,-0.335126
2.15396,-0.141178,-0.27476
2.13485,0.0689553,0.0124142
2.14331,-0.0355406,-0.230901
2.14848,-0.246688,-0.201875
2.14712,-0.0356039,0.0499692
2.1537,-0.247288,0.0252379
2.15045,-0.0356591,-0.150395
2.14823,-0.140802,-0.175747
2.13798,0.0690563,0.0622537
2.14249,0.0692019,-0.137381
2.14624,-0.24643,-0.125813
2.13609,-0.0354209,0.124418
2.1496,-0.140892,0.0877649
2.14538,-0.035575,-0.0999489
2.14445,-0.140555,-0.112627
2.13711,0.0690283,-0.0871136
2.14712,-0.0356039,-0.0499692
2.14678,0.06184,-0.0374878
2.15283,-0.254804,-0.0252379
2.14575,-0.0430737,-0.333896
2.15741,-0.148969,-0.275265
2.13908,0.061618,0.0124375
2.14317,-0.0430219,-0.230901
2.15156,-0.254654,-0.202246
2.15098,-0.0431788,0.0500623
2.15283,-0.254804,0.0252379
2.14234,-0.0430052,-0.149837
2.1517,-0.148575,-0.176073
2.1422,0.0617081,0.0623701
2.15454,-0.148771,0.0376972
2.13872,0.0616078,-0.137125
2.15726,-0.255329,-0.126511
2.14393,-0.0430373,0.124883
2.1491,-0.148395,0.0877649
2.14924,-0.0431437,-0.100135
2.13996,-0.147764,-0.112418
2.13734,0.061568,-0.0871136
2.15098,-0.0431788,-0.0500623
2.14299,0.0542447,-0.037418
2.15589,-0.262801,-0.0252844
2.14559,-0.0505636,-0.333896
2.14897,-0.155925,-0.274255
2.13928,0.0541509,0.0124375
2.15461,-0.262645,-0.202618
2.15082,-0.0506869,0.0500623
2.15192,-0.262317,0.0252379
2.15015,-0.0506711,-0.150395
2.14322,-0.155508,-0.175422
2.13441,0.0540277,0.0621374
2.15002,-0.156001,0.0376274
2.14292,0.0542429,-0.137381
2.15239,-0.262374,-0.126278
2.14776,-0.0506149,0.125115
2.14059,-0.155317,0.0874392
2.14907,-0.0506457,-0.100135
2.1474,-0.155811,-0.112836
2.13754,0.0541069,-0.0871136
2.14682,-0.0505927,-0.0499692
2.14317,0.0463899,-0.037418
2.15492,-0.270701,-0.0252844
2.14539,-0.0584272,-0.333896
2.14838,-0.1638,-0.274255
2.13946,0.0463097,0.0124375
2.13883,-0.0582486,-0.230473
2.14969,-0.270044,-0.202246
2.14698,-0.269704,0.0251913
2.14995,-0.0585515,-0.150395
2.14661,-0.163665,-0.175747
2.13859,0.0462908,0.0622537
2.14943,-0.163881,0.0376274
2.1431,0.0463884,-0.137381
2.14746,-0.269764,-0.126045
2.14357,-0.0583777,0.124883
2.15196,-0.164073,0.0879277
2.14681,-0.163681,-0.112836
2.13373,0.0461856,-0.0869508
2.15062,-0.0585697,-0.0500623
2.14331,0.0392827,-0.037418
2.143,-0.0654746,0
2.15401,-0.277846,-0.0252844
2.15308,-0.0657826,-0.335126
2.15574,-0.171553,-0.275265
2.1396,0.0392147,0.0124375
2.13863,-0.0653409,-0.230473
2.14878,-0.277171,-0.202246
2.14975,-0.0656807,-0.150395
2.15003,-0.171099,-0.176073
2.14273,0.039272,0.0623701
2.15286,-0.171325,0.0376972
2.14324,0.0392814,-0.137381
2.15447,-0.277905,-0.126511
2.14337,-0.0654858,0.124883
2.14742,-0.170892,0.0877649
2.15024,-0.171116,-0.113046
2.13787,0.0391828,-0.0871136
2.15041,-0.0657011,-0.0500623
2.14344,0.0318009,-0.037418
2.13972,-0.177797,-0.0624865
2.13476,-0.0726824,0
2.15699,-0.285888,-0.025331
2.14889,-0.0731634,-0.334511
2.14722,-0.17842,-0.274255
2.14773,0.0318645,0.012484
2.15653,-0.179194,-0.012577
2.14633,-0.0730764,-0.23133
2.1478,-0.28467,-0.202246
2.15017,-0.073207,0.0500623
2.1495,-0.0731843,-0.150395
2.14942,-0.178603,-0.176073
2.13886,0.0317329,0.0622537
2.15225,-0.178838,0.0376972
2.13937,0.0317406,-0.137125
2.14712,-0.073103,0.125115
2.14283,-0.178056,0.0876021
2.14842,-0.0731475,-0.100135
2.14565,-0.17829,-0.112836
2.13799,0.0317201,-0.0871136
2.15417,-0.0733431,-0.0501553
2.14753,0.0243641,-0.0374878
2.14805,-0.292337,-0.0252379
2.14467,-0.0805157,-0.333896
2.15449,-0.186599,-0.275265
2.14783,0.0243674,0.012484
2.14607,-0.080568,-0.23133
2.14679,-0.292165,-0.202246
2.1499,-0.0807121,0.0500623
2.14126,-0.0803876,-0.149837
2.14481,-0.185761,-0.175747
2.14295,0.0243121,0.0623701
2.1556,-0.186695,0.037767
2.14346,0.0243179,-0.137381
2.14852,-0.292401,-0.126278
2.14286,-0.0804476,0.124883
2.14618,-0.185879,0.0877649
2.14816,-0.0806465,-0.100135
2.14104,-0.185434,-0.112627
2.13409,0.0242116,-0.0869508
2.1539,-0.0808621,-0.0501553
2.1342,-0.087584,0
2.15098,-0.300387,-0.0252844
2.14438,-0.0880015,-0.333896
2.15382,-0.194118,-0.275265
2.1439,0.0168385,0.0124607
2.15124,-0.193886,-0.0125537
2.1418,-0.0878956,-0.230901
2.15759,-0.30131,-0.203362
2.14894,-0.0881887,-0.150395
2.14812,-0.193604,-0.176073
2.13103,0.0167374,0.062021
2.15494,-0.194219,0.037767
2.13954,0.0168043,-0.137125
2.14749,-0.299899,-0.126278
2.14256,-0.0879271,0.124883
2.13756,-0.192652,0.0874392
2.15185,-0.0883083,-0.100321
2.14435,-0.193265,-0.112836
2.13416,0.016762,-0.0869508
2.14365,0.0093535,-0.037418
2.14992,-0.307893,-0.0252844
2.14801,-0.0956621,-0.334511
2.14918,-0.201265,-0.27476
2.14794,0.00937222,0.012484
2.14545,-0.0955483,-0.23133
2.14862,-0.0956894,-0.150395
2.1514,-0.201473,-0.176398
2.14307,0.00935097,0.0623701
2.15424,-0.20174,0.037767
2.14358,0.00935319,-0.137381
2.14643,-0.307393,-0.126278
2.14623,-0.0955831,0.125115
2.15153,-0.0958191,-0.100321
2.14367,-0.200749,-0.112836
2.13421,0.0093123,-0.0869508
2.14929,-0.0957192,-0.0500623
2.14767,0.0018742,-0.0374878
2.14101,-0.208041,-0.0626028
2.15279,-0.315977,-0.025331
2.14766,-0.103159,-0.334511
2.15241,-0.20915,-0.275265
2.14113,-0.102846,-0.230901
2.15293,-0.103413,0.0501553
2.14827,-0.103189,-0.150395
2.15068,-0.208982,-0.176398
2.13909,0.00186671,0.0622537
2.13961,0.00186716,-0.137125
2.14589,-0.103074,0.125115
2.14719,-0.103137,-0.100135
2.14222,0.00186944,-0.0872764
2.15293,-0.103413,-0.0501553
2.14767,-0.00487293,-0.0374878
2.15127,-0.110108,-0.335126
2.15569,-0.216307,-0.27577
2.14796,-0.00487359,0.012484
2.1408,-0.109572,-0.230901
2.14861,-0.109972,0.0500623
2.15192,-0.110141,-0.150674
2.15398,-0.216135,-0.176724
2.14709,-0.0048716,0.0624865
2.15286,-0.216022,0.037767
2.1436,-0.00486369,-0.137381
2.14829,-0.322214,-0.126511
2.14954,-0.110019,0.125348
2.14686,-0.109882,-0.100135
2.14626,-0.21536,-0.113046
2.14222,-0.00486056,-0.0872764
2.14861,-0.109972,-0.0500623
2.15164,-0.0123927,-0.0375576
2.15087,-0.117617,-0.335126
2.15887,-0.22424,-0.276275
2.14834,-0.117478,-0.231758
2.1522,-0.117689,0.0501553
2.14356,-0.117217,-0.150116
2.14925,-0.223241,-0.176398
2.14306,-0.0123432,0.0623701
2.15607,-0.223949,0.0378368
2.14357,-0.0123462,-0.137381
2.1511,-0.330317,-0.126743
2.14914,-0.117522,0.125348
2.14646,-0.117375,-0.100135
2.14152,-0.222438,-0.112836
2.14219,-0.0123382,-0.0872764
2.1522,-0.117689,-0.0501553
2.14758,-0.020241,-0.0374878
2.13637,-0.124679,0
2.14648,-0.125269,-0.334511
2.15804,-0.232151,-0.276275
2.15584,-0.125815,-0.232615
2.14311,-0.125072,-0.150116
2.143,-0.0201979,0.0623701
2.15126,-0.231422,0.037767
2.14351,-0.0202027,-0.137381
2.15382,-0.33882,-0.126976
2.1487,-0.125398,0.125348
2.154,-0.125707,-0.100507
2.14864,-0.23114,-0.113255
2.13813,-0.020152,-0.0871136
2.15575,-0.12581,-0.0502484
2.14749,-0.0281122,-0.0374878
2.1539,-0.133625,-0.335741
2.13978,-0.0280113,0.0124375
2.14346,-0.132977,-0.23133
2.15128,-0.133462,0.0501553
2.1506,-0.13342,-0.150674
2.15152,-0.23943,-0.176724
2.13891,-0.0279999,0.0622537
2.15437,-0.239748,0.0378368
2.14342,-0.0280589,-0.137381
2.14862,-0.346077,-0.126743
2.14424,-0.133025,0.125115
2.14953,-0.133354,-0.100321
2.14381,-0.238572,-0.113046
2.13804,-0.0279885,-0.0871136
2.15128,-0.133462,-0.0501553
2.14339,-0.0347936,-0.037418
2.14345,-0.139738,0
2.14952,-0.140134,-0.335126
2.13968,-0.0347334,0.0124375
2.15787,-0.247003,-0.0126235
2.14303,-0.13971,-0.23133
2.15017,-0.140176,-0.150674
2.15075,-0.246188,-0.176724
2.14281,-0.0347842,0.0623701
2.15361,-0.246515,0.0378368
2.14731,-0.0348573,-0.137637
2.14752,-0.352825,-0.126743
2.14779,-0.140021,0.125348
2.15309,-0.140366,-0.100507
2.15098,-0.246215,-0.113464
2.14194,-0.0347701,-0.0872764
2.15085,-0.14022,-0.0501553
2.14326,-0.0422753,-0.037418
2.15691,-0.148178,-0.336356
2.14355,-0.042281,0.0124607
2.157,-0.254534,-0.0126235
2.15046,-0.147735,-0.232186
2.14636,-0.147453,0.0500623
2.14967,-0.147681,-0.150674
2.14988,-0.253694,-0.176724
2.14667,-0.0423427,0.0624865
2.14319,-0.0422739,-0.137381
2.14331,-0.147244,0.125115
2.14461,-0.147333,-0.100135
2.14614,-0.253253,-0.113255
2.1458,-0.0423255,-0.0874392
2.15035,-0.147727,-0.0501553
2.15108,-0.0503175,-0.0375576
2.14847,-0.155512,-0.335126
2.14738,-0.0502307,0.012484
2.14991,-0.155616,-0.232186
2.14979,-0.155608,0.0501553
2.14514,-0.155271,-0.150395
2.14894,-0.261572,-0.176724
2.14251,-0.0501168,0.0623701
2.14701,-0.0502221,-0.137637
2.14888,-0.368859,-0.126976
2.14275,-0.155098,0.125115
2.14805,-0.155481,-0.100321
2.1452,-0.261118,-0.113255
2.13764,-0.050003,-0.0871136
2.15378,-0.155896,-0.0502484
2.15091,-0.0574505,-0.0375576
2.13788,-0.161874,0
2.15188,-0.162934,-0.335741
2.1472,-0.0573514,0.012484
2.14541,-0.162444,-0.231758
2.15325,-0.163038,0.0502484
2.15257,-0.162986,-0.150953
2.14233,-0.0572214,0.0623701
2.14683,-0.0573416,-0.137637
2.1515,-0.162905,-0.100507
2.14146,-0.0571982,-0.0872764
2.15325,-0.163038,-0.0502484
2.13727,-0.169708,0
2.14733,-0.170507,-0.335126
2.14298,-0.0650994,0.0124607
2.15813,-0.277995,-0.0126467
2.1448,-0.170306,-0.231758
2.15264,-0.170929,0.0502484
2.144,-0.170243,-0.150395
2.14706,-0.276568,-0.176724
2.1461,-0.0651944,0.0624865
2.14261,-0.0650885,-0.137381
2.15089,-0.17079,-0.100507
2.14333,-0.276087,-0.113255
2.13724,-0.0649252,-0.0871136
2.15264,-0.170929,-0.0502484
2.14644,-0.072705,-0.0374878
2.13667,-0.177168,0
2.14273,-0.0725794,0.0124607
2.15715,-0.285526,-0.0126467
2.15203,-0.178442,0.0502484
2.15135,-0.178385,-0.150953
2.15003,-0.284584,-0.177049
2.14586,-0.0726853,0.0624865
2.14636,-0.0727023,-0.137637
2.1463,-0.177967,-0.100321
2.14235,-0.283567,-0.113255
2.141,-0.0725205,-0.0872764
2.15203,-0.178442,-0.0502484
2.15019,-0.0799711,-0.0375576
2.14648,-0.0798333,0.012484
2.15223,-0.29214,-0.0126235
2.15152,-0.185585,-0.232615
2.15143,-0.185577,0.0502484
2.15074,-0.185518,-0.150953
2.14513,-0.291176,-0.176724
2.14161,-0.0796522,0.0623701
2.14212,-0.0796712,-0.137381
2.1457,-0.185083,-0.100321
2.14536,-0.291207,-0.113464
2.14074,-0.0796199,-0.0872764
2.15143,-0.185577,-0.0502484
2.1459,-0.0873136,-0.0374878
2.1394,-0.192065,0
2.15516,-0.300203,-0.0126467
2.14294,-0.192383,-0.231758
2.15475,-0.193443,0.0503414
2.14611,-0.192668,-0.150674
2.1441,-0.298662,-0.176724
2.14532,-0.0872899,0.0624865
2.14981,-0.0874727,-0.137892
2.153,-0.193286,-0.100693
2.14433,-0.298694,-0.113464
2.13646,-0.0869295,-0.0871136
2.15475,-0.193443,-0.0503414
2.15359,-0.0947808,-0.0376274
2.13875,-0.199159,0
2.14988,-0.0946178,0.0125072
2.15021,-0.200226,-0.232615
2.15011,-0.200217,0.0502484
2.14546,-0.199783,-0.150674
2.14102,-0.0942278,0.0623701
2.14552,-0.0944257,-0.137637
2.14837,-0.200054,-0.100507
2.14728,-0.306368,-0.113674
2.14015,-0.0941895,-0.0872764
2.1541,-0.200588,-0.0503414
2.14925,-0.102108,-0.0375576
2.14202,-0.207008,0
2.14954,-0.102122,0.0125072
2.14949,-0.20773,-0.232615
2.15338,-0.208106,0.0503414
2.14475,-0.207271,-0.150674
2.14596,-0.313827,-0.177049
2.14467,-0.10189,0.0624865
2.14119,-0.101725,-0.137381
2.15959,-0.208705,-0.101066
2.1462,-0.313861,-0.113674
2.13981,-0.101659,-0.0872764
2.1494,-0.207721,-0.0502484
2.14488,-0.109406,-0.0374878
2.14129,-0.214484,0
2.14517,-0.109421,0.012484
2.1448,-0.214836,-0.232186
2.14866,-0.215223,0.0502484
2.15195,-0.215552,-0.151232
2.15274,-0.322497,-0.1777
2.1443,-0.109376,0.0624865
2.14481,-0.109402,-0.137637
2.14294,-0.214649,-0.100321
2.14904,-0.321943,-0.113883
2.14343,-0.109332,-0.0874392
2.15264,-0.215621,-0.0503414
2.15244,-0.118079,-0.0376274
2.14474,-0.117657,0.012484
2.14396,-0.223069,-0.232186
2.14782,-0.223471,0.0502484
2.14714,-0.2234,-0.150953
2.14786,-0.117828,0.0626028
2.14437,-0.117636,-0.137637
2.15005,-0.223703,-0.100693
2.14384,-0.329585,-0.113674
2.143,-0.117561,-0.0874392
2.15578,-0.224299,-0.0504345
2.15201,-0.125592,-0.0376274
2.14703,-0.230967,0.0502484
2.14238,-0.230467,-0.150674
2.14344,-0.125092,0.0624865
2.14793,-0.125354,-0.137892
2.15323,-0.231634,-0.100879
2.14662,-0.337687,-0.113883
2.14656,-0.125274,-0.0876021
2.151,-0.231395,-0.0503414
2.1516,-0.132352,-0.0376274
2.1519,-0.13237,0.0125305
2.15034,-0.238159,-0.233043
2.14958,-0.238075,-0.151232
2.14304,-0.131825,0.0624865
2.14354,-0.131856,-0.137637
2.14852,-0.237958,-0.100693
2.13818,-0.131526,-0.0872764
2.15822,-0.239032,-0.0505275
2.15113,-0.139861,-0.0376274
2.14206,-0.244814,0
2.14743,-0.139621,0.0125072
2.14554,-0.245212,-0.232615
2.14873,-0.245577,-0.151232
2.14656,-0.139564,0.0626028
2.13909,-0.139078,-0.137381
2.15562,-0.246364,-0.101066
2.14433,-0.351917,-0.113883
2.1417,-0.139248,-0.0874392
2.14942,-0.245656,-0.0503414
2.15058,-0.14812,-0.0376274
2.15087,-0.14814,0.0125305
2.14458,-0.253449,-0.232615
2.15174,-0.254294,-0.151511
2.14999,-0.14808,0.0627192
2.1465,-0.147839,-0.137892
2.15465,-0.254639,-0.101066
2.14513,-0.147745,-0.0876021
2.15243,-0.254376,-0.0504345
2.1501,-0.154876,-0.0376274
2.14029,-0.259762,0
2.1464,-0.154609,0.0125072
2.15167,-0.261143,-0.233472
2.15093,-0.261052,-0.151511
2.15351,-0.155121,0.0628356
2.14603,-0.154582,-0.137892
2.14988,-0.260925,-0.100879
2.14466,-0.154484,-0.0876021
2.15162,-0.261137,-0.0504345
2.14553,-0.162453,-0.0375576
2.1538,-0.163079,0.0125537
2.146,-0.268439,-0.151232
2.14495,-0.162409,0.0626028
2.14943,-0.162748,-0.138148
2.15287,-0.269299,-0.101066
2.14806,-0.162645,-0.0877649
2.15462,-0.269518,-0.0505275
2.14894,-0.170257,-0.0376274
2.14632,-0.276092,0
2.15322,-0.170596,0.0125537
2.14505,-0.275928,-0.151232
2.14437,-0.169895,0.0626028
2.14089,-0.169619,-0.137637
2.15192,-0.276812,-0.101066
2.14701,-0.3836,-0.114302
2.13951,-0.169511,-0.0874392
2.15763,-0.277548,-0.0506206
2.14836,-0.177382,-0.0376274
2.14865,-0.177406,0.0125305
2.14807,-0.283562,-0.151511
2.15176,-0.177663,0.0628356
2.14031,-0.176718,-0.137637
2.15891,-0.284993,-0.101438
2.14292,-0.176934,-0.0876021
2.15274,-0.284178,-0.0505275
2.14773,-0.184881,-0.0376274
2.14439,-0.290695,0
2.15599,-0.185592,0.012577
2.15103,-0.291595,-0.15179
2.14715,-0.18483,0.0627192
2.14998,-0.291453,-0.101066
2.14628,-0.184755,-0.0877649
2.15173,-0.29169,-0.0505275
2.15102,-0.193109,-0.0376972
2.15131,-0.193135,0.0125537
2.15389,-0.300027,-0.152069
2.15044,-0.193056,0.0628356
2.14694,-0.192743,-0.138148
2.1489,-0.299331,-0.101066
2.14558,-0.192621,-0.0877649
2.15065,-0.299575,-0.0505275
2.15432,-0.200988,-0.037767
2.14577,-0.20019,0.0627192
2.15023,-0.200607,-0.138404
2.14389,-0.306266,-0.100879
2.1449,-0.200109,-0.0877649
2.15355,-0.307646,-0.0506206
2.15367,-0.207755,-0.037767
2.15396,-0.207783,0.012577
2.14791,-0.313729,-0.15179
2.14911,-0.207314,0.0628356
2.14164,-0.206594,-0.137892
2.15477,-0.314732,-0.101438
2.14824,-0.20723,-0.0879277
2.15257,-0.31441,-0.0506206
2.1529,-0.215647,-0.037767
2.14523,-0.214879,0.0125305
2.14674,-0.321599,-0.15179
2.14436,-0.214791,0.0627192
2.14484,-0.21484,-0.138148
2.15361,-0.322627,-0.101438
2.1514,-0.322297,-0.0506206
2.15209,-0.223536,-0.037767
2.15238,-0.223566,0.012577
2.16133,-0.331888,-0.152906
2.15549,-0.223889,0.0630683
2.14404,-0.2227,-0.138148
2.14846,-0.329912,-0.101252
2.15064,-0.223385,-0.0880906
2.1423,-0.328967,-0.0504345
2.15536,-0.230722,-0.0378368
2.15167,-0.230327,0.012577
2.1473,-0.229859,-0.138404
2.14992,-0.23014,-0.0880906
2.15056,-0.237804,-0.037767
2.15442,-0.238231,-0.138916
2.15017,-0.344786,-0.101438
2.14911,-0.237643,-0.0880906
2.15762,-0.246593,-0.0379066
2.14997,-0.245718,0.012577
2.1456,-0.245219,-0.138404
2.14495,-0.352018,-0.101252
2.14425,-0.245065,-0.0879277
2.14885,-0.252812,-0.037767
2.14914,-0.252846,0.012577
2.14478,-0.252333,-0.138404
2.15559,-0.361109,-0.10181
2.14343,-0.252174,-0.0879277
2.15192,-0.260793,-0.0378368
2.15619,-0.261309,0.0126235
2.15181,-0.260779,-0.138916
2.15038,-0.367958,-0.101624
2.14253,-0.259654,-0.0879277
2.151,-0.268303,-0.0378368
2.14692,-0.267794,-0.13866
2.14908,-0.375462,-0.101624
2.14955,-0.268121,-0.0882534
2.15,-0.276185,-0.0378368
2.14989,-0.27617,-0.138916
2.14458,-0.275488,-0.0880906
2.14891,-0.283673,-0.138916
2.15199,-0.291725,-0.0379066
2.14395,-0.290636,-0.13866
2.14261,-0.290454,-0.0880906
2.15101,-0.29886,-0.0379066
2.15088,-0.298842,-0.139172
2.14559,-0.298107,-0.0882534
2.14995,-0.306366,-0.0379066
2.14983,-0.306349,-0.139172
2.15641,-0.307286,-0.0887419
2.15277,-0.314823,-0.0379764
2.14869,-0.314226,-0.139172
2.14736,-0.314031,-0.0884162
2.15963,-0.323144,-0.0381161
2.14631,-0.321151,-0.0884162
2.14534,-0.336335,-0.139172
