3.17531,0.926721,-0.0385087
3.16699,0.91231,-0.038369
3.17031,0.900696,-0.038369
3.16189,0.886386,-0.0382293
3.1611,0.874276,-0.0381828
3.10144,0.765807,-0.186045
3.17531,0.927321,-0.0192258
3.16699,0.912908,-0.0191561
3.17422,0.914992,-0.173127
3.16118,0.899293,-0.0956497
3.16247,0.899658,-0.0191096
3.17355,0.902812,-0.172918
3.15306,0.883911,-0.0953006
3.15819,0.88535,-0.0190631
3.15613,0.8729,-0.0953006
3.19982,0.958776,-0.1556
3.1871,0.954964,-0.0774197
3.18799,0.942511,-0.154856
3.17208,0.925779,-0.153925
3.16304,0.912368,0
3.1673,0.913595,-0.153553
3.16987,0.914338,-0.0767684
3.16621,0.901322,0
3.17047,0.902534,-0.153553
3.17304,0.903268,-0.0767684
3.16863,0.88947,-0.0765823
3.16472,0.877058,0
3.15615,0.874685,-0.0762101
3.15633,0.862291,0
3.15162,0.861004,-0.0760239
3.07949,0.761528,-0.221826
3.1681,0.913828,-0.134334
3.16557,0.901738,-0.0574533
3.16343,0.901127,-0.134008
3.1687,0.890681,-0.0574533
3.15501,0.886833,-0.210037
3.15886,0.887916,-0.133683
3.16023,0.876409,-0.0572439
3.15808,0.875815,-0.210037
3.15809,0.875816,-0.13352
3.09592,0.766739,-0.204408
2.89305,0.412258,-0.238561
2.76066,0.198856,0.0322225
2.75001,0.178799,0.0320828
2.73924,0.158423,0.0319431
2.73977,0.14886,0.0319431
2.73224,0.139843,0.03185
2.73675,0.129541,-0.0318966
2.72077,0.128785,0.0317103
2.72919,0.119638,-0.0318034
2.71721,0.119112,0.0316637
2.7256,0.109948,-0.0317569
2.71761,0.109626,0.0316637
2.71397,0.0999909,-0.0316172
2.70998,0.0998436,0.0315706
2.71827,0.0915994,-0.0316637
2.70628,0.0911953,0.0315241
2.70261,0.0806846,0.0314775
2.69488,0.07104,0.0313844
2.68309,0.0622941,0.0312447
2.6993,0.0527717,-0.0314309
2.67931,0.0523808,0.0311981
2.68346,0.0435611,0.0312447
2.68761,0.0337762,-0.0312912
2.74277,0.168717,-0.0159711
2.66761,0.0335249,0.0310584
2.67925,0.0336712,-0.156045
2.67571,0.0242849,-0.0311515
2.66771,0.0242123,0.0310584
2.74297,0.15912,0.0479592
2.67578,0.0149453,-0.0311515
2.74388,0.149565,-0.0159711
2.65978,0.014856,0.0309653
2.73552,0.149109,0.0478196
2.67143,0.0149211,-0.15558
2.66381,0.006509,-0.0310118
2.73635,0.140533,-0.0159246
2.65581,0.00648946,0.0309187
2.73198,0.140309,0.0477498
2.66348,0.00650819,-0.155115
2.72488,0.129455,-0.0158549
2.65982,-0.0037144,0.0309653
2.72851,0.129627,0.04768
2.65949,-0.00371394,-0.154882
2.72532,0.119944,-0.0158549
2.64379,-0.0129189,0.030779
2.71696,0.119576,0.0474705
2.65148,-0.0129564,-0.154417
2.64774,-0.0212574,-0.0308256
2.72568,0.111381,-0.0158549
2.63574,-0.021161,0.0306859
2.72131,0.111203,0.0475404
2.64743,-0.0212549,-0.154185
2.64364,-0.0309156,-0.030779
2.71808,0.101092,-0.0158084
2.63964,-0.0308688,0.0307325
2.70971,0.100781,0.0473309
2.64733,-0.0309587,-0.154185
2.70132,0.0910285,-0.0786608
2.63152,-0.0399606,-0.0306393
2.71042,0.0913349,-0.0157619
2.63152,-0.0399606,0.0306393
2.70205,0.0910531,0.0471913
2.63523,-0.040017,-0.153487
2.69761,0.0819492,-0.0785444
2.63537,-0.0487603,-0.0306859
2.70671,0.0822254,-0.0157387
2.62337,-0.0485383,0.0305462
2.69834,0.0819714,0.0471215
2.6271,-0.0486073,-0.153022
2.69252,0.0817946,0.109747
2.69899,0.0720913,-0.0156922
2.61518,-0.0579753,0.0304531
2.69463,0.0719747,0.0470517
2.62291,-0.0581466,-0.152789
2.69014,0.0624578,-0.0783117
2.62696,-0.0674121,-0.0305928
2.69523,0.062576,-0.0156689
2.62771,-0.0674314,-0.245372
2.61496,-0.0671043,0.0304531
2.69087,0.0624747,0.0469819
2.6187,-0.0672002,-0.152557
2.68634,0.0529875,-0.0781954
2.61871,-0.0763491,-0.0304996
2.69543,0.0531668,-0.0156689
2.62746,-0.0766041,-0.245372
2.61471,-0.0762325,0.0304531
2.68707,0.0530019,0.0469121
2.61446,-0.0762251,-0.152324
2.69578,0.0531736,-0.141307
2.6825,0.0440127,-0.078079
2.61045,-0.0847737,-0.0304065
2.68359,0.0440306,-0.0155992
2.60245,-0.0845141,0.0303134
2.67523,0.0438934,0.0467026
2.6102,-0.0847657,-0.152092
2.67464,0.0345473,-0.0778463
2.61413,-0.0940273,-0.0304531
2.67573,0.0345613,-0.0155527
2.61493,-0.0940561,-0.244257
2.61014,-0.0938836,0.0304065
2.67137,0.034505,0.0466328
2.60191,-0.0935876,-0.151627
2.66956,0.0344816,0.10877
2.68809,0.0347209,-0.140888
2.67075,0.0251724,-0.0777299
2.60579,-0.102837,-0.0303599
2.67184,0.0251826,-0.0155294
2.60265,-0.102713,-0.243142
2.7386,0.159825,0.0638341
2.60579,-0.102837,0.0303599
2.66348,0.0251038,0.0464932
2.59757,-0.102513,-0.151394
2.6842,0.0252992,-0.140679
2.66682,0.0158264,-0.0776135
2.59343,-0.111417,-0.0302203
2.66791,0.0158329,-0.0155062
2.60626,-0.111968,-0.243513
2.73914,0.150265,0.0638341
2.60142,-0.11176,0.0303134
2.67555,0.0158782,0.0467026
2.5972,-0.111579,-0.151394
2.66829,0.0158352,-0.139842
2.66286,0.00650692,-0.0774972
2.60102,-0.120841,-0.0303134
2.67195,0.00652911,-0.0155294
2.60187,-0.12088,-0.243142
2.73965,0.140702,0.0638341
2.59303,-0.12047,0.0302203
2.66359,0.00650868,0.0464932
2.58882,-0.120274,-0.150929
2.64979,0.00647498,0.107956
2.66833,0.00652027,-0.139842
2.65887,-0.00278478,-0.0773808
2.59259,-0.129521,-0.0302203
2.65195,-0.00277753,-0.0154132
2.59348,-0.129565,-0.242398
2.73613,0.130947,0.063741
2.5846,-0.129122,0.0301271
2.65159,-0.00277716,0.0462838
2.5804,-0.128912,-0.150464
2.6458,-0.00277109,0.107793
2.66035,-0.00278632,-0.139423
2.65085,-0.0115665,-0.0771481
2.58416,-0.137691,-0.0301271
2.65593,-0.0115886,-0.0154364
2.5811,-0.137528,-0.241283
2.73255,0.121695,0.0636479
2.58815,-0.137904,0.0301737
2.65913,-0.0116026,-0.21708
2.65157,-0.0115696,0.0462838
2.57598,-0.137255,-0.150231
2.66432,-0.0116252,-0.139632
2.64679,-0.0212496,-0.0770317
2.64787,-0.0212582,-0.0153899
2.58058,-0.146987,-0.241283
2.72499,0.111353,0.0634618
2.58364,-0.147161,0.0301271
2.65151,-0.0212874,0.0462838
2.57147,-0.146468,-0.149999
2.65227,-0.0212936,-0.139004
2.72099,0.11119,-0.0633688
2.63471,-0.0303498,-0.0766826
2.64378,-0.0304542,-0.0153667
2.5721,-0.155513,-0.240539
2.72136,0.101692,0.0633688
2.57512,-0.155696,0.030034
2.64702,-0.0304915,-0.216104
2.64742,-0.0304962,0.046214
2.56696,-0.155202,-0.149766
2.70951,0.101249,0.157906
2.63364,-0.0303374,0.107304
2.6402,-0.030413,-0.138376
2.72136,0.101692,-0.0633688
2.63059,-0.0394871,-0.0765663
2.70245,0.0915389,0
2.57057,-0.164429,-0.0299874
2.63566,-0.0395632,-0.0153202
2.56757,-0.164237,-0.240167
2.71771,0.0920556,0.0632757
2.57057,-0.164429,0.0299874
2.63892,-0.0396122,-0.215453
2.6393,-0.0396179,0.0460744
2.56241,-0.163907,-0.149534
2.64008,-0.0396296,-0.138376
2.70971,0.0917848,-0.0630896
2.62645,-0.0481377,-0.0764499
2.69474,0.0823317,0
2.63151,-0.0482306,-0.015297
2.56304,-0.172483,-0.239796
2.71,0.0827979,0.0630896
2.56602,-0.172684,0.0299409
2.63479,-0.0482906,-0.215128
2.63116,-0.0482241,0.0459347
2.55787,-0.172136,-0.149301
2.70216,0.0825582,0.15744
2.63594,-0.0483117,-0.138167
2.70201,0.0825536,-0.0629035
2.62227,-0.0572189,-0.0763336
2.69501,0.072924,0
2.62333,-0.0572422,-0.0152505
2.55447,-0.180867,-0.239052
2.56141,-0.181359,0.0298943
2.63062,-0.0574012,-0.214802
2.62697,-0.0573217,0.0458649
2.55725,-0.181064,-0.149301
2.69445,0.0729087,0.156975
2.63176,-0.0574261,-0.137958
2.69428,0.0729043,-0.0627174
2.61805,-0.0662699,-0.0762172
2.68725,0.0633287,0
2.62711,-0.0664993,-0.0152737
2.54588,-0.189192,-0.238309
2.70252,0.0636884,0.0629035
2.55279,-0.189705,0.0298012
2.62642,-0.0664817,-0.214477
2.61876,-0.0662879,0.0457253
2.54864,-0.189397,-0.148836
2.69069,0.0634097,0.156743
2.609,-0.0660408,0.106327
2.62356,-0.0664093,-0.137539
2.69452,0.0634999,-0.0627174
2.68746,0.053948,0
2.62287,-0.0755541,-0.0152505
2.54521,-0.198077,-0.238309
2.69473,0.0540939,0.0627174
2.5561,-0.198925,0.0298477
2.62219,-0.0755344,-0.214151
2.61851,-0.0754287,0.0457253
2.54,-0.197672,-0.148371
2.67892,0.0537766,0.156045
2.60875,-0.0751475,0.106327
2.68854,0.0539698,-0.125262
2.61133,-0.0752218,-0.136911
2.60226,-0.0749604,0.212524
2.68273,0.0538531,-0.0624383
2.60554,-0.0841584,-0.0758681
2.67963,0.0444341,0
2.61859,-0.08458,-0.0152272
2.54053,-0.206638,-0.237937
2.54741,-0.207198,0.0297546
2.61394,-0.0844297,-0.2135
2.61024,-0.0843103,0.0455857
2.54328,-0.206861,-0.148603
2.67909,0.0444251,0.156045
2.60049,-0.0839952,0.106002
2.68472,0.0445184,-0.125076
2.60706,-0.0842076,-0.136702
2.59583,-0.0838448,0.473534
2.67891,0.044422,-0.0623452
2.60523,-0.0932529,-0.0758681
2.67177,0.0349754,0
2.61428,-0.093577,-0.015204
2.53582,-0.215168,-0.237565
2.68704,0.0351753,0.0625313
2.54269,-0.21575,0.029708
2.60167,-0.0931257,-0.212524
2.60194,-0.0931351,0.0454461
2.53458,-0.215062,-0.148138
2.66725,0.0349162,0.155347
2.60417,-0.093215,0.106165
2.68486,0.0351467,-0.125076
2.59877,-0.0930216,-0.136283
2.59371,-0.0928404,0.211873
2.67505,0.0350183,-0.0622522
2.5929,-0.101875,-0.075519
2.66788,0.0256106,0
2.54192,-0.224625,-0.029708
2.60195,-0.102231,-0.0151342
2.53109,-0.223668,-0.237193
2.67515,0.0256804,0.0622522
2.53395,-0.223921,0.0296149
2.60133,-0.102207,-0.212524
2.5976,-0.10206,0.0453763
2.53382,-0.223908,-0.148138
2.66336,0.0255673,0.155115
2.59584,-0.101991,0.105839
2.67697,0.0256979,-0.124703
2.59843,-0.102092,-0.136283
2.59337,-0.101894,0.211873
2.66716,0.0256036,-0.0620661
2.58853,-0.110755,-0.0754027
2.66395,0.0162734,0
2.73182,0.150341,0.0159014
2.60158,-0.111313,-0.0151342
2.53029,-0.232501,-0.237193
2.67123,0.0163178,0.0621591
2.52917,-0.232398,0.0295684
2.59698,-0.111116,-0.212199
2.73071,0.15028,0.0795917
2.59723,-0.111127,0.0453763
2.52507,-0.232021,-0.147673
2.66344,0.0162702,0.155115
2.59547,-0.111051,0.105839
2.66906,0.0163045,-0.124331
2.59805,-0.111162,-0.136283
2.58503,-0.110605,0.211222
2.66723,0.0162934,-0.0620661
2.58414,-0.119605,-0.0752863
2.66399,0.00697433,0
2.72833,0.140599,0.0158782
2.59718,-0.120208,-0.015111
2.52154,-0.240576,-0.23645
2.66727,0.00698291,0.0620661
2.52835,-0.241225,0.0295684
2.58861,-0.119812,-0.211548
2.58883,-0.119822,0.0452366
2.52027,-0.240454,-0.147441
2.6515,0.00694162,0.154417
2.59107,-0.119926,0.105676
2.6691,0.00698769,-0.124331
2.59366,-0.120046,-0.136073
2.58064,-0.119443,0.210897
2.66727,0.00698291,-0.0620661
2.57971,-0.128426,-0.0751699
2.656,-0.0023178,0
2.72082,0.13069,0.0158317
2.51672,-0.248984,-0.236078
2.65528,-0.00231717,0.0617869
2.52351,-0.249656,0.0295218
2.66549,-0.00232608,-0.186389
2.58419,-0.128649,-0.211222
2.58041,-0.12846,0.045097
2.51941,-0.24925,-0.147441
2.6555,-0.00231736,0.15465
2.58665,-0.128771,0.105513
2.66111,-0.00232226,-0.123959
2.58924,-0.1289,-0.135864
2.57623,-0.128252,0.210571
2.65928,-0.00232066,-0.06188
2.71689,0.120998,-0.0474705
2.57526,-0.137217,-0.0750536
2.65198,-0.0115715,0
2.5795,-0.137443,-0.328802
2.58828,-0.137911,-0.0150645
2.51583,-0.257767,-0.236078
2.51864,-0.258055,0.0294752
2.65749,-0.0115955,-0.185831
2.58771,-0.137881,-0.211548
2.57995,-0.137467,0.045097
2.51058,-0.257229,-0.146975
2.6435,-0.0115345,0.153952
2.58219,-0.137587,0.10535
2.65709,-0.0115938,-0.123773
2.58079,-0.137512,-0.135445
2.57178,-0.137032,0.210246
2.64326,-0.0115335,-0.0615077
2.7133,0.111349,-0.0474007
2.64792,-0.0207971,0
2.57504,-0.146221,-0.328297
2.70967,0.1112,0.0157619
2.5798,-0.146492,-0.015018
2.507,-0.265708,-0.235334
2.51773,-0.266845,0.0294752
2.64945,-0.0208091,-0.185273
2.57527,-0.146234,-0.210571
2.70857,0.111155,0.0788935
2.57546,-0.146245,0.0450272
2.5057,-0.26557,-0.146743
2.63545,-0.0206992,0.153487
2.57771,-0.146373,0.105188
2.64905,-0.020806,-0.123401
2.5803,-0.14652,-0.135445
2.57129,-0.146008,0.210246
2.6432,-0.0207601,-0.0615077
2.70565,0.102522,-0.0472611
2.64384,-0.0290717,0
2.57853,-0.154548,-0.328802
2.49823,-0.272719,-0.234591
2.64312,-0.0290638,0.0615077
2.50892,-0.273886,0.0293821
2.65336,-0.0291764,-0.185552
2.57082,-0.154086,-0.210246
2.567,-0.153857,0.0448876
2.50485,-0.273441,-0.146743
2.63538,-0.0289786,0.153487
2.56925,-0.153992,0.104862
2.64897,-0.0291281,-0.123401
2.56786,-0.153908,-0.134817
2.57082,-0.154086,0.210246
2.63913,-0.0290199,-0.0614147
2.70201,0.0924675,-0.0471913
2.63172,-0.0385858,0
2.56607,-0.163242,-0.327287
2.49326,-0.281426,-0.234219
2.643,-0.0387512,0.0615077
2.49995,-0.282182,0.029289
2.64127,-0.0387258,-0.184715
2.5583,-0.162748,-0.209269
2.57041,-0.163518,0.0449574
2.49986,-0.282172,-0.14651
2.63126,-0.038579,0.153254
2.56867,-0.163408,0.104862
2.64485,-0.0387783,-0.123214
2.56329,-0.163065,-0.134608
2.56228,-0.163001,0.209595
2.62701,-0.0385167,-0.0611355
2.69432,0.0827895,-0.0470517
2.55716,-0.17164,-0.0745881
2.62757,-0.0476993,0
2.56152,-0.171932,-0.326782
2.69468,0.0828008,0.0156689
2.56618,-0.172245,-0.0149482
2.49226,-0.290128,-0.234219
2.63485,-0.0478316,0.0613216
2.49895,-0.290907,0.029289
2.63314,-0.0478004,-0.184157
2.55374,-0.17141,-0.208944
2.56583,-0.172222,0.0448876
2.49886,-0.290896,-0.14651
2.63111,-0.0477636,0.153254
2.5641,-0.172105,0.104699
2.63271,-0.0477927,-0.122656
2.55872,-0.171744,-0.134399
2.6318,-0.0477762,0.323198
2.55772,-0.171677,0.209269
2.63085,-0.047759,-0.0612286
2.69058,0.0737448,-0.0469819
2.6234,-0.0563265,0
2.55302,-0.179868,-0.325772
2.5656,-0.180754,-0.0149482
2.49129,-0.298391,-0.234219
2.63468,-0.0565688,0.0613216
2.494,-0.298716,0.0292424
2.62897,-0.0564463,-0.183878
2.55316,-0.179878,-0.208944
2.55727,-0.180167,0.044748
2.49392,-0.298706,-0.146278
2.61896,-0.0562312,0.152557
2.55953,-0.180326,0.104536
2.63653,-0.0566086,-0.122842
2.55814,-0.180229,-0.134399
2.61972,-0.0562476,0.321735
2.55316,-0.179878,0.208944
2.62668,-0.0563971,-0.0611355
2.54397,-0.188157,-0.074239
2.62318,-0.0654835,0
2.55238,-0.188779,-0.325772
2.68719,0.0642656,0.0156224
2.55697,-0.189118,-0.0149017
2.47837,-0.305623,-0.233104
2.62647,-0.0655656,0.0611355
2.48501,-0.306441,0.0291493
2.61679,-0.065324,-0.183041
2.55649,-0.189083,-0.209269
2.55663,-0.189093,0.044748
2.48494,-0.306432,-0.145813
2.61076,-0.0651735,0.152092
2.55091,-0.18867,0.104211
2.62434,-0.0655123,-0.122284
2.55351,-0.188862,-0.134189
2.61951,-0.0653917,0.321735
2.54854,-0.188495,0.208619
2.689,0.064309,-0.109584
2.61848,-0.065366,-0.0609494
2.68704,0.0544088,-0.0469121
2.53928,-0.19717,-0.0741227
2.61493,-0.0748686,0
2.54771,-0.197825,-0.325267
2.67941,0.0542542,0.0155759
2.55626,-0.198489,-0.0149017
2.47723,-0.314705,-0.233104
2.62222,-0.0750772,0.0610425
2.47593,-0.314539,0.0290561
2.62052,-0.0750288,-0.18332
2.54385,-0.197526,-0.208293
2.55592,-0.198462,0.044748
2.47983,-0.315035,-0.14558
2.60651,-0.0746277,0.151859
2.54622,-0.197709,0.104048
2.62008,-0.0750162,-0.122098
2.54085,-0.197293,-0.133561
2.61131,-0.074765,0.32076
2.54385,-0.197526,0.208293
2.68123,0.054291,-0.109258
2.61022,-0.0747339,-0.0607633
2.68321,0.0449619,-0.0468423
2.53459,-0.205709,-0.0740063
2.61065,-0.0838675,0
2.48275,-0.324216,-0.0291493
2.54305,-0.206396,-0.324762
2.67958,0.044901,0.0155759
2.47612,-0.32335,-0.233104
2.47482,-0.32318,0.0290561
2.60828,-0.0837913,-0.182483
2.5352,-0.205759,-0.207642
2.55122,-0.207059,0.0446782
2.47476,-0.323172,-0.145348
2.60225,-0.0835974,0.151627
2.54153,-0.206272,0.103885
2.61182,-0.083905,-0.121725
2.53617,-0.205837,-0.133352
2.59913,-0.0834973,0.319298
2.54315,-0.206404,0.208293
2.67341,0.0447975,-0.108933
2.60595,-0.0837164,-0.0606703
2.67536,0.0354894,-0.0467026
2.52987,-0.214218,-0.07389
2.60635,-0.0928375,0
2.4816,-0.33288,-0.0291493
2.53836,-0.214937,-0.324257
2.66772,0.0353881,0.0155062
2.47103,-0.331462,-0.232732
2.60964,-0.0929547,0.0607633
2.46575,-0.330753,0.028963
2.60399,-0.0927534,-0.182204
2.5465,-0.215626,0.0446084
2.47757,-0.33234,-0.14558
2.60593,-0.0928226,0.151859
2.54079,-0.215143,0.103885
2.61151,-0.0930214,-0.121725
2.53543,-0.214689,-0.133352
2.60676,-0.0928521,0.320273
2.53447,-0.214607,0.207642
2.67355,0.0354653,-0.108933
2.60564,-0.0928124,-0.0606703
2.66346,0.026498,-0.0464932
2.52915,-0.222606,-0.07389
2.59803,-0.101169,0
2.53368,-0.223005,-0.323752
2.54213,-0.223749,-0.014832
2.60296,-0.101361,-0.280594
2.60932,-0.101608,0.0607633
2.4686,-0.339473,0.0290096
2.60366,-0.101388,-0.182204
2.5258,-0.222312,-0.206991
2.54179,-0.223718,0.0445385
2.46855,-0.339466,-0.145115
2.59364,-0.100998,0.151161
2.53608,-0.223217,0.103722
2.53869,-0.223446,-0.133561
2.5985,-0.101187,0.319298
2.5258,-0.222312,0.206991
2.60532,-0.101452,-0.0606703
2.65954,0.0171748,-0.0464234
2.59367,-0.110067,0
2.53289,-0.231848,-0.323752
2.6599,0.0171771,0.0154597
2.53337,-0.231892,-0.0147855
2.60259,-0.110446,-0.280594
2.59696,-0.110207,0.0604842
2.46344,-0.347529,0.028963
2.60728,-0.110645,-0.182483
2.52104,-0.230764,-0.206666
2.46339,-0.347523,-0.144882
2.58928,-0.109881,0.150929
2.52733,-0.231339,0.103397
2.59884,-0.110287,-0.121167
2.52596,-0.231214,-0.132933
2.5902,-0.10992,0.318323
2.52104,-0.230764,0.206666
2.66174,0.017189,-0.108444
2.59296,-0.110037,-0.0603911
2.65559,0.00741581,-0.0463536
2.58525,-0.119204,0
2.52412,-0.240378,-0.322742
2.65594,0.00741681,0.0154364
2.59422,-0.119618,-0.279738
2.59254,-0.11954,0.0603911
2.45819,-0.355983,0.0289165
2.59091,-0.119465,-0.181367
2.52018,-0.240002,-0.206666
2.53216,-0.241143,0.0443989
2.4542,-0.355404,-0.144417
2.58088,-0.119003,0.150464
2.52646,-0.240601,0.103397
2.59443,-0.119627,-0.120981
2.52112,-0.240092,-0.132724
2.58185,-0.119047,0.317348
2.52018,-0.240002,0.206666
2.65778,0.00742195,-0.108281
2.58056,-0.118988,-0.060112
2.51478,-0.247463,-0.0735409
2.58886,-0.127522,0
2.46102,-0.364289,-0.028963
2.51941,-0.247918,-0.322237
2.65196,-0.00092571,0.0154132
2.58986,-0.127572,-0.279309
2.58816,-0.127488,0.0602981
2.44519,-0.361946,0.0287768
2.58654,-0.127408,-0.181088
2.51544,-0.247528,-0.20634
2.65455,-0.000926618,-0.170127
2.45702,-0.363697,-0.14465
2.58049,-0.12711,0.150464
2.51774,-0.247754,0.103071
2.58606,-0.127384,-0.120609
2.52035,-0.248011,-0.132724
2.57353,-0.126767,0.316373
2.51147,-0.247137,0.206015
2.6538,-0.000926354,-0.108119
2.58417,-0.127291,-0.060205
2.65157,-0.0111069,-0.0462838
2.50984,-0.25671,-0.0734245
2.57637,-0.136825,0
2.51844,-0.25759,-0.322237
2.64793,-0.0110917,0.0153899
2.58765,-0.137425,0.0602981
2.43983,-0.370732,0.0287302
2.58603,-0.137339,-0.181088
2.51051,-0.256779,-0.206015
2.51848,-0.257594,0.0441895
2.64256,-0.0110692,-0.16936
2.4556,-0.373129,-0.14465
2.57999,-0.137018,0.150464
2.51279,-0.257013,0.102908
2.58156,-0.137101,-0.120423
2.51541,-0.25728,-0.132515
2.57302,-0.136648,0.316373
2.50654,-0.256373,0.205689
2.58366,-0.137213,-0.060205
2.64752,-0.0203319,-0.046214
2.50495,-0.265049,-0.0733081
2.56789,-0.145366,0
2.45037,-0.38109,-0.0288699
2.63988,-0.0202732,0.0153435
2.51392,-0.265999,-0.0146925
2.569,-0.145429,-0.277167
2.44247,-0.379861,0.0287768
2.58155,-0.146139,-0.180809
2.5096,-0.265541,-0.206015
2.51756,-0.266383,0.0441895
2.6425,-0.0202933,-0.16936
2.4464,-0.380471,-0.144185
2.57152,-0.145571,0.149999
2.50791,-0.265362,0.102745
2.58505,-0.146337,-0.120609
2.50655,-0.265218,-0.132096
2.57253,-0.145628,0.316373
2.50167,-0.264702,0.205364
2.57119,-0.145552,-0.0599259
2.63544,-0.0285193,-0.0460045
2.50013,-0.272484,-0.0731918
2.57141,-0.153671,0
2.44917,-0.388786,-0.0288699
2.6398,-0.0285665,0.0153435
2.56853,-0.153499,-0.277167
2.57471,-0.153868,0.0600189
2.43731,-0.386905,0.0287302
2.56913,-0.153535,-0.179972
2.50479,-0.272992,-0.205689
2.50876,-0.273425,0.0440499
2.63444,-0.0285085,-0.168848
2.43336,-0.386277,-0.143487
2.56706,-0.153411,0.149766
2.50309,-0.272807,0.102582
2.57262,-0.153743,-0.12005
2.5057,-0.273091,-0.132096
2.56413,-0.153236,0.315398
2.50082,-0.27256,0.205364
2.56672,-0.153391,-0.0598328
2.62733,-0.0376041,-0.0458649
2.49122,-0.280315,-0.0729591
2.56288,-0.162141,0
2.44385,-0.396692,-0.0288233
2.63169,-0.0376665,0.015297
2.57195,-0.162715,-0.277596
2.57016,-0.162602,0.0599259
2.5646,-0.16225,-0.179693
2.49986,-0.281287,-0.205364
2.63033,-0.0376471,-0.168592
2.43594,-0.395408,-0.14372
2.56651,-0.162371,0.149766
2.49418,-0.280648,0.102257
2.57206,-0.162722,-0.12005
2.50077,-0.28139,-0.131887
2.55962,-0.161935,0.31491
2.49193,-0.280396,0.204713
2.63355,-0.0376931,-0.107304
2.57016,-0.162602,-0.0599259
2.4862,-0.288983,-0.0728427
2.55428,-0.170999,0
2.43054,-0.403681,-0.0286836
2.62753,-0.04724,0.0152737
2.50311,-0.290947,-0.014646
2.55943,-0.171343,-0.27631
2.56556,-0.171754,0.0598328
2.42659,-0.403025,0.0286371
2.55602,-0.171115,-0.179135
2.49485,-0.289988,-0.205038
2.63018,-0.0472875,-0.168592
2.55793,-0.171243,0.149301
2.49313,-0.289788,0.102257
2.56348,-0.171614,-0.119678
2.49178,-0.289631,-0.131468
2.54713,-0.17052,0.313448
2.48297,-0.288607,0.204062
2.6254,-0.0472016,-0.106979
2.56157,-0.171487,-0.0597397
2.627,-0.0559453,-0.0458649
2.4892,-0.2977,-0.0729591
2.54971,-0.179188,0
2.43313,-0.412407,-0.0287302
2.62336,-0.0558677,0.0152505
2.49815,-0.298771,-0.0146228
2.55092,-0.179272,-0.275454
2.56099,-0.17998,0.0597397
2.4213,-0.410402,0.0285905
2.55146,-0.179311,-0.178856
2.48596,-0.297312,-0.204388
2.49782,-0.298731,0.0439103
2.61803,-0.0557543,-0.167825
2.55735,-0.179724,0.149301
2.49216,-0.298054,0.102257
2.56289,-0.180114,-0.119678
2.49081,-0.297893,-0.131468
2.54655,-0.178965,0.313448
2.482,-0.296839,0.204062
2.557,-0.1797,-0.0596467
2.6188,-0.0649167,-0.0457253
2.48021,-0.30541,-0.0727263
2.54508,-0.187792,0
2.42773,-0.420215,-0.0286836
2.54636,-0.187887,-0.397232
2.61515,-0.0648264,0.015204
2.49313,-0.307001,-0.0145995
2.55027,-0.188175,-0.275454
2.41591,-0.418169,0.0285439
2.55082,-0.188216,-0.178856
2.48886,-0.306475,-0.204713
2.49279,-0.306959,0.0438404
2.55272,-0.188356,0.149068
2.48714,-0.306263,0.102094
2.55428,-0.188471,-0.119306
2.48975,-0.306585,-0.131468
2.54591,-0.187853,0.313448
2.48886,-0.306475,0.204713
2.62102,-0.0649718,-0.106816
2.56034,-0.188919,-0.0597397
2.61454,-0.0744009,-0.0456555
2.48304,-0.315002,-0.0728427
2.54438,-0.197119,0
2.42224,-0.428414,-0.0286371
2.6109,-0.0742972,0.0151807
2.48405,-0.31513,-0.014553
2.55565,-0.197993,0.0596467
2.41042,-0.426324,0.0284974
2.54613,-0.197255,-0.178577
2.47981,-0.314592,-0.204062
2.48768,-0.315591,0.0437706
2.60959,-0.0742598,-0.167313
2.54803,-0.197403,0.148836
2.48203,-0.314874,0.101931
2.55357,-0.197832,-0.119306
2.48465,-0.315206,-0.131259
2.54124,-0.196877,0.312961
2.4719,-0.313589,0.203411
2.60878,-0.0742368,-0.106327
2.54767,-0.197375,-0.0594606
2.60229,-0.0826896,-0.0454461
2.47405,-0.322201,-0.07261
2.53175,-0.204589,0
2.4208,-0.436444,-0.0286371
2.61064,-0.0829548,0.0151807
2.48299,-0.323366,-0.014553
2.53701,-0.205014,-0.274168
2.54701,-0.205822,0.0594606
2.40506,-0.433605,0.0284508
2.53751,-0.205055,-0.178019
2.47875,-0.322814,-0.204062
2.60933,-0.0829132,-0.167313
2.54737,-0.205851,0.148836
2.47305,-0.322071,0.101605
2.54494,-0.205655,-0.118934
2.47963,-0.322928,-0.131049
2.53662,-0.204983,0.312473
2.46689,-0.321269,0.203086
2.60852,-0.0828875,-0.106327
2.54302,-0.2055,-0.0593675
2.60199,-0.0917727,-0.0454461
2.46895,-0.330305,-0.0724936
2.52703,-0.213089,0
2.4114,-0.443445,-0.0285439
2.61033,-0.0920671,0.0151807
2.47788,-0.3315,-0.0145298
2.53628,-0.213869,-0.274168
2.54229,-0.214375,0.0593675
2.3996,-0.441274,0.0284042
2.53678,-0.213911,-0.178019
2.46971,-0.330407,-0.203411
2.59728,-0.0916069,0.0756354
2.47358,-0.330925,0.0435612
2.60104,-0.0917395,-0.166801
2.54265,-0.214406,0.148603
2.46795,-0.330171,0.101443
2.53226,-0.21353,-0.118375
2.47057,-0.330522,-0.130631
2.52402,-0.212835,0.311011
2.4618,-0.32935,0.20276
2.60022,-0.0917106,-0.106002
2.54229,-0.214375,-0.0593675
2.59364,-0.100998,-0.0453064
2.46772,-0.339352,-0.0724936
2.52623,-0.22235,0
2.40583,-0.451542,-0.0284974
2.59799,-0.101167,0.015111
2.47665,-0.34058,-0.0145298
2.53151,-0.222814,-0.27374
2.52803,-0.222508,-0.17746
2.46058,-0.33837,-0.20276
2.46443,-0.338899,0.0434216
2.53389,-0.223024,0.148138
2.46672,-0.339215,0.101443
2.53544,-0.22316,-0.118561
2.4733,-0.340119,-0.13084
2.52718,-0.222433,0.311498
2.5375,-0.223341,-0.0592745
2.58931,-0.108977,-0.0452366
2.46268,-0.346546,-0.0723772
2.52552,-0.230285,0
2.40833,-0.459848,-0.0285439
2.58966,-0.108992,0.0150645
2.47161,-0.347802,-0.0145065
2.52684,-0.230405,-0.273312
2.38868,-0.456097,0.0283111
2.52334,-0.230086,-0.177181
2.46345,-0.346654,-0.203086
2.58861,-0.108948,0.0754027
2.47127,-0.347754,0.0435612
2.58839,-0.108938,-0.166034
2.5292,-0.230621,0.147906
2.46168,-0.346405,0.10128
2.53472,-0.231124,-0.118561
2.47222,-0.347887,-0.13084
2.52251,-0.230011,0.311011
2.59155,-0.109071,-0.105676
2.5328,-0.230949,-0.0591814
2.5849,-0.118284,-0.0451668
2.45744,-0.354998,-0.0722609
2.52068,-0.239162,0
2.4027,-0.467907,-0.0284974
2.58126,-0.118117,0.015018
2.45844,-0.355142,-0.0144368
2.52646,-0.23971,-0.17746
2.5842,-0.118252,0.0752863
2.46206,-0.355666,0.0434216
2.58399,-0.118242,-0.165778
2.52437,-0.239512,0.147673
2.45249,-0.354283,0.100954
2.52988,-0.240035,-0.118375
2.45906,-0.355233,-0.130212
2.52561,-0.23963,0.311498
2.44638,-0.353401,0.201784
2.58315,-0.118204,-0.10535
2.52398,-0.239475,-0.0589953
2.58447,-0.127306,-0.0451668
2.45619,-0.363574,-0.0722609
2.50789,-0.246784,0
2.3932,-0.474735,-0.0284042
2.58482,-0.127323,0.0150412
2.45718,-0.363722,-0.0144368
2.51721,-0.247702,-0.272455
2.38143,-0.4724,0.0282646
2.51369,-0.247356,-0.176623
2.57579,-0.126878,0.0750536
2.46081,-0.364258,0.0434216
2.57957,-0.127065,-0.165522
2.51557,-0.24754,0.147208
2.44728,-0.362256,0.100791
2.5171,-0.247691,-0.117817
2.45781,-0.363814,-0.130212
2.51685,-0.247666,0.310523
2.44119,-0.361355,0.201458
2.57873,-0.127023,-0.105188
2.52313,-0.248284,-0.0589953
2.57602,-0.135905,-0.0450272
2.447,-0.370947,-0.0720282
2.50701,-0.255537,0
2.38761,-0.482294,-0.0283577
2.58836,-0.136556,0.0150645
2.44799,-0.371098,-0.0143903
2.50842,-0.25568,-0.271598
2.37585,-0.479918,0.028218
2.50884,-0.255724,-0.176344
2.57533,-0.135869,0.0750536
2.45557,-0.372246,0.0433518
2.51469,-0.25632,0.147208
2.44205,-0.370197,0.100628
2.5202,-0.256881,-0.118003
2.44863,-0.371194,-0.129793
2.50807,-0.255645,0.309548
2.43991,-0.369874,0.201458
2.57428,-0.135813,-0.105025
2.51827,-0.256684,-0.0589023
2.57157,-0.144223,-0.0449574
2.44575,-0.379059,-0.0720282
2.49819,-0.263011,0
2.37424,-0.487794,-0.028218
2.57591,-0.144467,0.0149947
2.44675,-0.379214,-0.0143903
2.51151,-0.264414,-0.272027
2.50004,-0.263206,-0.175786
2.57087,-0.144184,0.0749372
2.44641,-0.379162,0.0432122
2.50985,-0.264239,0.146975
2.44081,-0.378294,0.100628
2.50741,-0.263982,-0.117445
2.44738,-0.379312,-0.129793
2.50721,-0.263961,0.309548
2.5174,-0.265034,-0.0589023
2.56706,-0.152961,-0.0448876
2.44441,-0.387594,-0.0720282
2.49726,-0.27173,0
2.36861,-0.49526,-0.0281714
2.5674,-0.152981,0.0149482
2.44146,-0.387126,-0.0143671
2.50267,-0.272318,-0.27117
2.50308,-0.272363,-0.176065
2.56636,-0.152919,0.0748209
2.44113,-0.387073,0.0431423
2.56219,-0.152671,-0.164499
2.51288,-0.27343,0.147208
2.43553,-0.386185,0.100466
2.5025,-0.2723,-0.117258
2.43815,-0.386602,-0.129375
2.50627,-0.272711,0.309548
2.50454,-0.272522,-0.0586231
2.55849,-0.161863,-0.044748
2.43903,-0.39591,-0.0719118
2.49227,-0.280434,0
2.56682,-0.16239,0.0149482
2.42818,-0.394149,-0.0142973
2.36678,-0.503938,0.0281714
2.50206,-0.281536,-0.176065
2.56578,-0.162325,0.0748209
2.43574,-0.395377,0.0430725
2.55763,-0.161809,-0.164243
2.50393,-0.281746,0.146743
2.43015,-0.394469,0.100303
2.49751,-0.281024,-0.117072
2.44066,-0.396175,-0.129584
2.50131,-0.281451,0.309061
2.4241,-0.393487,0.200482
2.56075,-0.162006,-0.104536
2.49955,-0.281252,-0.0585301
2.55794,-0.170347,-0.044748
2.42587,-0.402035,-0.0715627
2.48736,-0.288237,0
2.56228,-0.170636,0.014925
2.4308,-0.402853,-0.0143206
2.48885,-0.28841,-0.269885
2.48922,-0.288453,-0.175228
2.56124,-0.170566,0.0747045
2.42653,-0.402144,0.0429329
2.55708,-0.170289,-0.164243
2.49901,-0.289588,0.14651
2.48863,-0.288385,-0.1167
2.43145,-0.40296,-0.129165
2.49642,-0.289287,0.308573
2.41885,-0.400872,0.200157
2.55223,-0.169966,-0.104211
2.49463,-0.289079,-0.058437
2.54935,-0.178715,-0.0446084
2.42051,-0.409833,-0.0714464
2.48236,-0.296443,0
2.55369,-0.179019,0.0148785
2.42544,-0.410668,-0.0142973
2.49178,-0.297568,-0.270313
2.4882,-0.297141,-0.175228
2.42905,-0.41128,0.0430027
2.5485,-0.178656,-0.163731
2.49402,-0.297836,0.146278
2.41559,-0.409,0.0998143
2.48761,-0.29707,-0.1167
2.43003,-0.411445,-0.129165
2.49145,-0.297529,0.308086
2.4936,-0.297786,-0.058437
2.54868,-0.188058,-0.0446084
2.41899,-0.418702,-0.0714464
2.47729,-0.305051,0
2.55302,-0.188378,0.0148785
2.42392,-0.419554,-0.0142973
2.34967,-0.526074,0.0280317
2.4871,-0.306258,-0.175228
2.544,-0.187713,0.074239
2.42359,-0.419498,0.0429329
2.54783,-0.187995,-0.163731
2.48895,-0.306487,0.146045
2.41013,-0.417169,0.0996514
2.4865,-0.306185,-0.1167
2.42063,-0.418987,-0.128746
2.48641,-0.306173,0.307598
2.48853,-0.306434,-0.058344
2.54007,-0.195894,-0.0444687
2.40972,-0.425331,-0.0712136
2.48023,-0.313766,0
2.5444,-0.196228,0.014832
2.41463,-0.4262,-0.0142508
2.34791,-0.533862,0.0280317
2.48211,-0.314003,-0.174949
2.54337,-0.196148,0.074239
2.41431,-0.426142,0.0427933
2.53923,-0.195829,-0.16322
2.48396,-0.314238,0.145813
2.48151,-0.313928,-0.116514
2.48538,-0.314417,0.307598
2.53835,-0.195761,-0.103722
2.48353,-0.314183,-0.0582509
2.53538,-0.204437,-0.0443989
2.40822,-0.43374,-0.0712136
2.47119,-0.32139,0
2.53971,-0.204787,0.0148088
2.40919,-0.433917,-0.0142276
2.47704,-0.322151,-0.17467
2.5347,-0.204382,0.0740063
2.40887,-0.433858,0.0427235
2.53854,-0.204692,-0.16322
2.48285,-0.322906,0.145813
2.47247,-0.321557,-0.116142
2.53367,-0.204299,-0.103559
2.47052,-0.321303,-0.0579717
2.53864,-0.213622,-0.0444687
2.39882,-0.440699,-0.0709809
2.47005,-0.330014,0
2.535,-0.213315,0.0147855
2.40373,-0.441601,-0.0142043
2.47195,-0.330267,-0.174391
2.54194,-0.213899,0.074239
2.40341,-0.441541,0.0426537
2.52985,-0.212882,-0.162708
2.47379,-0.330513,0.145348
2.40178,-0.441242,0.0994886
2.47134,-0.330186,-0.116142
2.53294,-0.213142,-0.103559
2.47335,-0.330454,-0.0580648
2.52991,-0.221783,-0.0443291
2.40513,-0.450542,-0.0712136
2.46096,-0.337547,0
2.53025,-0.221813,0.0147623
2.40611,-0.450725,-0.0142276
2.46682,-0.338351,-0.174112
2.52923,-0.221723,0.07389
2.40185,-0.449928,0.0426537
2.52909,-0.221712,-0.162708
2.47262,-0.339147,0.145348
2.39237,-0.448152,0.0991629
2.46621,-0.338267,-0.115956
2.46822,-0.338543,-0.0579717
2.53314,-0.230534,-0.0443989
2.39577,-0.457017,-0.0709809
2.45983,-0.345706,0
2.52552,-0.22984,0.014739
2.40067,-0.457952,-0.0142043
2.46174,-0.345975,-0.173833
2.52051,-0.229385,0.0736572
2.39642,-0.457141,0.0425839
2.52039,-0.229374,-0.162196
2.46357,-0.346233,0.144882
2.39087,-0.456083,0.0991629
2.46508,-0.346444,-0.115956
2.46708,-0.346726,-0.0579717
2.52038,-0.238246,-0.0441895
2.38631,-0.463851,-0.0707482
2.45465,-0.35372,0
2.5247,-0.238655,0.014739
2.39513,-0.465566,-0.0141811
2.45656,-0.353996,-0.173554
2.52368,-0.238558,0.0737736
2.38695,-0.463977,0.0424443
2.51958,-0.23817,-0.162196
2.4584,-0.35426,0.14465
2.38534,-0.463663,0.0990001
2.4599,-0.354476,-0.115769
2.45398,-0.353624,-0.0576926
2.51949,-0.247482,-0.0441895
2.45729,-0.363299,0
2.51983,-0.247515,0.0147158
2.38948,-0.473564,-0.0141578
2.45525,-0.362998,-0.173554
2.51483,-0.247024,0.0735409
2.38916,-0.4735,0.0425141
2.51074,-0.246623,-0.161685
2.44918,-0.362101,0.144185
2.3797,-0.471625,0.0988373
2.45463,-0.362906,-0.115583
2.50983,-0.246533,-0.102745
2.52259,-0.25668,-0.0442593
2.4481,-0.370677,0
2.51895,-0.25631,0.0147158
2.38782,-0.481902,-0.0141578
2.45534,-0.371774,0.0577856
2.45002,-0.370969,-0.173275
2.51793,-0.256206,0.0736572
2.38357,-0.481046,0.0424443
2.50986,-0.255385,-0.161685
2.45185,-0.371245,0.144417
2.44544,-0.370275,-0.115211
2.50895,-0.255293,-0.102745
2.44743,-0.370576,-0.0575995
2.51775,-0.264626,-0.0441895
2.4429,-0.378181,0
2.51809,-0.264662,0.0147158
2.38229,-0.489013,-0.0141346
2.50513,-0.2633,0.0733081
2.38196,-0.488947,0.0424443
2.509,-0.263707,-0.161685
2.45061,-0.379374,0.144417
2.44025,-0.377771,-0.115025
2.50412,-0.263193,-0.102582
2.43829,-0.377467,-0.0574134
2.50886,-0.272549,-0.0440499
2.44157,-0.386706,0
2.50522,-0.272154,0.014646
2.37665,-0.496508,-0.0141113
2.49625,-0.27118,0.0730754
2.37241,-0.495623,0.0423046
2.50013,-0.271601,-0.161173
2.44532,-0.387301,0.144185
2.3669,-0.49447,0.0985116
2.44287,-0.386912,-0.115211
2.49524,-0.271069,-0.102257
2.43301,-0.38535,-0.0573204
2.49994,-0.280413,-0.0439103
2.4323,-0.393947,0
2.50028,-0.280451,0.0146228
2.37099,-0.503969,-0.0140881
2.49926,-0.280337,0.0731918
2.36676,-0.50307,0.0422348
2.4952,-0.279882,-0.160917
2.44002,-0.395196,0.143952
2.4415,-0.395437,-0.115211
2.4903,-0.279332,-0.102094
2.48703,-0.287759,-0.0437008
2.43091,-0.402435,0
2.48736,-0.287798,0.014553
2.49032,-0.28814,0.0729591
2.36499,-0.511328,0.0422348
2.49421,-0.28859,-0.160917
2.43074,-0.402407,0.143487
2.42828,-0.401999,-0.114653
2.49328,-0.288483,-0.102257
2.42237,-0.40102,-0.0571343
2.49792,-0.297859,-0.0439103
2.42161,-0.409584,0
2.48634,-0.296479,0.014553
2.43278,-0.411474,0.0574134
2.49327,-0.297305,0.0730754
2.35537,-0.517863,0.0420952
2.48922,-0.296822,-0.160661
2.42145,-0.409557,0.143022
2.41898,-0.40914,-0.11428
2.48829,-0.296711,-0.102094
2.42095,-0.409473,-0.0571343
2.48496,-0.305114,-0.0437008
2.4241,-0.418715,0
2.48529,-0.305156,0.014553
2.48032,-0.304544,0.0727263
2.35355,-0.526081,0.0420952
2.48421,-0.305023,-0.160406
2.42394,-0.418687,0.143255
2.42935,-0.419622,-0.114839
2.48328,-0.304908,-0.101931
2.48388,-0.313787,-0.0437008
2.41475,-0.425785,0
2.47628,-0.312826,0.0145065
2.42591,-0.427753,0.0573204
2.47924,-0.3132,0.0727263
2.47917,-0.313192,-0.16015
2.4146,-0.425759,0.142789
2.42787,-0.4281,-0.114839
2.41016,-0.424976,-0.0569482
2.47483,-0.321425,-0.0435612
2.41325,-0.434212,0
2.47517,-0.321468,0.0145065
2.47416,-0.321338,0.07261
2.34203,-0.5407,0.0419556
2.47014,-0.320816,-0.159638
2.40917,-0.433477,0.142557
2.47316,-0.321207,-0.101605
2.4737,-0.330062,-0.0435612
2.41172,-0.442633,0
2.46214,-0.328519,0.0144368
2.4651,-0.328915,0.0723772
2.47297,-0.329964,-0.159894
2.39978,-0.440443,0.142092
2.4641,-0.328781,-0.10128
2.46857,-0.338152,-0.0434914
2.40229,-0.449577,0
2.46098,-0.337112,0.0144368
2.40951,-0.450927,0.0570412
2.46394,-0.337517,0.0723772
2.46784,-0.338053,-0.159638
2.39823,-0.448817,0.142092
2.4669,-0.337923,-0.101443
2.46341,-0.34621,-0.0434216
2.39285,-0.456461,0
2.45978,-0.3457,0.0144368
2.40399,-0.458585,0.0569482
2.45483,-0.345003,0.0721445
2.46665,-0.346665,-0.159638
2.39665,-0.457185,0.142092
2.45779,-0.345419,-0.101117
2.3922,-0.456337,-0.056669
2.45823,-0.354236,-0.0433518
2.39124,-0.464811,0
2.4546,-0.353714,0.0144135
2.45752,-0.354134,-0.159126
2.44865,-0.352857,-0.100791
2.44919,-0.360792,-0.0432122
2.38585,-0.471545,0
2.44952,-0.36084,0.0143903
2.4485,-0.360689,-0.158615
2.44753,-0.360547,-0.100791
2.44792,-0.369339,-0.0432122
2.38811,-0.48066,0
2.44429,-0.368792,0.0143671
2.39138,-0.481319,0.0567621
2.43935,-0.368046,0.0717954
2.45117,-0.36983,-0.158871
2.44231,-0.368492,-0.100628
2.43871,-0.37666,-0.0430725
2.3825,-0.48819,0
2.43904,-0.376711,0.0143438
2.38185,-0.488058,0.056576
2.442,-0.377169,0.0719118
2.44101,-0.377015,-0.100628
2.44528,-0.386419,-0.0432122
2.37295,-0.49487,0
2.42981,-0.383974,0.0142973
2.38014,-0.496369,0.056576
2.43277,-0.384442,0.0716791
2.43573,-0.38491,-0.100466
2.43602,-0.393676,-0.0430725
2.36729,-0.50232,0
2.42845,-0.392453,0.0142973
2.37056,-0.503014,0.0563898
2.42648,-0.392135,-0.10014
2.42674,-0.400874,-0.0429329
2.36162,-0.509736,0
2.42312,-0.400276,0.0142741
2.36488,-0.510442,0.0562968
2.42138,-0.408676,-0.0428631
2.42171,-0.408732,0.0142741
2.36309,-0.518694,0.0562968
2.41974,-0.4084,-0.0999771
2.416,-0.416447,-0.0427933
2.41238,-0.415824,0.0142276
2.35736,-0.526069,0.0562037
2.4114,-0.415655,0.0712136
2.4183,-0.416844,-0.0999771
2.41059,-0.424185,-0.0427235
2.41486,-0.424935,0.0142508
2.35551,-0.534294,0.0562037
2.4129,-0.42459,-0.0998143
2.41303,-0.433303,-0.0427933
2.40942,-0.432655,0.0142276
2.3997,-0.439562,-0.0425839
2.40396,-0.440342,0.0142043
2.39273,-0.455139,-0.0425141
2.3872,-0.462727,-0.0424443
2.38752,-0.46279,0.0141346
2.37471,-0.486161,0.0140881
2.37125,-0.502728,0.0140881
2.36166,-0.509316,0.0140416
2.35596,-0.516699,0.0140183
