2.01507,0.266005,-0.118371
2.01551,0.25176,-0.189606
2.00896,0.250942,-0.117906
2.00842,0.244113,-0.188862
2.01771,0.245241,-0.118371
2.00926,0.2371,-0.188862
2.01458,0.237728,-0.118138
2.01008,0.230086,-0.188862
2.00747,0.229787,-0.117673
2.01362,0.230491,-0.0707762
2.00822,0.223129,-0.117673
2.00372,0.215197,-0.188119
2.00902,0.215767,-0.117673
2.00442,0.208551,-0.188119
2.0137,0.209517,-0.117906
2.00121,0.200805,-0.187747
2.00586,0.194203,-0.188119
2.00322,0.193947,-0.117208
1.99463,0.186089,-0.187003
2.00389,0.186953,-0.117208
1.99182,0.179167,-0.0232822
1.9992,0.179831,-0.187375
2.00052,0.179949,-0.116976
1.99188,0.172166,-0.186632
1.99716,0.172622,-0.116743
2.00097,0.166268,-0.0233753
1.99641,0.16589,-0.187003
2.00568,0.16666,-0.117208
1.99301,0.158604,-0.186632
2.01258,0.259603,-0.165658
2.00227,0.15934,-0.116976
1.99355,0.151646,-0.186632
2.01347,0.252576,-0.165658
1.99485,0.151745,-0.116511
2.00947,0.252075,-0.106137
1.99409,0.144338,-0.186632
2.01042,0.244712,-0.165333
1.99937,0.14472,-0.116743
1.99458,0.137377,-0.186632
2.00731,0.237226,-0.165007
1.98708,0.13024,-0.185888
2.012,0.231017,-0.106137
1.98752,0.123303,-0.185888
1.98405,0.123087,0.0231425
2.00491,0.223115,-0.164682
1.99279,0.123629,-0.116278
2.00883,0.223551,-0.105928
2.00812,0.216024,-0.257082
1.98796,0.116018,-0.185888
2.00572,0.215766,-0.164682
1.99323,0.116325,-0.116278
2.0136,0.216614,-0.106137
2.00429,0.208892,-0.0586465
2.00093,0.208541,-0.256072
1.98436,0.109206,-0.185516
1.98087,0.109014,0.0230959
2.00246,0.2087,-0.164356
2.00636,0.209108,-0.105719
1.9977,0.201157,-0.255567
1.98473,0.102278,-0.185516
1.98523,0.102304,0.0231425
1.99524,0.20091,-0.163705
1.98998,0.102549,-0.116045
2.01106,0.202503,-0.105928
1.99839,0.194183,-0.255567
1.98905,0.0955412,-0.185888
1.9999,0.19433,-0.164031
2.00778,0.195096,-0.105719
1.99044,0.1864,-0.0581811
1.9951,0.186836,-0.255062
1.98141,0.0882426,-0.185145
2.00056,0.187347,-0.164031
1.9871,0.179092,-0.0580647
1.99574,0.179871,-0.255062
1.97773,0.0811628,-0.184773
1.99723,0.180005,-0.163705
2.00113,0.180357,-0.1053
1.99636,0.172904,-0.255062
1.97402,0.0741097,-0.184401
1.97448,0.0741267,0.0230028
1.99785,0.173033,-0.163705
1.99379,0.172682,-0.104881
1.99695,0.165934,-0.255062
1.97825,0.0673536,-0.184773
2.00948,0.266337,-0.141745
1.9905,0.165398,-0.163054
1.99836,0.166051,-0.105091
1.99752,0.158963,-0.255062
1.98245,0.0605699,-0.185145
2.01039,0.259321,-0.141745
1.99504,0.158765,-0.16338
1.99893,0.159075,-0.105091
1.99803,0.152337,-0.255062
1.9707,0.0536697,-0.184029
2.00728,0.252155,-0.141466
1.99158,0.151845,-0.163054
1.99945,0.152445,-0.105091
1.99061,0.145134,-0.254052
1.97087,0.0471347,-0.184029
1.9673,0.0470495,0.0229097
1.99207,0.14524,-0.163054
1.99596,0.145523,-0.104881
1.97843,0.136958,-0.0577156
1.98717,0.137563,-0.253547
2.00627,0.237813,-0.217621
1.97103,0.0399112,-0.184029
1.96746,0.0398391,0.0229097
1.99656,0.138214,-0.16338
1.99249,0.137932,-0.104672
1.97889,0.130051,-0.0577156
1.9916,0.130886,-0.254052
1.96717,0.0329636,-0.183657
1.96759,0.0329706,0.0229097
2.00189,0.23021,-0.140908
1.98908,0.13072,-0.162729
2.00857,0.230979,-0.094179
1.98897,0.130713,-0.104463
1.97931,0.123487,-0.0577156
1.98806,0.124033,-0.253547
1.97125,0.026493,-0.184029
2.00264,0.22357,-0.140908
1.98552,0.123874,-0.162403
2.00535,0.223873,-0.0939929
1.98541,0.123867,-0.104253
1.97973,0.116579,-0.0577156
1.98848,0.117094,-0.253547
1.97133,0.0196132,-0.184029
1.99944,0.216151,-0.140629
1.98594,0.116944,-0.162403
1.99818,0.216014,-0.0936206
1.98982,0.117172,-0.104463
1.97216,0.108879,-0.0574829
1.98098,0.109366,-0.252536
1.96343,0.0123363,-0.183286
1.99625,0.208405,-0.14035
1.99034,0.109883,-0.162729
1.99023,0.109877,-0.104463
1.97251,0.102339,-0.0574829
1.98133,0.102797,-0.252536
1.96346,0.0058257,-0.183286
1.95586,0.00580316,0.02277
1.98671,0.103076,-0.162403
1.99729,0.20182,-0.0467124
1.97287,0.0951094,-0.0574829
1.95987,-0.00136783,-0.0228165
1.98565,0.0957256,-0.253042
1.96745,-0.00137312,-0.183657
1.99368,0.194078,-0.140071
1.97911,0.0954101,-0.161753
1.98696,0.0957887,-0.104253
1.9692,0.0880441,-0.0573665
1.95985,-0.00820861,-0.0228165
1.98201,0.088617,-0.252536
1.96345,-0.00822368,-0.183286
1.95585,-0.00819186,0.02277
1.97545,0.0883235,-0.161427
1.98329,0.0886743,-0.104044
1.96947,0.0818566,-0.0573665
1.97832,0.0822245,-0.252031
1.95182,-0.0143076,0.0227234
1.9797,0.082282,-0.161753
1.98967,0.180375,-0.0930622
1.98356,0.0824426,-0.104044
1.96974,0.0749819,-0.0573665
1.97066,0.075017,-0.251021
1.99555,0.173887,-0.140071
1.98396,0.0755232,-0.162078
1.99029,0.173429,-0.0930622
1.97985,0.0753666,-0.103835
2.00386,0.174611,-0.0468054
1.96202,0.0671441,-0.0571338
1.95529,-0.0286679,-0.182542
1.94766,-0.028556,0.0226768
1.98825,0.16556,-0.139513
1.98025,0.0677679,-0.161753
1.96522,0.0672535,0.0801119
1.98012,0.0677636,-0.103835
1.97021,0.0612287,-0.0573665
1.94756,-0.0346742,-0.0226768
1.97907,0.0615038,-0.252031
1.95917,-0.034881,-0.182914
1.94756,-0.0346742,0.0226768
1.97647,0.061423,-0.161427
1.97341,0.0613279,0.0804376
1.98747,0.159211,-0.0928761
1.97633,0.0614188,-0.103625
1.96242,0.0541299,-0.0571338
1.96826,0.0542909,-0.393804
1.95143,-0.041558,-0.0227234
1.97134,0.0543759,-0.251021
1.93943,-0.0413025,0.0225837
1.97667,0.0545229,-0.161427
1.96962,0.0543284,0.0802748
1.98403,0.151966,-0.09269
1.97653,0.0545192,-0.103625
1.9666,0.047033,-0.0572502
1.97236,0.0471707,-0.394588
1.94326,-0.0485099,-0.0226303
1.97152,0.0471506,-0.251021
1.95489,-0.0488002,-0.182542
1.94726,-0.0486098,0.0226768
1.98985,0.145078,-0.139513
1.97686,0.0472781,-0.161427
1.98457,0.144694,-0.09269
1.96277,0.0397432,-0.0571338
1.97645,0.0400202,-0.395372
1.98724,0.137568,0
1.98728,0.13757,-0.309915
1.97565,0.0400041,-0.251526
1.94674,-0.0557374,-0.181799
1.9824,0.137232,-0.138955
1.97702,0.0400318,-0.161427
1.98111,0.137143,-0.0925039
1.95888,0.0335088,-0.0570174
1.97968,0.130797,0
1.99165,0.131587,-0.310529
1.97577,0.0337976,-0.251526
1.95053,-0.0619791,-0.18217
1.94689,-0.0618633,0.0226768
1.97884,0.130741,-0.138676
1.97315,0.0337528,-0.161102
1.98153,0.130919,-0.0925039
1.95899,0.0263294,-0.0570174
1.98015,0.12354,0
1.94665,-0.0689981,-0.0226768
1.95029,-0.0691273,-0.18217
1.98329,0.123736,-0.138955
1.97326,0.0265211,-0.161102
1.96619,0.0264261,0.0801119
1.97801,0.123407,-0.0923178
1.95907,0.0198324,-0.0570174
1.96106,0.0198526,-0.392235
1.97656,0.116737,0
1.96405,0.0198829,-0.250011
1.93841,-0.0751437,0.0225837
1.97572,0.116688,-0.138397
1.96935,0.0199365,-0.160776
1.9692,0.0199349,-0.103207
1.95913,0.0129933,-0.0570174
1.96112,0.0130065,-0.392235
1.97296,0.109614,0
1.97204,0.013079,-0.251021
1.97612,0.10979,-0.138397
1.96233,0.0130146,0.0799491
1.97481,0.109717,-0.0921316
1.98839,0.110472,-0.0463402
1.95516,0.00580126,-0.0569011
1.96507,0.00583067,-0.393019
1.96935,0.102176,0
1.96811,0.00583968,-0.250516
1.9415,-0.0891817,-0.181427
1.93783,-0.0890127,0.0225837
1.97651,0.102547,-0.138397
1.99374,0.201462,-0.128427
1.95037,0.00578705,0.0794606
1.99815,0.195568,-0.0350444
1.95517,-0.000340712,-0.0569011
1.95724,-0.000341072,-0.39145
1.97366,0.0961832,0
1.96415,-0.000342276,-0.250011
1.94519,-0.0954755,-0.181799
1.92955,-0.0947076,0.0224906
1.97284,0.0961432,-0.138118
1.99436,0.195198,-0.128427
1.95038,-0.000339877,0.0794606
1.94951,-0.000339726,0.159149
1.95516,-0.00716606,-0.0569011
1.95723,-0.00717363,-0.39145
1.93719,-0.101863,-0.0225837
1.96414,-0.00719897,-0.250011
1.94087,-0.102056,-0.181427
1.9292,-0.101443,0.0224906
1.96917,0.0890752,-0.137839
1.96545,-0.00720377,-0.160451
1.96785,0.0890155,-0.0917594
1.9613,-0.00718855,-0.102788
1.93754,-0.00710149,0.158173
1.94712,-0.014273,-0.0566684
1.95326,-0.014318,-0.390666
1.96231,0.0815593,0
1.93281,-0.108737,-0.0225371
1.96013,-0.0143683,-0.249506
1.92083,-0.108063,0.0223974
1.96142,-0.0143778,-0.160125
1.95033,-0.0142965,0.0794606
1.94149,-0.0142317,0.158498
1.95106,-0.0211134,-0.0567847
1.93242,-0.115484,-0.0225371
1.95213,-0.021125,-0.248496
1.95585,-0.0211653,-0.0113681
1.92843,-0.115245,0.0224906
1.96976,0.0749819,-0.137839
1.95426,-0.0211481,0.0796234
1.96445,0.0747796,-0.0915733
1.94143,-0.0210092,0.158498
1.94298,-0.0274698,-0.056552
1.95312,-0.0276131,-0.390666
1.97081,0.0684782,0
1.95177,-0.0275941,-0.0113449
1.93572,-0.122124,-0.181055
1.92804,-0.121639,0.0224906
1.97399,0.0685885,-0.138118
1.94219,-0.0274587,0.079135
1.94533,-0.027503,0.158823
1.98132,0.159066,-0.0346954
1.95087,-0.0343925,-0.0567847
1.96704,0.0614738,0
1.91962,-0.127837,-0.0223974
1.95591,-0.0344813,-0.249001
1.93528,-0.12888,-0.181055
1.92361,-0.128102,0.022444
1.96624,0.0614487,-0.13756
1.95008,-0.0343785,0.0794606
1.96092,0.0612824,-0.0913871
1.93725,-0.0341524,0.158173
1.98189,0.151804,-0.0346954
1.94673,-0.041457,-0.0566684
1.96325,0.054154,0
1.93111,-0.135712,-0.0225371
1.95577,-0.0416494,-0.249001
1.95152,-0.041559,-0.0113449
1.9348,-0.135972,-0.181055
1.92313,-0.135152,0.022444
1.96645,0.0542421,-0.13756
1.95704,-0.0416765,-0.1598
1.98212,0.151821,-0.127403
1.94994,-0.0415252,0.0794606
1.96113,0.0540953,-0.0913871
1.93712,-0.0412521,0.158173
1.98241,0.144883,-0.0346954
1.93858,-0.0480551,-0.0564356
1.9488,-0.0483082,-0.389881
1.95543,0.0471068,0
1.95165,-0.0483789,-0.248496
1.96009,0.047219,-0.211195
1.93431,-0.142726,-0.181055
1.91466,-0.141276,0.0223509
1.96663,0.0473764,-0.13756
1.95731,0.047152,-0.091201
1.92899,-0.0478172,0.157522
1.97891,0.137685,-0.0346256
1.9464,-0.0550478,-0.0566684
1.92612,-0.148883,-0.0224906
1.95147,-0.0551912,-0.248496
1.94319,-0.0549571,-0.0112984
1.91815,-0.148267,0.0223974
1.96678,0.0405113,-0.13756
1.93096,-0.149257,-0.11279
1.96945,0.0405663,-0.0917594
1.97537,0.130858,-0.0345558
1.93022,-0.0609968,-0.0562029
1.9445,-0.0614481,-0.389097
1.95971,0.0338647,0
1.95127,-0.0616622,-0.248496
1.98761,0.131668,0.0115773
1.943,-0.0614006,-0.0112984
1.92535,-0.155248,-0.180312
1.9669,0.033989,-0.13756
1.93742,-0.0612245,0.0789721
1.95359,0.033759,-0.0910149
1.9326,-0.0610721,0.157847
1.97981,0.124212,-0.0346256
1.94198,-0.0681549,-0.056552
1.94035,-0.0680977,-0.388312
1.95581,0.0269687,0
1.95105,-0.068473,-0.248496
1.98806,0.12473,0.0115773
1.9248,-0.161968,-0.180312
1.91311,-0.160984,0.0223509
1.96302,0.027068,-0.137281
1.98402,0.124476,-0.127403
1.9372,-0.067987,0.0789721
1.95769,0.0269945,-0.091201
1.93238,-0.0678178,0.157847
1.97448,0.123878,-0.0806004
1.97625,0.116719,-0.0345558
1.92973,-0.0748075,-0.0562029
1.9559,0.0198001,0
1.95078,-0.0756235,-0.248496
1.98052,0.116971,0.0115308
1.92419,-0.169022,-0.180312
1.91251,-0.167995,0.0223509
1.95912,0.0198326,-0.137002
1.94805,-0.0755176,-0.159149
1.97649,0.116733,-0.126892
1.94093,-0.0752416,0.079135
1.94979,0.0197382,-0.0908288
1.92415,-0.074591,0.157196
1.97663,0.110165,-0.0345558
1.93746,-0.0815425,-0.0564356
1.93591,-0.0814773,-0.387528
1.95195,0.0132867,0
1.9199,-0.175063,-0.022444
1.94656,-0.0819253,-0.247991
1.98089,0.110402,0.0115308
1.92362,-0.175402,-0.180312
1.90795,-0.173973,0.0223043
1.95518,0.0133087,-0.136723
1.94779,-0.0819772,-0.159149
1.93668,-0.0815094,0.0789721
1.95783,0.0133267,-0.091201
1.92389,-0.0809713,0.157196
1.93317,-0.088123,-0.0563193
1.93562,-0.0882344,-0.387528
1.95199,0.00647307,0
1.91132,-0.181009,-0.0223509
1.93833,-0.0883581,-0.246981
1.97727,0.103278,0.0115076
1.923,-0.182115,-0.180312
1.91132,-0.181009,0.0223509
1.95521,0.00648376,-0.136723
1.96067,0.00650185,0.114185
1.95387,0.00647931,-0.0910149
1.91961,-0.0875049,0.156871
1.93138,-0.0947981,-0.386743
1.952,-0.000340686,0
1.91864,-0.188462,-0.022444
1.94594,-0.0955127,-0.247991
1.97762,0.0963758,0.0115076
1.91839,-0.188438,-0.17994
1.90669,-0.187289,0.0223043
1.95523,-0.000341249,-0.136723
1.97282,0.096142,0.0574829
1.9736,0.0961801,-0.126636
1.93207,-0.094832,0.0788093
1.94589,-0.00033962,-0.0906426
1.92328,-0.0944005,0.157196
1.97368,0.0892792,-0.034486
1.92453,-0.101197,-0.0560866
1.93495,-0.101745,-0.387528
1.95199,-0.00715444,0
1.94163,-0.102096,-0.247486
1.97395,0.0892912,0.0114843
1.91772,-0.195133,-0.17994
1.95946,-0.00718181,0.0455958
1.90603,-0.193943,0.0223043
1.95521,-0.00716626,-0.136723
1.97315,0.089255,0.0574829
1.97393,0.0892903,-0.126636
1.92774,-0.101366,0.0786465
1.95387,-0.00716133,-0.0910149
1.97397,0.0827337,-0.034486
1.92817,-0.107801,-0.0562029
1.94795,-0.0135995,0
1.90537,-0.200263,-0.0223043
1.97823,0.0829124,0.0115076
1.89742,-0.199427,0.0222112
1.95119,-0.0136221,-0.136444
1.93851,-0.10838,-0.158498
1.96544,0.0823764,0.0572502
1.97421,0.082744,-0.126636
1.93138,-0.107981,0.0788093
1.95383,-0.0136406,-0.0910149
1.91463,-0.107044,0.156545
1.97424,0.0758428,-0.034486
1.9198,-0.114057,-0.0559702
1.94389,-0.0203571,0
1.90864,-0.207345,-0.0223509
1.93297,-0.114839,-0.246476
1.97051,0.0756995,0.0114611
1.91635,-0.208182,-0.17994
1.90069,-0.206481,0.0222578
1.95113,-0.0204329,-0.136444
1.93812,-0.115146,-0.158498
1.96572,0.0755152,0.0572502
1.93099,-0.114722,0.0788093
1.94978,-0.0204188,-0.0908288
1.91425,-0.113727,0.156545
1.96492,0.0754846,-0.0801119
1.95936,-0.0205191,-0.0455958
1.9705,0.0688113,-0.0344161
1.92737,-0.12126,-0.0562029
1.92597,-0.121172,-0.385959
1.94781,-0.0271983,0
1.90791,-0.214006,-0.0223509
1.93652,-0.121835,-0.246981
1.96677,0.0686811,0.0114378
1.89598,-0.212668,0.0222112
1.94706,-0.0271878,-0.136165
1.93771,-0.12191,-0.158498
1.96597,0.0686532,0.0572502
1.96676,0.0686809,-0.126124
1.9525,-0.0272638,0.11372
1.92659,-0.121211,0.0786465
1.9457,-0.0271689,-0.0906426
1.91782,-0.120659,0.156871
1.96517,0.0686253,-0.0801119
1.97073,0.0619326,-0.0344161
1.92295,-0.127722,-0.0560866
1.9437,-0.0339275,0
1.90715,-0.220664,-0.0223509
1.93212,-0.128331,-0.246476
1.967,0.0618153,0.0114378
1.93171,-0.128304,-0.0112519
1.91089,-0.221097,-0.179568
1.95117,-0.0340579,0.0454097
1.89523,-0.219285,0.0222112
1.94695,-0.0339841,-0.136165
1.9662,0.0617902,0.0572502
1.963,0.0616898,-0.125868
1.92217,-0.12767,0.0784836
1.9416,-0.0338907,-0.0904565
1.94112,-0.0338824,0.238376
1.90943,-0.126824,0.15622
1.9614,0.0616396,-0.0799491
1.96694,0.0545981,-0.0343463
1.91449,-0.13421,-0.0558538
1.92506,-0.134951,-0.385959
1.94357,-0.0410513,0
1.90235,-0.227179,-0.0223043
1.93164,-0.135412,-0.246476
1.97121,0.0547165,0.0114611
1.93123,-0.135383,-0.0112519
1.91402,-0.228572,-0.17994
1.89441,-0.22623,0.0222112
1.94681,-0.0411198,-0.136165
1.96641,0.0545833,0.0572502
1.9672,0.0546054,-0.126124
1.92169,-0.134714,0.0784836
1.94146,-0.0410068,-0.0904565
1.9326,-0.135479,-0.101532
1.92908,-0.0407453,0.236914
1.90895,-0.133822,0.15622
1.96162,0.0544503,-0.0799491
1.97112,0.0478289,-0.0344161
1.92198,-0.141479,-0.0560866
1.92458,-0.14167,-0.385959
1.94341,-0.0478354,0
1.89758,-0.23333,-0.0222578
1.93115,-0.142154,-0.246476
1.96739,0.0477383,0.0114378
1.92675,-0.14183,-0.0112286
1.90926,-0.234766,-0.179568
1.89361,-0.232841,0.0222112
1.94666,-0.0479152,-0.136165
1.93233,-0.14224,-0.158173
1.9546,0.047428,0.0569011
1.96738,0.0477382,-0.126124
1.9212,-0.141422,0.0784836
1.93731,-0.0476852,-0.0902704
1.92893,-0.0474788,0.236914
1.96327,0.0411246,-0.0342765
1.91752,-0.147545,-0.0559702
1.94324,-0.0542797,0
1.90076,-0.240122,-0.0223043
1.92276,-0.147948,-0.245465
1.95954,0.0410464,0.0113914
1.89679,-0.239621,0.0222578
1.93851,-0.0541475,-0.135607
1.93184,-0.148647,-0.158173
1.95474,0.040946,0.0569011
1.96753,0.0412139,-0.126124
1.92072,-0.147792,0.0784836
1.94513,-0.0543324,-0.0906426
1.94066,-0.0542076,0.238376
1.90402,-0.146506,0.155894
1.95795,0.0410131,-0.0797863
1.9634,0.0342713,-0.0342765
1.91699,-0.154237,-0.0559702
1.92357,-0.154766,-0.385959
1.89991,-0.246756,-0.0223043
1.92618,-0.154977,-0.245971
1.95967,0.0342061,0.0113914
1.92176,-0.154621,-0.0112054
1.93584,-0.0608362,-0.208625
1.90388,-0.247271,0.0223509
1.94628,-0.0611644,-0.136165
1.95887,0.0341922,0.0570174
1.9215,-0.1546,0.0336482
1.95968,0.0342064,-0.125613
1.91621,-0.154175,0.0783208
1.94094,-0.0609964,-0.0904565
1.93649,-0.0608568,0.237889
1.95408,0.0341086,-0.0796234
1.94651,-0.0611716,-0.0453166
1.95551,0.0273059,-0.0341369
1.91246,-0.160593,-0.0558538
1.91911,-0.161152,-0.385174
1.94282,-0.0678446,0
1.92168,-0.161368,-0.245465
1.95578,0.0273096,0.0113681
1.91722,-0.160993,-0.0111821
1.90279,-0.253887,-0.179196
1.94229,-0.0678263,0.0452235
1.89508,-0.252857,0.0222578
1.94606,-0.0679579,-0.136165
1.95498,0.0272985,0.0569011
1.9558,0.0273099,-0.125357
1.91168,-0.160528,0.078158
1.9447,-0.0679106,-0.0906426
1.90295,-0.159795,0.155894
1.95419,0.0272874,-0.0796234
1.94229,-0.0678263,-0.0452235
1.96359,0.0205635,-0.0342765
1.9079,-0.16692,-0.0557375
1.91462,-0.167508,-0.38439
1.93457,-0.0743188,0
1.92901,-0.168766,-0.246476
1.95586,0.0204825,0.0113681
1.90189,-0.260527,-0.179196
1.94204,-0.0746057,0.0452235
1.89418,-0.259471,0.0222578
1.94182,-0.0745973,-0.135886
1.95507,0.0204742,0.0569011
1.96386,0.0205663,-0.125868
1.91509,-0.167549,0.0783208
1.93647,-0.0743917,-0.0902704
1.92201,-0.168154,-0.101113
1.90238,-0.166437,0.155894
1.95427,0.0204658,-0.0796234
1.94604,-0.0747592,-0.0453166
1.95565,0.0136533,-0.0341369
1.91129,-0.173941,-0.0558538
1.91403,-0.17419,-0.38439
1.9383,-0.0812388,0
1.92841,-0.175499,-0.246476
1.95192,0.0136272,0.0113449
1.92003,-0.174737,-0.0112054
1.90492,-0.267719,-0.179568
1.89723,-0.266638,0.0223043
1.93756,-0.081208,-0.135607
1.92561,-0.175244,-0.157847
1.95113,0.0136216,0.0567847
1.95993,0.0136831,-0.125613
1.91051,-0.17387,0.078158
1.93221,-0.0809835,-0.0900843
1.90179,-0.173076,0.155894
1.95433,0.013644,-0.0796234
1.95969,0.00684065,-0.0342067
1.90669,-0.180235,-0.0557375
1.91341,-0.18087,-0.38439
1.93401,-0.0878227,0
1.89628,-0.273259,-0.0223043
1.91198,-0.180735,-0.244455
1.95196,0.00681365,0.0113449
1.89232,-0.272688,0.0222578
1.93727,-0.0879708,-0.135607
1.95116,0.00681088,0.0567847
1.95598,0.00682768,-0.125357
1.90989,-0.180538,0.078158
1.9359,-0.0879089,-0.0902704
1.95037,0.00680811,-0.0794606
1.9517,0.000681275,-0.0340671
1.90611,-0.186224,-0.0557375
1.91283,-0.186881,-0.38439
1.92973,-0.0937041,0
1.88354,-0.277466,-0.0221646
1.9193,-0.187513,-0.245465
1.95197,0.000681368,0.0113449
1.91485,-0.187078,-0.0111821
1.8875,-0.278049,0.0222112
1.93698,-0.0940565,-0.135607
1.94718,0.000679695,0.0566684
1.95998,0.000684164,-0.125613
1.9133,-0.186926,0.0783208
1.93163,-0.0937965,-0.0900843
1.89663,-0.185298,0.155569
1.95038,0.000680814,-0.0794606
1.93719,-0.0940667,-0.0451305
1.94769,-0.00611888,-0.0339973
1.91217,-0.193556,-0.38439
1.93338,-0.100648,0
1.88652,-0.284636,-0.0222112
1.91864,-0.194211,-0.245465
1.95196,-0.00613228,0.0113449
1.91419,-0.193761,-0.0111821
1.89423,-0.285799,-0.178824
1.89047,-0.285232,0.0222578
1.93664,-0.100817,-0.135607
1.94317,-0.00610467,0.056552
1.95199,-0.00613237,-0.125101
1.90468,-0.192799,0.0779952
1.9273,-0.100331,-0.0898981
1.91954,-0.194303,-0.101113
1.89597,-0.191917,0.155569
1.95037,-0.0061273,-0.0794606
1.94766,-0.0132575,-0.0339973
1.92901,-0.10751,0
1.89337,-0.292771,-0.0223043
1.91396,-0.200828,-0.24496
1.95192,-0.0132865,0.0113449
1.89711,-0.293349,-0.179196
1.88151,-0.290937,0.0221646
1.92829,-0.107471,-0.135049
1.94713,-0.0132539,0.0566684
1.95594,-0.0133139,-0.125357
1.89998,-0.199361,0.0778323
1.92293,-0.107172,-0.089712
1.93048,-0.107593,0.237402
1.89129,-0.198449,0.155243
1.95034,-0.0132757,-0.0794606
1.9516,-0.0204378,-0.0340671
1.90399,-0.206839,-0.0557375
1.92461,-0.114343,0
1.88438,-0.298457,-0.0222112
1.91322,-0.207842,-0.24496
1.94386,-0.0203568,0.0112984
1.89209,-0.299677,-0.178824
1.87648,-0.297205,0.0221181
1.92788,-0.114537,-0.135049
1.94307,-0.0203485,0.056552
1.95588,-0.0204827,-0.125357
1.89924,-0.206324,0.0778323
1.9305,-0.114693,-0.0900843
1.9141,-0.207937,-0.100904
1.92611,-0.114432,0.236914
1.89055,-0.20538,0.155243
1.94628,-0.0203821,-0.0792978
1.95151,-0.02725,-0.0340671
1.90723,-0.21393,-0.0558538
1.92819,-0.121311,0
1.88728,-0.305672,-0.0222578
1.91248,-0.214519,-0.24496
1.94378,-0.027142,0.0112984
1.89496,-0.306917,-0.179196
1.88333,-0.305033,0.0222112
1.93146,-0.121517,-0.135328
1.91359,-0.214644,-0.157196
1.94299,-0.027131,0.056552
1.94781,-0.0271984,-0.124845
1.90248,-0.213397,0.0779952
1.93009,-0.121431,-0.0900843
1.9422,-0.02712,-0.079135
1.94342,-0.0332439,-0.0339275
1.8986,-0.219004,-0.0556211
1.90538,-0.219786,-0.383605
1.93179,-0.127632,0
1.90785,-0.220071,-0.244455
1.94368,-0.0332484,0.0112984
1.89399,-0.312868,-0.179196
1.88236,-0.310948,0.0222112
1.93106,-0.127584,-0.135328
1.9389,-0.0331665,0.0564356
1.95171,-0.0333857,-0.125101
1.89112,-0.312395,-0.111627
1.92852,-0.127416,0.112557
1.9018,-0.219373,0.0779952
1.93368,-0.127757,-0.0902704
1.88915,-0.217914,0.155243
1.9421,-0.0332214,-0.079135
1.92728,-0.127334,-0.0449444
1.94729,-0.0401099,-0.0339973
1.89386,-0.225158,-0.0555047
1.92734,-0.134097,0
1.88521,-0.318182,-0.0222578
1.90313,-0.226261,-0.24395
1.93556,-0.0398682,0.0112519
1.88896,-0.318815,-0.178824
1.88126,-0.317517,0.0222112
1.92663,-0.134047,-0.135049
1.94277,-0.0400167,0.056552
1.90628,-0.226636,0.0335086
1.93961,-0.0399517,-0.124333
1.89002,-0.318995,-0.111627
1.92408,-0.13387,0.112325
1.89309,-0.225067,0.0776695
1.92127,-0.133674,-0.089712
1.89233,-0.224977,0.155569
1.94597,-0.0400827,-0.0792978
1.93081,-0.134338,-0.0450374
1.93914,-0.0467143,-0.0338577
1.9038,-0.233083,-0.383605
1.91489,-0.139949,0
1.87226,-0.322723,-0.0221181
1.91021,-0.233867,-0.24496
1.9394,-0.0467206,0.0112751
1.90574,-0.23332,-0.0111589
1.88783,-0.325407,-0.178824
1.88014,-0.324081,0.0222112
1.92217,-0.140481,-0.134769
1.91132,-0.234004,-0.157196
1.93862,-0.0467017,0.0564356
1.94744,-0.0469142,-0.124845
1.9236,-0.140585,0.112325
1.89229,-0.231673,0.0776695
1.9168,-0.140089,-0.0895259
1.90712,-0.23349,-0.100694
1.92042,-0.140353,0.236427
1.94183,-0.046779,-0.079135
1.92235,-0.140494,-0.0448513
1.94297,-0.0535932,-0.0339275
1.88827,-0.237874,-0.0553884
1.91838,-0.146938,0
1.87506,-0.329949,-0.0221646
1.90938,-0.240534,-0.24496
1.94323,-0.0536004,0.0112984
1.91924,-0.147004,-0.20734
1.879,-0.330642,0.0222112
1.92564,-0.147494,-0.135049
1.91049,-0.240674,-0.157196
1.93045,-0.0532479,0.0562029
1.93928,-0.0534916,-0.124333
1.8875,-0.237778,0.0775067
1.92029,-0.147084,-0.089712
1.90233,-0.239646,-0.100485
1.92584,-0.147509,-0.0449444
1.93877,-0.0602508,-0.0338577
1.89536,-0.245491,-0.0556211
1.89824,-0.245864,-0.382821
1.91786,-0.153633,0
1.87784,-0.337199,-0.0222112
1.9046,-0.246688,-0.244455
1.93903,-0.060259,0.0112751
1.91872,-0.153702,-0.20734
1.88551,-0.338578,-0.178824
1.8739,-0.336492,0.0221646
1.91716,-0.153578,-0.13449
1.93425,-0.0601103,0.0563193
1.94307,-0.0603846,-0.124589
1.91976,-0.153786,-0.089712
1.93746,-0.0602101,-0.0789721
1.93455,-0.0668799,-0.0337879
1.89449,-0.252106,-0.0556211
1.89737,-0.252489,-0.382821
1.91731,-0.160327,0
1.86484,-0.34159,-0.0220715
1.89586,-0.252288,-0.243445
1.93481,-0.0668889,0.0112519
1.90319,-0.253264,-0.0111589
1.88432,-0.345158,-0.178824
1.86878,-0.342311,0.0221181
1.92059,-0.160601,-0.134769
1.93403,-0.0668617,0.0563193
1.89897,-0.252702,0.0334388
1.93886,-0.0670289,-0.124333
1.89372,-0.252004,0.0778323
1.91921,-0.160486,-0.089712
1.93723,-0.0669727,-0.0789721
1.92077,-0.160617,-0.0448513
1.92631,-0.073328,-0.0336482
1.88568,-0.257635,-0.0553884
1.90036,-0.259641,-0.383605
1.91275,-0.166671,0
1.87937,-0.351035,-0.0222578
1.8989,-0.259441,-0.24395
1.93457,-0.0736422,0.0112519
1.90968,-0.166403,-0.206483
1.8831,-0.351733,-0.178824
1.8715,-0.349566,0.0221646
1.92399,-0.167651,-0.135049
1.93378,-0.0736123,0.0563193
1.93862,-0.0737964,-0.124333
1.88887,-0.258071,0.0776695
1.91466,-0.166838,-0.0895259
1.94098,-0.0738865,-0.079135
1.92419,-0.167668,-0.0449444
1.94204,-0.080377,-0.0339275
1.88877,-0.264441,-0.0555047
1.89172,-0.264854,-0.382037
1.90821,-0.172653,0
1.87819,-0.357265,-0.0222578
1.89409,-0.265186,-0.243445
1.93831,-0.0802225,0.0112751
1.88193,-0.357976,-0.178824
1.87426,-0.356518,0.0222112
1.91151,-0.172951,-0.134211
1.93353,-0.0800246,0.0563193
1.93836,-0.0802247,-0.124333
1.88009,-0.263225,0.0773438
1.90614,-0.172466,-0.0891536
1.89885,-0.265852,-0.100485
1.93274,-0.0799921,-0.0788093
1.93775,-0.0869762,-0.0338577
1.88388,-0.270464,-0.0553884
1.91556,-0.180061,0
1.86515,-0.361536,-0.0221181
1.89709,-0.27236,-0.24395
1.93402,-0.0868086,0.0112519
1.89652,-0.272279,-0.0111356
1.87676,-0.363785,-0.178453
1.87301,-0.363058,0.0222112
1.91486,-0.179996,-0.13449
1.89421,-0.271948,-0.15622
1.92125,-0.0862355,0.0559702
1.93807,-0.0869903,-0.124333
1.91629,-0.180131,0.112092
1.88311,-0.270354,0.0775067
1.91348,-0.179866,-0.0895259
1.89791,-0.272479,-0.100485
1.93245,-0.0867381,-0.0788093
1.93344,-0.0935464,-0.0337879
1.88688,-0.277621,-0.0555047
1.91093,-0.186359,0
1.87173,-0.369594,-0.0222112
1.89612,-0.278981,-0.24395
1.92172,-0.0929792,0.0111821
1.91182,-0.186445,-0.206912
1.87938,-0.371105,-0.178824
1.92217,-0.187454,-0.135049
1.8972,-0.279139,-0.156545
1.92893,-0.0933278,0.0562029
1.89135,-0.278278,0.033369
1.93377,-0.093562,-0.124078
1.88611,-0.277508,0.0776695
1.91284,-0.186545,-0.0895259
1.89695,-0.279102,-0.100485
1.92814,-0.09329,-0.0786465
1.91838,-0.187084,-0.0448513
1.92512,-0.0998804,-0.0336482
1.88194,-0.283609,-0.0553884
1.88884,-0.284649,-0.382037
1.91027,-0.193028,0
1.86259,-0.374548,-0.0221181
1.89121,-0.285006,-0.243445
1.92538,-0.0998939,0.0112054
1.89062,-0.284917,-0.0111124
1.87417,-0.376878,-0.178453
1.86651,-0.375337,0.0221646
1.91356,-0.19336,-0.13449
1.9246,-0.0998534,0.0560866
1.89036,-0.284878,0.033369
1.92944,-0.100105,-0.123822
1.88513,-0.28409,0.0776695
1.9082,-0.192819,-0.0893398
1.89596,-0.285722,-0.100485
1.92781,-0.10002,-0.0786465
1.91373,-0.193378,-0.0447583
1.92476,-0.1066,-0.0336482
1.87699,-0.289567,-0.055272
1.88784,-0.291241,-0.382037
1.90561,-0.199279,0
1.86127,-0.381048,-0.0221181
1.89413,-0.292211,-0.24395
1.92502,-0.106614,0.0112054
1.86894,-0.382619,-0.178081
1.86127,-0.381048,0.0221181
1.91287,-0.200038,-0.13449
1.93222,-0.107013,0.0563193
1.88936,-0.291475,0.033369
1.93307,-0.10706,-0.124078
1.88018,-0.290059,0.0775067
1.90354,-0.199063,-0.0891536
1.92744,-0.106749,-0.0786465
1.90907,-0.199641,-0.0446652
1.92837,-0.113553,-0.033718
1.87992,-0.296741,-0.0553884
1.90092,-0.205499,0
1.86384,-0.388358,-0.0221646
1.89702,-0.29944,-0.244455
1.92863,-0.113568,0.0112286
1.90185,-0.2056,-0.206055
1.8676,-0.389141,-0.178081
1.90836,-0.206303,0.0446652
1.90423,-0.205857,-0.133932
1.91986,-0.113052,0.0559702
1.9287,-0.113572,-0.123822
1.87254,-0.390171,-0.111394
1.90962,-0.206439,0.111859
1.87916,-0.29662,0.0775067
1.90681,-0.206136,-0.0893398
1.88997,-0.298328,-0.100276
1.92706,-0.113476,-0.0786465
1.90836,-0.206303,-0.0446652
1.92392,-0.120706,-0.0336482
1.88271,-0.304596,-0.0555047
1.90012,-0.212797,0
1.8506,-0.393019,-0.0220249
1.89194,-0.306088,-0.24395
1.92418,-0.120722,0.0112054
1.88743,-0.305358,-0.0111124
1.90105,-0.212901,-0.206055
1.86998,-0.397136,-0.178453
1.90739,-0.213611,-0.134211
1.89301,-0.306261,-0.156545
1.91941,-0.120423,0.0559702
1.88717,-0.305317,0.033369
1.92825,-0.120977,-0.123822
1.86712,-0.396529,-0.111162
1.87406,-0.303195,0.0773438
1.90601,-0.213456,-0.0893398
1.88881,-0.305583,-0.100276
1.92262,-0.120624,-0.0784836
1.91153,-0.214075,-0.0447583
1.92353,-0.126749,-0.0336482
1.8778,-0.309858,-0.0553884
1.88081,-0.310355,-0.381252
1.90342,-0.219223,0
1.85717,-0.400518,-0.0221181
1.88705,-0.311384,-0.243445
1.9198,-0.126504,0.0111821
1.88646,-0.311286,-0.0111124
1.87262,-0.403848,-0.178824
1.90671,-0.219602,-0.134211
1.89204,-0.312207,-0.156545
1.91503,-0.126189,0.0558538
1.8862,-0.311244,0.033369
1.92387,-0.126772,-0.123566
1.87704,-0.309732,0.0775067
1.90136,-0.218986,-0.0891536
1.89179,-0.312166,-0.100485
1.92223,-0.126664,-0.0784836
1.92308,-0.133463,-0.0336482
1.87671,-0.316411,-0.0553884
1.87972,-0.316918,-0.381252
1.89867,-0.225394,0
1.85967,-0.407855,-0.0221646
1.88204,-0.31731,-0.24294
1.91935,-0.133204,0.0111821
1.87747,-0.316539,-0.0110659
1.89565,-0.225036,-0.205626
1.8712,-0.410383,-0.178824
1.90197,-0.225786,-0.133932
1.91857,-0.13315,0.0559702
1.88116,-0.317161,0.0332992
1.92342,-0.133486,-0.123566
1.90058,-0.225621,-0.0891536
1.91779,-0.133096,-0.0783208
1.90213,-0.225805,-0.0445722
1.91463,-0.139593,-0.0335086
1.87559,-0.32296,-0.0553884
1.8786,-0.323478,-0.381252
1.89787,-0.23202,0
1.85433,-0.413473,-0.0221181
1.88483,-0.32455,-0.243445
1.9109,-0.139321,0.0111356
1.8803,-0.32377,-0.0110891
1.8988,-0.232134,-0.206055
1.85809,-0.414312,-0.177709
1.89736,-0.231958,0.0444791
1.90513,-0.232908,-0.134211
1.91411,-0.139556,0.0558538
1.8761,-0.323047,0.0332294
1.92294,-0.1402,-0.123566
1.90259,-0.232597,0.111627
1.90375,-0.232739,-0.0893398
1.92529,-0.140371,-0.0786465
1.90133,-0.232443,-0.0445722
1.92609,-0.14719,-0.033718
1.86658,-0.32812,-0.0551557
1.87746,-0.330034,-0.381252
1.89705,-0.238644,0
1.84508,-0.418175,-0.0220249
1.88759,-0.331815,-0.24395
1.91837,-0.1466,0.0111821
1.87522,-0.329639,-0.0110659
1.89403,-0.238264,-0.205626
1.86052,-0.421675,-0.178081
1.90035,-0.239059,-0.133932
1.88866,-0.332003,-0.156545
1.91361,-0.146236,0.0558538
1.88284,-0.330979,0.033369
1.92642,-0.147215,-0.123822
1.86545,-0.422792,-0.111394
1.90176,-0.239237,0.111627
1.89499,-0.238385,-0.0889675
1.88448,-0.331267,-0.100276
1.9208,-0.146786,-0.0784836
1.90447,-0.239578,-0.0446652
1.91759,-0.153275,-0.0335784
1.87329,-0.336046,-0.0553884
1.89224,-0.244751,0
1.88642,-0.338402,-0.24395
1.91386,-0.152977,0.0111589
1.87405,-0.336182,-0.0110659
1.89319,-0.244874,-0.205626
1.8995,-0.245691,-0.133932
1.88357,-0.337889,-0.15622
1.87774,-0.336843,0.0332992
1.92191,-0.153621,-0.123566
1.89415,-0.244999,-0.0889675
1.88331,-0.337843,-0.100276
1.91231,-0.152853,-0.078158
1.90362,-0.246224,-0.0446652
1.92106,-0.159965,-0.0336482
1.87217,-0.342256,-0.0553884
1.89141,-0.251025,0
1.87358,-0.342515,-0.242435
1.91335,-0.159323,0.0111589
1.87686,-0.343115,-0.0110891
1.90025,-0.252197,-0.206483
1.86148,-0.435236,-0.178453
1.89867,-0.251988,-0.133932
1.88244,-0.344133,-0.15622
1.90858,-0.158927,0.0557375
1.86481,-0.34091,0.0330898
1.91742,-0.159662,-0.12331
1.90125,-0.25233,-0.0893398
1.88218,-0.344087,-0.100276
1.91179,-0.159194,-0.078158
1.90853,-0.165633,-0.0334388
1.8631,-0.347324,-0.0551557
1.88656,-0.257085,0
1.91278,-0.166001,0.0111589
1.86779,-0.348198,-0.0110426
1.89148,-0.257755,-0.205626
1.85995,-0.441732,-0.178453
1.89778,-0.258614,-0.133932
1.90802,-0.165588,0.0557375
1.87147,-0.348884,0.0332294
1.91685,-0.166354,-0.12331
1.89129,-0.257729,0.111162
1.8964,-0.258426,-0.0891536
1.88097,-0.350655,-0.100276
1.90724,-0.165521,-0.0779952
1.9019,-0.259176,-0.0446652
1.90794,-0.172294,-0.0334388
1.88962,-0.264223,0
1.87504,-0.356327,-0.24294
1.91219,-0.172677,0.0111589
1.86263,-0.353969,-0.0110194
1.88663,-0.263805,-0.205198
1.85453,-0.447287,-0.178081
1.89703,-0.265259,0.0445722
1.89292,-0.264685,-0.133653
1.91141,-0.172607,0.0558538
1.86631,-0.354667,0.0331596
1.9083,-0.172326,-0.122798
1.89433,-0.264882,0.111394
1.88757,-0.263937,-0.0887814
1.87973,-0.357218,-0.100276
1.91063,-0.172536,-0.078158
1.89703,-0.265259,-0.0445722
1.90733,-0.178953,-0.0334388
1.86063,-0.360322,-0.0551557
1.88472,-0.27025,0
1.87379,-0.36287,-0.24294
1.90759,-0.178977,0.0111356
1.87709,-0.36351,-0.0111124
1.88963,-0.270953,-0.205626
1.85296,-0.453758,-0.178081
1.89609,-0.271879,0.0445722
1.88803,-0.270724,-0.133374
1.90681,-0.178904,0.0557375
1.86506,-0.36118,0.0331596
1.91564,-0.179732,-0.12331
1.89339,-0.271493,0.111394
1.88664,-0.270524,-0.0887814
1.87455,-0.363018,-0.100066
1.914,-0.179578,-0.0783208
1.90666,-0.185942,-0.0334388
1.8593,-0.367139,-0.0551557
1.88372,-0.277156,0
1.87245,-0.369735,-0.24294
1.9109,-0.186355,0.0111589
1.87182,-0.369613,-0.0110891
1.88862,-0.277877,-0.205626
1.85128,-0.460547,-0.178081
1.88703,-0.277642,-0.133374
1.87738,-0.370711,-0.15622
1.91497,-0.186752,-0.12331
1.88959,-0.278019,-0.0889675
1.87321,-0.369886,-0.100066
1.90935,-0.186204,-0.078158
1.91001,-0.192665,-0.0335086
1.88675,-0.283996,0
1.87121,-0.375943,-0.24294
1.90231,-0.191888,0.0111124
1.86275,-0.374242,-0.0110426
1.88376,-0.283547,-0.205198
1.84974,-0.466683,-0.178081
1.89399,-0.285086,-0.133932
1.87614,-0.376934,-0.15622
1.89756,-0.191409,0.0555047
1.91037,-0.192701,-0.123054
1.88865,-0.284283,-0.0889675
1.87197,-0.376096,-0.100066
1.90475,-0.192134,-0.0779952
1.8974,-0.198085,-0.0332992
1.86067,-0.380587,-0.055272
1.88179,-0.289971,0
1.86211,-0.380882,-0.24193
1.89765,-0.198112,0.0110891
1.85751,-0.379941,-0.0110194
1.8481,-0.473137,-0.178081
1.88904,-0.291088,-0.133653
1.87482,-0.383481,-0.15622
1.90086,-0.198447,0.0556211
1.90968,-0.199368,-0.123054
1.853,-0.47439,-0.111394
1.8837,-0.290266,-0.0887814
1.86674,-0.381828,-0.099857
1.90009,-0.198366,-0.0778323
1.89314,-0.29172,-0.0445722
1.90461,-0.205898,-0.0334388
1.87676,-0.296243,0
1.86459,-0.388514,-0.242435
1.90089,-0.205496,0.0111124
1.86002,-0.387562,-0.0110426
1.84636,-0.479908,-0.178081
1.88811,-0.298033,0.0444791
1.88796,-0.29801,-0.133653
1.8695,-0.389537,-0.155894
1.9041,-0.205842,0.0557375
1.901,-0.205508,-0.122543
1.88262,-0.297168,-0.0887814
1.86923,-0.389482,-0.100066
1.90332,-0.205759,-0.0779952
1.89206,-0.298657,-0.0445722
1.90392,-0.212213,-0.0334388
1.85406,-0.392739,-0.0551557
1.87972,-0.303102,0
1.86717,-0.395517,-0.24294
1.9002,-0.211798,0.0111124
1.85481,-0.392899,-0.0110194
1.84861,-0.487042,-0.178453
1.88302,-0.303634,-0.133374
1.87209,-0.39656,-0.15622
1.89943,-0.211712,0.0556211
1.90824,-0.212695,-0.123054
1.88163,-0.303409,-0.0887814
1.86012,-0.394023,-0.0996477
1.90263,-0.212069,-0.0779952
1.90317,-0.218857,-0.0334388
1.87076,-0.30836,0
1.86578,-0.402032,-0.24294
1.89548,-0.217973,0.0110891
1.84952,-0.398529,-0.0109961
1.87962,-0.309821,-0.205198
1.84305,-0.492464,-0.178081
1.88603,-0.310878,0.0444791
1.88195,-0.310205,-0.133374
1.8629,-0.401413,-0.155569
1.89073,-0.217428,0.0553884
1.90352,-0.218899,-0.122798
1.88056,-0.309976,-0.0887814
1.86654,-0.402196,-0.100066
1.90188,-0.218709,-0.0779952
1.90636,-0.22597,-0.0335086
1.87361,-0.315553,0
1.85661,-0.406844,-0.24193
1.8746,-0.315719,-0.20477
1.84901,-0.500978,-0.178824
1.87692,-0.316109,-0.133095
1.86149,-0.407913,-0.155569
1.89482,-0.224602,-0.122287
1.87552,-0.315874,-0.0885953
1.86903,-0.409564,-0.100276
1.89713,-0.224876,-0.0778323
1.88888,-0.318124,-0.0445722
1.88968,-0.230685,-0.0332294
1.87644,-0.322769,0
1.88994,-0.230716,0.0110659
1.87349,-0.322261,-0.20477
1.84725,-0.507429,-0.178824
1.87974,-0.323336,-0.133374
1.86006,-0.414409,-0.155569
1.89799,-0.231699,-0.122543
1.84444,-0.506657,-0.111394
1.87835,-0.323097,-0.0887814
1.86759,-0.416086,-0.100276
1.89237,-0.231013,-0.0776695
1.88886,-0.23728,-0.0332294
1.8753,-0.329317,0
1.85373,-0.419795,-0.24193
1.88912,-0.237312,0.0110659
1.83779,-0.511737,-0.178081
1.87467,-0.329205,-0.133095
1.86249,-0.421779,-0.155894
1.88835,-0.237215,0.0553884
1.87721,-0.329651,-0.0887814
1.85833,-0.420838,-0.099857
1.89948,-0.238613,-0.0779952
1.88267,-0.330611,-0.0444791
1.88803,-0.243871,-0.0332294
1.87021,-0.335155,0
1.85225,-0.426264,-0.24193
1.89225,-0.244417,0.0110891
1.87119,-0.335332,-0.20477
1.88151,-0.337181,0.0444791
1.87351,-0.335747,-0.133095
1.85712,-0.427384,-0.155569
1.88355,-0.243293,0.055272
1.89632,-0.244943,-0.122543
1.86818,-0.334792,-0.0884091
1.85685,-0.427322,-0.099857
1.89864,-0.245242,-0.0779952
1.89509,-0.251513,-0.033369
1.84543,-0.431482,-0.0551557
1.86902,-0.341682,0
1.85461,-0.43363,-0.242435
1.89138,-0.251021,0.0110891
1.87639,-0.343027,0.0443861
1.8595,-0.434772,-0.155894
1.8915,-0.251036,-0.122287
1.85535,-0.433801,-0.099857
1.88589,-0.250291,-0.0775067
1.87639,-0.343027,-0.0443861
1.8942,-0.258126,-0.033369
1.8478,-0.438845,-0.055272
1.84923,-0.439184,-0.24193
1.88257,-0.256541,0.0110426
1.86881,-0.348388,-0.20477
1.87125,-0.348842,0.044293
1.87112,-0.348818,-0.133095
1.85409,-0.440339,-0.155569
1.88666,-0.257098,-0.122031
1.86973,-0.348559,-0.0885953
1.84993,-0.439352,-0.0996477
1.88896,-0.257412,-0.0776695
1.88537,-0.263629,-0.0332294
1.84626,-0.445292,-0.055272
1.87052,-0.355468,0
1.88166,-0.263111,0.0110426
1.86758,-0.354909,-0.20477
1.86597,-0.354602,-0.132816
1.85642,-0.447743,-0.155894
1.88575,-0.263682,-0.122031
1.8685,-0.355083,-0.0885953
1.85616,-0.44768,-0.100066
1.89201,-0.264558,-0.0778323
1.87002,-0.355372,-0.044293
1.88444,-0.270209,-0.0332294
1.86534,-0.361235,0
1.88469,-0.270245,0.0110659
1.86864,-0.361872,-0.133095
1.8471,-0.452323,-0.155243
1.88482,-0.270263,-0.122031
1.86332,-0.360844,-0.0884091
1.85458,-0.454156,-0.100066
1.88316,-0.270026,-0.0775067
1.87269,-0.362658,-0.0443861
1.88348,-0.276785,-0.0332294
1.85622,-0.366196,0
1.88769,-0.277404,0.0110891
1.85324,-0.460692,-0.155894
1.87902,-0.276129,0.055272
1.88386,-0.276841,-0.122031
1.86205,-0.367346,-0.0884091
1.85299,-0.460627,-0.100066
1.88616,-0.277179,-0.0776695
1.86749,-0.368418,-0.044293
1.88651,-0.283624,-0.0332992
1.855,-0.372349,0
1.88281,-0.283068,0.0110659
1.86613,-0.374583,-0.133095
1.84398,-0.464886,-0.155243
1.88688,-0.28368,-0.122287
1.86082,-0.373518,-0.0884091
1.84757,-0.465793,-0.099857
1.87018,-0.375396,-0.0443861
1.88551,-0.290207,-0.0332992
1.85369,-0.378822,0
1.87786,-0.28903,0.0110426
1.86481,-0.381095,-0.133095
1.83848,-0.470331,-0.154918
1.88193,-0.289657,-0.122031
1.85559,-0.379212,-0.088223
1.84594,-0.472239,-0.099857
1.88028,-0.289403,-0.0775067
1.86494,-0.381121,-0.044293
1.87288,-0.29496,0.0110194
1.86117,-0.387124,-0.20477
1.86738,-0.388415,-0.133374
1.84454,-0.478749,-0.155569
1.88091,-0.296225,-0.122031
1.85817,-0.3865,-0.0884091
1.84814,-0.479684,-0.100066
1.87531,-0.295343,-0.0773438
1.8636,-0.387629,-0.044293
1.87554,-0.302091,-0.0331596
1.851,-0.391754,0
1.87184,-0.301496,0.0110194
1.85592,-0.392794,-0.204341
1.8621,-0.394104,-0.133095
1.83901,-0.48417,-0.155243
1.87503,-0.302009,0.055272
1.87986,-0.302788,-0.122031
1.83873,-0.484098,-0.0996477
1.87821,-0.302522,-0.0775067
1.85441,-0.392476,-0.0441069
1.87842,-0.309286,-0.0332294
1.87473,-0.308678,0.0110426
1.85453,-0.399271,-0.204341
1.85682,-0.399762,-0.132816
1.84116,-0.491615,-0.155569
1.87396,-0.308553,0.055272
1.8788,-0.309348,-0.122031
1.87715,-0.309077,-0.0775067
1.85694,-0.399788,-0.0442
1.87733,-0.315841,-0.0332294
1.85714,-0.406619,-0.295772
1.87364,-0.31522,0.0110426
1.85931,-0.407095,-0.133095
1.83943,-0.498039,-0.155569
1.87377,-0.315243,-0.121775
1.85012,-0.405083,-0.088223
1.87212,-0.314964,-0.0773438
1.85553,-0.406268,-0.0442
1.87621,-0.322392,-0.0332294
1.87252,-0.321759,0.0110426
1.8517,-0.412208,-0.204341
1.85788,-0.413582,-0.133095
1.82999,-0.502346,-0.154918
1.86782,-0.320951,0.0551557
1.87266,-0.321781,-0.121775
1.85259,-0.412407,-0.0884091
1.86191,-0.41448,-0.0443861
1.8672,-0.327558,-0.0330898
1.87927,-0.329675,0.0110891
1.85642,-0.420065,-0.133095
1.83591,-0.510868,-0.155569
1.87152,-0.328316,-0.121775
1.85114,-0.418871,-0.0884091
1.87381,-0.328717,-0.0775067
1.85265,-0.419212,-0.0442
1.86998,-0.334778,-0.0331596
1.87023,-0.334823,0.0110426
1.85494,-0.426542,-0.133095
1.84179,-0.519438,-0.15622
1.87036,-0.334847,-0.121775
1.84578,-0.424435,-0.088223
1.87265,-0.335256,-0.0775067
1.85507,-0.426572,-0.044293
1.8688,-0.341303,-0.0331596
1.86512,-0.340631,0.0110194
1.84728,-0.431576,-0.204341
1.8323,-0.523673,-0.155569
1.87311,-0.342091,-0.122031
1.85206,-0.432693,-0.0885953
1.87147,-0.34179,-0.0775067
1.84968,-0.432135,-0.0442
1.86367,-0.347092,-0.0330898
1.86785,-0.347872,0.0110426
1.8535,-0.439858,-0.205198
1.84415,-0.437639,-0.132537
1.87191,-0.348627,-0.122031
1.85054,-0.439155,-0.0885953
1.86633,-0.347589,-0.0773438
1.84816,-0.438589,-0.0442
1.86637,-0.354342,-0.0331596
1.84809,-0.445393,-0.20477
1.84649,-0.445009,-0.132816
1.86283,-0.35367,-0.121519
1.85288,-0.446548,-0.0887814
1.86132,-0.359445,-0.0330898
1.85765,-0.358735,0.0109961
1.84282,-0.450253,-0.204341
1.85284,-0.452702,-0.133374
1.86171,-0.359521,-0.121519
1.85147,-0.452367,-0.0887814
1.86006,-0.359202,-0.077181
1.86024,-0.366314,0.0110194
1.84116,-0.457004,-0.204341
1.8473,-0.458528,-0.133095
1.8643,-0.367113,-0.121775
1.84205,-0.457225,-0.0884091
1.86266,-0.366789,-0.0773438
1.86288,-0.373592,0.0110426
1.84568,-0.464974,-0.133095
1.86301,-0.373618,-0.121775
1.84431,-0.464628,-0.0885953
1.86528,-0.374075,-0.0775067
1.86137,-0.379716,-0.0331596
1.86163,-0.379767,0.0110426
1.84413,-0.471092,-0.133095
1.86176,-0.379794,-0.121775
1.84663,-0.471731,-0.0887814
1.8562,-0.37866,-0.077181
1.85606,-0.385722,-0.0330898
1.84012,-0.477258,-0.20477
1.84239,-0.477848,-0.133095
1.83716,-0.476489,-0.0884091
1.8548,-0.385461,-0.077181
1.85477,-0.391875,-0.0330898
1.85007,-0.486391,-0.206055
1.84852,-0.485984,-0.133653
1.85516,-0.391957,-0.121519
1.84329,-0.484611,-0.0887814
1.85351,-0.39161,-0.077181
1.85339,-0.398347,-0.0330898
1.84295,-0.491405,-0.133374
1.85378,-0.398431,-0.121519
1.85995,-0.399757,-0.0775067
1.82958,-0.49503,-0.132537
1.85066,-0.404863,-0.077181
1.85063,-0.410953,-0.0330898
1.83572,-0.502884,-0.133095
1.85492,-0.411905,-0.121775
1.83011,-0.508221,-0.132816
1.82814,-0.515245,-0.132816
1.84632,-0.42422,-0.077181
1.85424,-0.43286,-0.122031
1.84872,-0.431571,-0.0773438
1.8245,-0.527995,-0.132816
1.85272,-0.43933,-0.122031
1.8472,-0.438022,-0.0773438
1.84745,-0.444215,-0.121775
1.84185,-0.450357,-0.121519
1.84022,-0.449958,-0.077181
1.84043,-0.456141,-0.121519
1.84267,-0.456698,-0.0773438
1.83882,-0.462563,-0.121519
1.84494,-0.464103,-0.0775067
1.84098,-0.470287,-0.121775
1.83941,-0.47639,-0.121775
1.83424,-0.495946,-0.121775
1.82882,-0.500652,-0.121519
1.83082,-0.508419,-0.121775
