2.88129,0.0804817,0.235306
2.97839,0.229174,-0.0695103
2.86193,0.0699448,-0.0833153
2.96402,0.217665,0
2.88309,0.0704618,-0.0167616
2.87757,0.0703268,-0.234981
2.8827,0.0704523,0.0503327
2.78645,-0.0680986,-0.162324
2.88075,0.0704046,0.1174
2.87919,0.0703665,-0.150937
2.88155,0.0704242,0.235306
2.96322,0.217606,-0.0691381
2.95671,0.20779,0
2.78682,-0.0768696,-0.260243
2.96389,0.208295,0.0691381
2.8698,0.0611157,-0.23433
2.87091,0.0611394,0.0501233
2.78622,-0.076853,-0.162324
2.87696,0.0612682,0.117237
2.87141,0.06115,-0.150518
2.87379,0.0612006,0.234655
2.96389,0.208295,-0.0691381
2.85434,0.0508197,-0.0830826
2.94943,0.196936,0
2.77847,-0.0863457,-0.0323622
2.78653,-0.0865964,-0.260243
2.79046,-0.0867185,0.0325019
2.86202,0.0509566,-0.233679
2.86711,0.0510471,0.0500535
2.77795,-0.0863296,-0.161859
2.86362,0.0509849,-0.1501
2.85804,0.0508856,0.233353
2.95661,0.197415,-0.0689519
2.8465,0.0407407,-0.0828498
2.9501,0.186638,0
2.78215,-0.0961828,-0.0324088
2.78224,-0.0961858,-0.259872
2.95329,0.18684,0.0688589
2.85421,0.0408511,-0.233028
2.86327,0.0409807,0.0499837
2.78162,-0.0961646,-0.162092
2.93494,0.185679,-0.136988
2.85978,0.0409308,-0.14989
2.8582,0.0409081,0.233353
2.9493,0.186588,-0.0687658
2.83863,0.0307198,-0.0826171
2.94275,0.175864,0
2.7778,-0.10574,-0.0323622
2.85978,0.0309487,-0.0166221
2.7779,-0.105744,-0.2595
2.85434,0.0308897,-0.233028
2.8554,0.0309012,0.0498441
2.77329,-0.105568,-0.161626
2.9276,0.174959,-0.136615
2.85591,0.0309068,-0.149681
2.85434,0.0308897,0.233028
2.94595,0.176055,-0.0686728
2.77342,-0.11527,-0.0323156
2.84645,0.0208668,-0.232377
2.85149,0.0209037,0.0497743
2.76891,-0.115083,-0.161394
2.92021,0.164289,-0.136243
2.84402,0.020849,-0.149053
2.84645,0.0208668,0.232377
2.93057,0.164871,-0.0683006
2.92793,0.154471,0
2.82915,0.0108633,-0.360117
2.83854,0.0108993,-0.231726
2.76451,-0.124568,-0.161161
2.91279,0.153672,-0.135871
2.84408,0.0109206,-0.149053
2.84252,0.0109146,0.232052
2.92714,0.154429,-0.0682075
2.92046,0.143857,0
2.76056,-0.134047,-0.032176
2.82521,0.000986855,-0.359612
2.76056,-0.134047,0.032176
2.8266,0.000987341,-0.23075
2.75608,-0.13383,-0.160696
2.92748,0.144203,0.170696
2.90931,0.143308,-0.135685
2.83211,0.000989268,-0.148425
2.83856,0.000991519,0.231726
2.92366,0.144015,-0.0681145
2.92094,0.133661,0
2.75209,-0.143268,-0.0320828
2.81726,-0.00885078,-0.358602
2.75627,-0.143485,-0.257641
2.92015,0.133625,0.0680214
2.75608,-0.143475,0.0321294
2.8226,-0.00886756,-0.230424
2.83155,-0.00889571,0.0494252
2.75161,-0.143243,-0.160464
2.9098,0.133151,-0.135685
2.8321,-0.00889742,-0.148425
2.83057,-0.00889261,0.231075
2.91216,0.133259,-0.0678353
2.81075,-0.0186414,-0.0818026
2.74358,-0.152429,-0.0319897
2.98751,0.272937,0.0174357
2.89833,0.12249,-0.202852
2.81856,-0.0186932,-0.230099
2.7471,-0.152624,-0.160231
2.91024,0.122994,-0.135685
2.82653,-0.0187461,0.23075
2.90462,0.122756,-0.0676492
2.97609,0.26142,-0.0521478
2.90182,0.112491,0
2.74303,-0.162006,-0.0319897
2.81316,-0.0284785,-0.358097
2.98446,0.262156,0.0174125
2.74327,-0.16202,-0.256526
2.90503,0.112615,0.0676492
2.89475,0.112217,-0.202573
2.81848,-0.0285324,-0.230099
2.99121,0.262749,0.087388
2.73459,-0.161507,-0.159533
2.9009,0.112455,0.169068
2.90666,0.112679,-0.135499
2.82247,-0.0285728,0.230424
2.89304,0.112151,-0.0673701
2.97299,0.250695,-0.052078
2.8902,0.101939,0
2.73846,-0.171329,-0.0319431
2.80511,-0.0381895,-0.357087
2.9734,0.250729,0.0173428
2.73872,-0.171345,-0.256154
2.90141,0.102334,0.0675562
2.73846,-0.171329,0.0319431
2.88316,0.10169,-0.201736
2.81039,-0.0382614,-0.229448
2.98414,0.251635,0.0871552
2.81931,-0.0383829,0.0492158
2.73401,-0.171051,-0.159533
2.89905,0.102251,-0.135126
2.81587,-0.0383361,-0.147587
2.81039,-0.0382614,0.229448
2.97497,0.250861,-0.121633
2.89741,0.102193,-0.0674631
2.96588,0.239672,-0.0519384
2.79441,-0.0477999,-0.0813371
2.89054,0.0918499,0
2.72986,-0.180359,-0.03185
2.80099,-0.0479124,-0.356581
2.97027,0.240027,0.0173195
2.73015,-0.180378,-0.25541
2.72188,-0.179832,0.0317569
2.87552,0.0913727,-0.201178
2.80227,-0.0479343,-0.228797
2.97703,0.240573,0.0869225
2.72941,-0.18033,-0.159301
2.88964,0.0918214,0.168371
2.8954,0.0920042,-0.13494
2.81173,-0.0480962,-0.147378
2.79828,-0.0478662,0.228471
2.88576,0.091698,-0.067184
2.96666,0.229835,-0.0519384
2.78624,-0.0569037,-0.0811044
2.88283,0.0820356,0
2.71728,-0.188581,-0.0317103
2.78891,-0.0569583,-0.355066
2.95908,0.229248,0.0172498
2.72954,-0.189432,-0.25541
2.72526,-0.189135,0.0318034
2.79811,-0.0571461,-0.228471
2.96585,0.229772,0.0865734
2.72083,-0.188828,-0.158836
2.8877,0.0821741,-0.134568
2.79412,-0.0570647,0.228146
2.88205,0.0820134,-0.0670909
2.95548,0.218592,-0.0517289
2.78203,-0.0665343,-0.080988
2.8751,0.0717718,0
2.70464,-0.197193,-0.0315706
2.78473,-0.066599,-0.354561
2.95588,0.218621,0.0172265
2.88232,0.0719519,0.0670909
2.72059,-0.198356,0.0317569
2.86411,0.0714974,-0.200341
2.79789,-0.0669137,-0.228471
2.95866,0.218828,0.0863407
2.80277,-0.0670305,0.0489365
2.71618,-0.198034,-0.158603
2.88222,0.0719493,0.167906
2.88397,0.0719932,-0.134382
2.79789,-0.0669137,0.228471
2.94949,0.218149,-0.120494
2.87832,0.0718521,-0.0669978
2.94824,0.207712,-0.0515893
2.86734,0.0615642,0
2.70792,-0.206937,-0.0316172
2.78448,-0.0763185,-0.354561
2.95263,0.208022,0.0172033
2.86675,0.0615516,-0.308868
2.87056,0.0616334,0.0668117
2.71191,-0.207242,0.0316637
2.86035,0.0614142,-0.200062
2.95941,0.208499,0.0863407
2.71547,-0.207514,-0.158603
2.87846,0.0618029,0.167673
2.86823,0.0615833,-0.133637
2.78568,-0.0763515,0.227495
2.87056,0.0616334,-0.0668117
2.94496,0.197153,-0.0515195
2.76951,-0.0855837,-0.080639
2.85954,0.0514111,0
2.70319,-0.216069,-0.0315706
2.78023,-0.0859151,-0.354056
2.94137,0.196912,0.0171335
2.85502,0.0513299,-0.307583
2.71153,-0.216735,-0.253923
2.86676,0.051541,0.0667187
2.70718,-0.216388,0.0316172
2.78939,-0.086198,-0.227821
2.94815,0.197366,0.0859916
2.70279,-0.216037,-0.157906
2.87067,0.0516113,0.167208
2.86044,0.0514273,-0.133265
2.79084,-0.0862429,-0.146331
2.78939,-0.086198,0.227821
2.86276,0.0514691,-0.0666256
2.93765,0.186365,-0.0513799
2.76519,-0.0951131,-0.0805226
2.8597,0.0414292,0
2.69445,-0.224839,-0.0314775
2.77991,-0.0956194,-0.354056
2.93804,0.186391,0.0171103
2.85121,0.0413061,-0.307154
2.85893,0.041418,0.0665326
2.69844,-0.225171,0.0315241
2.77711,-0.0955231,-0.226844
2.93685,0.186315,0.0856425
2.70201,-0.22547,-0.157906
2.85886,0.0414169,0.16651
2.78404,-0.0957614,0.113492
2.8566,0.0413843,-0.133079
2.77313,-0.0953861,0.226519
2.86292,0.0414759,-0.0666256
2.93029,0.175631,-0.0512403
2.76484,-0.104765,-0.0805226
2.85183,0.0313588,0
2.69365,-0.234243,-0.0314775
2.76767,-0.104872,-0.352541
2.84338,0.0312659,-0.306298
2.85905,0.0314382,0.0665326
2.69764,-0.234589,0.0315241
2.77278,-0.105066,-0.226519
2.92551,0.175345,0.0852934
2.92872,0.175537,-0.188035
2.69723,-0.234554,-0.157673
2.85898,0.0314374,0.16651
2.84874,0.0313248,-0.132707
2.7688,-0.104915,0.226193
2.85905,0.0314382,-0.0665326
2.91891,0.164726,-0.0510308
2.76047,-0.11425,-0.0804062
2.84792,0.0213738,0
2.68087,-0.242563,-0.0313378
2.75936,-0.114204,-0.351531
2.91931,0.164748,0.016994
2.83552,0.0212807,-0.305441
2.85515,0.021428,0.0664395
2.68883,-0.243284,0.0314309
2.9261,0.165132,0.0852934
2.91736,0.164638,-0.187268
2.68844,-0.243248,-0.157208
2.85508,0.0214276,0.166278
2.84484,0.0213506,-0.132521
2.76045,-0.114249,0.225542
2.84715,0.021368,-0.0662534
2.91947,0.154536,-0.0510308
2.74807,-0.123347,-0.0800572
2.7507,-0.123465,-0.550697
2.84398,0.0114165,0
2.68,-0.251919,-0.0313378
2.75894,-0.123835,-0.351531
2.91187,0.154134,0.0169475
2.8316,0.0113668,-0.305012
2.83921,0.0113974,0.0660673
2.68399,-0.252294,0.0313844
2.82907,0.0113567,-0.197829
2.76401,-0.124063,-0.225868
2.91468,0.154282,0.0849444
2.91393,0.154243,-0.187012
2.67168,-0.251136,-0.156278
2.84316,0.0114132,0.16558
2.76692,-0.124193,0.112841
2.83291,0.0113721,-0.131962
2.75206,-0.123527,0.224891
2.84721,0.0114295,-0.0662534
2.912,0.143949,-0.0508912
2.74363,-0.132746,-0.0799408
2.74242,-0.132687,-0.549128
2.832,0.00148283,0
2.67911,-0.261273,-0.0313378
2.75056,-0.133081,-0.350521
2.82367,0.00147847,-0.304156
2.83523,0.00148452,0.0659743
2.67911,-0.261273,0.0313378
2.75958,-0.133518,-0.225542
2.9152,0.144107,0.0849444
2.90648,0.143676,-0.1865
2.67476,-0.260848,-0.15651
2.83919,0.0014866,0.165347
2.75449,-0.133271,0.112352
2.83293,0.00148332,-0.131962
2.84265,0.00148841,0.349034
2.75162,-0.133132,0.224891
2.90604,0.143654,-0.11854
2.84323,0.00148871,-0.0661604
2.90449,0.133416,-0.0507516
2.74315,-0.142322,-0.0799408
2.73802,-0.142056,-0.548344
2.81999,-0.00836709,0
2.66226,-0.269014,-0.0311515
2.74612,-0.142476,-0.350016
2.90089,0.133251,0.0168778
2.8157,-0.00835437,-0.303299
2.83122,-0.00840042,0.0658812
2.67818,-0.270623,0.0313378
2.74715,-0.14253,-0.224566
2.66986,-0.269782,-0.156278
2.83518,-0.00841218,0.165115
2.75401,-0.142886,0.112352
2.82892,-0.0083936,-0.131776
2.75252,-0.142808,-0.144447
2.90095,0.123107,-0.0506818
2.73864,-0.151675,-0.0798244
2.73359,-0.151396,-0.547559
2.81194,-0.018159,0
2.65733,-0.27789,-0.031105
2.73768,-0.151622,-0.349005
2.81168,-0.0181573,-0.30287
2.67373,-0.279605,-0.250949
2.82718,-0.0182574,0.0657882
2.66528,-0.278722,0.0311981
2.75062,-0.152339,-0.224891
2.89617,0.122904,0.0843626
2.75136,-0.15238,0.0480988
2.67287,-0.279515,-0.15651
2.7495,-0.152277,0.112189
2.81689,-0.0181909,-0.131218
2.82671,-0.0182544,0.347084
2.7347,-0.151457,0.22359
2.7341,-0.160999,-0.0797081
2.72913,-0.160706,-0.546775
2.81986,-0.028054,0
2.65237,-0.286734,-0.0310584
2.72921,-0.160711,-0.347995
2.6643,-0.288024,0.0311981
2.74609,-0.161705,-0.224566
2.89258,0.112639,0.0842462
2.65997,-0.287556,-0.155813
2.81681,-0.0280236,-0.131218
2.73017,-0.160768,0.223264
2.88175,0.102144,-0.0503327
2.72554,-0.170044,-0.0794753
2.72855,-0.170232,-0.546775
2.80375,-0.0376819,0
2.64737,-0.295547,-0.0310118
2.72864,-0.170237,-0.347995
2.6638,-0.297381,-0.250205
2.81898,-0.0378867,0.0656021
2.66327,-0.297322,0.0311981
2.88497,0.102258,0.0840135
2.88427,0.102233,-0.184965
2.64704,-0.29551,-0.155115
2.81897,-0.0378865,0.164185
2.73641,-0.170722,0.111701
2.8087,-0.0377485,-0.130846
2.72164,-0.1698,0.222613
2.88209,0.0920839,-0.0503327
2.71696,-0.179031,-0.0792426
2.72011,-0.179239,-0.545206
2.7996,-0.0474009,0
2.6503,-0.305244,-0.0310584
2.72802,-0.179761,-0.347995
2.87848,0.0919686,0.0167383
2.65427,-0.305702,0.031105
2.73296,-0.180086,-0.22359
2.88131,0.092059,0.0838971
2.646,-0.304748,-0.155115
2.72782,-0.179747,0.111375
2.80056,-0.0474172,-0.130473
2.81049,-0.0475852,0.345134
2.72103,-0.1793,0.222613
2.8744,0.0817954,-0.0501931
2.71631,-0.188514,-0.0792426
2.71165,-0.18819,-0.543637
2.79142,-0.0570097,0
2.64127,-0.31355,-0.0309653
2.72342,-0.189007,-0.34749
2.87479,0.0818065,0.0167151
2.78729,-0.0569254,-0.3003
2.80665,-0.0573208,0.0653229
2.65319,-0.314965,0.031105
2.72436,-0.189073,-0.222939
2.87362,0.0817733,0.0836644
2.64492,-0.313983,-0.155115
2.72319,-0.188991,0.111212
2.79239,-0.0570295,-0.130101
2.80634,-0.0573143,0.344647
2.71243,-0.188245,0.221962
2.87066,0.0721626,-0.0501233
2.71169,-0.197231,-0.0791263
2.7071,-0.196897,-0.542853
2.78322,-0.0660762,0
2.63625,-0.321823,-0.0309187
2.70695,-0.196886,-0.34547
2.78311,-0.0660737,-0.299872
2.64874,-0.323347,-0.24909
2.80245,-0.0665328,0.0652298
2.64816,-0.323277,0.0310584
2.71179,-0.197238,-0.221962
2.72439,-0.198154,0.04768
2.63593,-0.321784,-0.15465
2.71856,-0.19773,0.111049
2.78819,-0.0661943,-0.129915
2.70384,-0.19666,0.221311
2.86289,0.0619686,-0.0499837
2.71098,-0.206695,-0.0791263
2.7103,-0.206643,-0.543637
2.78297,-0.075791,0
2.63511,-0.331023,-0.0309187
2.69833,-0.205731,-0.34446
2.71607,-0.207083,-0.0158317
2.64305,-0.33202,0.0310118
2.71109,-0.206703,-0.221962
2.85812,0.0618653,0.0831989
2.71969,-0.207359,0.0476102
2.63479,-0.330983,-0.15465
2.71387,-0.206915,0.110887
2.78395,-0.0758177,-0.129729
2.71638,-0.207106,-0.142773
2.70314,-0.206097,0.221311
2.85696,0.0618402,-0.116423
2.85509,0.0518297,-0.0498441
2.69829,-0.215203,-0.0787772
2.70175,-0.215479,-0.542068
2.77469,-0.0852592,0
2.62997,-0.339707,-0.0308722
2.70156,-0.215464,-0.344965
2.85548,0.0518368,0.0165988
2.63851,-0.34081,-0.248347
2.78993,-0.0857274,0.0649507
2.63791,-0.340732,0.0309653
2.70637,-0.215848,-0.221637
2.85432,0.0518157,0.0830826
2.6257,-0.339155,-0.154185
2.70117,-0.215433,0.110398
2.77568,-0.0852896,-0.129357
2.69445,-0.214897,0.22066
2.78993,-0.0857274,-0.0649507
2.84726,0.041746,-0.0497045
2.69353,-0.224289,-0.0786608
2.69707,-0.224583,-0.541284
2.77438,-0.0949441,0
2.62877,-0.348885,-0.0308722
2.70079,-0.224893,-0.344965
2.85165,0.0418103,0.0165756
2.78562,-0.0953288,0.0648576
2.62877,-0.348885,0.0308722
2.76363,-0.0945764,-0.193365
2.85448,0.0418519,0.0830826
2.70622,-0.225345,0.0474007
2.62054,-0.347793,-0.153952
2.78166,-0.0951933,0.162092
2.69642,-0.224529,0.110235
2.76738,-0.0947047,-0.128984
2.68971,-0.223971,0.220335
2.78162,-0.095192,-0.0647646
2.83939,0.0317176,-0.0495648
2.68477,-0.232998,-0.0784281
2.68845,-0.233318,-0.539715
2.76603,-0.104326,0
2.61565,-0.356439,-0.0307325
2.68813,-0.23329,-0.34345
2.84377,0.0317666,0.0165291
2.62818,-0.358147,-0.247603
2.77727,-0.10475,0.0646715
2.62357,-0.357519,0.0308256
2.69686,-0.234047,-0.220986
2.84262,0.0317537,0.0827335
2.61536,-0.356399,-0.15372
2.69164,-0.233595,0.110073
2.76304,-0.104213,-0.128798
2.68494,-0.233013,0.22001
2.67593,-0.242116,-0.0781954
2.68367,-0.242817,-0.53893
2.76164,-0.114298,0
2.61036,-0.365469,-0.0306859
2.6833,-0.242783,-0.342945
2.83587,0.0212834,0.0164826
2.6229,-0.367225,-0.247231
2.61828,-0.366578,0.030779
2.68804,-0.243212,-0.220335
2.83472,0.0212747,0.0825008
2.69259,-0.243623,0.0471913
2.61008,-0.365429,-0.153487
2.76893,-0.1146,0.161394
2.69077,-0.243459,0.110073
2.75864,-0.114175,-0.128612
2.69727,-0.244046,-0.141935
2.67613,-0.242134,0.219359
2.6791,-0.251362,-0.0783117
2.67895,-0.251348,-0.538146
2.76124,-0.123456,0
2.60914,-0.374123,-0.0306859
2.83593,0.0118792,0.0164826
2.68417,-0.251838,-0.0156689
2.75053,-0.122977,-0.192528
2.69119,-0.252497,-0.22066
2.83478,0.0118744,0.0825008
2.69177,-0.252551,0.0471913
2.6049,-0.373515,-0.153254
2.76056,-0.123425,0.160929
2.68995,-0.25238,0.110073
2.75825,-0.123322,-0.128612
2.69246,-0.252616,-0.141726
2.67928,-0.25138,0.219684
2.67024,-0.259938,-0.078079
2.67415,-0.260318,-0.537361
2.7528,-0.132708,0
2.60386,-0.382647,-0.0306393
2.67369,-0.260273,-0.341934
2.82795,0.00197431,0.0164361
2.67929,-0.260818,-0.0156457
2.60852,-0.383332,-0.246116
2.7461,-0.132385,-0.192249
2.68236,-0.261117,-0.22001
2.8308,0.0019763,0.0823844
2.68689,-0.261558,0.0471215
2.59963,-0.382025,-0.153022
2.75612,-0.132868,0.160696
2.68109,-0.260994,0.109747
2.75381,-0.132757,-0.128426
2.66648,-0.259572,0.218708
2.75605,-0.132865,-0.0642063
2.81956,-0.00787374,-0.0492158
2.66534,-0.268856,-0.0779626
2.66542,-0.268864,-0.535792
2.75232,-0.142316,0
2.6025,-0.391734,-0.0306393
2.66881,-0.269206,-0.341429
2.82394,-0.00788597,0.0164128
2.74047,-0.141703,-0.295588
2.60323,-0.391843,-0.245744
2.73765,-0.141558,-0.191691
2.67746,-0.270078,-0.219684
2.83079,-0.0079051,0.0823844
2.68198,-0.270534,0.0470517
2.59433,-0.390503,-0.152789
2.67221,-0.269549,0.109421
2.74535,-0.141956,-0.128054
2.67871,-0.270204,-0.141098
2.66953,-0.269278,0.219033
2.81952,-0.0177158,-0.0492158
2.66056,-0.277759,-0.535008
2.73983,-0.151262,0
2.59322,-0.399597,-0.0305462
2.65997,-0.277696,-0.340419
2.8199,-0.0177182,0.0163896
2.73598,-0.151049,-0.295159
2.59791,-0.400321,-0.245372
2.60112,-0.400816,0.0306393
2.67254,-0.279009,-0.219359
2.81875,-0.017711,0.0820353
2.58506,-0.39834,-0.152324
2.74715,-0.151666,0.160231
2.67125,-0.278875,0.109421
2.74085,-0.151318,-0.127868
2.67378,-0.279138,-0.140888
2.75112,-0.151885,0.338309
2.65668,-0.277353,0.218057
2.80743,-0.0279303,-0.0490064
2.65563,-0.287087,-0.534224
2.73526,-0.161067,0
2.59173,-0.409099,-0.0305462
2.65104,-0.286591,-0.339409
2.80781,-0.0279341,0.0163199
2.72747,-0.160609,-0.294303
2.59568,-0.409723,0.0305928
2.7286,-0.160675,-0.191133
2.66357,-0.287945,-0.218708
2.81467,-0.0280023,0.0819189
2.66407,-0.287999,0.0467725
2.59147,-0.409058,-0.152789
2.66624,-0.288234,0.109258
2.7323,-0.160893,-0.127495
2.6648,-0.288078,-0.14047
2.65564,-0.287088,0.218057
2.79933,-0.0371339,-0.0488667
2.65076,-0.295457,-0.533439
2.73471,-0.170137,0
2.58246,-0.416418,-0.0304531
2.64613,-0.294941,-0.338904
2.80371,-0.037192,0.0162966
2.65949,-0.296429,-0.0155527
2.59431,-0.418328,0.0305928
2.72805,-0.169722,-0.191133
2.6626,-0.296776,-0.218708
2.81056,-0.0372829,0.0818026
2.65913,-0.296389,0.0467026
2.802,-0.0371694,-0.179593
2.57827,-0.415742,-0.152092
2.73175,-0.169953,-0.127495
2.66383,-0.296913,-0.14047
2.65071,-0.295451,0.217731
2.66333,-0.296858,0.488601
2.73397,-0.170091,-0.063741
2.79518,-0.0468381,-0.0487969
2.64147,-0.303759,-0.0773808
2.65361,-0.305156,-0.534224
2.73011,-0.179419,0
2.58494,-0.42608,-0.0304996
2.64509,-0.304176,-0.338904
2.79956,-0.0469115,0.0162734
2.65843,-0.305711,-0.0155527
2.71441,-0.178388,-0.293018
2.72346,-0.178982,-0.190854
2.64967,-0.304702,-0.217731
2.80242,-0.0469594,0.0815699
2.65807,-0.305669,0.0467026
2.79388,-0.0468162,-0.179081
2.5768,-0.424739,-0.152092
2.73346,-0.17964,0.159533
2.66025,-0.305919,0.109096
2.72317,-0.178963,-0.127123
2.6588,-0.305753,-0.14026
2.6457,-0.304247,0.217406
2.73336,-0.179633,-0.063741
2.799,-0.0566758,-0.0488667
2.64085,-0.313032,-0.53187
2.72149,-0.188396,0
2.57555,-0.433772,-0.0304065
2.79538,-0.0566025,0.0162501
2.64941,-0.314047,-0.0155062
2.7098,-0.187587,-0.292589
2.58029,-0.43457,-0.244257
2.71486,-0.187937,-0.190296
2.64859,-0.313949,-0.217731
2.80224,-0.0567414,0.0815699
2.65302,-0.314475,0.0466328
2.7897,-0.0564875,-0.178825
2.57531,-0.433731,-0.152092
2.72883,-0.188904,0.159301
2.64726,-0.313792,0.108607
2.71854,-0.188192,-0.126937
2.64979,-0.314092,-0.139842
2.64463,-0.31348,0.217406
2.72474,-0.188621,-0.0635549
2.7868,-0.0656746,-0.0486573
2.6359,-0.321313,-0.531086
2.72085,-0.197419,0
2.5741,-0.442311,-0.0304065
2.63114,-0.320733,-0.337389
2.79118,-0.0657777,0.0162269
2.64835,-0.322831,-0.0155062
2.70917,-0.196572,-0.292589
2.5749,-0.44245,-0.243885
2.57804,-0.442988,0.0304531
2.70626,-0.196361,-0.189738
2.64357,-0.322248,-0.217406
2.79404,-0.0658452,0.0813371
2.64799,-0.322787,0.046563
2.78152,-0.0655501,-0.178314
2.56598,-0.440916,-0.151627
2.72023,-0.197375,0.158836
2.65017,-0.323052,0.10877
2.72189,-0.197495,-0.127123
2.6408,-0.321911,-0.139423
2.72432,-0.197672,0.335384
2.63961,-0.321766,0.21708
2.64841,-0.322838,0.486448
2.7241,-0.197655,-0.0635549
2.78256,-0.0752938,-0.0485875
2.6263,-0.32945,-0.0770317
2.63476,-0.330512,-0.531086
2.71615,-0.206612,0
2.56466,-0.449911,-0.0303134
2.63,-0.329915,-0.337389
2.64324,-0.331576,-0.0154829
2.70846,-0.206027,-0.292589
2.57334,-0.451435,-0.243885
2.70556,-0.205806,-0.189738
2.63848,-0.330978,-0.21708
2.7858,-0.0753815,0.0811044
2.64288,-0.331531,0.0464932
2.56443,-0.449871,-0.151627
2.71321,-0.206389,-0.126751
2.63173,-0.330132,-0.139004
2.63056,-0.329986,0.21643
2.64336,-0.331591,0.485731
2.71143,-0.206253,-0.0632757
2.77428,-0.084762,-0.0484479
2.62117,-0.338104,-0.0769154
2.62581,-0.338704,-0.529517
2.70744,-0.215458,0
2.56307,-0.458861,-0.0303134
2.62096,-0.338078,-0.336379
2.77466,-0.0847735,0.0161339
2.69583,-0.214534,-0.291304
2.56783,-0.459713,-0.243513
2.56701,-0.459566,0.0303599
2.70085,-0.214933,-0.189459
2.6373,-0.340186,-0.21708
2.78552,-0.0851053,0.0811044
2.63377,-0.339731,0.0463536
2.777,-0.0848452,-0.178058
2.55891,-0.458116,-0.151394
2.70684,-0.21541,0.158138
2.63992,-0.340523,0.108444
2.71247,-0.215858,-0.126751
2.63453,-0.339828,-0.139214
2.6294,-0.339166,0.21643
2.77241,-0.0847046,-0.113003
2.63439,-0.339809,0.484296
2.70671,-0.215399,-0.0631827
2.76997,-0.0943095,-0.0483781
2.61684,-0.346837,-0.527948
2.70667,-0.224907,0
2.55752,-0.467086,-0.0302668
2.61583,-0.346704,-0.335873
2.77035,-0.0943223,0.0161106
2.625,-0.347918,-0.0153899
2.68714,-0.223284,-0.290447
2.56229,-0.467958,-0.243142
2.70195,-0.224515,0.0630896
2.6961,-0.224029,-0.18918
2.62424,-0.347818,-0.216104
2.76922,-0.0942839,0.080639
2.63257,-0.348922,0.0463536
2.77669,-0.0945382,-0.178058
2.55337,-0.466328,-0.151161
2.70209,-0.224527,0.157906
2.63079,-0.348686,0.108119
2.70374,-0.224663,-0.126379
2.62541,-0.347972,-0.138795
2.62424,-0.347818,0.216104
2.7681,-0.0942457,-0.112841
2.63318,-0.349003,0.484296
2.69797,-0.224184,-0.0629966
2.76163,-0.103678,-0.0482385
2.61172,-0.35544,-0.527163
2.69392,-0.233318,0
2.61068,-0.355297,-0.335368
2.76201,-0.103692,0.0160641
2.62773,-0.357619,-0.0154132
2.69031,-0.233006,-0.290876
2.55281,-0.475441,-0.242398
2.55981,-0.476743,0.0303134
2.68338,-0.232406,-0.188342
2.62301,-0.356977,-0.216104
2.76488,-0.1038,0.0805226
2.62738,-0.35757,0.0462838
2.76039,-0.103631,-0.177034
2.55565,-0.475969,-0.151394
2.70129,-0.233957,0.157906
2.6256,-0.357328,0.107956
2.69498,-0.23341,-0.126006
2.62813,-0.357673,-0.139004
2.61906,-0.356439,0.215779
2.75976,-0.103608,-0.112515
2.70115,-0.233945,-0.0630896
2.75726,-0.113153,-0.0481686
2.60658,-0.364012,-0.526379
2.69308,-0.24272,0
2.55027,-0.484184,-0.0302203
2.60942,-0.364408,-0.335368
2.76563,-0.113496,0.0160874
2.62251,-0.366236,-0.0153899
2.68948,-0.242395,-0.290876
2.54723,-0.483606,-0.242026
2.69634,-0.243014,0.0629966
2.5542,-0.48493,0.0302668
2.67858,-0.241413,-0.188063
2.60991,-0.364476,-0.215128
2.76051,-0.113286,0.0804062
2.75602,-0.113102,-0.176779
2.55005,-0.484142,-0.151161
2.62038,-0.365938,0.107793
2.69813,-0.243175,-0.126192
2.615,-0.365188,-0.138376
2.60991,-0.364476,0.215128
2.62289,-0.366289,0.482861
2.69634,-0.243014,-0.0629966
2.75685,-0.122777,-0.0481686
2.68426,-0.251374,0
2.54464,-0.492323,-0.0301737
2.60028,-0.37239,-0.334358
2.75322,-0.122616,0.0160176
2.68466,-0.251411,-0.290447
2.54161,-0.491738,-0.241655
2.68751,-0.251678,0.0628105
2.54856,-0.493083,0.0302203
2.61257,-0.37415,-0.215453
2.7561,-0.122744,0.0802899
2.6169,-0.37477,0.0461442
2.75561,-0.122722,-0.176779
2.5405,-0.491523,-0.150696
2.68767,-0.251693,0.157208
2.61513,-0.374516,0.10763
2.61766,-0.37488,-0.138586
2.60467,-0.373019,0.214802
2.75099,-0.122516,-0.112189
2.69149,-0.252051,-0.0629035
2.75241,-0.132208,-0.0480988
2.59509,-0.380895,-0.0763336
2.6001,-0.381631,-0.525594
2.68336,-0.260742,0
2.53505,-0.499655,-0.0300806
2.59503,-0.380888,-0.333853
2.74479,-0.131842,0.0159711
2.60801,-0.382793,-0.0153202
2.67585,-0.260012,-0.28959
2.54379,-0.501377,-0.242026
2.67683,-0.260107,-0.188063
2.60335,-0.382109,-0.214802
2.75166,-0.132172,0.0801735
2.61162,-0.383322,0.0460744
2.53877,-0.500388,-0.150696
2.67485,-0.259915,0.15651
2.60843,-0.382854,-0.138167
2.60335,-0.382109,0.214802
2.74655,-0.131926,-0.112026
2.68264,-0.260671,-0.0627174
2.74394,-0.141403,-0.0479592
2.59099,-0.389538,-0.524025
2.67846,-0.269706,0
2.53722,-0.509289,-0.0301271
2.59369,-0.389944,-0.333853
2.74032,-0.141216,0.0159479
2.67096,-0.268952,-0.289162
2.53031,-0.507902,-0.240911
2.67375,-0.269233,0.0625313
2.67193,-0.269049,-0.187784
2.602,-0.391194,-0.214802
2.74719,-0.14157,0.0800572
2.74273,-0.14134,-0.176011
2.5331,-0.508462,-0.150464
2.67392,-0.26925,0.15651
2.60454,-0.391576,0.107304
2.67158,-0.269014,-0.125076
2.68219,-0.270083,0.330997
2.59806,-0.390601,0.214477
2.73809,-0.141101,-0.111701
2.60334,-0.391395,0.479991
2.66977,-0.268832,-0.0624383
2.74343,-0.15098,-0.0479592
2.66556,-0.27781,0
2.53542,-0.518142,-0.0301271
2.65746,-0.276966,-0.415679
2.58447,-0.397788,-0.332843
2.73581,-0.150561,0.0159246
2.66605,-0.277861,-0.288734
2.53242,-0.517529,-0.241283
2.66882,-0.27815,0.0624383
2.53542,-0.518142,0.0301271
2.65907,-0.277133,-0.186947
2.59668,-0.399668,-0.214477
2.74269,-0.150939,0.0799408
2.60492,-0.400936,0.0460045
2.73823,-0.150694,-0.175755
2.52739,-0.516501,-0.150231
2.67297,-0.278582,0.15651
2.67062,-0.278338,-0.125076
2.60175,-0.400448,-0.137958
2.59668,-0.399668,0.214477
2.73359,-0.150439,-0.111538
2.60196,-0.40048,0.479991
2.66882,-0.27815,-0.0624383
2.73889,-0.160322,-0.0478894
2.58046,-0.406397,-0.522456
2.66458,-0.287113,0
2.52185,-0.524546,-0.0299874
2.58306,-0.406807,-0.332843
2.73128,-0.159876,0.0159014
2.66111,-0.28674,-0.288305
2.5228,-0.524744,-0.240539
2.66386,-0.287035,0.0623452
2.52968,-0.526175,0.0300806
2.65412,-0.285986,-0.186668
2.59527,-0.408729,-0.214477
2.73017,-0.159811,0.0795917
2.59956,-0.409404,0.0459347
2.7337,-0.160018,-0.1755
2.52557,-0.52532,-0.150231
2.6561,-0.2862,0.15558
2.5978,-0.409127,0.107142
2.66566,-0.28723,-0.12489
2.59244,-0.408284,-0.137539
2.59133,-0.408109,0.214151
2.72507,-0.159513,-0.111212
2.66386,-0.287035,-0.0623452
2.73433,-0.169634,-0.0478196
2.57372,-0.414548,-0.0758681
2.57515,-0.414778,-0.521672
2.65958,-0.29597,0
2.51609,-0.532517,-0.0299409
2.57379,-0.414559,-0.331833
2.65219,-0.295148,-0.287448
2.52392,-0.534174,0.030034
2.64914,-0.294808,-0.186389
2.58596,-0.416518,-0.213826
2.7256,-0.169093,0.0794753
2.72516,-0.169065,-0.174988
2.65905,-0.295911,0.155813
2.66067,-0.296091,-0.124703
2.591,-0.417331,-0.137539
2.58596,-0.416518,0.213826
2.72051,-0.168777,-0.111049
2.72174,-0.178393,-0.0476102
2.57226,-0.423529,-0.0758681
2.57369,-0.423764,-0.521672
2.65059,-0.304339,0
2.51422,-0.541297,-0.0299409
2.57625,-0.424185,-0.332338
2.71812,-0.178155,0.0158317
2.58909,-0.426301,-0.0152505
2.64719,-0.30395,-0.28702
2.51908,-0.542343,-0.240539
2.64413,-0.303598,-0.18611
2.58449,-0.425542,-0.213826
2.725,-0.178606,0.0794753
2.5848,-0.425593,0.0457253
2.51794,-0.542099,-0.149999
2.6461,-0.303825,0.155115
2.65962,-0.305377,-0.124703
2.58953,-0.426373,-0.137539
2.58449,-0.425542,0.213826
2.72389,-0.178533,-0.111212
2.65384,-0.304713,-0.0621591
2.71718,-0.186668,-0.0475404
2.56461,-0.430549,-0.520103
2.64564,-0.312196,0
2.5125,-0.549193,-0.0299409
2.57099,-0.43162,-0.331833
2.71356,-0.186419,0.0158084
2.64623,-0.312265,-0.28702
2.50958,-0.548553,-0.239796
2.64493,-0.312112,0.061973
2.5125,-0.549193,0.0299409
2.64316,-0.311903,-0.18611
2.57921,-0.433,-0.2135
2.71644,-0.186618,0.0792426
2.58345,-0.433712,0.0457253
2.71203,-0.186314,-0.17422
2.51233,-0.549154,-0.149766
2.64513,-0.312136,0.155115
2.65468,-0.313263,-0.124517
2.58424,-0.433845,-0.13733
2.64958,-0.312661,0.327585
2.57134,-0.431679,0.212849
2.71135,-0.186268,-0.110724
2.58463,-0.433909,0.477839
2.65287,-0.313049,-0.0621591
2.7085,-0.196048,-0.0474007
2.56301,-0.439946,-0.520103
2.63654,-0.320924,0
2.50657,-0.557529,-0.0298943
2.56939,-0.44104,-0.331833
2.70488,-0.195786,0.0157619
2.64112,-0.321481,-0.286592
2.50755,-0.557748,-0.239796
2.64377,-0.321804,0.061973
2.50657,-0.557529,0.0298943
2.63012,-0.320142,-0.185273
2.57367,-0.441775,-0.213175
2.71175,-0.196284,0.0791263
2.71133,-0.196253,-0.17422
2.5064,-0.557491,-0.149534
2.64397,-0.321829,0.155115
2.57615,-0.442201,0.10649
2.64162,-0.321542,-0.123959
2.57476,-0.441962,-0.136911
2.64842,-0.32237,0.327585
2.57367,-0.441775,0.213175
2.71065,-0.196204,-0.110724
2.64774,-0.322287,-0.0620661
2.69982,-0.204896,-0.0472611
2.63144,-0.329628,0
2.50461,-0.566275,-0.0298943
2.56783,-0.450006,-0.331833
2.70418,-0.205227,0.0157619
2.63603,-0.330204,-0.286163
2.50559,-0.566497,-0.239796
2.64263,-0.33103,0.061973
2.50461,-0.566275,0.0298943
2.62898,-0.329321,-0.185273
2.56819,-0.450068,-0.212849
2.69909,-0.204841,0.0787772
2.70665,-0.205414,-0.173965
2.50444,-0.566236,-0.149534
2.63887,-0.33056,0.154882
2.64444,-0.331258,-0.124145
2.56533,-0.449568,-0.136492
2.56033,-0.448692,0.212199
2.70198,-0.20506,-0.110398
2.64263,-0.33103,-0.061973
2.70312,-0.214164,-0.0473309
2.55445,-0.456397,-0.075519
2.62636,-0.337842,0
2.49492,-0.572788,-0.0298012
2.55461,-0.456425,-0.330318
2.63492,-0.338944,-0.286163
2.49982,-0.573912,-0.239424
2.63358,-0.338771,0.0617869
2.61996,-0.337019,-0.184715
2.56276,-0.457881,-0.212524
2.69441,-0.213474,0.0786608
2.70197,-0.214073,-0.173709
2.49476,-0.572751,-0.149068
2.62984,-0.33829,0.154417
2.56915,-0.459024,0.106327
2.56776,-0.458775,-0.136702
2.63435,-0.33887,0.326122
2.56276,-0.457881,0.212524
2.69332,-0.213388,-0.110073
2.69036,-0.223079,-0.0471215
2.54489,-0.464321,-0.0752863
2.62907,-0.347991,0
2.48501,-0.58011,-0.029708
2.55292,-0.465785,-0.330318
2.69072,-0.223109,0.0156922
2.62183,-0.347033,-0.284878
2.49382,-0.582165,-0.239052
2.63232,-0.348422,0.0617869
2.4928,-0.581928,0.0298012
2.61475,-0.346096,-0.184436
2.55714,-0.466555,-0.212199
2.68963,-0.223018,0.0785444
2.69321,-0.223315,-0.173197
2.49264,-0.581891,-0.149068
2.62858,-0.347926,0.154417
2.63018,-0.348138,-0.123587
2.62915,-0.348002,0.325635
2.55322,-0.46584,0.211873
2.68558,-0.232124,-0.0470517
2.53933,-0.47247,-0.0751699
2.61595,-0.35555,0
2.48687,-0.589704,-0.0297546
2.54738,-0.473968,-0.329813
2.62061,-0.356183,-0.284878
2.49177,-0.590866,-0.239052
2.62317,-0.356531,0.0616008
2.49076,-0.590626,0.0298012
2.60958,-0.354684,-0.184157
2.55942,-0.476208,-0.212524
2.68485,-0.232061,0.0784281
2.68844,-0.232371,-0.172941
2.48671,-0.589667,-0.148836
2.61944,-0.356024,0.153952
2.62103,-0.356241,-0.123214
2.62792,-0.357177,0.325635
2.54766,-0.47402,0.211548
2.68376,-0.231967,-0.109747
2.62713,-0.357069,-0.0616939
2.68475,-0.241497,-0.0470517
2.48479,-0.598381,-0.0297546
2.6071,-0.36362,-0.40953
2.54571,-0.482857,-0.329813
2.55441,-0.484509,-0.015111
2.61147,-0.36423,-0.284021
2.48582,-0.598628,-0.23868
2.61398,-0.36458,0.0614147
2.4809,-0.597444,0.029708
2.60437,-0.36324,-0.183878
2.5499,-0.483653,-0.211873
2.67966,-0.241039,-0.17243
2.61818,-0.365165,0.153952
2.61977,-0.365388,-0.123214
2.55488,-0.484597,-0.136283
2.61486,-0.364703,0.324172
2.54207,-0.482167,0.211222
2.67597,-0.249656,-0.0469121
2.53213,-0.488986,-0.0750536
2.47891,-0.605668,-0.029708
2.54409,-0.491296,-0.329813
2.67633,-0.249689,0.0156224
2.60237,-0.371763,-0.283165
2.47995,-0.605923,-0.238309
2.61276,-0.373247,0.0614147
2.47502,-0.604719,0.0296615
2.60315,-0.371874,-0.183878
2.54829,-0.492106,-0.211873
2.67487,-0.249553,-0.172174
2.47876,-0.605632,-0.148603
2.613,-0.373281,0.15372
2.61459,-0.373508,-0.123028
2.60185,-0.371688,0.32271
2.53654,-0.489838,0.210897
2.67416,-0.249487,-0.109421
2.54621,-0.491705,0.472816
2.6711,-0.258609,-0.0468423
2.60027,-0.38073,0
2.46902,-0.612392,-0.0296149
2.53457,-0.498642,-0.328802
2.60106,-0.380845,-0.283165
2.47782,-0.614576,-0.238309
2.61144,-0.382365,0.0614147
2.46902,-0.612392,0.0296149
2.53873,-0.499459,-0.211222
2.6664,-0.258154,0.0779626
2.67001,-0.258504,-0.171918
2.47276,-0.61332,-0.148371
2.60378,-0.381243,0.153254
2.54506,-0.500705,0.105676
2.61327,-0.382633,-0.123028
2.60446,-0.381343,0.323198
2.52699,-0.497151,0.210246
2.66218,-0.267598,-0.0467026
2.52464,-0.506306,-0.0749372
2.59095,-0.38907,0
2.53273,-0.507928,-0.328802
2.66652,-0.268034,0.0155759
2.61002,-0.391934,0.0614147
2.47063,-0.622414,0.0296615
2.59253,-0.389307,-0.18332
2.66146,-0.267525,0.0778463
2.6611,-0.26749,-0.171406
2.60236,-0.390783,0.153254
2.6079,-0.391615,-0.122842
2.60305,-0.390886,0.323198
2.52515,-0.506409,0.210246
2.6573,-0.276011,-0.0466328
2.51903,-0.513876,-0.0748209
2.58569,-0.397052,0
2.4608,-0.628624,-0.0295684
2.52714,-0.515531,-0.328297
2.65766,-0.276049,0.0155294
2.59048,-0.397787,-0.282308
2.59685,-0.398766,0.0611355
2.46855,-0.630603,0.0296615
2.59517,-0.398508,-0.183599
2.66055,-0.27635,0.0778463
2.46842,-0.630568,-0.148371
2.59711,-0.398805,0.153022
2.59869,-0.399048,-0.12247
2.59781,-0.398913,0.32271
2.52346,-0.51478,0.210246
2.65947,-0.276237,-0.108933
2.65632,-0.285285,-0.0466328
2.51331,-0.521854,-0.0747045
2.58034,-0.405455,0
2.4586,-0.63721,-0.0295684
2.58481,-0.406157,-0.40707
2.52533,-0.524349,-0.328297
2.6527,-0.284897,0.0155062
2.58121,-0.405592,-0.281451
2.59939,-0.408449,0.0612286
2.45472,-0.636206,0.0295218
2.58194,-0.405706,-0.182762
2.52946,-0.525206,-0.210897
2.65162,-0.284781,0.0776135
2.65128,-0.284745,-0.170895
2.46233,-0.638179,-0.148138
2.59964,-0.408488,0.153254
2.58939,-0.406876,-0.122098
2.58856,-0.406746,0.321735
2.51775,-0.522775,0.20992
2.65128,-0.294578,-0.046563
2.50747,-0.530234,-0.0745881
2.45624,-0.646216,-0.0295684
2.51562,-0.53196,-0.327287
2.65164,-0.294617,0.0155062
2.58364,-0.415682,-0.281879
2.45733,-0.646503,-0.237193
2.59393,-0.417338,0.0611355
2.45237,-0.645199,0.0295218
2.57649,-0.414533,-0.182483
2.52361,-0.533649,-0.210571
2.64659,-0.294056,0.0774972
2.64625,-0.294019,-0.170639
2.45612,-0.646183,-0.147906
2.59024,-0.416745,0.152789
2.58393,-0.415729,-0.121912
2.58705,-0.416231,0.321735
2.51191,-0.531175,0.209595
2.64551,-0.293937,-0.108444
2.50188,-0.53727,-0.0744718
2.57357,-0.422361,0
2.45034,-0.6529,-0.0295218
2.57418,-0.422461,-0.40584
2.51394,-0.53986,-0.327287
2.64275,-0.302038,0.0154597
2.58232,-0.423796,-0.281879
2.58471,-0.42419,0.0609494
2.45034,-0.6529,0.0295218
2.57518,-0.422625,-0.182483
2.51803,-0.540737,-0.210246
2.64135,-0.301878,-0.170383
2.58498,-0.424233,0.152557
2.51649,-0.540408,0.104862
2.58261,-0.423845,-0.121912
2.58573,-0.424357,0.321735
2.50243,-0.537389,0.208944
2.64132,-0.311219,-0.0464234
2.49999,-0.546,-0.0744718
2.56814,-0.43068,0
2.43646,-0.658319,-0.0293821
2.51204,-0.548632,-0.327287
2.64168,-0.311261,0.0154597
2.56906,-0.430834,-0.280594
2.44914,-0.661747,-0.236822
2.44418,-0.660406,0.0294752
2.56582,-0.430291,-0.181925
2.63664,-0.310667,0.0772645
2.64028,-0.311096,-0.170383
2.44792,-0.661417,-0.147673
2.57955,-0.432594,0.152324
2.51459,-0.549189,0.104862
2.58506,-0.433518,-0.122098
2.5764,-0.432067,0.32076
2.50054,-0.546121,0.208944
2.50197,-0.55559,-0.0745881
2.56662,-0.439642,0
2.43415,-0.66682,-0.0293821
2.56338,-0.439088,-0.404611
2.51011,-0.557397,-0.327287
2.63661,-0.319998,0.0154364
2.56754,-0.4398,-0.280594
2.44186,-0.668934,0.0294752
2.56823,-0.439919,-0.182204
2.50641,-0.556575,-0.209595
2.50655,-0.556607,0.0448178
2.4379,-0.667847,-0.147208
2.57015,-0.440247,0.151859
2.50486,-0.556231,0.104536
2.56778,-0.439841,-0.121353
2.57097,-0.440387,0.320273
2.50251,-0.555711,0.209269
2.6305,-0.319257,-0.107956
2.49202,-0.563429,-0.0743554
2.56168,-0.448927,-0.404611
2.49634,-0.564406,-0.325772
2.62742,-0.329126,0.0153899
2.55408,-0.447595,-0.279309
2.42386,-0.674019,0.029289
2.55473,-0.44771,-0.181367
2.63032,-0.329489,0.0771481
2.62605,-0.328953,-0.169615
2.43916,-0.678273,-0.147441
2.56451,-0.449423,0.151627
2.4988,-0.564963,0.104373
2.56213,-0.449007,-0.121167
2.56535,-0.44957,0.319785
2.4887,-0.562678,0.208293
2.63322,-0.329852,-0.108119
2.6259,-0.338249,-0.046214
2.49004,-0.572124,-0.0743554
2.55151,-0.456332,0
2.42919,-0.684645,-0.0293821
2.62229,-0.337784,0.0153667
2.56657,-0.459025,0.0606703
2.42149,-0.682475,0.029289
2.54923,-0.455923,-0.181088
2.49837,-0.57404,-0.209269
2.56685,-0.459075,0.151859
2.48903,-0.571892,0.104048
2.56055,-0.457948,-0.121167
2.55594,-0.457124,0.31881
2.48672,-0.571362,0.208293
2.48024,-0.578995,-0.0741227
2.4191,-0.690924,-0.029289
2.49234,-0.58182,-0.325772
2.62506,-0.34746,0.0153899
2.5548,-0.466129,-0.279738
2.56495,-0.467981,0.0606703
2.42679,-0.693121,0.0293821
2.55155,-0.465535,-0.181367
2.62003,-0.346794,0.0769154
2.4948,-0.582394,0.104373
2.56287,-0.4676,-0.121353
2.55433,-0.466043,0.31881
2.47694,-0.578226,0.207642
2.61171,-0.354046,-0.0460045
2.4823,-0.587705,-0.074239
2.54057,-0.471783,0
2.42076,-0.699631,-0.0293355
2.54146,-0.471949,-0.402151
2.62396,-0.355705,0.0153899
2.5416,-0.471974,-0.278452
2.55954,-0.475306,0.0605772
2.42076,-0.699631,0.0293355
2.54615,-0.47282,-0.181088
2.611,-0.35395,0.0766826
2.4245,-0.700712,-0.146975
2.5559,-0.474631,0.151394
2.55353,-0.474191,-0.120981
2.55286,-0.474066,0.31881
2.6065,-0.362609,-0.0459347
2.47634,-0.595432,-0.0741227
2.54283,-0.481393,0
2.4183,-0.708076,-0.0293355
2.53591,-0.480082,-0.401536
2.48457,-0.597409,-0.325267
2.61477,-0.36376,0.0153435
2.55393,-0.483494,0.0604842
2.4183,-0.708076,0.0293355
2.5484,-0.482447,-0.181367
2.60975,-0.363062,0.0766826
2.60551,-0.362472,-0.168592
2.42204,-0.709171,-0.146975
2.54638,-0.482064,0.150929
2.487,-0.597993,0.104211
2.54401,-0.481615,-0.120609
2.54729,-0.482236,0.318323
2.46918,-0.593709,0.207317
2.60113,-0.372048,-0.0458649
2.41556,-0.717357,-0.0293355
2.53017,-0.489065,-0.400921
2.4784,-0.606003,-0.324762
2.61336,-0.373798,0.0153435
2.53026,-0.489083,-0.277596
2.40789,-0.715079,0.0292424
2.54261,-0.491471,-0.181088
2.60438,-0.372513,0.0765663
2.60015,-0.371908,-0.168336
2.41164,-0.716192,-0.14651
2.54843,-0.492596,0.151161
2.47303,-0.60469,0.103722
2.54214,-0.491379,-0.120609
2.54542,-0.492013,0.318323
2.46688,-0.603185,0.207317
2.59937,-0.371796,-0.106979
2.46824,-0.611743,-0.0740063
2.40563,-0.722641,-0.0292424
2.47263,-0.612831,-0.324257
2.60821,-0.381427,0.0153202
2.53261,-0.497797,-0.278024
2.4018,-0.72149,0.0291958
2.53323,-0.497917,-0.18053
2.59924,-0.380115,0.0764499
2.40938,-0.723765,-0.14651
2.54295,-0.499829,0.150929
2.475,-0.613418,0.103885
2.54058,-0.499363,-0.120609
2.53996,-0.499241,0.317835
2.59465,-0.388699,-0.0457951
2.45834,-0.618404,-0.0737736
2.52196,-0.504854,0
2.39927,-0.729869,-0.0291958
2.46663,-0.620491,-0.323752
2.60291,-0.389936,0.015297
2.4031,-0.731033,0.0292424
2.52365,-0.505191,-0.179972
2.47056,-0.621478,-0.207968
2.58999,-0.388001,0.0762172
2.40302,-0.731008,-0.146278
2.46897,-0.621078,0.103722
2.53099,-0.50666,-0.120236
2.5382,-0.508104,0.317835
2.45606,-0.627411,-0.0737736
2.52402,-0.514894,0
2.39276,-0.73748,-0.0291493
2.4605,-0.628545,-0.323247
2.59751,-0.398867,0.0152737
2.46868,-0.630636,-0.0148088
2.39276,-0.73748,0.0291493
2.5296,-0.516032,-0.18053
2.5925,-0.398098,0.0763336
2.5354,-0.517215,0.150696
2.45893,-0.628145,0.103397
2.52911,-0.515933,-0.120236
2.52854,-0.515817,0.31686
2.58002,-0.404943,-0.0455857
2.45009,-0.634549,-0.0736572
2.51446,-0.521636,0
2.39412,-0.746601,-0.0291958
2.51166,-0.521055,-0.399076
2.59222,-0.406858,0.0152505
2.39794,-0.747792,0.0292424
2.52397,-0.523607,-0.180251
2.58722,-0.406073,0.0762172
2.58301,-0.405413,-0.167569
2.39785,-0.747767,-0.146278
2.52585,-0.523998,0.150231
2.45684,-0.636296,0.103397
2.51956,-0.522694,-0.119864
2.53071,-0.525006,0.317348
2.45072,-0.634712,0.206666
2.44399,-0.642082,-0.0735409
2.38768,-0.75375,-0.0291493
2.50983,-0.529819,-0.399076
2.58684,-0.41527,0.0152272
2.50596,-0.529002,-0.275882
2.38768,-0.75375,0.0291493
2.51822,-0.53159,-0.179972
2.58184,-0.414468,0.0761008
2.57764,-0.413794,-0.167313
2.51228,-0.530337,0.149534
2.45073,-0.643852,0.103234
2.5099,-0.529835,-0.119492
2.52109,-0.532196,0.316373
2.44078,-0.641237,0.206015
2.57684,-0.413666,-0.106327
2.44572,-0.651212,-0.0736572
2.50694,-0.5379,0
2.37755,-0.75923,-0.0290561
2.58544,-0.423846,0.0152272
2.50808,-0.538143,-0.27631
2.38136,-0.760447,0.0291027
2.50864,-0.538263,-0.179414
2.45405,-0.65343,-0.207317
2.5765,-0.42238,0.0759845
2.57232,-0.421694,-0.167057
2.3889,-0.762856,-0.146045
2.44086,-0.649919,0.102908
2.50813,-0.538155,-0.119492
2.45498,-0.653678,-0.133143
2.51155,-0.538888,0.315398
2.57177,-0.430827,-0.0455159
2.43571,-0.65766,-0.0734245
2.50114,-0.545794,0
2.37869,-0.768755,-0.0291027
2.57211,-0.430886,0.0151575
2.5023,-0.546047,-0.275882
2.37488,-0.767525,0.0290561
2.50285,-0.546166,-0.179135
2.57107,-0.430711,0.0758681
2.57083,-0.43067,-0.167057
2.51642,-0.549128,0.149999
2.44629,-0.660519,0.103234
2.51014,-0.547759,-0.119678
2.50965,-0.547651,0.315398
2.44099,-0.668696,-0.0736572
2.50303,-0.555825,0
2.36445,-0.773736,-0.028963
2.57052,-0.44031,0.0151575
2.4964,-0.554352,-0.275454
2.37206,-0.776224,0.0290561
2.50472,-0.556201,-0.179414
2.56553,-0.439456,0.0757518
2.56136,-0.438742,-0.166545
2.37959,-0.778689,-0.145813
2.50659,-0.556616,0.149534
2.43615,-0.667369,0.102908
2.50032,-0.555223,-0.119306
2.50763,-0.556846,0.315398
2.42624,-0.664654,0.205364
2.42697,-0.674427,-0.0733081
2.49707,-0.564114,0
2.36919,-0.784913,-0.0290561
2.56101,-0.448349,0.015111
2.49047,-0.562622,-0.275025
2.3654,-0.783655,0.0290096
2.50267,-0.565378,-0.179414
2.56784,-0.449546,0.0758681
2.55974,-0.448127,-0.166545
2.37293,-0.78615,-0.14558
2.49674,-0.56404,0.149068
2.42983,-0.675223,0.102745
2.49437,-0.563503,-0.11912
2.50557,-0.566033,0.315398
2.55499,-0.447296,-0.105676
2.55908,-0.457224,-0.0453763
2.42845,-0.683978,-0.0734245
2.48729,-0.571037,0
2.36644,-0.793178,-0.0290561
2.5673,-0.458693,0.0151575
2.48849,-0.571312,-0.275025
2.35886,-0.790636,0.028963
2.4929,-0.572324,-0.178856
2.55839,-0.4571,0.0756354
2.55423,-0.456357,-0.16629
2.49865,-0.573645,0.149301
2.42746,-0.683701,0.102745
2.49239,-0.572206,-0.11912
2.49971,-0.573887,0.31491
2.41758,-0.680918,0.205038
2.54948,-0.455509,-0.105513
2.54976,-0.46383,-0.0452366
2.42244,-0.690508,-0.0733081
2.48159,-0.577941,0
2.35636,-0.798042,-0.028963
2.55798,-0.465324,0.015111
2.48668,-0.579127,-0.275025
2.36015,-0.799325,0.0290096
2.4872,-0.579248,-0.178577
2.43077,-0.692881,-0.20634
2.553,-0.46442,0.075519
2.55278,-0.464379,-0.16629
2.49295,-0.580586,0.149068
2.42146,-0.690228,0.102582
2.48669,-0.579127,-0.118934
2.49016,-0.579937,0.313935
2.54813,-0.472727,-0.0452366
2.41618,-0.69785,-0.0731918
2.48345,-0.58752,0
2.35356,-0.806263,-0.028963
2.5524,-0.473521,0.0150877
2.42484,-0.700354,-0.0146693
2.47691,-0.585973,-0.274168
2.35356,-0.806263,0.028963
2.48905,-0.588845,-0.178856
2.54744,-0.472599,0.0754027
2.42452,-0.700259,0.0440499
2.41903,-0.698676,0.102582
2.48465,-0.587804,-0.118934
2.48812,-0.588625,0.313935
2.53852,-0.480576,-0.045097
2.40976,-0.705578,-0.0730754
2.47739,-0.595684,0
2.35437,-0.816194,-0.0290096
2.54279,-0.481385,0.0150412
2.35437,-0.816194,0.0290096
2.483,-0.597031,-0.178577
2.42192,-0.709137,-0.206015
2.54176,-0.481189,0.0752863
2.42193,-0.70914,0.0440499
2.53763,-0.480407,-0.165522
2.48097,-0.596543,0.148603
2.41262,-0.706414,0.10242
2.47859,-0.595972,-0.118747
2.48595,-0.597741,0.313935
2.40279,-0.703536,0.204388
2.5368,-0.48025,-0.105188
2.53298,-0.488234,-0.0450272
2.40358,-0.712429,-0.0729591
2.4754,-0.603896,0
2.34787,-0.822674,-0.028963
2.54118,-0.489814,0.0150412
2.46503,-0.601365,-0.273312
2.34787,-0.822674,0.028963
2.47713,-0.604316,-0.178298
2.54015,-0.489615,0.0752863
2.41573,-0.716031,0.0439801
2.5321,-0.488064,-0.165266
2.47509,-0.603821,0.148371
2.40643,-0.713275,0.102257
2.4766,-0.604188,-0.118747
2.53519,-0.48866,-0.105188
2.4825,-0.605628,-0.0594606
2.53118,-0.497515,-0.0450272
2.40095,-0.721233,-0.0729591
2.34484,-0.831274,-0.028963
2.53544,-0.498353,0.015018
2.46281,-0.610396,-0.273312
2.3373,-0.828601,0.0288699
2.46715,-0.611471,-0.17774
2.53441,-0.498151,0.0751699
2.53421,-0.498111,-0.165522
2.46899,-0.611928,0.148138
2.39998,-0.720941,0.102094
2.47049,-0.6123,-0.118561
2.47401,-0.613171,0.312961
2.52946,-0.497178,-0.105025
2.5255,-0.505562,-0.0449574
2.39459,-0.728446,-0.0728427
2.45938,-0.618666,0
2.34193,-0.839454,-0.028963
2.52977,-0.506416,0.0149947
2.45681,-0.618019,-0.272883
2.33816,-0.838104,0.0289165
2.465,-0.620079,-0.17774
2.52874,-0.50621,0.0750536
2.52854,-0.506171,-0.165266
2.47071,-0.621516,0.148371
2.39745,-0.729314,0.102094
2.47222,-0.621895,-0.118747
2.468,-0.620835,0.312473
2.52773,-0.514732,-0.0450272
2.39599,-0.737559,-0.0729591
2.45731,-0.626818,0
2.33161,-0.844491,-0.0288699
2.52023,-0.513206,0.0149482
2.45474,-0.626162,-0.272883
2.33537,-0.845853,0.0289165
2.45906,-0.627264,-0.17746
2.52313,-0.513795,0.0749372
2.39664,-0.737759,0.0437706
2.51903,-0.51296,-0.164755
2.46864,-0.629706,0.148371
2.39501,-0.73726,0.102094
2.46627,-0.629102,-0.118561
2.46593,-0.629015,0.312473
2.51417,-0.521117,-0.0448178
2.38958,-0.744729,-0.0728427
2.44737,-0.633388,0
2.32489,-0.85125,-0.0288233
2.51451,-0.521188,0.014925
2.39055,-0.745031,-0.014553
2.32865,-0.852625,0.0288699
2.45299,-0.634844,-0.177181
2.51349,-0.520976,0.0747045
2.39405,-0.74612,0.0437706
2.52113,-0.52256,-0.16501
2.45869,-0.636318,0.147906
2.38479,-0.743237,0.101768
2.45632,-0.635705,-0.118189
2.51247,-0.520765,-0.104536
2.50851,-0.528627,-0.044748
2.37947,-0.750244,-0.07261
2.45299,-0.64353,0
2.32206,-0.858954,-0.0288233
2.50885,-0.528699,0.0149017
2.39188,-0.754157,-0.0145763
2.44273,-0.640838,-0.272027
2.32581,-0.860342,0.0288699
2.45088,-0.642975,-0.177181
2.51957,-0.530957,0.0749372
2.38774,-0.752853,0.0437008
2.51548,-0.530095,-0.164755
2.4527,-0.643455,0.147673
2.3785,-0.74994,0.101605
2.45033,-0.642833,-0.118003
2.51073,-0.529094,-0.104536
2.50656,-0.537818,-0.044748
2.3767,-0.75896,-0.07261
2.43902,-0.649429,0
2.32264,-0.868861,-0.0288699
2.5069,-0.53789,0.0149017
2.38148,-0.760486,-0.0145298
2.43652,-0.648764,-0.271598
2.44465,-0.650927,-0.176902
2.50979,-0.538511,0.0747045
2.38497,-0.761599,0.0437008
2.51352,-0.539311,-0.164755
2.45419,-0.653468,0.147906
2.37574,-0.758652,0.101605
2.44796,-0.65181,-0.118003
2.50486,-0.537454,-0.104373
2.50476,-0.546127,-0.044748
2.37417,-0.766838,-0.07261
2.43299,-0.656471,0
2.316,-0.875144,-0.0288233
2.50901,-0.547053,0.014925
2.4382,-0.657876,-0.272027
2.44633,-0.66007,-0.177181
2.50408,-0.545979,0.0745881
2.38243,-0.769504,0.0437008
2.51172,-0.547643,-0.164755
2.37321,-0.766526,0.101605
2.44579,-0.659924,-0.118003
2.49916,-0.544906,-0.104211
2.50284,-0.554867,-0.044748
2.36768,-0.773878,-0.0724936
2.4384,-0.667071,0
2.30546,-0.88037,-0.0287302
2.49537,-0.55321,0.0148553
2.44356,-0.668482,-0.272883
2.49826,-0.553851,0.0744718
2.37593,-0.776573,0.043631
2.4981,-0.553815,-0.163987
2.44583,-0.669104,0.147673
2.37052,-0.774806,0.101605
2.44347,-0.668457,-0.118003
2.49334,-0.552761,-0.104048
2.49689,-0.563156,-0.0446782
2.37242,-0.785063,-0.0727263
2.43594,-0.676004,0
2.30595,-0.890254,-0.0287768
2.48942,-0.561472,0.014832
2.36959,-0.784126,-0.0145065
2.43726,-0.67637,-0.272455
2.43385,-0.675424,-0.176623
2.49621,-0.563004,0.0744718
2.36927,-0.784019,0.0435612
2.49995,-0.563846,-0.164243
2.43182,-0.67486,0.146975
2.36767,-0.783489,0.101605
2.441,-0.677409,-0.118003
2.4952,-0.562775,-0.104211
2.49101,-0.570975,-0.0446084
2.35829,-0.789532,-0.0723772
2.48745,-0.570159,0.014832
2.36684,-0.792392,-0.0145065
2.49034,-0.57082,0.0743554
2.37031,-0.793555,0.043631
2.49796,-0.572568,-0.164243
2.42945,-0.683345,0.146975
2.35734,-0.789211,0.10128
2.43478,-0.684843,-0.117817
2.48543,-0.569696,-0.103885
2.48511,-0.57876,-0.0445385
2.35552,-0.797759,-0.0723772
2.42347,-0.6908,0
2.48155,-0.577931,0.0148088
2.36027,-0.799366,-0.0144833
2.4214,-0.690211,-0.176065
2.48833,-0.57951,0.0743554
2.48428,-0.578568,-0.163475
2.42705,-0.691821,0.146975
2.42853,-0.692243,-0.117631
2.48732,-0.579275,-0.104048
2.4305,-0.692806,-0.0588092
2.47918,-0.58651,-0.0444687
2.35272,-0.805976,-0.0723772
2.42104,-0.699256,0
2.48341,-0.587511,0.014832
2.42281,-0.699767,-0.176344
2.36093,-0.808787,0.0435612
2.48613,-0.588156,-0.163731
2.4261,-0.700716,-0.117631
2.36183,-0.809096,-0.13084
2.4775,-0.586113,-0.103722
2.34626,-0.812465,-0.0722609
2.41487,-0.706157,0
2.47756,-0.594809,0.0148088
2.42048,-0.707797,-0.176344
2.47266,-0.593634,0.0740063
2.35068,-0.813994,0.0434216
2.47641,-0.594533,-0.16322
2.41845,-0.707205,0.146743
2.47555,-0.594326,-0.103722
2.47513,-0.603372,-0.0444687
2.33964,-0.819329,-0.0721445
2.41239,-0.714583,0
2.46769,-0.601559,0.0147623
2.34814,-0.822306,-0.01446
2.41034,-0.713975,-0.175786
2.46669,-0.601314,0.07389
2.34404,-0.820873,0.0433518
2.47044,-0.602228,-0.162964
2.40448,-0.71224,0.146045
2.41361,-0.714944,-0.117258
2.47734,-0.60391,-0.103885
2.46136,-0.609125,-0.0442593
2.33299,-0.826156,-0.0720282
2.39839,-0.719551,0
2.46558,-0.610169,0.0147623
2.34902,-0.831833,-0.0144833
2.40923,-0.722803,0.0585301
2.41166,-0.723531,-0.176065
2.46458,-0.609921,0.07389
2.34117,-0.82905,0.0433518
2.46832,-0.610848,-0.162964
2.39816,-0.719481,0.145813
2.40727,-0.722216,-0.117072
2.47134,-0.611594,-0.103722
2.41306,-0.723953,-0.0586231
2.46698,-0.619662,-0.0443989
2.33386,-0.835642,-0.0721445
2.39969,-0.729081,0
2.45955,-0.617797,0.014739
2.34234,-0.838679,-0.01446
2.40148,-0.729625,-0.175507
2.46243,-0.61852,0.07389
2.33449,-0.835869,0.043282
2.47005,-0.620433,-0.16322
2.39945,-0.729009,0.146045
2.40474,-0.730615,-0.117072
2.46531,-0.619243,-0.103559
2.40669,-0.731209,-0.0585301
2.4648,-0.62827,-0.0443989
2.32717,-0.842423,-0.0720282
2.39331,-0.736277,0
2.46126,-0.627367,0.0147623
2.33564,-0.845489,-0.0144368
2.39892,-0.738003,-0.175507
2.45626,-0.626093,-0.162452
2.40071,-0.738554,0.146278
2.40217,-0.739004,-0.117072
2.45539,-0.62587,-0.103234
2.40412,-0.739605,-0.0585301
2.45496,-0.634438,-0.0442593
2.32061,-0.848762,-0.0719118
2.39849,-0.746587,0
