2.91385,0.418854,0.0342714
2.88936,0.415333,-0.169998
2.89146,0.405853,-0.033992
3.02157,0.575847,-0.0178774
2.89097,0.405784,-0.272512
2.90334,0.407521,0.0341317
2.88676,0.405194,-0.169766
3.00963,0.573572,-0.160567
2.88493,0.394675,-0.0338988
3.01176,0.563093,-0.0178077
2.88448,0.394613,-0.271768
2.90475,0.397386,0.0341317
2.98615,0.558305,-0.247999
2.9959,0.560129,-0.159729
2.8744,0.383017,-0.0337591
3.00584,0.551134,-0.0177612
2.87399,0.382963,-0.270653
2.89422,0.385658,0.033992
2.99784,0.549667,-0.159729
2.87169,0.372967,-0.0337126
2.86735,0.372403,-0.26991
2.88358,0.374512,0.0338523
2.97999,0.536185,-0.158683
2.86106,0.361436,-0.0335729
2.86468,0.361892,-0.269538
2.88091,0.363942,0.0338057
2.96426,0.522678,-0.245721
2.8485,0.359848,-0.167208
2.97004,0.523698,-0.158055
2.96294,0.511256,-0.0875043
2.86237,0.350948,-0.0335729
2.85413,0.349937,-0.268423
2.87031,0.351921,0.033666
2.9583,0.510455,-0.24507
2.96801,0.51213,-0.157845
2.95288,0.498913,-0.0871552
2.85563,0.340009,-0.0334798
2.96986,0.501781,-0.0175055
2.83951,0.338089,-0.266935
2.85563,0.340009,0.0334798
2.9522,0.498798,-0.244419
2.83117,0.337096,-0.166045
2.9619,0.500436,-0.157427
2.93874,0.486506,-0.0866898
2.85277,0.330078,-0.0334332
2.96756,0.491277,-0.0174822
2.82875,0.327298,-0.26582
2.85277,0.330078,0.0334332
2.94204,0.487052,-0.243443
2.82434,0.326788,-0.16558
2.94778,0.488003,-0.156589
2.93253,0.474966,-0.0864571
2.84198,0.31878,-0.0332935
2.95346,0.478357,-0.0173892
2.818,0.31609,-0.264705
2.84596,0.319226,0.0333401
2.93585,0.475504,-0.242792
2.95501,0.478607,0.121959
2.93763,0.475793,-0.155961
2.93022,0.464101,-0.0863407
2.82717,0.307129,-0.0331072
2.94721,0.466792,-0.0173428
2.81117,0.30539,-0.263961
2.8391,0.308425,0.0332469
2.92174,0.462758,-0.24149
2.95666,0.468289,0.121959
2.93928,0.465535,-0.155961
2.92392,0.452647,-0.086108
2.82027,0.296423,-0.0330141
2.94092,0.455278,-0.0172963
2.80826,0.29516,-0.263589
2.83221,0.297677,0.0331538
2.90758,0.450117,-0.240188
2.80378,0.294689,-0.164185
2.94248,0.45552,0.121308
2.92509,0.452829,-0.155124
2.91362,0.440643,-0.0857589
2.81333,0.285767,-0.032921
2.93062,0.443215,-0.0172265
2.80134,0.28455,-0.262846
2.82527,0.28698,0.0330607
2.90913,0.439964,-0.240188
2.9322,0.443452,0.120819
2.91876,0.44142,-0.154705
2.89932,0.428136,-0.0852934
2.80635,0.275166,-0.0328279
2.88518,0.426048,-0.371229
2.91633,0.430647,-0.0171335
2.78647,0.273217,-0.261359
2.81033,0.275557,0.0328744
2.89882,0.428062,-0.239212
2.7859,0.273161,-0.163022
2.92186,0.431465,0.120331
2.90843,0.42948,-0.154077
2.89684,0.417441,-0.0851771
2.79933,0.264615,-0.0327347
2.8788,0.414842,-0.370218
2.90593,0.418752,-0.0170638
2.78344,0.263113,-0.260987
2.79933,0.264615,0.0327347
2.90029,0.417939,-0.239212
2.92137,0.420977,0.0515195
2.78286,0.263058,-0.162789
2.91149,0.419552,0.119842
2.89805,0.417616,-0.153449
3.01759,0.575635,0
2.78829,0.253754,-0.032595
2.87237,0.403685,-0.369208
2.90342,0.408049,-0.0170405
2.78037,0.253034,-0.260615
2.79227,0.254116,0.0326416
2.88989,0.406148,-0.238235
2.78376,0.253342,-0.162789
2.90897,0.40883,0.119679
2.89553,0.40694,-0.15324
3.01284,0.57473,-0.0713713
2.87988,0.394494,-0.0845953
3.00385,0.562156,0
2.78916,0.24402,-0.032595
2.8969,0.396826,-0.016994
2.77727,0.24298,-0.260243
2.79314,0.244369,0.0326416
2.99261,0.560052,-0.212897
2.87549,0.393894,-0.236933
2.90443,0.397858,0.0511705
2.77269,0.24258,-0.162092
2.89851,0.397046,0.119191
2.98881,0.559342,-0.141641
2.88902,0.395747,-0.152821
3.01483,0.56421,-0.0713713
2.87317,0.384385,-0.0843626
2.9938,0.550546,0
2.77397,0.233913,-0.0324088
2.88227,0.385602,-0.016901
2.77008,0.233585,-0.2595
2.78194,0.234585,0.0325019
2.86486,0.383273,-0.235957
2.89377,0.387141,0.050961
2.75752,0.232526,-0.161161
2.89182,0.386879,0.118865
2.88233,0.38561,-0.152402
2.89252,0.386973,0.238235
2.99299,0.550397,-0.070813
2.98005,0.536733,0
2.76683,0.2231,-0.0323156
2.87573,0.374003,-0.0168546
2.75504,0.22215,-0.258013
2.77082,0.223422,0.0323622
2.85439,0.371227,-0.234981
2.7504,0.221775,-0.160696
2.88529,0.375246,0.11854
2.97289,0.535443,-0.14071
2.86392,0.372467,-0.151356
2.88997,0.375854,0.23791
2.98712,0.538005,-0.0706269
2.97009,0.524242,0
2.76361,0.213134,-0.0322691
2.83829,0.359064,-0.364158
2.86512,0.362457,-0.0167848
2.7558,0.212532,-0.258013
2.98504,0.526881,0.0705338
2.76361,0.213134,0.0322691
2.85566,0.361262,-0.234981
2.74319,0.21156,-0.160231
2.87072,0.363166,0.117888
2.85331,0.360964,-0.150728
2.8794,0.364264,0.236933
2.98898,0.527576,-0.0706269
2.96393,0.513025,0
2.74834,0.20279,-0.0320828
2.8663,0.352953,-0.0167848
2.74457,0.202512,-0.256897
2.98677,0.516978,0.0705338
2.75233,0.203085,0.0321294
2.84102,0.34984,-0.233679
2.86988,0.353394,0.0504724
2.73591,0.201873,-0.159766
2.86794,0.353155,0.117725
2.84656,0.350523,-0.150309
2.86476,0.352764,0.235632
2.97889,0.515614,-0.0703477
2.96176,0.502008,0
2.74105,0.192635,-0.0319897
2.8556,0.341522,-0.0167151
2.74526,0.192931,-0.256897
2.97673,0.504545,0.0702547
2.74903,0.193196,0.0320828
2.83826,0.339448,-0.233353
2.85919,0.34195,0.0502629
2.72864,0.191763,-0.159301
2.86122,0.342193,0.1174
2.83984,0.339636,-0.14989
2.85806,0.341815,0.234981
2.96096,0.501872,-0.0698825
2.95955,0.491012,0
2.72974,0.182267,-0.03185
2.84486,0.330169,-0.0166453
2.74195,0.183083,-0.256526
2.74171,0.183067,0.0319897
2.82359,0.327701,-0.232052
2.85639,0.331507,0.0501931
2.85446,0.331283,0.117074
2.83704,0.329261,-0.149681
2.84339,0.329999,0.233679
2.94691,0.488916,-0.0695103
2.9494,0.478755,0
2.73036,0.172737,-0.03185
2.84202,0.319788,-0.0166221
2.72667,0.172504,-0.255039
2.96044,0.480548,0.0697894
2.73435,0.172989,0.0318966
2.9304,0.475671,-0.207595
2.82472,0.317842,-0.232052
2.84958,0.320639,0.0500535
2.84368,0.319976,0.116586
2.83023,0.318462,-0.149262
2.84453,0.320071,0.233679
2.94465,0.477985,-0.0694172
2.93525,0.465948,0
2.71497,0.16225,-0.0316637
2.83914,0.309432,-0.0165988
2.71931,0.162509,-0.254295
2.95025,0.468329,0.0695103
2.73094,0.163204,0.03185
2.92022,0.463561,-0.206758
2.81788,0.307115,-0.231401
2.83876,0.30939,0.0498441
2.83683,0.309181,0.11626
2.92418,0.46419,-0.137918
2.81941,0.307282,-0.148634
2.82581,0.307979,0.232052
2.9305,0.465195,-0.069045
2.92895,0.454473,0
2.70753,0.152323,-0.0315706
2.79384,0.294631,-0.357592
2.83225,0.298681,-0.0165523
2.7119,0.152569,-0.253551
2.94396,0.456803,0.0693242
2.71952,0.152997,0.0317103
2.90999,0.45153,-0.205921
2.81101,0.296441,-0.23075
2.95162,0.45799,0.173952
2.82995,0.298439,0.115934
2.92183,0.453368,-0.137732
2.8165,0.29702,-0.148425
2.92025,0.453124,-0.0687658
2.7783,0.283189,-0.558542
2.92656,0.443646,0
2.70006,0.142449,-0.0314775
2.82531,0.287981,-0.0165058
2.90187,0.439902,-0.316151
2.70844,0.142891,-0.25318
2.93763,0.445324,0.0691381
2.71204,0.143081,0.0316172
2.9076,0.440771,-0.205642
2.80806,0.286222,-0.230424
2.82493,0.287942,0.0495648
2.69568,0.142218,-0.157208
2.81904,0.287342,0.115446
2.91154,0.441369,-0.137174
2.81203,0.286627,0.23075
2.90996,0.441128,-0.0684867
2.92414,0.432844,0
2.69655,0.132828,-0.0314309
2.78003,0.273566,-0.355571
2.81436,0.276944,-0.0164361
2.89158,0.428025,-0.314865
2.70495,0.133242,-0.252808
2.93126,0.433898,0.0689519
2.70853,0.133419,0.0315706
2.89728,0.428868,-0.204805
2.80111,0.27564,-0.229773
2.92709,0.433281,0.172324
2.81605,0.27711,0.115283
2.90911,0.43062,-0.136988
2.80657,0.276178,-0.147797
2.80508,0.27603,0.230099
2.89961,0.429213,-0.0682075
2.7863,0.264365,-0.0814535
2.76459,0.262305,-0.555404
2.9098,0.420346,0
2.693,0.123231,-0.0313844
2.77307,0.26311,-0.354561
2.80336,0.265984,-0.0163664
2.88519,0.416791,-0.314009
2.68152,0.122706,-0.250577
2.91692,0.421375,0.0685797
2.70099,0.123597,0.0314775
2.88691,0.41704,-0.203968
2.79015,0.26473,-0.228797
2.68065,0.122666,-0.156278
2.92463,0.422489,0.172092
2.80109,0.265768,0.114632
2.79559,0.265247,-0.147169
2.80205,0.26586,0.229773
2.77924,0.253909,-0.0812208
2.89144,0.407395,0
2.68542,0.113492,-0.0312912
2.76607,0.252706,-0.353551
3.01733,0.576679,0.0178542
2.79631,0.255468,-0.0163199
2.87875,0.405607,-0.313152
2.67796,0.113176,-0.250205
2.9065,0.409516,0.0683006
2.69741,0.113998,0.0314309
2.88045,0.405846,-0.20341
2.77914,0.2539,-0.227821
2.80389,0.256161,0.049146
2.79404,0.255261,0.114306
2.88435,0.406396,-0.135685
2.78854,0.254759,-0.14675
2.79105,0.254988,0.228797
2.76816,0.243157,-0.0808717
2.88888,0.396756,0
2.67781,0.103808,-0.0311981
3.00753,0.563932,0.0177845
2.78523,0.244656,-0.0162501
2.86833,0.393933,-0.311867
2.67038,0.10352,-0.249462
2.89206,0.397192,0.0679284
2.69379,0.104427,0.0313844
2.77207,0.2435,-0.22717
2.7968,0.245673,0.0490064
2.66947,0.103484,-0.15558
2.90773,0.399345,0.170929
2.77899,0.244108,0.113655
2.87784,0.395239,-0.135313
2.77748,0.243975,-0.146122
2.87622,0.395016,-0.0675562
2.769,0.233492,-0.0808717
2.88232,0.385608,0
2.67416,0.0943181,-0.0311515
2.99375,0.550536,0.0176915
2.78208,0.234596,-0.0162269
2.86574,0.38339,-0.311438
2.66276,0.0939162,-0.248718
2.88947,0.386564,0.0678353
2.69015,0.094882,0.0313378
2.76893,0.233487,-0.226844
2.78569,0.2349,0.0487969
2.66183,0.0938834,-0.155115
2.90119,0.388132,0.170464
2.77982,0.234405,0.113655
2.87128,0.38413,-0.13494
2.77035,0.233607,-0.145703
2.77687,0.234157,0.227495
2.87758,0.384973,-0.0675562
2.75381,0.223018,-0.0804062
2.87565,0.375013,0
2.67046,0.0853225,-0.031105
2.98375,0.538475,0.0176217
2.77088,0.224401,-0.0161571
2.66306,0.0850861,-0.248718
2.8828,0.375946,0.0676492
2.86073,0.373068,-0.201736
2.75777,0.223338,-0.225868
2.77848,0.225016,0.0486573
2.88267,0.375928,0.169301
2.77262,0.224541,0.113329
2.86461,0.373574,-0.134568
2.77111,0.224419,-0.145703
2.86694,0.373878,-0.067277
2.7466,0.212787,-0.0801735
2.86504,0.363464,0
2.66674,0.0758872,-0.0310584
2.98167,0.52736,0.0175985
2.77165,0.214728,-0.0161571
2.65538,0.0755638,-0.247975
2.86426,0.363365,0.067184
2.67873,0.0762285,0.0311981
2.84618,0.361072,-0.20062
2.75456,0.213403,-0.225542
2.97652,0.52645,0.0879698
2.77127,0.214698,0.0485177
2.88,0.365362,0.169068
2.75744,0.213627,0.112678
2.76391,0.214128,-0.145285
2.76251,0.214019,0.226193
2.85633,0.362359,-0.0669978
2.73935,0.202608,-0.0799408
2.65899,0.0663777,-0.0309653
2.96773,0.514217,0.0175055
2.76041,0.204166,-0.0160874
2.84191,0.350453,-0.30844
2.64368,0.0659955,-0.246859
2.85758,0.352385,0.0669978
2.67099,0.0666772,0.031105
2.74336,0.202904,-0.224566
2.9744,0.515373,0.0878534
2.64669,0.0660706,-0.154185
2.8654,0.353351,0.168138
2.7502,0.20341,0.112352
2.84336,0.350632,-0.133451
2.74871,0.2033,-0.144447
2.75528,0.203786,0.225542
2.85758,0.352385,-0.0669978
2.65521,0.0570091,-0.0309187
2.95768,0.501846,0.0174357
2.74914,0.193685,-0.0160176
2.83127,0.339112,-0.307154
2.63593,0.0565952,-0.246116
2.85085,0.341456,0.0668117
2.66321,0.0571808,0.0310118
2.72814,0.192205,-0.223264
2.96042,0.502311,0.087388
2.75276,0.193939,0.0481686
2.63892,0.0566594,-0.15372
2.86662,0.343346,0.168138
2.74691,0.193527,0.112189
2.74143,0.193142,-0.144029
2.77918,0.195801,0.507973
2.85085,0.341456,-0.0668117
2.64339,0.0475252,-0.030779
2.74581,0.183821,-0.0159944
2.82453,0.328309,-0.306298
2.63611,0.0473943,-0.246116
2.84408,0.33058,0.0666256
2.65539,0.0477409,0.0309187
2.72482,0.182415,-0.222939
2.74544,0.183796,0.048029
2.63511,0.0473763,-0.153487
2.84797,0.331033,0.166975
2.74358,0.183671,0.112026
2.73013,0.182771,-0.143401
2.74073,0.18348,0.22424
2.84408,0.33058,-0.0666256
2.72137,0.172644,-0.079359
2.64754,0.038355,-0.0308256
2.93742,0.477336,0.0172963
2.73046,0.173221,-0.0159014
2.6283,0.0380762,-0.245372
2.84124,0.320202,0.0665326
2.72544,0.172902,-0.222939
2.94017,0.477783,0.0866898
2.74606,0.17421,0.048029
2.62727,0.0380614,-0.153022
2.8372,0.319747,0.166278
2.73622,0.173586,0.111701
2.72278,0.172734,-0.142982
2.73339,0.173407,0.22359
2.83727,0.319754,-0.0664395
2.63966,0.029027,-0.0307325
2.70132,0.161909,-0.34446
2.72307,0.163212,-0.0158549
2.61248,0.0287281,-0.243885
2.82644,0.308548,0.0661604
2.80842,0.306581,-0.19755
2.72204,0.163151,-0.222613
2.93392,0.466264,0.0864571
2.73068,0.163669,0.0477498
2.6234,0.0288481,-0.152789
2.83433,0.30941,0.166045
2.72485,0.163319,0.111212
2.71938,0.162991,-0.142773
2.72602,0.163389,0.222939
2.75751,0.165277,0.503668
2.83439,0.309416,-0.0663465
2.63175,0.0197519,-0.0306393
2.71563,0.153254,-0.0158084
2.60859,0.0195781,-0.243513
2.8275,0.29868,0.0661604
2.63175,0.0197519,0.0306393
2.70667,0.152749,-0.221311
2.92763,0.454792,0.0862243
2.73124,0.154135,0.0477498
2.61549,0.01963,-0.152324
2.83142,0.299094,0.165813
2.72141,0.15358,0.111049
2.70398,0.152597,-0.141935
2.83482,0.299453,0.350009
2.71862,0.153423,0.222288
2.82352,0.298259,-0.0660673
2.6198,0.0105177,-0.0304996
2.70816,0.143352,-0.0157619
2.60864,0.0104728,-0.243513
2.82852,0.288809,0.0661604
2.6198,0.0105177,0.0304996
2.69525,0.142668,-0.220335
2.72377,0.144178,0.0476102
2.61555,0.0105006,-0.152324
2.8245,0.288398,0.165347
2.71395,0.143658,0.110724
2.70051,0.142947,-0.141726
2.8319,0.289153,0.349521
2.71117,0.143511,0.221637
2.61982,0.00137208,-0.0304996
2.70865,0.133897,-0.0157619
2.60468,0.00136415,-0.243142
2.82156,0.278148,0.0659743
2.69175,0.133062,-0.22001
2.907,0.430825,0.0855262
2.70828,0.133879,0.0473309
2.60758,0.00136567,-0.151859
2.81755,0.277753,0.164882
2.71044,0.133986,0.110561
2.69301,0.133124,-0.141307
2.82499,0.278486,0.348546
2.70768,0.133849,0.221311
2.73158,0.135031,0.498645
2.79142,0.265341,0
2.60381,-0.00772603,-0.0303134
2.69711,0.12389,-0.0156922
2.5967,-0.00770492,-0.242398
2.81455,0.26754,0.0657882
2.61581,-0.00776163,0.0304531
2.68025,0.123115,-0.219033
2.70474,0.12424,0.0472611
2.59958,-0.00771348,-0.151394
2.80657,0.266782,0.164185
2.7069,0.124339,0.110398
2.68548,0.123356,-0.140888
2.82199,0.268247,0.348059
2.69618,0.123847,0.220335
2.80659,0.266783,-0.0656021
2.7844,0.254381,0
2.60377,-0.0172688,-0.0303134
2.69355,0.113835,-0.0156689
2.59267,-0.0171953,-0.242026
2.80356,0.256131,0.065509
2.61177,-0.0173219,0.0304065
2.77365,0.253398,-0.19476
2.67272,0.112955,-0.218382
2.69718,0.113989,0.0471215
2.59155,-0.0171878,-0.150929
2.80753,0.256494,0.164185
2.69935,0.11408,0.110073
2.77741,0.253742,-0.129915
2.68192,0.113344,-0.140679
2.81109,0.256819,0.346596
2.69661,0.113965,0.220335
2.72068,0.114982,0.496493
2.77722,0.24493,0
2.5997,-0.0254091,-0.0302668
2.88077,0.396666,0.016901
2.6859,0.105061,-0.0156224
2.58464,-0.0252619,-0.241283
2.79639,0.24662,0.0653229
2.5997,-0.0254091,0.0302668
2.76648,0.243983,-0.194202
2.66907,0.104402,-0.218057
2.69753,0.105515,0.0471215
2.5835,-0.0252508,-0.150464
2.79639,0.246621,0.163487
2.69969,0.1056,0.110073
2.67827,0.104762,-0.14047
2.80398,0.24729,0.345621
2.68899,0.105181,0.219684
2.71316,0.106127,0.495058
2.7924,0.246269,-0.0652298
2.77407,0.234896,0
2.5916,-0.0343782,-0.0301737
2.68625,0.0956837,-0.0156224
2.58055,-0.0342317,-0.240911
2.5956,-0.0344312,0.0302203
2.58739,-0.0343224,-0.150696
2.79723,0.236857,0.163487
2.68407,0.095606,0.109421
2.67064,0.0951276,-0.140051
2.80087,0.237165,0.345134
2.70958,0.0965148,0.494341
2.78528,0.235845,-0.0650437
2.7669,0.224565,0
2.58746,-0.0433568,-0.0301271
2.86364,0.373955,0.0167848
2.67857,0.08605,-0.0155759
2.57644,-0.043172,-0.240539
2.58746,-0.0433568,0.0301271
2.75618,0.223695,-0.193365
2.67821,0.0860384,0.0467725
2.57927,-0.0432195,-0.150231
2.68838,0.0863652,0.109584
2.75594,0.223675,-0.128798
2.66297,0.0855488,-0.139632
2.67372,0.0858942,0.218382
2.77811,0.225474,-0.0648576
2.76368,0.214595,0
2.5793,-0.0522272,-0.030034
2.67086,0.0764699,-0.0155294
2.56432,-0.051924,-0.239424
2.77489,0.215465,0.0647646
2.5753,-0.0521462,0.0299874
2.74501,0.213145,-0.192528
2.65408,0.0759894,-0.216755
2.6745,0.076574,0.0467026
2.56313,-0.0518999,-0.149301
2.77493,0.215468,0.162092
2.67668,0.0766366,0.109096
2.74874,0.213434,-0.128426
2.66325,0.0762521,-0.139632
2.67002,0.0764458,0.218057
2.69446,0.0771455,0.491471
2.76293,0.214536,-0.0644854
2.75245,0.20406,0
2.5791,-0.0612298,-0.030034
2.8503,0.351993,0.0166918
2.73265,0.202592,-0.295159
2.55616,-0.0606853,-0.23868
2.76367,0.204891,0.0644854
2.5751,-0.0611348,0.0299874
2.74574,0.203562,-0.192528
2.64237,0.0664245,-0.215779
2.67075,0.0671379,0.0466328
2.56293,-0.060846,-0.149301
2.77168,0.205486,0.161859
2.66894,0.0670924,0.10877
2.7415,0.203248,-0.128054
2.64753,0.0665541,-0.138795
2.65831,0.0668253,0.21708
2.75968,0.204596,-0.0643924
2.6195,0.0567012,-0.524025
2.74516,0.193887,0
2.56687,-0.0699049,-0.0298943
2.63016,0.056932,-0.334863
2.84754,0.341566,0.0166686
2.72541,0.192492,-0.294303
2.55992,-0.0697155,-0.239052
2.76037,0.194962,0.0643924
2.56687,-0.0699049,0.0298943
2.73051,0.192853,-0.191412
2.64259,0.0572011,-0.215779
2.55871,-0.0696827,-0.149068
2.66516,0.0576897,0.108607
2.74617,0.193959,-0.12824
2.63976,0.0571398,-0.138376
2.77222,0.195799,0.341234
2.65853,0.0575462,0.21708
2.68313,0.0580786,0.489318
2.74043,0.193553,-0.0639271
2.74183,0.184035,0
2.55462,-0.0784967,-0.0297546
2.62637,0.047678,-0.334358
2.84474,0.331161,0.0166453
2.72606,0.182977,-0.294303
2.55966,-0.0786515,-0.239052
2.75306,0.184789,0.0642063
2.55462,-0.0784967,0.0297546
2.72719,0.183052,-0.191133
2.62683,0.0476862,-0.214477
2.55446,-0.0784919,-0.148836
2.74915,0.184526,0.160464
2.65736,0.0482404,0.108281
2.73487,0.183568,-0.127681
2.63994,0.0479243,-0.138376
2.64277,0.0479757,0.215779
2.74109,0.183985,-0.0639271
2.61199,0.0382973,-0.522456
2.73048,0.173702,0
2.55433,-0.087413,-0.0297546
2.83396,0.319884,0.0165756
2.71875,0.172956,-0.293446
2.55141,-0.0873129,-0.238309
2.74571,0.174671,0.0640202
2.55833,-0.0875498,0.0298012
2.72383,0.173279,-0.190854
2.62698,0.0385171,-0.214477
2.82883,0.319305,0.0828498
2.54619,-0.0871345,-0.148371
2.74579,0.174676,0.160231
2.7355,0.174021,-0.127681
2.6361,0.0386509,-0.138167
2.73772,0.174163,-0.0638341
2.72308,0.163689,0
2.54202,-0.0958772,-0.0296149
2.61077,0.029164,-0.332338
2.83108,0.309554,0.0165523
2.70345,0.162509,-0.291732
2.54313,-0.0959189,-0.237565
2.73832,0.164605,0.0638341
2.54602,-0.0960279,0.0296615
2.71247,0.163051,-0.190017
2.62311,0.0293018,-0.214151
2.64343,0.0295288,0.0461442
2.5339,-0.095571,-0.147673
2.74239,0.16485,0.159999
2.72412,0.163752,-0.127123
2.62823,0.029359,-0.137748
2.63507,0.0294354,0.215128
2.65998,0.0297137,0.485013
2.71436,0.163165,-0.0632757
2.5965,0.0199395,-0.519319
2.72364,0.154182,0
2.54167,-0.104751,-0.0296149
2.60689,0.0200193,-0.331833
2.81623,0.297985,0.0164593
2.70798,0.153295,-0.292161
2.53482,-0.104468,-0.236822
2.7229,0.15414,0.0634618
2.54567,-0.104915,0.0296615
2.70904,0.153355,-0.189738
2.61522,0.0200833,-0.2135
2.81509,0.297864,0.0823844
2.53355,-0.104416,-0.147673
2.72701,0.154373,0.159068
2.63374,0.0202255,0.107304
2.70473,0.153112,-0.126192
2.62832,0.0201839,-0.137748
2.62718,0.0201752,0.214477
2.65613,0.0203975,0.484296
2.71492,0.153688,-0.0632757
2.60687,0.010921,-0.0758681
2.71218,0.144039,0
2.5293,-0.113084,-0.0294752
2.59901,0.010888,-0.330823
2.81327,0.287748,0.0164361
2.69261,0.143,-0.290447
2.53046,-0.113136,-0.23645
2.71544,0.144212,0.0632757
2.5333,-0.113263,0.0295218
2.69362,0.143054,-0.188622
2.61129,0.0109395,-0.213175
2.81213,0.287631,0.082268
2.52918,-0.113079,-0.147441
2.71955,0.144431,0.158603
2.6298,0.011017,0.107142
2.70126,0.143459,-0.126006
2.61639,0.0109608,-0.13712
2.73954,0.145492,0.336847
2.62724,0.0110063,0.214477
2.70745,0.143788,-0.0630896
2.5989,0.00181494,-0.0756354
2.70467,0.134174,0
2.51691,-0.121335,-0.0293355
2.59109,0.00180949,-0.329813
2.80232,0.276746,0.0163664
2.68515,0.133205,-0.28959
2.51812,-0.121394,-0.235334
2.70794,0.134336,0.0630896
2.52889,-0.121913,0.0294752
2.69011,0.133452,-0.188342
2.60334,0.00181804,-0.212524
2.5208,-0.121523,-0.146975
2.71206,0.134541,0.158138
2.62582,0.00183374,0.106979
2.69775,0.133831,-0.12582
2.61241,0.00182438,-0.136911
2.7321,0.135534,0.335872
2.69995,0.13394,-0.0629035
2.59889,-0.00680405,-0.0756354
2.58088,-0.00675689,-0.516181
2.69711,0.124834,0
2.51649,-0.129682,-0.0293355
2.58712,-0.00677323,-0.329308
2.79128,0.266311,0.0162966
2.68557,0.1243,-0.28959
2.52168,-0.129949,-0.235706
2.70437,0.12517,0.0629966
2.52448,-0.130093,0.0294287
2.68656,0.124345,-0.188063
2.59536,-0.0067948,-0.211873
2.7981,0.266962,0.0818026
2.61959,-0.00685825,0.0457253
2.51639,-0.129677,-0.146743
2.70452,0.125176,0.157673
2.62182,-0.00686407,0.106816
2.69818,0.124883,-0.12582
2.60841,-0.00682898,-0.136702
2.7246,0.126106,0.334897
2.60732,-0.00682611,0.212849
2.69638,0.1248,-0.0628105
2.77986,0.255434,-0.0487271
2.59085,-0.0158264,-0.0754027
2.57692,-0.0157413,-0.515396
2.69354,0.115248,0
2.50404,-0.137805,-0.0291958
2.78024,0.255469,0.0162269
2.60791,-0.0159306,-0.0151575
2.6701,0.114245,-0.287877
2.6968,0.115388,0.0628105
2.51602,-0.138465,0.0293355
2.679,0.114626,-0.187505
2.59133,-0.0158294,-0.211548
2.78707,0.256097,0.0814535
2.50396,-0.137801,-0.146045
2.69696,0.115394,0.157208
2.68263,0.114781,-0.125076
2.60438,-0.015909,-0.136492
2.71709,0.116256,0.333922
2.5993,-0.0158781,0.212199
2.68482,0.114875,-0.0625313
2.58279,-0.024794,-0.0751699
2.56508,-0.0246241,-0.513043
2.68593,0.10553,0
2.50354,-0.146546,-0.0291958
2.57114,-0.0246822,-0.327287
2.77713,0.245409,0.0162036
2.59984,-0.0249577,-0.015111
2.5048,-0.14662,-0.234219
2.67721,0.105188,0.0623452
2.51952,-0.147481,0.0293821
2.6754,0.105116,-0.187226
2.58727,-0.0248371,-0.211222
2.78397,0.246014,0.0813371
2.49549,-0.146075,-0.14558
2.68537,0.105508,0.15651
2.60172,-0.0249758,0.106002
2.67503,0.105102,-0.124703
2.59232,-0.0248856,-0.135864
2.70558,0.106302,0.33246
2.59525,-0.0249136,0.211873
2.77089,0.244858,-0.113329
2.68121,0.105345,-0.0624383
2.58268,-0.033809,-0.0751699
2.55713,-0.0334745,-0.511474
2.67029,0.095582,0
2.50302,-0.155283,-0.0291958
2.57103,-0.0336564,-0.327287
2.76601,0.2347,0.0161339
2.58773,-0.0338751,-0.0150412
2.5003,-0.155115,-0.233847
2.67756,0.0958422,0.0623452
2.50302,-0.155283,0.0291958
2.58318,-0.0338155,-0.210897
2.77286,0.235281,0.080988
2.49497,-0.154784,-0.14558
2.67775,0.0958489,0.156045
2.58963,-0.0338999,0.105513
2.6634,0.0953356,-0.124145
2.58823,-0.0338815,-0.135655
2.69403,0.0964318,0.330997
2.58717,-0.0338677,0.211222
2.68156,0.0959853,-0.0624383
2.57456,-0.0426909,-0.0749372
2.56092,-0.0424648,-0.512258
2.67461,0.0863901,0
2.4865,-0.162973,-0.0290096
2.5709,-0.0426303,-0.327287
2.76682,0.225044,0.0161339
2.5916,-0.0429735,-0.0150645
2.65127,0.0856364,-0.285735
2.49577,-0.163581,-0.233476
2.67388,0.0863667,0.0622522
2.49847,-0.163758,0.0291493
2.57906,-0.0427657,-0.210571
2.76171,0.224628,0.080639
2.75324,0.22394,-0.177034
2.48644,-0.162969,-0.145115
2.67806,0.0865018,0.156045
2.59349,-0.0430049,0.105676
2.66771,0.0861675,-0.124331
2.58809,-0.0429153,-0.135655
2.69038,0.0868997,0.33051
2.67388,0.0863667,-0.0622522
2.75126,0.214113,-0.0481686
2.57439,-0.0516782,-0.0749372
2.549,-0.0511684,-0.509905
2.6629,0.0767072,0
2.4899,-0.171927,-0.0290561
2.6436,0.0761515,-0.284878
2.49121,-0.172018,-0.233104
2.66617,0.0768016,0.0620661
2.49788,-0.172479,0.0291493
2.57491,-0.0516887,-0.210246
2.75849,0.214676,0.0805226
2.58309,-0.0518527,0.045097
2.48586,-0.171648,-0.145115
2.66637,0.0768074,0.155347
2.58933,-0.0519781,0.105513
2.66001,0.0766241,-0.123959
2.6867,0.0773929,0.330022
2.66617,0.0768016,-0.0620661
2.5742,-0.0606636,-0.0749372
2.54488,-0.0599728,-0.509121
2.65115,0.0671084,0
2.47732,-0.179749,-0.0289165
2.57524,-0.0606883,-0.0149715
2.48662,-0.180424,-0.232732
2.65843,0.0672926,0.06188
2.49328,-0.180907,0.0291027
2.56675,-0.0604881,-0.209595
2.75125,0.204454,0.0802899
2.58289,-0.0608685,0.045097
2.4733,-0.179457,-0.144417
2.65465,0.067197,0.15465
2.57715,-0.0607332,0.105025
2.64429,0.0669346,-0.123214
2.57176,-0.0606061,-0.134817
2.67505,0.0677133,0.32856
2.56675,-0.0604881,0.209595
2.65843,0.0672926,-0.06188
2.54999,-0.0690006,-0.074239
2.54466,-0.0688564,-0.509121
2.65537,0.0579403,0
2.47269,-0.188093,-0.0288699
2.54651,-0.0689066,-0.324257
2.56302,-0.0693533,-0.0149017
2.47407,-0.188197,-0.231617
2.65065,0.0578374,0.0616939
2.48465,-0.189003,0.0290096
2.55855,-0.0692323,-0.208944
2.46469,-0.187484,-0.143952
2.65487,0.0579294,0.15465
2.56094,-0.0692969,0.104373
2.56754,-0.0694755,-0.134608
2.66733,0.0582013,0.327585
2.65465,0.0579247,-0.0617869
2.72941,0.18368,-0.0477498
2.54573,-0.0777792,-0.0741227
2.52872,-0.0772593,-0.505983
2.63956,0.0483778,0
2.47202,-0.196723,-0.0288699
2.53436,-0.0774317,-0.322742
2.56676,-0.0784216,-0.014925
2.46942,-0.196516,-0.231245
2.64284,0.048438,0.0615077
2.476,-0.19704,0.0289165
2.55829,-0.0781629,-0.208944
2.74064,0.184435,0.0799408
2.56641,-0.078411,0.0448178
2.47198,-0.19672,-0.144417
2.64707,0.0485155,0.154185
2.56068,-0.0782358,0.104373
2.5553,-0.0780715,-0.13398
2.65561,0.048672,0.326122
2.55431,-0.0780411,0.208619
2.72756,0.183555,-0.111375
2.65084,0.0485846,-0.0616939
2.54545,-0.086665,-0.0741227
2.52843,-0.0860857,-0.505983
2.63171,0.0390451,0
2.46334,-0.204688,-0.0287768
2.53804,-0.0864128,-0.323247
2.55048,-0.0868363,-0.014832
2.46078,-0.204475,-0.230501
2.64299,0.0392125,0.0615077
2.4753,-0.205682,0.0289165
2.54605,-0.0866856,-0.207968
2.45934,-0.204356,-0.14372
2.63924,0.0391567,0.15372
2.5524,-0.0869018,0.104048
2.54703,-0.0867188,-0.133561
2.64782,0.0392841,0.325147
2.64299,0.0392125,-0.0615077
2.71466,0.163658,-0.0474705
2.53714,-0.0952497,-0.07389
2.52028,-0.0946168,-0.504414
2.62383,0.0297677,0
2.45863,-0.21294,-0.0287302
2.55416,-0.0958887,-0.0148553
2.46006,-0.213064,-0.230501
2.63512,0.0298957,0.0613216
2.4666,-0.213631,0.0288233
2.54175,-0.0954228,-0.207642
2.55381,-0.0958757,0.0446084
2.46259,-0.213284,-0.143952
2.64335,0.0299892,0.153952
2.54809,-0.0956609,0.103885
2.61699,0.0296901,-0.121912
2.5507,-0.0957589,-0.133771
2.64397,0.0299962,0.32466
2.63912,0.0299411,-0.0614147
2.5288,-0.103778,-0.0736572
2.51601,-0.103253,-0.503629
2.61992,0.0205772,0
2.45787,-0.221521,-0.0287302
2.51755,-0.103316,-0.320721
2.53782,-0.104148,-0.0147623
2.45533,-0.221292,-0.23013
2.63121,0.0206659,0.0612286
2.46185,-0.22188,0.0287768
2.53742,-0.104131,-0.207317
2.54547,-0.104462,0.0444687
2.44592,-0.220445,-0.143022
2.62747,0.0206365,0.153022
2.54375,-0.104391,0.103722
2.54237,-0.104334,-0.133352
2.63215,0.0206733,0.323198
2.63121,0.0206659,-0.0612286
2.58076,0.0112608,-0.722462
2.51172,-0.11186,-0.502845
2.61198,0.011397,0
2.4531,-0.229727,-0.0286836
2.50925,-0.11175,-0.319711
2.53345,-0.112828,-0.014739
2.43868,-0.228376,-0.228642
2.62726,0.0114637,0.0611355
2.45708,-0.230099,0.0287302
2.52907,-0.112633,-0.206666
2.54509,-0.113346,0.0444687
2.44514,-0.228981,-0.143022
2.63152,0.0114822,0.153254
2.5274,-0.112558,0.103071
2.53002,-0.112675,-0.132724
2.62824,0.0114679,0.32271
2.62327,0.0114462,-0.0610425
2.51603,-0.120854,-0.0733081
2.49956,-0.120062,-0.500491
2.44432,-0.237514,-0.0285905
2.50488,-0.120318,-0.319206
2.52505,-0.121287,-0.0146925
2.43787,-0.236887,-0.228642
2.61929,0.00228576,0.0609494
2.4483,-0.237901,0.0286371
2.52468,-0.121269,-0.20634
2.53669,-0.121846,0.0443291
2.44035,-0.237129,-0.142789
2.62755,0.00229297,0.153022
2.52699,-0.12138,0.103071
2.51764,-0.120931,-0.132096
2.61635,0.0022832,0.321248
2.61929,0.00228576,-0.0609494
2.50761,-0.129224,-0.0730754
2.49129,-0.128383,-0.498922
2.43552,-0.245244,-0.0284974
2.50048,-0.128857,-0.318701
2.52461,-0.1301,-0.0146925
2.43703,-0.245396,-0.228642
2.61528,-0.00684681,0.0608564
2.44348,-0.246045,0.0285905
2.5123,-0.129466,-0.205364
2.43951,-0.245646,-0.142789
2.62355,-0.00686844,0.152789
2.51857,-0.129789,0.102745
2.51321,-0.129513,-0.131887
2.61237,-0.00683919,0.32076
2.61528,-0.00684681,-0.0608564
2.49866,-0.13751,-0.500491
2.59995,-0.0158824,0
2.43067,-0.253329,-0.0284508
2.6815,0.114732,0.0155992
2.51615,-0.138472,-0.014646
2.42823,-0.253075,-0.227899
2.61124,-0.0159514,0.0607633
2.43863,-0.254158,0.0285439
2.51581,-0.138453,-0.205689
2.52779,-0.139113,0.0441895
2.43467,-0.253746,-0.142557
2.61153,-0.0159531,0.152092
2.5181,-0.138579,0.102745
2.58515,-0.015792,-0.120423
2.50876,-0.138065,-0.131677
2.61233,-0.015958,0.32076
2.49871,-0.145388,-0.0728427
2.49038,-0.144903,-0.498922
2.58789,-0.0239393,0
2.43384,-0.261391,-0.0284974
2.67785,0.106149,0.0155759
2.50772,-0.145911,-0.0145995
2.42347,-0.260277,-0.227527
2.60318,-0.0240808,0.0605772
2.43781,-0.261818,0.0285439
2.58159,-0.023881,-0.18053
2.50342,-0.145662,-0.204713
2.51536,-0.146356,0.0439801
2.42194,-0.260114,-0.141859
2.60348,-0.0240835,0.151627
2.50568,-0.145793,0.102257
2.50432,-0.145714,-0.131468
2.6083,-0.0241281,0.320273
2.59919,-0.0240438,-0.0604842
2.48201,-0.153545,-0.497353
2.58378,-0.0333726,0
2.42094,-0.268985,-0.0283577
2.67423,0.09619,0.0155527
2.50317,-0.154855,-0.0145763
2.41062,-0.267839,-0.226412
2.59108,-0.0334668,0.0602981
2.43286,-0.27031,0.0284974
2.5735,-0.0332397,-0.179972
2.50287,-0.154836,-0.204713
2.51082,-0.155328,0.0439103
2.41701,-0.268548,-0.141627
2.59938,-0.033574,0.151394
2.50513,-0.154976,0.102257
2.573,-0.0332332,-0.119864
2.50377,-0.154892,-0.131468
2.60422,-0.0336366,0.319785
2.50287,-0.154836,0.204713
2.58708,-0.0334152,-0.060205
2.46974,-0.16101,-0.495
2.57166,-0.0417457,0
2.41208,-0.276102,-0.0282646
2.4787,-0.161593,-0.316176
2.66653,0.0870603,0.0155062
2.49865,-0.162895,-0.014553
2.40576,-0.275378,-0.22604
2.58696,-0.0419941,0.060205
2.42401,-0.277466,0.0284042
2.5654,-0.041644,-0.179414
2.49439,-0.162616,-0.204062
2.50231,-0.163133,0.0437706
2.41214,-0.276108,-0.141394
2.58727,-0.0419992,0.150696
2.49662,-0.162762,0.101931
2.4873,-0.162154,-0.130631
2.59616,-0.0421434,0.31881
2.49837,-0.162876,0.204388
2.58696,-0.0419941,-0.060205
2.5715,-0.0507223,0
2.40713,-0.284051,-0.028218
2.4702,-0.169701,-0.315165
2.65883,0.0775187,0.0154597
2.49009,-0.171067,-0.0145065
2.40083,-0.283307,-0.225668
2.5828,-0.0509451,0.060112
2.41508,-0.284989,0.0283111
2.56125,-0.05052,-0.179135
2.48585,-0.170776,-0.203411
2.66174,0.0776037,0.0774972
2.49773,-0.171592,0.0437008
2.41512,-0.284994,-0.141627
2.58711,-0.0510302,0.150696
2.48408,-0.170654,0.101443
2.56472,-0.0505885,-0.119492
2.48273,-0.170562,-0.130421
2.58806,-0.0510488,0.317835
2.5708,-0.0507085,-0.0598328
2.5673,-0.0600534,0
2.40608,-0.292872,-0.028218
2.48944,-0.180193,-0.0145065
2.54856,-0.059615,-0.274597
2.40373,-0.292586,-0.22604
2.58259,-0.0604112,0.060112
2.41402,-0.293838,0.0283111
2.55307,-0.0597205,-0.178577
2.48123,-0.179598,-0.203086
2.65401,0.0676437,0.0772645
2.48911,-0.180168,0.0435612
2.40613,-0.292879,-0.141162
2.58691,-0.0605121,0.150696
2.48742,-0.180046,0.101605
2.56052,-0.0598949,-0.119306
2.47811,-0.179372,-0.130212
2.58388,-0.0604414,0.317348
2.5746,-0.0602242,-0.0599259
2.56307,-0.0689071,0
2.40107,-0.300772,-0.0281714
2.64332,0.0581389,0.0153667
2.48082,-0.188276,-0.01446
2.39874,-0.30048,-0.225668
2.40901,-0.301766,0.0282646
2.55284,-0.068632,-0.178577
2.47662,-0.187957,-0.20276
2.64624,0.0582032,0.0770317
2.48846,-0.188856,0.0435612
2.57071,-0.0691125,0.149766
2.4828,-0.188425,0.101443
2.5603,-0.0688324,-0.119306
2.47348,-0.187719,-0.130003
2.57969,-0.0693537,0.31686
2.55439,-0.0686735,-0.0594606
2.55484,-0.0771646,0
2.39609,-0.308222,-0.0281249
2.6395,0.0492984,0.0153435
2.48019,-0.196502,-0.01446
2.54014,-0.0767208,-0.27374
2.38588,-0.306909,-0.224553
2.56613,-0.0775059,0.0597397
2.54462,-0.0768562,-0.178019
2.46803,-0.195539,-0.202109
2.64242,0.049353,0.0769154
2.48384,-0.196791,0.0434914
2.39616,-0.308231,-0.140696
2.57047,-0.0776369,0.149766
2.47817,-0.196342,0.10128
2.55207,-0.0770811,-0.118934
2.46886,-0.195605,-0.129793
2.57944,-0.0779079,0.31686
2.55414,-0.0771438,-0.0594606
2.55055,-0.0859475,0
2.39104,-0.31606,-0.0280783
2.44782,-0.202538,-0.31264
2.63165,0.039963,0.015297
2.4755,-0.204828,-0.0144368
2.53588,-0.0854532,-0.273312
2.38085,-0.314713,-0.224181
2.55786,-0.0861936,0.0595536
2.395,-0.316584,0.0281249
2.54035,-0.0856037,-0.17774
2.46336,-0.203824,-0.201784
2.63458,0.0400075,0.0766826
2.47915,-0.20513,0.0434216
2.39111,-0.31607,-0.140464
2.56619,-0.0864745,0.149534
2.47349,-0.204662,0.101117
2.54779,-0.0858544,-0.118747
2.4602,-0.203563,-0.129375
2.56328,-0.0863765,0.31491
2.54587,-0.0857896,-0.0592745
2.54224,-0.0945527,0
2.38199,-0.323328,-0.0279852
2.63178,0.0307766,0.015297
2.46281,-0.212437,-0.0143671
2.52762,-0.0940089,-0.272455
2.37974,-0.323022,-0.224181
2.54155,-0.0945271,0.0591814
2.38596,-0.323866,0.0280317
2.52807,-0.0940258,-0.176902
2.45866,-0.212078,-0.201458
2.62671,0.0307174,0.0764499
2.47045,-0.213095,0.043282
2.38604,-0.323877,-0.140231
2.56189,-0.0952833,0.149301
2.46878,-0.212951,0.100954
2.53949,-0.0944503,-0.118375
2.4555,-0.211806,-0.129165
2.55107,-0.0948808,0.313448
2.53756,-0.0943785,-0.0590884
2.53389,-0.103543,0
2.37287,-0.330951,-0.027892
2.43445,-0.218982,-0.311125
2.46202,-0.221462,-0.0143671
2.52329,-0.10311,-0.272027
2.37854,-0.331742,-0.224181
2.54918,-0.104168,0.0593675
2.37683,-0.331504,0.0279386
2.52771,-0.103291,-0.176902
2.44993,-0.220374,-0.200808
2.45372,-0.220715,0.0430027
2.38484,-0.332621,-0.140231
2.55354,-0.104346,0.148836
2.46798,-0.221998,0.100954
2.53114,-0.103431,-0.118003
2.45869,-0.221162,-0.129375
2.55467,-0.104392,0.313935
2.4539,-0.220731,0.201133
2.5332,-0.103515,-0.0589953
2.52554,-0.111592,0
2.36384,-0.337687,-0.0277989
2.44932,-0.22851,-0.0142973
2.36954,-0.338501,-0.223438
2.54083,-0.112268,0.0591814
2.37968,-0.33995,0.0279852
2.52337,-0.111497,-0.176623
2.44521,-0.228127,-0.200482
2.61486,0.0123223,0.0761008
2.45297,-0.228851,0.0430027
2.36791,-0.338268,-0.139301
2.53722,-0.112109,0.147906
2.45927,-0.229439,0.100628
2.52679,-0.111648,-0.117817
2.44998,-0.228572,-0.128956
2.54637,-0.112513,0.312961
2.60581,0.0122797,-0.106165
2.52086,-0.111385,-0.0587162
2.52511,-0.120848,0
2.36654,-0.346929,-0.0278455
2.45245,-0.237872,-0.0143206
2.51456,-0.120343,-0.27117
2.36828,-0.347184,-0.223438
2.52443,-0.120815,0.0588092
2.36654,-0.346929,0.0278455
2.51099,-0.120172,-0.175786
2.44039,-0.236703,-0.200157
2.61089,0.00273411,0.0759845
2.44814,-0.237454,0.0429329
2.3706,-0.347524,-0.139534
2.5328,-0.121216,0.147673
2.44648,-0.237293,0.10014
2.51439,-0.120335,-0.117258
2.44515,-0.237165,-0.128746
2.54594,-0.121845,0.312961
2.51644,-0.120433,-0.0586231
2.51273,-0.128169,0
2.36544,-0.354362,-0.0278455
2.42026,-0.242428,-0.30961
2.44771,-0.245177,-0.0142973
2.5102,-0.12804,-0.270741
2.3593,-0.353442,-0.222694
2.52403,-0.128745,0.0588092
2.35753,-0.353177,0.0277523
2.50661,-0.127857,-0.175507
2.43964,-0.244368,-0.200157
2.60689,-0.00545987,0.0758681
2.44738,-0.245144,0.0429329
2.36555,-0.354378,-0.139301
2.5364,-0.129376,0.147906
2.44175,-0.244579,0.0999771
2.51001,-0.12803,-0.117072
2.4285,-0.243253,-0.127909
2.53762,-0.129438,0.311986
2.50806,-0.127931,-0.058437
2.51227,-0.136939,0
2.35233,-0.360797,-0.0277058
2.41546,-0.250465,-0.309105
2.59192,-0.0144761,0.0150645
2.43092,-0.252069,-0.0142043
2.50576,-0.136585,-0.270313
2.35412,-0.361071,-0.222322
2.51159,-0.136902,0.0585301
2.35628,-0.361404,0.0277523
2.42687,-0.251649,-0.19918
2.44253,-0.253273,0.0428631
2.36035,-0.362028,-0.139069
2.52397,-0.137577,0.147208
2.44088,-0.253101,0.0999771
2.50955,-0.136791,-0.117072
2.42366,-0.251316,-0.1277
2.52922,-0.137863,0.311011
2.51159,-0.136902,-0.0585301
2.50773,-0.146352,0
2.34698,-0.369206,-0.0276592
2.40659,-0.258889,-0.308094
2.42994,-0.261401,-0.0142043
2.49331,-0.14551,-0.269028
2.34878,-0.369489,-0.22195
2.50705,-0.146312,0.058437
2.35093,-0.369827,0.0277058
2.49366,-0.14553,-0.17467
2.42192,-0.260539,-0.198855
2.58679,-0.0243807,0.0752863
2.43359,-0.261794,0.0427235
2.355,-0.370468,-0.138836
2.52342,-0.147267,0.147208
2.42797,-0.261189,0.0994886
2.50502,-0.146193,-0.116886
2.43062,-0.261475,-0.128118
2.52471,-0.147342,0.310523
2.50705,-0.146312,-0.058437
2.57539,-0.0332642,-0.0449574
2.49922,-0.15461,0
2.34567,-0.377396,-0.0276592
2.40172,-0.26685,-0.307589
2.41709,-0.268557,-0.0141346
2.48485,-0.153721,-0.268171
2.33961,-0.37642,-0.221207
2.50254,-0.154815,0.058344
2.34567,-0.377396,0.0276592
2.49313,-0.154234,-0.17467
2.421,-0.268992,-0.198855
2.42868,-0.269845,0.0426537
2.34975,-0.378052,-0.138603
2.50297,-0.154842,0.146045
2.42704,-0.269663,0.0994886
2.5005,-0.15469,-0.1167
2.42175,-0.269076,-0.1277
2.52022,-0.155909,0.310036
2.421,-0.268992,0.198855
2.49855,-0.154569,-0.0582509
2.49867,-0.163333,0
2.34829,-0.386231,-0.0277058
2.40472,-0.275684,-0.308094
2.41613,-0.276992,-0.0141346
2.4843,-0.162394,-0.268171
2.33435,-0.383938,-0.220835
2.49001,-0.162767,0.0580648
2.34434,-0.385581,0.0276592
2.48462,-0.162415,-0.174112
2.41608,-0.276987,-0.198529
2.57456,-0.0422423,0.0749372
2.42773,-0.278321,0.0426537
2.34448,-0.385603,-0.138371
2.49843,-0.163318,0.145813
2.42211,-0.277678,0.0993258
2.48799,-0.162635,-0.116142
2.41683,-0.277072,-0.12749
2.51174,-0.164188,0.309061
2.41608,-0.276987,0.198529
2.56952,-0.0421596,-0.104699
2.494,-0.163028,-0.0581579
2.56312,-0.0501094,-0.044748
2.48218,-0.170088,0
2.33917,-0.392283,-0.0276127
2.40384,-0.283237,-0.308094
2.41128,-0.284113,-0.0141113
2.47981,-0.169926,-0.267743
2.33128,-0.39096,0.0275195
2.47613,-0.169674,-0.173554
2.4152,-0.284576,-0.198529
2.57042,-0.0502522,0.0748209
2.42287,-0.285479,0.0425839
2.50188,-0.171439,0.146045
2.41329,-0.28435,0.0990001
2.48348,-0.170177,-0.115956
2.40801,-0.283729,-0.127072
2.49933,-0.171263,0.307598
2.41124,-0.284109,0.198204
2.56139,-0.0500755,-0.104373
2.48949,-0.170589,-0.0580648
2.32582,-0.399232,-0.027473
2.39486,-0.291506,-0.307084
2.41414,-0.293853,-0.0141346
2.4712,-0.178872,-0.266886
2.47685,-0.179281,0.0577856
2.33371,-0.400585,0.0275661
2.47148,-0.178893,-0.173275
2.40222,-0.292402,-0.197553
2.56221,-0.0599345,0.0745881
2.41778,-0.294297,0.0425141
2.55406,-0.0597438,-0.163731
2.33385,-0.40061,-0.137906
2.48528,-0.179891,0.145115
2.41218,-0.293615,0.0990001
2.47882,-0.179424,-0.115769
2.40691,-0.292973,-0.127072
2.49865,-0.180859,0.307598
2.48881,-0.180147,-0.0580648
2.55471,-0.0677898,-0.0446084
2.38842,-0.29834,-0.07005
2.47694,-0.187112,0
2.38212,-0.297553,-0.305569
2.40527,-0.300445,-0.0140881
2.46666,-0.186335,-0.266457
2.47627,-0.187061,0.0577856
2.32456,-0.406537,0.027473
2.47091,-0.186656,-0.173275
2.40129,-0.299948,-0.197553
2.40891,-0.3009,0.0423744
2.4847,-0.187698,0.145115
2.40728,-0.300696,0.0988373
2.47426,-0.186909,-0.115583
2.39805,-0.299543,-0.126653
2.48619,-0.18781,0.306136
2.39733,-0.299453,0.197227
2.48425,-0.187664,-0.0579717
2.4683,-0.195126,0
2.31131,-0.41254,-0.0273333
2.38107,-0.305866,-0.305569
2.40024,-0.308329,-0.0140648
2.4541,-0.194004,-0.265172
2.46763,-0.195074,0.0575995
2.32706,-0.415351,0.0275195
2.39627,-0.30782,-0.197227
2.40388,-0.308797,0.0423046
2.31935,-0.413975,-0.137208
2.40225,-0.308588,0.0986745
2.46961,-0.19523,-0.115397
2.39699,-0.307912,-0.126653
2.48156,-0.196175,0.305648
2.47959,-0.196019,-0.0578787
2.53817,-0.0855303,-0.0443291
2.46358,-0.203842,0
2.31372,-0.421726,-0.0273798
2.37599,-0.314071,-0.305064
2.39909,-0.317124,-0.0140648
2.44941,-0.20267,-0.264744
2.46291,-0.203787,0.0575065
2.31372,-0.421726,0.0273798
2.4536,-0.203016,-0.172159
2.39118,-0.316078,-0.196902
2.46339,-0.203826,0.143952
2.38922,-0.315819,0.098186
2.45693,-0.203292,-0.114839
2.39188,-0.316172,-0.126444
2.48083,-0.205269,0.305648
2.47487,-0.204776,-0.0577856
2.53388,-0.0937988,-0.0442593
2.45492,-0.211324,0
2.30444,-0.427936,-0.0272867
2.37494,-0.321949,-0.305064
2.3901,-0.324004,-0.0140183
2.44873,-0.210791,-0.264744
2.45824,-0.21161,0.0574134
2.31231,-0.429396,0.0273798
2.38221,-0.322935,-0.196251
2.31248,-0.429428,-0.136976
2.45873,-0.211652,0.14372
2.3842,-0.323204,0.0980231
2.45624,-0.211438,-0.114839
2.3829,-0.323028,-0.126025
2.46827,-0.212473,0.304186
2.46621,-0.212296,-0.0575995
2.4462,-0.219178,0
2.29901,-0.435233,-0.0272401
2.38103,-0.331242,-0.0139718
2.44402,-0.218982,-0.264316
2.4535,-0.219833,0.0573204
2.30294,-0.435977,0.0272867
2.37712,-0.330699,-0.195926
2.38863,-0.3323,0.0420952
2.31097,-0.437497,-0.136976
2.45797,-0.220233,0.14372
2.3791,-0.330973,0.0978603
2.44753,-0.219297,-0.114467
2.37781,-0.330794,-0.125816
2.46147,-0.220546,-0.0575065
2.4414,-0.227771,0
2.28954,-0.44214,-0.027147
2.38376,-0.340533,-0.0139951
2.43924,-0.227569,-0.263887
2.45268,-0.228824,0.0573204
2.2974,-0.443656,0.0272401
2.3759,-0.339409,-0.195926
2.37948,-0.339921,0.0419556
2.30151,-0.44445,-0.13651
2.37787,-0.339691,0.0978603
2.44273,-0.227895,-0.11428
2.37262,-0.338942,-0.125606
2.46065,-0.229567,-0.0575065
2.35797,-0.344411,-0.0693518
2.43669,-0.235056,0
2.29207,-0.450101,-0.0271936
2.3708,-0.346285,-0.0139253
2.42663,-0.234086,-0.262602
2.44797,-0.236144,0.0572273
2.29207,-0.450101,0.0271936
2.36693,-0.345719,-0.195275
2.37444,-0.346817,0.0418858
2.28834,-0.44937,-0.135813
2.44052,-0.235425,0.142789
2.36888,-0.346004,0.0975347
2.37155,-0.346394,-0.125606
2.3528,-0.352048,-0.0692355
2.29048,-0.458099,-0.0271936
2.36562,-0.353967,-0.0139021
2.43519,-0.243494,0.0569482
2.35782,-0.352799,-0.194624
2.37321,-0.355103,0.0418858
2.44365,-0.24434,0.143022
2.35975,-0.353088,0.097209
2.36637,-0.354079,-0.125397
2.34754,-0.360063,-0.0691191
2.28487,-0.465692,-0.027147
2.3564,-0.361422,-0.0138556
2.43429,-0.252418,0.0569482
2.35651,-0.361439,-0.194624
2.36794,-0.363192,0.041816
2.43083,-0.252059,0.142324
2.35844,-0.361735,0.097209
2.42038,-0.250976,-0.11335
2.34927,-0.360327,-0.12456
2.44224,-0.253243,-0.0571343
2.34226,-0.368044,-0.0690027
2.40507,-0.258302,-0.376325
2.49973,-0.145447,0.014553
2.35506,-0.370057,-0.0138556
2.4121,-0.259056,-0.261317
2.43334,-0.261338,0.0569482
2.35123,-0.369455,-0.194298
2.36265,-0.371248,0.0417462
2.42989,-0.260967,0.142324
2.34525,-0.368515,0.0967205
2.35582,-0.370176,-0.124978
2.33714,-0.374768,-0.0688864
2.27382,-0.479583,-0.0270539
2.34994,-0.37682,-0.0138324
2.40732,-0.266196,-0.260888
2.42854,-0.268542,0.0568551
2.34612,-0.376208,-0.193973
2.34962,-0.376769,0.0415367
2.43302,-0.269038,0.142557
2.34803,-0.376514,0.0968833
2.34676,-0.37631,-0.12456
2.43251,-0.268982,-0.0569482
2.33187,-0.382277,-0.06877
2.26822,-0.486678,-0.0270073
2.33677,-0.383079,-0.0137626
2.42361,-0.276564,0.0567621
2.34086,-0.38375,-0.193647
2.34435,-0.384321,0.0414669
2.42413,-0.276624,0.142092
2.33881,-0.383415,0.0965577
2.34149,-0.383853,-0.12435
2.42361,-0.276564,-0.0567621
2.2547,-0.492428,-0.0268676
2.48214,-0.170086,0.01446
2.33929,-0.392303,-0.0137859
2.3935,-0.282019,-0.259603
2.41464,-0.284509,0.056576
2.33944,-0.392328,-0.193647
2.33503,-0.391588,0.0413273
2.4231,-0.285507,0.142092
2.34007,-0.392433,-0.12435
2.41861,-0.284977,-0.056669
2.48156,-0.178316,0.01446
2.33404,-0.399383,-0.0137626
2.41368,-0.292515,0.056576
2.33766,-0.400004,0.0413971
2.41422,-0.29258,0.141627
2.39585,-0.290354,-0.112419
2.33088,-0.398843,-0.123932
2.31986,-0.405298,-0.0685373
2.47693,-0.186676,0.0144368
2.32869,-0.40684,-0.0137394
2.38363,-0.29732,-0.258747
2.41265,-0.300939,0.056576
2.32101,-0.405498,-0.192346
2.33231,-0.407473,0.0413273
2.41318,-0.301005,0.141627
2.32554,-0.406289,-0.123722
2.46826,-0.195123,0.0143903
2.32718,-0.415372,-0.0137394
2.37858,-0.305547,-0.258318
2.40756,-0.30927,0.0564829
2.3786,-0.30555,-0.167695
2.32293,-0.414613,0.0411877
2.40414,-0.30883,0.141162
2.38579,-0.306473,-0.112047
2.32403,-0.41481,-0.123722
2.30911,-0.420053,-0.0683046
2.37941,-0.313678,0
2.31005,-0.420224,-0.0136464
2.40256,-0.316729,0.0563898
2.31367,-0.420883,0.0410481
2.4031,-0.316801,0.141162
2.37684,-0.313338,-0.111675
2.31478,-0.421085,-0.123304
2.39859,-0.316207,-0.0562968
2.29977,-0.426652,-0.0680718
2.37434,-0.321445,0
2.45492,-0.210892,0.0143206
2.30857,-0.428285,-0.0136464
2.38955,-0.323504,0.0561107
2.37251,-0.321198,-0.167416
2.30826,-0.428227,0.0409782
2.39407,-0.324116,0.140696
2.37177,-0.321097,-0.111489
2.30544,-0.427705,-0.122885
2.39351,-0.324041,-0.0562037
2.29434,-0.433934,-0.0679555
2.36924,-0.329181,0
2.45018,-0.219104,0.0142973
2.2992,-0.434854,-0.0135999
2.35955,-0.327835,-0.256605
2.38444,-0.331293,0.0560176
2.36742,-0.328928,-0.167137
2.44919,-0.219015,0.0715627
2.36668,-0.328824,-0.111302
2.29216,-0.433523,-0.122257
2.3884,-0.331843,-0.0561107
2.36412,-0.336885,0
2.4494,-0.227655,0.0142973
2.29374,-0.44212,-0.0135766
2.3584,-0.336069,-0.256605
2.38327,-0.339614,0.0560176
2.36231,-0.336627,-0.166857
2.36156,-0.33652,-0.111116
2.3024,-0.443789,-0.122885
2.38327,-0.339614,-0.0560176
2.28741,-0.448771,-0.0678391
2.36695,-0.3453,0
2.43669,-0.234626,0.0142276
2.29619,-0.450494,-0.0135999
2.3494,-0.34274,-0.255748
2.37818,-0.346938,0.0559246
2.36118,-0.344459,-0.166857
2.44366,-0.235298,0.0714464
2.35647,-0.343772,-0.11093
2.297,-0.450653,-0.122675
2.37026,-0.345784,-0.0557385
2.36566,-0.353973,0
2.43581,-0.243556,0.0142276
2.28275,-0.456553,-0.0135301
2.35596,-0.35252,-0.166578
2.43482,-0.243457,0.0712136
2.37351,-0.355147,0.139766
2.35915,-0.352998,-0.111116
2.2875,-0.457502,-0.122257
2.36898,-0.354469,-0.0557385
2.35651,-0.361017,0
2.43097,-0.251645,0.0142043
2.28506,-0.465317,-0.0135534
2.35868,-0.36135,-0.257033
2.35982,-0.361525,0.0555524
2.35471,-0.360742,-0.166578
2.42998,-0.251543,0.0710973
2.35395,-0.360626,-0.11093
2.28197,-0.464687,-0.122047
2.35982,-0.361525,-0.0555524
2.41786,-0.258395,-0.0424443
2.34344,-0.366973,0
2.42614,-0.25928,0.0141811
2.27568,-0.47127,-0.0135069
2.35861,-0.369348,0.0555524
2.34562,-0.367314,-0.16602
2.42913,-0.2596,0.0710973
2.3488,-0.367812,-0.110744
2.28042,-0.472252,-0.122047
2.35861,-0.369348,-0.0555524
2.41297,-0.266394,-0.0423744
2.3461,-0.375784,0
2.42125,-0.267308,0.0141578
2.34038,-0.374868,-0.165741
2.41629,-0.266761,0.0707482
2.34355,-0.375377,-0.110558
2.34941,-0.376314,-0.0553663
2.408,-0.274783,-0.0423046
2.34075,-0.383733,0
2.4123,-0.275274,0.0141113
2.35196,-0.38557,0.0554593
2.33112,-0.382153,-0.165183
2.41132,-0.275162,0.0706318
2.33822,-0.383317,-0.110372
2.25398,-0.491859,-0.067141
2.3394,-0.391901,0
2.41133,-0.283693,0.0141113
2.34666,-0.393117,0.0553663
2.32977,-0.390287,-0.165183
2.41035,-0.283577,0.0706318
2.33687,-0.391477,-0.110372
2.33482,-0.391134,-0.0550871
2.3302,-0.398309,0
2.4064,-0.291207,0.0140881
2.33746,-0.399549,0.0551802
2.32846,-0.398011,-0.165183
2.40146,-0.290608,0.0703991
2.32768,-0.397877,-0.11
2.32957,-0.398201,-0.0549941
2.39314,-0.298081,-0.0420952
2.32092,-0.405065,0
2.40537,-0.299605,0.0140881
2.32817,-0.40633,0.0549941
2.32313,-0.40545,-0.164904
2.39646,-0.298495,0.0702827
2.32628,-0.406,-0.11
2.32817,-0.40633,-0.0549941
2.38415,-0.305417,-0.0419556
2.31949,-0.413164,0
2.39638,-0.306983,0.0140416
2.3228,-0.413753,0.054901
2.31384,-0.412158,-0.164346
2.39144,-0.30635,0.0701664
2.38359,-0.305345,-0.15401
2.32091,-0.413417,-0.109813
2.3228,-0.413753,-0.054901
2.38307,-0.313737,-0.0419556
2.3141,-0.420543,0
2.31347,-0.420429,0.0547149
2.30846,-0.419518,-0.164067
2.38242,-0.313652,0.0699336
2.31945,-0.421516,-0.109813
2.31741,-0.421144,-0.054808
2.37403,-0.320982,-0.041816
2.31262,-0.428618,0
2.37832,-0.321561,0.0139486
2.31091,-0.428301,-0.164346
2.38528,-0.322502,0.07005
2.31404,-0.428882,-0.109627
2.37243,-0.320765,-0.0975347
2.30806,-0.427773,-0.0546219
2.36894,-0.328717,-0.0417462
2.30717,-0.435945,0
2.37718,-0.329861,0.0139486
2.37622,-0.329727,0.0698173
2.3086,-0.436215,-0.109441
2.36733,-0.328495,-0.0973718
2.30262,-0.435085,-0.0545288
2.36778,-0.336984,-0.0417462
2.29778,-0.442483,0
2.3681,-0.33703,0.0139021
2.36713,-0.336893,0.0695846
2.35934,-0.335783,-0.152731
2.30707,-0.444271,-0.109441
2.36222,-0.336193,-0.097209
2.29716,-0.442364,-0.0544357
2.36659,-0.345247,-0.0417462
2.28837,-0.448961,0
2.36691,-0.345294,0.0139021
2.30158,-0.451552,-0.109255
2.2956,-0.45038,-0.0544357
2.36141,-0.352915,-0.0416763
2.29072,-0.45773,0
2.35382,-0.35178,0.0138324
2.35682,-0.352228,0.0693518
2.29607,-0.4588,-0.109069
2.35191,-0.351495,-0.0968833
2.29402,-0.45839,-0.0544357
2.35226,-0.359946,-0.0415367
2.2891,-0.465724,0
2.34862,-0.35939,0.0138091
2.28662,-0.465219,-0.108697
2.34671,-0.359098,-0.0967205
2.28065,-0.464003,-0.0541566
2.34704,-0.367536,-0.0414669
2.35131,-0.368205,0.0138324
2.3464,-0.367436,0.0691191
2.33864,-0.366222,-0.151707
2.28107,-0.472388,-0.108511
2.34545,-0.367287,-0.0967205
2.2751,-0.47115,-0.0540635
2.34975,-0.375949,-0.0415367
2.34217,-0.374736,0.0137859
2.34517,-0.375215,0.0691191
2.33742,-0.373975,-0.151707
2.33632,-0.3738,-0.0963948
2.26961,-0.477868,-0.0539705
2.3406,-0.382449,-0.0413971
2.33302,-0.381211,0.0137394
2.33616,-0.381724,-0.151707
2.2641,-0.484555,-0.0538774
2.33524,-0.390366,-0.0413273
2.33161,-0.389759,0.0137394
2.33066,-0.389601,0.06877
