1.78747,0.37277,-0.14906
1.88711,0.393549,0.0336482
1.84593,0.291705,-0.108836
1.88974,0.394099,0.0786465
1.76335,0.458661,-0.0848728
1.81833,0.379206,-0.0973449
1.78026,0.46306,-0.0428042
1.83697,0.376743,-0.0545738
1.90523,0.294605,-0.022444
1.74141,0.357144,-0.226273
1.86515,0.382521,-0.0110659
1.82626,0.282395,-0.172504
1.92499,0.297661,0.0226768
1.74701,0.448232,-0.12612
1.7926,0.367643,-0.149385
1.89232,0.388094,0.033718
1.86267,0.288024,-0.109766
1.90278,0.39024,0.079135
1.7726,0.454798,-0.085245
1.81175,0.371571,-0.0969262
1.78954,0.459143,-0.0429903
1.83834,0.370007,-0.0545738
1.81496,0.458582,0
1.91025,0.288216,-0.0224906
1.74271,0.350759,-0.226273
1.8783,0.37805,-0.0111356
1.71584,0.433537,-0.190633
1.83122,0.276293,-0.172876
1.93398,0.291797,0.02277
1.74864,0.441825,-0.12612
1.7783,0.357923,-0.148083
1.89373,0.381155,0.033718
1.86371,0.281195,-0.109766
1.91596,0.385629,0.0796234
1.77813,0.449276,-0.0854311
1.81702,0.365715,-0.0971355
1.79121,0.452581,-0.0429903
1.83956,0.363908,-0.0545738
1.82424,0.454495,0
1.91119,0.28188,-0.0224906
1.74386,0.344978,-0.226273
1.87954,0.371819,-0.0111356
1.72113,0.428806,-0.191061
1.84001,0.271381,-0.17362
1.93098,0.284798,0.0227234
1.7501,0.436024,-0.12612
1.79121,0.354345,-0.14906
1.89498,0.374873,0.033718
1.86859,0.275595,-0.109999
1.90938,0.377722,0.0792978
1.77573,0.442411,-0.085245
1.82606,0.361238,-0.0975542
1.78882,0.445671,-0.0428972
1.85652,0.360534,-0.0550393
1.83358,0.450031,0
1.92008,0.276347,-0.0225837
1.74895,0.339645,-0.226778
1.88476,0.366018,-0.0111589
1.72261,0.422796,-0.191061
1.84094,0.264957,-0.17362
1.93988,0.279195,0.0228165
1.75548,0.430864,-0.126399
1.79635,0.348851,-0.149385
1.90021,0.369019,0.0337879
1.87349,0.26964,-0.110232
1.92246,0.37334,0.0797863
1.79279,0.44002,-0.0859895
1.83123,0.355623,-0.0977636
1.84598,0.351805,-0.0546902
1.83903,0.444568,0
1.93688,0.271866,-0.02277
1.75402,0.33428,-0.227283
1.87816,0.357939,-0.0111124
1.83397,0.257421,-0.172876
1.94876,0.273534,0.0229097
1.76473,0.426608,-0.126957
1.80539,0.34407,-0.150036
1.90934,0.36388,0.0339275
1.87046,0.262543,-0.109999
1.92375,0.366627,0.0797863
1.79043,0.43282,-0.0858034
1.83638,0.349976,-0.0979729
1.80355,0.435991,-0.0431764
1.855,0.347153,-0.0549229
1.8366,0.43754,0
1.93381,0.264899,-0.0227234
1.75512,0.328462,-0.227283
1.8872,0.353181,-0.0111589
1.72545,0.411061,-0.191061
1.83876,0.251879,-0.173248
1.93777,0.265442,0.02277
1.76226,0.419829,-0.126678
1.81044,0.338815,-0.150362
1.90267,0.356076,0.0337879
1.87528,0.256882,-0.110232
1.92496,0.360246,0.0797863
1.78797,0.425954,-0.0856173
1.83361,0.34315,-0.0977636
1.80498,0.430008,-0.0431764
1.8562,0.340676,-0.0549229
1.70133,0.312252,-0.345951
1.83422,0.430214,0
1.92283,0.256561,-0.0225837
1.76406,0.323767,-0.228293
1.89629,0.348036,-0.0112054
1.72688,0.405035,-0.191061
1.84752,0.246513,-0.173991
1.95058,0.260263,0.0229097
1.76371,0.413676,-0.126678
1.80769,0.331774,-0.150036
1.91177,0.350876,0.0339275
1.88012,0.250863,-0.110464
1.93013,0.354246,0.0799491
1.80112,0.422448,-0.0861756
1.84265,0.33819,-0.0981823
1.80647,0.423705,-0.0431764
1.86137,0.334578,-0.0550393
1.83189,0.422588,0
1.93962,0.251569,-0.02277
1.76524,0.317299,-0.228293
1.89756,0.341083,-0.0112054
1.74385,0.402279,-0.192775
1.85236,0.240251,-0.174363
1.95549,0.253626,0.0229562
1.77688,0.409899,-0.127515
1.8089,0.325146,-0.150036
1.91305,0.343867,0.0339275
1.88499,0.244483,-0.110697
1.93535,0.347876,0.0801119
1.79876,0.414945,-0.0859895
1.83995,0.330727,-0.0979729
1.81581,0.418878,-0.0433625
1.86252,0.328079,-0.0550393
1.70738,0.30075,-0.346735
1.84506,0.418848,0
1.93652,0.244296,-0.0227234
1.69208,0.38412,-0.269945
1.76634,0.311135,-0.228293
1.88692,0.332375,-0.0111356
1.85319,0.233784,-0.174363
1.89135,0.429358,0.0451305
1.95636,0.246799,0.0229562
1.77441,0.402811,-0.127236
1.8218,0.320905,-0.151012
1.92211,0.338575,0.0340671
1.88979,0.238402,-0.110929
1.94049,0.341812,0.0802748
1.80409,0.409549,-0.0861756
1.84896,0.325689,-0.0983916
1.75159,0.488723,-0.0740873
1.81336,0.411653,-0.0432694
1.77752,0.489612,-0.0321822
1.85966,0.32122,-0.0549229
1.71223,0.295755,-0.34752
1.85034,0.4136,0
1.94129,0.238361,-0.02277
1.77127,0.305952,-0.228798
1.89983,0.328159,-0.0112054
1.7349,0.387798,-0.19149
1.85791,0.228123,-0.174735
1.87716,0.419595,0.0447583
1.96114,0.240798,0.0230028
1.78352,0.398666,-0.127794
1.81892,0.314184,-0.150687
1.92322,0.332199,0.0340671
1.88661,0.231648,-0.110697
1.94161,0.335376,0.0802748
1.80154,0.402693,-0.0859895
1.8579,0.320916,-0.0988103
1.75705,0.483974,-0.0742501
1.81471,0.405637,-0.0432694
1.77922,0.483404,-0.0321822
1.86471,0.315393,-0.0550393
1.70939,0.289122,-0.346735
1.85177,0.407139,0
1.94608,0.232056,-0.0228165
1.71009,0.375988,-0.272405
1.77624,0.300428,-0.229303
1.90886,0.322859,-0.0112519
1.74013,0.382593,-0.191918
1.85869,0.221636,-0.174735
1.88642,0.414757,0.0449444
1.96197,0.233951,0.0230028
1.78491,0.392437,-0.127794
1.82787,0.309162,-0.151338
1.92831,0.32615,0.0341369
1.73347,0.470975,-0.115124
1.90327,0.226951,-0.111627
1.94671,0.329262,0.0804376
1.81074,0.398117,-0.0863618
1.85507,0.313762,-0.0986009
1.75487,0.476789,-0.0740873
1.82393,0.401017,-0.0434555
1.78098,0.476879,-0.0321822
1.87769,0.310513,-0.0553884
1.71431,0.283494,-0.34752
1.86498,0.402882,0
1.94692,0.224922,-0.0228165
1.69987,0.367214,-0.27056
1.78124,0.294563,-0.229808
1.90608,0.315208,-0.0112286
1.73763,0.375372,-0.19149
1.85949,0.214822,-0.174735
1.88793,0.407839,0.0449444
1.97076,0.227676,0.0230959
1.79023,0.386735,-0.128073
1.82506,0.301809,-0.151012
1.93344,0.319733,0.0342067
1.90012,0.219515,-0.111394
1.94791,0.322124,0.0804376
1.81609,0.392321,-0.0865479
1.85621,0.30696,-0.0986009
1.97846,0.327177,0.163705
1.8293,0.395174,-0.0435486
1.79028,0.473014,-0.0323219
1.88266,0.304924,-0.0555047
1.71911,0.278435,-0.348304
1.86239,0.395864,0
1.95163,0.21891,-0.0228631
1.70494,0.362397,-0.271175
1.77437,0.287386,-0.228798
1.91501,0.310165,-0.0112751
1.74665,0.371262,-0.192346
1.8602,0.208655,-0.174735
1.89709,0.40324,0.0451305
1.97548,0.221585,0.0231425
1.7915,0.380796,-0.128073
1.82605,0.295756,-0.151012
1.93449,0.31332,0.0342067
1.91274,0.214549,-0.112092
1.95685,0.316942,0.0807633
1.82129,0.387128,-0.086734
1.8651,0.302081,-0.0990196
1.98347,0.321252,0.164031
1.76202,0.465547,-0.0742501
1.83451,0.389937,-0.0436417
1.78805,0.465753,-0.032252
1.88371,0.29835,-0.0555047
1.72007,0.272432,-0.348304
1.86376,0.38936,0
1.95636,0.212528,-0.0229097
1.71394,0.358059,-0.272405
1.77537,0.28119,-0.228798
1.81152,0.471866,0.0108799
1.90818,0.302226,-0.0112286
1.74404,0.364349,-0.191918
1.86883,0.20302,-0.175478
1.89849,0.396615,0.0451305
1.97624,0.214688,0.0231425
1.79673,0.375356,-0.128352
1.83495,0.290627,-0.151663
1.93952,0.30719,0.0342765
1.90951,0.207439,-0.111859
1.95795,0.310108,0.0807633
1.82263,0.380768,-0.086734
1.87009,0.296193,-0.099229
1.99245,0.315573,0.164682
1.76751,0.460401,-0.0744129
1.83977,0.384348,-0.0437347
1.78967,0.459509,-0.032252
1.88474,0.291774,-0.0555047
1.72876,0.267627,-0.349873
1.87687,0.385265,0
1.96902,0.206952,-0.0230493
1.71517,0.352075,-0.272405
1.79202,0.27742,-0.230818
1.92108,0.2974,-0.0112984
1.7492,0.359059,-0.192346
1.86557,0.196079,-0.175107
1.89203,0.388378,0.0449444
1.98493,0.208625,0.0232356
1.80194,0.369885,-0.128631
1.84383,0.28544,-0.152314
1.94454,0.30103,0.0343463
1.74761,0.448711,-0.115635
1.91022,0.200773,-0.111859
1.95902,0.303272,0.0807633
1.82786,0.375207,-0.0869201
1.87111,0.289664,-0.099229
1.99748,0.309227,0.165007
1.7691,0.454228,-0.0744129
1.83719,0.37712,-0.0436417
1.79514,0.45424,-0.0323219
1.88575,0.285192,-0.0555047
1.72969,0.26159,-0.349873
1.87036,0.37713,0
1.95779,0.198865,-0.0229097
1.72027,0.346866,-0.27302
1.79298,0.271162,-0.230818
1.93002,0.291888,-0.0113449
1.76214,0.355309,-0.193631
1.86624,0.189566,-0.175107
1.90905,0.384932,0.0453166
1.97769,0.200886,0.0231425
1.79931,0.362803,-0.128352
1.84482,0.279002,-0.152314
1.94953,0.294838,0.0344161
1.74917,0.442607,-0.115635
1.91489,0.194507,-0.112092
1.95612,0.295834,0.0806004
1.82525,0.368034,-0.086734
1.86816,0.282533,-0.0990196
1.99855,0.302252,0.165007
1.77068,0.44805,-0.0744129
1.84241,0.371495,-0.0437347
1.80448,0.449907,-0.0324615
1.89464,0.279778,-0.0557375
1.72671,0.254979,-0.349089
1.87166,0.3706,0
1.95847,0.192031,-0.0229097
1.72147,0.340861,-0.27302
1.80569,0.266642,-0.232334
1.83189,0.456742,0.0109729
1.92707,0.284566,-0.0113216
1.76337,0.349157,-0.193631
1.87482,0.183829,-0.17585
1.90254,0.376714,0.0451305
1.98634,0.194763,0.0232356
1.80447,0.357297,-0.128631
1.83395,0.270814,-0.151338
1.9545,0.288617,0.034486
1.75845,0.438432,-0.116147
1.91953,0.188212,-0.112325
1.94684,0.385486,0.11558
1.969,0.290757,0.0810889
1.83436,0.363214,-0.0871063
1.87704,0.277178,-0.0994383
2.00354,0.295857,0.165333
1.77223,0.441868,-0.0744129
1.8437,0.365063,-0.0437347
1.80603,0.443605,-0.0324615
1.90352,0.274302,-0.0559702
1.72759,0.24895,-0.349089
1.87294,0.364064,0
1.97506,0.186699,-0.0230959
1.71877,0.334095,-0.272405
1.79483,0.258639,-0.230818
1.93201,0.278407,-0.0113449
1.75677,0.341481,-0.192775
1.87545,0.177283,-0.17585
1.89992,0.369307,0.0450374
1.99497,0.188581,0.0233287
1.80963,0.351756,-0.12891
1.84672,0.266116,-0.152314
1.9555,0.281792,0.034486
1.92415,0.181886,-0.112557
1.97396,0.284452,0.0812517
1.83169,0.356046,-0.0869201
1.878,0.270624,-0.0994383
2.00061,0.288293,0.165007
1.78152,0.437585,-0.0747386
1.85281,0.36015,-0.0439208
1.80353,0.436988,-0.0323917
1.90042,0.267763,-0.0558538
1.73225,0.244069,-0.349873
1.87801,0.358929,0
1.97165,0.180129,-0.0230493
1.72757,0.330178,-0.273635
1.81135,0.255214,-0.232839
1.92891,0.271779,-0.0113216
1.76564,0.337454,-0.193631
1.88393,0.172115,-0.176594
1.92071,0.36709,0.0455027
1.99954,0.182677,0.0233753
1.81856,0.347568,-0.129468
1.85939,0.261983,-0.153291
1.95638,0.275648,0.034486
1.92471,0.175841,-0.112557
1.93367,0.369567,0.11465
1.9788,0.278807,0.0814146
1.83673,0.35104,-0.0871063
1.88279,0.26528,-0.0996477
2.0094,0.283119,0.165658
1.78289,0.431986,-0.0747386
1.85001,0.353577,-0.0438278
1.80894,0.431617,-0.0324615
1.90134,0.261128,-0.0558538
1.74086,0.239087,-0.351442
1.87925,0.352371,0
1.98024,0.173945,-0.0231425
1.73648,0.325602,-0.274865
1.80437,0.24781,-0.231828
1.82864,0.436317,0.0109264
1.93778,0.266132,-0.0113681
1.77072,0.332021,-0.19406
1.87658,0.16484,-0.17585
1.91018,0.358172,0.0452235
1.99618,0.175345,0.0233287
1.81584,0.340482,-0.129189
1.86424,0.256032,-0.153616
1.96129,0.269361,0.0345558
1.7628,0.420608,-0.116147
1.92133,0.168771,-0.112325
1.93887,0.36355,0.114883
1.97976,0.271897,0.0814146
1.84187,0.345362,-0.0872924
1.88767,0.25925,-0.099857
2.00643,0.27556,0.165333
1.79216,0.427615,-0.0750642
1.85909,0.348591,-0.0440139
1.81433,0.426215,-0.0325313
1.90224,0.254489,-0.0558538
1.73391,0.231969,-0.349873
1.8726,0.344363,0
1.98482,0.167369,-0.023189
1.7415,0.320254,-0.27548
1.81702,0.243088,-0.233344
1.83015,0.429932,0.0109264
1.93473,0.258836,-0.0113449
1.77187,0.325839,-0.19406
1.88509,0.158958,-0.176594
1.91142,0.351502,0.0452235
2.00076,0.168713,0.0233753
1.81702,0.334142,-0.129189
1.86512,0.249524,-0.153616
1.97014,0.263574,0.0346954
1.76814,0.415366,-0.116403
1.93385,0.16307,-0.113022
1.94798,0.358225,0.115348
1.9807,0.264986,0.0814146
1.83913,0.338208,-0.0871063
1.88856,0.252659,-0.099857
2.01923,0.270141,0.166309
1.79364,0.421357,-0.0750642
1.86423,0.342823,-0.0441069
1.8158,0.419879,-0.0325313
1.91105,0.24888,-0.0560866
1.7386,0.226422,-0.350658
1.88954,0.340662,0
1.98141,0.160116,-0.0231425
1.73483,0.31277,-0.27425
1.81392,0.236232,-0.232839
1.83553,0.424442,0.0109496
1.94752,0.25363,-0.0114146
1.78474,0.321768,-0.195345
1.8896,0.152698,-0.176966
1.92051,0.346246,0.0454097
2.00931,0.162372,0.0234684
1.82603,0.329213,-0.129747
1.85808,0.241982,-0.152965
1.96709,0.256178,0.0346256
1.76958,0.409191,-0.116403
1.93441,0.156318,-0.113022
1.94922,0.351422,0.115348
1.9935,0.259618,0.0819031
1.84817,0.333204,-0.0874785
1.88943,0.246065,-0.099857
2.01226,0.262061,0.165658
1.79121,0.414192,-0.0749014
1.86541,0.336313,-0.0441069
1.8252,0.414676,-0.0326709
1.91199,0.241541,-0.0560866
1.74334,0.220236,-0.351442
1.89083,0.333405,0
1.97802,0.152201,-0.0230959
1.73601,0.306107,-0.27425
1.81482,0.229265,-0.232839
1.83715,0.417391,0.0109496
1.94848,0.246151,-0.0114146
1.78596,0.314913,-0.195345
1.89414,0.145747,-0.177337
1.9297,0.340259,0.0455958
2.00992,0.154656,0.0234684
1.82728,0.322199,-0.129747
1.86295,0.235346,-0.153291
1.96409,0.248123,0.0345558
1.77114,0.402393,-0.116403
1.93499,0.14889,-0.113022
1.95055,0.343936,0.115348
1.99448,0.251962,0.0819031
1.84943,0.326106,-0.0874785
1.89432,0.239309,-0.100066
2.02116,0.255332,0.166309
1.80058,0.409083,-0.0752271
1.87063,0.329843,-0.0442
1.82259,0.408066,-0.0326011
1.91274,0.235532,-0.0560866
1.74403,0.214758,-0.351442
1.89187,0.327463,0
1.99045,0.146868,-0.0232356
1.74476,0.301999,-0.27548
1.8234,0.224532,-0.233849
1.94527,0.239539,-0.0113914
1.78302,0.308622,-0.194917
1.90253,0.140381,-0.178081
1.93076,0.334194,0.0455958
2.0104,0.14834,0.0234684
1.83615,0.317818,-0.130305
1.87159,0.230466,-0.153942
1.86892,0.418438,0.0557375
1.97677,0.243417,0.0347652
1.77239,0.396827,-0.116403
1.93147,0.142516,-0.11279
1.94769,0.337125,0.115115
1.99923,0.246183,0.0820659
1.85439,0.320975,-0.0876646
1.89903,0.233845,-0.100276
2.02195,0.248981,0.166309
1.80576,0.404297,-0.0753899
1.86772,0.323282,-0.0441069
1.82791,0.402562,-0.0326709
1.91355,0.228855,-0.0560866
1.74866,0.209135,-0.352227
1.893,0.320857,0
1.98696,0.13964,-0.023189
1.75359,0.297228,-0.276709
1.82418,0.218166,-0.233849
1.84769,0.406918,0.0109961
1.95801,0.234173,-0.0114611
1.78801,0.303061,-0.195345
1.89507,0.133181,-0.177337
1.93192,0.327453,0.0455958
2.01888,0.141883,0.0235616
1.83725,0.311407,-0.130305
1.8803,0.224878,-0.154593
1.87818,0.413632,0.0559702
1.97363,0.236041,0.0346954
1.77377,0.390638,-0.116403
1.9439,0.136613,-0.113487
1.95673,0.331659,0.11558
1.99611,0.238729,0.0819031
1.85943,0.315168,-0.0878508
1.89984,0.227215,-0.100276
2.03073,0.242869,0.16696
1.80716,0.397992,-0.0753899
1.87672,0.318097,-0.044293
1.83321,0.397026,-0.0327407
1.92228,0.223096,-0.0563193
1.74938,0.20303,-0.352227
1.89806,0.314903,0
1.99542,0.133236,-0.0232822
1.75462,0.291105,-0.276709
1.82887,0.212255,-0.234354
1.85301,0.401313,0.0110194
1.96279,0.227798,-0.0114843
1.7969,0.29812,-0.196202
1.89949,0.126831,-0.177709
1.93699,0.321362,0.0456888
2.01138,0.134302,0.0234684
1.83438,0.304339,-0.130026
1.88107,0.218314,-0.154593
1.88352,0.40792,0.0560866
1.98239,0.230072,0.034835
1.77902,0.385289,-0.116659
1.94835,0.130093,-0.11372
1.96181,0.325481,0.115813
1.99296,0.231299,0.0817402
1.85658,0.308022,-0.0876646
1.90458,0.221043,-0.100485
2.06799,0.343096,0.257388
2.03948,0.236698,0.167611
1.81635,0.393373,-0.0757155
1.87782,0.311545,-0.044293
1.8385,0.391457,-0.0328105
1.92305,0.216384,-0.0563193
1.75008,0.196922,-0.352227
1.90309,0.308916,0
1.99587,0.12627,-0.0232822
1.75563,0.284978,-0.276709
1.8296,0.205869,-0.234354
1.85831,0.395675,0.0110426
1.9596,0.220497,-0.0114611
1.80186,0.292483,-0.19663
1.90787,0.120702,-0.178453
1.946,0.31588,0.0458749
2.01982,0.127785,0.0235616
1.83937,0.298573,-0.130305
1.8739,0.210854,-0.153942
1.87711,0.399677,0.0558538
1.98716,0.223598,0.0349048
1.78426,0.379908,-0.116914
1.9488,0.123291,-0.11372
1.97476,0.32055,0.116511
2.0017,0.225234,0.0820659
1.86553,0.302819,-0.0880369
1.90931,0.214839,-0.100694
2.07309,0.336511,0.257876
2.03633,0.229131,0.167285
1.80989,0.385365,-0.0753899
1.88284,0.305628,-0.0443861
1.84377,0.385855,-0.0328803
1.92776,0.210103,-0.0564356
1.76635,0.192511,-0.355365
1.91206,0.303524,0
2.00828,0.120017,-0.0234219
1.75661,0.278848,-0.276709
1.8382,0.200341,-0.235364
1.85968,0.389185,0.0110426
1.96831,0.214522,-0.0115076
1.80679,0.286814,-0.197059
1.90431,0.113804,-0.178081
1.95104,0.309712,0.045968
2.02824,0.12121,0.0236547
1.84829,0.293401,-0.130863
1.88255,0.205175,-0.154593
1.87849,0.393122,0.0558538
1.98792,0.21666,0.0349048
1.78948,0.374494,-0.11717
1.9532,0.116725,-0.113952
1.97587,0.313654,0.116511
2.01439,0.219544,0.0825544
1.86658,0.296305,-0.0880369
1.91402,0.208605,-0.100904
2.06641,0.328027,0.256901
2.03712,0.222021,0.167285
1.81514,0.379864,-0.0755527
1.89179,0.300308,-0.0445722
1.84511,0.379417,-0.0328803
1.93246,0.203792,-0.056552
1.77091,0.186756,-0.356149
1.91311,0.296849,0
2.00469,0.112782,-0.0233753
1.76538,0.273927,-0.277939
1.83888,0.193924,-0.235364
1.86103,0.382692,0.0110426
1.96507,0.207231,-0.0114843
1.80385,0.279896,-0.19663
1.91662,0.107827,-0.179196
1.95211,0.3029,0.045968
2.02865,0.11413,0.0236547
1.8493,0.286948,-0.130863
1.88722,0.199021,-0.154918
1.87985,0.386563,0.0558538
1.99265,0.210139,0.0349746
1.79078,0.368246,-0.11717
1.94961,0.109683,-0.11372
1.96906,0.305531,0.116045
2.01514,0.212512,0.0825544
1.8755,0.291013,-0.0884091
1.92269,0.202761,-0.101322
2.0597,0.319595,0.255926
2.04978,0.216164,0.168262
1.82428,0.375136,-0.0758784
1.89283,0.293703,-0.0445722
1.85034,0.373766,-0.0329501
1.93316,0.197045,-0.056552
1.76375,0.179777,-0.35458
1.91018,0.289569,0
2.00907,0.105994,-0.0234219
1.76633,0.267763,-0.277939
1.83955,0.187503,-0.235364
1.87411,0.378568,0.0111124
1.96976,0.200775,-0.0115076
1.80089,0.273002,-0.196202
1.91699,0.101136,-0.179196
1.95315,0.296083,0.045968
2.02904,0.107047,0.0236547
1.85818,0.281687,-0.131421
1.89187,0.192836,-0.155243
1.89687,0.383165,0.0563193
1.99337,0.203182,0.0349746
1.79205,0.361992,-0.11717
1.94998,0.102876,-0.11372
1.97801,0.299852,0.116511
2.0119,0.20507,0.0823915
1.86465,0.282668,-0.0878508
1.92338,0.196048,-0.101322
2.04903,0.310617,0.254463
2.05052,0.209007,0.168262
1.82558,0.368765,-0.0758784
1.89384,0.287093,-0.0445722
1.86347,0.369314,-0.0331596
1.93387,0.189959,-0.056552
1.7644,0.173312,-0.35458
1.91518,0.283151,0
2.00944,0.09863,-0.0234219
1.7673,0.261287,-0.277939
1.84812,0.181536,-0.236374
1.86764,0.370142,0.0110659
1.97446,0.193946,-0.0115308
1.80975,0.267563,-0.197059
1.91735,0.0941095,-0.179196
1.95422,0.288923,0.045968
2.02942,0.0996104,0.0236547
1.85131,0.273707,-0.130863
1.9005,0.186681,-0.155894
1.89826,0.37621,0.0563193
1.99808,0.196266,0.0350444
1.8012,0.356974,-0.117682
1.9663,0.0965121,-0.11465
1.9791,0.292601,0.116511
2.01661,0.198086,0.0825544
1.87358,0.277001,-0.088223
1.92011,0.188607,-0.101113
2.05015,0.303106,0.254463
2.05127,0.201491,0.168262
1.83084,0.362849,-0.0760412
1.91071,0.28249,-0.0449444
1.86069,0.362694,-0.0330898
1.94242,0.184639,-0.0567847
1.76884,0.168139,-0.355365
1.92398,0.278279,0
2.00974,0.092317,-0.0234219
1.76811,0.255734,-0.277939
1.85658,0.17648,-0.237384
1.87665,0.365804,0.0111124
1.97506,0.187742,-0.0115308
1.81451,0.262446,-0.197487
1.92957,0.0886341,-0.180312
1.95512,0.282783,0.045968
2.03771,0.0936017,0.0237478
1.85611,0.268462,-0.131142
1.89711,0.180332,-0.155569
1.90336,0.37101,0.0564356
2.00267,0.190366,0.0351142
1.80623,0.352078,-0.117938
1.9626,0.0901515,-0.114418
1.98791,0.287525,0.116976
2.0212,0.192128,0.0827172
1.88235,0.272257,-0.0885953
1.92467,0.182952,-0.101322
2.05189,0.195046,0.168262
1.82805,0.356331,-0.0758784
1.90367,0.275341,-0.0447583
1.8698,0.357699,-0.0332294
1.94703,0.178222,-0.0569011
1.77723,0.162679,-0.356934
1.92494,0.27156,0
2.01805,0.0856397,-0.023515
1.76899,0.24956,-0.277939
1.86114,0.17036,-0.237889
1.87006,0.357747,0.0110659
1.99164,0.182305,-0.0116238
1.81936,0.256665,-0.197915
1.92987,0.0818976,-0.180312
1.96798,0.277632,0.0462471
2.04602,0.0868268,0.0238409
1.86098,0.262538,-0.131421
1.9017,0.174072,-0.155894
1.90071,0.363612,0.0563193
2.00332,0.183374,0.0351142
1.79961,0.34427,-0.117426
1.97487,0.0838076,-0.115115
1.99286,0.281142,0.117208
2.02584,0.185436,0.08288
1.88725,0.266243,-0.0887814
1.93325,0.176961,-0.101741
2.05605,0.290057,0.254951
2.0605,0.188608,0.168913
1.83321,0.350698,-0.0760412
1.9165,0.27037,-0.0450374
1.86324,0.349369,-0.0330898
1.95564,0.171785,-0.0571338
1.7739,0.155821,-0.356149
1.92592,0.264504,0
2.02234,0.078398,-0.0235616
1.78164,0.244689,-0.279784
1.84989,0.162496,-0.236374
1.88315,0.353103,0.0111356
1.98831,0.174654,-0.0116006
1.81634,0.249455,-0.197487
1.93413,0.0749784,-0.180683
1.96502,0.269873,0.0461541
2.04632,0.0793277,0.0238409
1.86589,0.256259,-0.1317
1.90629,0.16745,-0.15622
1.91382,0.358854,0.0566684
1.99999,0.175681,0.0350444
1.8087,0.339144,-0.117938
1.9632,0.0761051,-0.114418
1.98992,0.273293,0.116976
2.03447,0.178709,0.0832057
1.88425,0.258781,-0.0885953
1.93389,0.169874,-0.101741
2.0807,0.28576,0.257876
2.05721,0.180707,0.168587
1.83841,0.344714,-0.076204
1.90955,0.262256,-0.0448513
1.86051,0.34214,-0.03302
1.94826,0.164285,-0.0569011
1.78616,0.150616,-0.358502
1.93873,0.25937,0
2.0266,0.0714787,-0.0236081
1.77857,0.237943,-0.279169
1.85836,0.156704,-0.237384
1.8883,0.34725,0.0111589
1.99688,0.168385,-0.0116471
1.82115,0.24364,-0.197915
1.9304,0.0680857,-0.180312
1.96595,0.263012,0.0461541
2.05458,0.0724656,0.0239341
1.87468,0.250802,-0.132258
1.90687,0.160794,-0.15622
1.91113,0.351448,0.056552
2.01255,0.169706,0.0352539
1.8138,0.333549,-0.118194
1.96744,0.0693921,-0.11465
1.99086,0.266345,0.116976
2.0311,0.17127,0.0830429
1.88514,0.252201,-0.0885953
1.93845,0.163458,-0.10195
2.05807,0.275336,0.254951
2.08961,0.176204,0.171191
1.84746,0.33974,-0.0765297
1.90649,0.255058,-0.0447583
1.86951,0.337389,-0.0331596
1.94879,0.157823,-0.0569011
1.78274,0.144376,-0.357718
1.93164,0.251906,0
2.03083,0.064886,-0.0236547
1.79111,0.233578,-0.281014
1.87469,0.151822,-0.239405
1.88945,0.340987,0.0111589
2.00141,0.162085,-0.0116703
1.82194,0.2376,-0.197915
1.93858,0.0619386,-0.181055
1.97077,0.257009,0.0462471
2.04282,0.0652692,0.0237944
1.86759,0.243552,-0.1317
1.91136,0.154792,-0.156545
1.92016,0.346529,0.0567847
2.02107,0.163677,0.0353935
1.82668,0.32966,-0.118961
1.97564,0.0631229,-0.115115
1.99965,0.260774,0.117441
2.02767,0.164212,0.08288
1.88993,0.246466,-0.0887814
1.94296,0.157351,-0.10216
2.07472,0.270564,0.256901
1.85645,0.335031,-0.0768554
1.92319,0.250803,-0.0451305
1.87461,0.331558,-0.0332294
1.95332,0.151329,-0.0570174
1.78715,0.138455,-0.358502
1.94045,0.246169,0
2.03104,0.0577971,-0.0236547
1.78407,0.22633,-0.279784
1.87521,0.145278,-0.239405
1.8985,0.335783,0.0112054
2.00197,0.155098,-0.0116703
1.83065,0.23224,-0.198772
1.94675,0.0553984,-0.181799
1.97563,0.250631,0.0463402
2.05103,0.058366,0.0238875
1.87238,0.237534,-0.131979
1.91587,0.148428,-0.156871
1.91742,0.339128,0.0566684
2.01765,0.156313,0.0353237
1.82782,0.323282,-0.118961
1.98783,0.0565674,-0.115813
2.00847,0.254798,0.117906
2.04019,0.158059,0.0833685
1.89078,0.239868,-0.0887814
1.9435,0.150569,-0.10216
2.08747,0.26482,0.258363
1.84973,0.327157,-0.0765297
1.92802,0.244592,-0.0452235
1.89152,0.327743,-0.0335086
1.9658,0.145394,-0.0573665
1.79935,0.133084,-0.360856
1.94527,0.239883,0
2.03523,0.0508064,-0.0237012
1.78877,0.220584,-0.280399
1.86779,0.138145,-0.238394
1.89966,0.329153,0.0112054
2.00649,0.148404,-0.0116936
1.83145,0.225848,-0.198772
1.95091,0.0487015,-0.18217
1.98443,0.244712,0.0465263
2.05922,0.0514053,0.0239806
1.87716,0.231485,-0.132258
1.9124,0.141445,-0.156545
1.93041,0.33448,0.0570174
2.01419,0.148973,0.0352539
1.81714,0.314855,-0.118194
1.98402,0.0495281,-0.11558
2.01331,0.248274,0.118138
2.04471,0.151231,0.0835313
1.89954,0.234244,-0.0891536
1.94401,0.143783,-0.10216
1.8548,0.32138,-0.0766925
1.94077,0.239328,-0.0455027
1.88477,0.3198,-0.033369
1.96629,0.138531,-0.0573665
1.79981,0.126801,-0.360856
1.95006,0.233566,0
2.04339,0.043873,-0.0237944
1.79345,0.214808,-0.281014
1.87617,0.132182,-0.239405
1.9008,0.32252,0.0112054
2.00699,0.141398,-0.0116936
1.83618,0.219926,-0.199201
1.95107,0.0418907,-0.18217
1.98527,0.237783,0.0465263
2.06338,0.0443023,0.0240272
1.88588,0.225879,-0.132816
1.92481,0.135608,-0.157522
1.92762,0.327071,0.0569011
2.01869,0.142222,0.0353237
1.82216,0.309177,-0.118449
1.98817,0.0426874,-0.115813
2.00624,0.240294,0.117673
2.04523,0.144092,0.0835313
1.90431,0.228086,-0.0893398
1.94849,0.137277,-0.102369
1.85985,0.315572,-0.0768554
1.92968,0.231125,-0.0452235
1.88587,0.313219,-0.033369
1.96277,0.1314,-0.0572502
1.79632,0.120257,-0.360071
1.95484,0.22722,0
2.04353,0.0367404,-0.0237944
1.79419,0.208547,-0.281014
1.88058,0.125897,-0.23991
1.90586,0.316538,0.0112286
2.00747,0.134392,-0.0116936
1.83298,0.213056,-0.198772
1.95518,0.035152,-0.182542
1.98212,0.23039,0.0464332
2.07152,0.0372437,0.0241203
1.89062,0.219756,-0.133095
1.92527,0.128889,-0.157522
1.9327,0.320995,0.0570174
2.02715,0.13571,0.0354633
1.83505,0.304777,-0.119217
1.9923,0.0358193,-0.116045
2.01896,0.234673,0.118371
2.04572,0.136953,0.0835313
1.89716,0.220515,-0.0889675
1.95294,0.130741,-0.102578
2.07829,0.24157,0.256901
1.86094,0.309078,-0.0768554
1.93842,0.225312,-0.0454097
1.8909,0.307275,-0.0334388
1.96721,0.1248,-0.0573665
1.80065,0.114233,-0.360856
1.95165,0.219946,0
2.05564,0.0297802,-0.0239341
1.79884,0.202725,-0.281629
1.88497,0.119583,-0.240415
1.90695,0.309883,0.0112286
2.00793,0.127383,-0.0116936
1.84162,0.207547,-0.199629
1.95131,0.0282687,-0.18217
1.98291,0.22347,0.0464332
2.06764,0.029954,0.0240738
1.87552,0.211367,-0.131979
1.92969,0.12242,-0.157847
1.9338,0.314247,0.0570174
2.03161,0.128885,0.0355331
1.8361,0.298369,-0.119217
2.00839,0.0290955,-0.116976
2.02374,0.228071,0.118604
2.04619,0.12981,0.0835313
1.89791,0.213891,-0.0889675
1.95339,0.123923,-0.102578
2.07913,0.234313,0.256901
1.86596,0.303221,-0.0770182
1.9392,0.218543,-0.0454097
1.89597,0.30097,-0.0335086
1.97165,0.117828,-0.0574829
1.80105,0.107633,-0.360856
1.95244,0.212792,0
2.05174,0.0222028,-0.0238875
1.79564,0.195703,-0.281014
1.88936,0.11291,-0.24092
1.91598,0.304147,0.0112751
2.01637,0.120501,-0.0117401
1.85028,0.201658,-0.200486
1.95937,0.0212032,-0.182914
1.98769,0.216634,0.0465263
2.07574,0.0224625,0.0241669
1.88421,0.205357,-0.132537
1.9341,0.115584,-0.158173
1.93494,0.307157,0.0570174
2.04005,0.121916,0.0356727
1.84901,0.293516,-0.119984
2.01247,0.0217779,-0.117208
2.02853,0.221085,0.118836
2.05463,0.122787,0.083857
1.9106,0.208233,-0.0895259
1.9618,0.11724,-0.102997
1.871,0.297007,-0.077181
1.94793,0.212301,-0.0455958
1.89696,0.294682,-0.0335086
1.98001,0.11174,-0.0577156
1.80923,0.102103,-0.362425
1.96109,0.207157,0
2.0518,0.0153993,-0.0238875
1.80807,0.190993,-0.282858
1.88972,0.106645,-0.24092
1.90907,0.296564,0.0112286
2.01676,0.113814,-0.0117401
1.84303,0.194686,-0.199629
1.96341,0.0147359,-0.183286
1.99237,0.210462,0.0466193
2.0798,0.0156094,0.0242135
1.88885,0.199527,-0.132816
1.93846,0.109395,-0.158498
1.94385,0.301967,0.0572502
2.02846,0.114475,0.0354633
1.84208,0.286157,-0.119473
2.00455,0.0150446,-0.116743
2.02925,0.214358,0.118836
2.06699,0.116649,0.0843455
1.91526,0.202316,-0.089712
1.96218,0.110734,-0.102997
1.87198,0.290801,-0.077181
1.9526,0.206261,-0.0456888
1.90193,0.288659,-0.0335784
1.98039,0.104828,-0.0577156
1.81741,0.0962016,-0.363994
1.9618,0.200311,0
2.05984,0.00826962,-0.0239806
1.80872,0.184681,-0.282858
1.90197,0.100677,-0.242435
1.918,0.291099,0.0112751
2.02114,0.106985,-0.0117633
1.84765,0.188656,-0.200057
1.96345,0.00788262,-0.183286
1.99707,0.203913,0.0467124
2.08384,0.00836596,0.02426
1.89351,0.193338,-0.133095
1.94281,0.102839,-0.158823
1.94489,0.29518,0.0572502
2.04483,0.108239,0.0357425
1.85096,0.280924,-0.119984
2.00459,0.00804778,-0.116743
2.02999,0.207273,0.118836
2.0634,0.109222,0.0841827
1.91993,0.196035,-0.0898981
1.96654,0.104096,-0.103207
1.87693,0.284865,-0.0773438
1.94933,0.199038,-0.0455958
1.90287,0.28235,-0.0335784
1.98472,0.0984581,-0.057832
1.82164,0.0903681,-0.364778
1.9744,0.194983,0
2.06786,0.00144392,-0.0240738
1.81326,0.17907,-0.283473
1.89833,0.0941726,-0.24193
1.92687,0.28591,0.0113216
2.02548,0.10048,-0.0117866
1.85222,0.182918,-0.200486
1.97143,0.00137659,-0.184029
2.00172,0.197681,0.0468054
2.08386,0.00145509,0.02426
1.89811,0.187449,-0.133374
1.94314,0.0963955,-0.158823
1.94982,0.289315,0.0573665
2.04917,0.101655,0.0358123
1.84794,0.274198,-0.119729
2.0086,0.00140254,-0.116976
2.04259,0.201717,0.119534
2.06375,0.102379,0.0841827
1.91659,0.189274,-0.089712
1.96688,0.0975732,-0.103207
2.09006,0.206406,0.257876
1.88182,0.279226,-0.0775067
1.95794,0.193358,-0.0457819
1.90785,0.275945,-0.0336482
1.98906,0.0913661,-0.0579483
1.81804,0.0835104,-0.363994
1.97112,0.187366,0
2.07185,-0.00614759,-0.0241203
1.8139,0.172423,-0.283473
1.89866,0.0872137,-0.24193
1.92791,0.278846,0.0113216
2.03382,0.0934221,-0.0118331
1.85684,0.176504,-0.200914
1.9754,-0.00586142,-0.184401
2.00641,0.190721,0.0468985
1.89878,0.180491,-0.133374
1.95144,0.0896382,-0.159474
1.95878,0.283311,0.0575993
2.05352,0.0943271,0.0358821
1.85683,0.268565,-0.12024
2.01657,-0.00598358,-0.117441
2.05126,0.194985,0.119999
2.07209,0.0951802,0.0845083
1.91727,0.182248,-0.089712
1.96722,0.090363,-0.103207
2.10266,0.19987,0.259338
1.88283,0.272326,-0.0775067
1.96262,0.186559,-0.0458749
1.91277,0.269843,-0.033718
1.98537,0.0842533,-0.057832
1.81832,0.0771641,-0.363994
1.96379,0.179756,0
2.07582,-0.013405,-0.0241669
1.81056,0.16573,-0.282858
1.90292,0.0807543,-0.242435
1.93283,0.272674,0.0113449
2.03014,0.0861531,-0.0118098
1.85745,0.170022,-0.200914
1.98334,-0.0128078,-0.185145
2.00706,0.183717,0.0468985
1.8994,0.173862,-0.133374
1.94776,0.0826572,-0.159149
1.95976,0.276472,0.0575993
2.06183,0.0874979,0.0360218
1.86171,0.26264,-0.120496
2.02453,-0.0130738,-0.117906
2.05193,0.187824,0.119999
2.07241,0.0879471,0.0845083
1.92585,0.176283,-0.0900843
1.97152,0.0836653,-0.103416
2.11916,0.193978,0.261288
1.88377,0.265752,-0.0775067
1.96724,0.180072,-0.045968
1.92162,0.264255,-0.0338577
1.99764,0.0777897,-0.0581811
1.8225,0.0709695,-0.364778
1.98034,0.174303,0
2.07176,-0.0206107,-0.0241203
1.81506,0.159756,-0.283473
1.89923,0.0739574,-0.24193
1.93773,0.26647,0.0113681
2.03442,0.0792221,-0.0118331
1.86991,0.164583,-0.202199
1.98328,-0.0197305,-0.185145
2.01168,0.177061,0.0469915
1.90795,0.167931,-0.133932
1.95999,0.0763236,-0.160125
1.95675,0.269086,0.0574829
2.05813,0.0801451,0.035952
1.86261,0.256141,-0.120496
2.02048,-0.0201005,-0.117673
2.06053,0.181361,0.120464
2.0807,0.081024,0.084834
1.93442,0.170261,-0.0904565
1.98377,0.0772497,-0.104044
1.88864,0.25972,-0.0776695
1.97582,0.173905,-0.0461541
1.91852,0.257349,-0.0337879
2.00188,0.0713066,-0.0582974
1.83056,0.0652043,-0.366347
1.9849,0.168072,0
2.08368,-0.0276405,-0.02426
1.82346,0.154402,-0.284703
1.90739,0.0679409,-0.24294
1.9386,0.260043,0.0113681
2.03468,0.0724747,-0.0118331
1.86648,0.158045,-0.201771
1.9832,-0.0263077,-0.185145
2.01624,0.170726,0.0470846
1.90849,0.161603,-0.133932
1.96023,0.069823,-0.160125
1.96556,0.263658,0.0577156
2.06238,0.0734615,0.0360218
1.86741,0.250493,-0.120752
2.02439,-0.0268541,-0.117906
2.05714,0.174189,0.120232
1.93497,0.163844,-0.0904565
1.98003,0.0705281,-0.103835
1.89346,0.253987,-0.0778323
1.96444,0.16634,-0.0458749
1.91544,0.250133,-0.033718
2.00612,0.0644471,-0.0584138
1.8347,0.0589404,-0.367132
1.98946,0.161466,0
2.08357,-0.0349133,-0.02426
1.82793,0.148356,-0.285318
1.91951,0.061665,-0.244455
1.94743,0.25431,0.0114146
2.03891,0.0655008,-0.0118563
1.86703,0.15153,-0.201771
1.99106,-0.0333632,-0.185888
2.01682,0.163687,0.0470846
1.91302,0.155263,-0.134211
1.95249,0.0627245,-0.159474
1.97043,0.257313,0.057832
2.06262,0.0662624,0.0360218
1.87619,0.245007,-0.121264
2.03227,-0.0340537,-0.118371
2.05774,0.167008,0.120232
1.93553,0.15709,-0.0904565
1.98425,0.0637448,-0.104044
1.89433,0.247376,-0.0778323
1.96899,0.159805,-0.045968
1.91635,0.24311,-0.033718
1.99834,0.0568659,-0.0581811
1.83098,0.0521034,-0.366347
1.98206,0.153555,0
2.09542,-0.0427952,-0.0243997
1.82452,0.14135,-0.284703
1.91576,0.0545159,-0.24395
1.95232,0.247674,0.0114378
2.04314,0.0581406,-0.0118796
1.86757,0.144685,-0.201771
1.99491,-0.0407425,-0.18626
2.02538,0.156911,0.0472707
1.9096,0.147942,-0.133932
1.96068,0.0557942,-0.160125
1.96739,0.249586,0.0577156
2.07085,0.0589291,0.0361614
1.87707,0.238128,-0.121264
2.04012,-0.0416658,-0.118836
2.07028,0.16039,0.120929
1.93609,0.149994,-0.0904565
1.98447,0.0564712,-0.104044
1.89919,0.240934,-0.0779952
1.98152,0.153514,-0.0462471
1.92111,0.237245,-0.0337879
2.01451,0.0506412,-0.0586465
1.83507,0.0461303,-0.367132
1.99054,0.147574,0
2.08727,-0.0495534,-0.0243066
1.83286,0.135884,-0.285933
1.9199,0.0482628,-0.244455
1.9571,0.241689,0.0114611
2.05532,0.051667,-0.0119493
1.87597,0.13908,-0.202628
1.99476,-0.0473572,-0.18626
2.0219,0.149899,0.0471777
1.92202,0.142494,-0.134769
1.95687,0.0491922,-0.1598
1.96821,0.243061,0.0577156
2.07103,0.052062,0.0361614
1.87389,0.231413,-0.121008
2.03997,-0.0484304,-0.118836
2.07478,0.153819,0.121162
1.94853,0.144459,-0.0910149
1.99264,0.0500913,-0.104463
1.89601,0.234145,-0.0778323
1.98601,0.147238,-0.0463402
1.91796,0.230061,-0.033718
2.01068,0.0435228,-0.0585302
1.84306,0.0398946,-0.368701
1.99902,0.141188,0
1.83332,0.129485,-0.285933
1.92005,0.0415612,-0.244455
1.94999,0.233904,0.0114146
2.05148,0.0444061,-0.011926
1.87644,0.132531,-0.202628
1.99857,-0.0544279,-0.186632
2.03438,0.143686,0.0474568
1.92649,0.136065,-0.135049
1.965,0.0425341,-0.160451
1.96905,0.23619,0.0577156
2.0792,0.045006,0.036301
1.87865,0.225347,-0.121264
2.05176,-0.0558766,-0.119534
2.07531,0.146576,0.121162
1.957,0.13822,-0.0913871
2.00079,0.0433087,-0.104881
1.90872,0.228954,-0.0783208
1.98252,0.140023,-0.0462471
1.92272,0.223827,-0.0337879
2.01082,0.0365034,-0.0585302
1.84711,0.0335316,-0.369485
1.9995,0.134209,0
1.83771,0.123349,-0.286548
1.92812,0.0350023,-0.245465
1.95874,0.22802,0.0114611
2.05563,0.0373169,-0.0119493
1.8769,0.12598,-0.202628
2.00633,-0.0616491,-0.187375
2.03886,0.136851,0.0475499
1.92695,0.129339,-0.135049
1.9771,0.0358913,-0.161427
1.98177,0.230701,0.0580647
2.08734,0.0378926,0.0364406
1.87943,0.218787,-0.121264
2.04756,-0.0629162,-0.119301
2.0758,0.139331,0.121162
1.9495,0.130853,-0.0910149
2.00092,0.0363238,-0.104881
1.90951,0.222289,-0.0783208
1.97901,0.132834,-0.0461541
1.93939,0.218909,-0.0340671
2.02293,0.0296604,-0.0588792
1.85506,0.0271991,-0.371054
2.01193,0.127991,0
1.84207,0.117185,-0.287163
1.9322,0.0283302,-0.245971
1.9635,0.22163,0.0114843
2.05974,0.0302003,-0.0119725
1.88526,0.119933,-0.203484
2.00212,-0.0685155,-0.187003
2.04332,0.129987,0.0476429
1.93933,0.123373,-0.135886
1.96924,0.0288732,-0.160776
1.98257,0.223783,0.0580647
2.08746,0.0306066,0.0364406
1.89208,0.213569,-0.122031
2.05531,-0.0703358,-0.119766
2.08425,0.132591,0.121627
1.95393,0.124301,-0.091201
2.00903,0.0294566,-0.1053
1.91425,0.216071,-0.0784836
1.98744,0.126433,-0.0463402
1.93616,0.211703,-0.0339973
2.03101,0.0226877,-0.059112
1.85514,0.0207231,-0.371054
2.01237,0.120967,0
1.84247,0.110754,-0.287163
1.93626,0.0216292,-0.246476
1.97619,0.216079,0.0115541
2.06384,0.0230544,-0.0119958
1.89361,0.113828,-0.204341
2.00585,-0.0756544,-0.187375
2.04775,0.123094,0.047736
1.93975,0.116602,-0.135886
1.9773,0.0220877,-0.161427
1.99128,0.217729,0.0582974
2.08755,0.0233193,0.0364406
1.89678,0.207396,-0.122287
2.05505,-0.0775103,-0.119766
2.09267,0.125794,0.122092
1.95435,0.117479,-0.091201
2.00113,0.0223539,-0.104881
1.91896,0.209822,-0.0786465
1.99586,0.119974,-0.0465263
1.94087,0.205363,-0.0340671
2.03108,0.0155975,-0.059112
1.8552,0.0142468,-0.371054
2.02077,0.114393,0
1.83495,0.103875,-0.285933
1.94029,0.0149002,-0.246981
1.97693,0.209179,0.0115541
2.0719,0.015911,-0.0120423
1.89002,0.106992,-0.203913
2.02149,-0.0833122,-0.188862
2.05216,0.11617,0.047829
1.93616,0.109604,-0.135607
1.97736,0.015185,-0.161427
1.98806,0.210356,0.0581811
1.89749,0.200774,-0.122287
2.06275,-0.0850127,-0.120232
1.96672,0.111333,-0.0917594
2.00918,0.0154293,-0.1053
1.91571,0.202701,-0.0784836
1.99227,0.11278,-0.0464332
1.94552,0.199334,-0.0341369
2.03512,0.00887993,-0.0592283
1.85916,0.00811217,-0.371838
2.01314,0.107266,0
1.84713,0.0984203,-0.287778
1.93636,0.008449,-0.246476
1.96966,0.201807,0.0115076
2.07595,0.00905807,-0.0120655
1.89434,0.100936,-0.204341
2.02518,-0.090192,-0.189234
2.06052,0.10979,0.0480151
1.94449,0.103608,-0.136165
1.98538,0.00866288,-0.162078
1.9967,0.204578,0.0584138
1.89418,0.194074,-0.122031
2.06645,-0.0920298,-0.120464
1.97106,0.105024,-0.0919455
2.01322,0.00878437,-0.105509
1.92035,0.196755,-0.0786465
2.00861,0.107024,-0.0468054
1.94623,0.192202,-0.0341369
2.04313,0.00142682,-0.0594611
1.86702,0.00130384,-0.373407
2.02151,0.100284,0
1.85142,0.0918458,-0.288393
1.93638,0.00135227,-0.246476
1.9664,0.194194,0.0114843
2.06796,0.00144416,-0.012019
1.89867,0.0941895,-0.20477
2.02881,-0.0978054,-0.189606
2.0649,0.102436,0.0481082
1.94884,0.0966784,-0.136444
1.98938,0.00138929,-0.162403
2.00141,0.197651,0.0585302
1.90282,0.187915,-0.122543
2.0661,-0.0996027,-0.120464
1.97144,0.0977994,-0.0919455
2.02522,0.00141431,-0.106137
1.92503,0.190108,-0.0788093
1.997,0.0990677,-0.0465263
1.94689,0.185408,-0.0341369
2.04713,-0.00571579,-0.0595774
1.87486,-0.00523482,-0.374976
2.02984,0.0935956,0
1.85963,0.0857471,-0.289623
1.94827,-0.00543979,-0.247991
1.98299,0.188846,0.0115773
2.07596,-0.00579629,-0.0120655
1.90296,0.087745,-0.205198
2.02448,-0.104681,-0.189234
2.05726,0.0948596,0.0479221
1.95714,0.0902431,-0.137002
1.98937,-0.00555455,-0.162403
1.99811,0.190285,0.0584138
1.90744,0.181651,-0.122798
2.06574,-0.106814,-0.120464
1.97176,0.0909176,-0.0919455
2.02521,-0.00565461,-0.106137
1.92966,0.183767,-0.0789721
2.00133,0.0922809,-0.0466193
1.95148,0.179316,-0.0342067
2.0471,-0.0125048,-0.0595774
1.86307,-0.0113807,-0.372623
2.03414,0.0870343,0
1.8599,0.0795793,-0.289623
1.94428,-0.0118768,-0.247486
1.98759,0.182634,0.0116006
2.08393,-0.0127298,-0.012112
1.90324,0.0814335,-0.205198
2.0281,-0.111613,-0.189606
2.07354,0.0887202,0.0482943
1.94945,0.0834108,-0.136444
1.98935,-0.0121521,-0.162403
2.00669,0.18439,0.0586465
1.91996,0.176419,-0.123566
2.07733,-0.114322,-0.121162
1.97605,0.0845487,-0.0921316
2.02518,-0.012371,-0.106137
1.93424,0.177732,-0.079135
2.00962,0.0859851,-0.0468054
1.96006,0.173207,-0.0343463
2.05104,-0.0196894,-0.0596938
1.87871,-0.0180351,-0.375761
2.03843,0.0800898,0
1.85622,0.0729309,-0.289008
1.95613,-0.0187783,-0.249001
1.99619,0.176399,0.0116471
2.09187,-0.0200814,-0.0121585
1.91146,0.0751012,-0.206055
2.03963,-0.11939,-0.190721
2.07384,0.0814811,0.0482943
1.95771,0.0769182,-0.137002
2.00125,-0.0192114,-0.16338
2.00732,0.177383,0.0586465
1.91261,0.169013,-0.123054
2.08489,-0.12204,-0.121627
1.98831,0.0781206,-0.09269
2.02912,-0.019479,-0.106347
1.93485,0.170979,-0.079135
2.0139,0.0791261,-0.0468985
1.96065,0.166364,-0.0343463
2.05895,-0.026953,-0.0599265
1.87471,-0.0245411,-0.374976
2.0347,0.0728312,0
1.86041,0.0665928,-0.289623
1.95208,-0.025554,-0.248496
1.99281,0.169092,0.0116238
2.09579,-0.0274351,-0.0121818
1.91171,0.0684289,-0.206055
2.04317,-0.126755,-0.191093
2.07811,0.074385,0.0483873
1.96594,0.07037,-0.13756
2.00516,-0.0262488,-0.163705
2.0159,0.171052,0.0588792
1.91716,0.162674,-0.12331
2.08844,-0.129564,-0.121859
1.99656,0.0714659,-0.0930622
2.03703,-0.026666,-0.106765
1.93942,0.164562,-0.0792978
2.01416,0.0720963,-0.0468985
1.96122,0.15952,-0.0343463
2.06684,-0.034272,-0.0601592
2.04693,0.0661162,0
1.86064,0.0600987,-0.289623
1.95595,-0.0324332,-0.249001
1.99338,0.162135,0.0116238
1.91194,0.0617558,-0.206055
2.04272,-0.133886,-0.191093
2.08235,0.0672602,0.0484804
1.97016,0.0636364,-0.137839
2.01303,-0.0333797,-0.164356
2.01648,0.164014,0.0588792
1.9217,0.156305,-0.123566
2.09196,-0.137114,-0.122092
1.9928,0.0643676,-0.0928761
2.04891,-0.0339746,-0.107393
1.93998,0.157792,-0.0792978
2.0144,0.0650655,-0.0468985
1.96576,0.152982,-0.0344161
2.07071,-0.0415672,-0.0602756
2.05515,0.0592004,0
1.87269,0.0539445,-0.291467
1.95979,-0.0393407,-0.249506
2.00191,0.155796,0.0116703
1.91612,0.0551955,-0.206483
2.05018,-0.141565,-0.191837
2.08257,0.0599904,0.0484804
1.97037,0.0567583,-0.137839
2.00891,-0.0403268,-0.164031
2.01704,0.156974,0.0588792
1.92621,0.149905,-0.123822
2.09147,-0.144416,-0.122092
1.99701,0.0575256,-0.0930622
2.04478,-0.0410468,-0.107184
1.94849,0.151639,-0.0796234
2.01462,0.058033,-0.0468985
1.97425,0.146713,-0.0345558
2.07055,-0.0487947,-0.0602756
2.05934,0.0521279,0
1.87681,0.0475077,-0.292082
1.96361,-0.0462745,-0.250011
2.00244,0.148808,0.0116703
1.92425,0.0487084,-0.20734
2.04968,-0.14872,-0.191837
2.09476,0.0530246,0.0487595
1.97454,0.0499815,-0.138118
2.01673,-0.0475264,-0.164682
2.02555,0.150525,0.059112
1.93469,0.143772,-0.124333
2.09493,-0.152004,-0.122325
2.00918,0.0508582,-0.0936206
2.04862,-0.0482779,-0.107393
1.95299,0.145133,-0.0797863
2.0268,0.0513043,-0.0471777
1.97874,0.140103,-0.0346256
2.07836,-0.0562387,-0.0605083
2.05951,0.0449387,0
1.87697,0.0409556,-0.292082
1.96343,-0.053129,-0.250011
2.01093,0.142382,0.0117168
1.92838,0.0420775,-0.207768
2.05709,-0.156479,-0.19258
2.09893,0.0457989,0.0488526
1.97072,0.0430012,-0.137839
2.01655,-0.0545663,-0.164682
2.03006,0.143736,0.0592283
1.93518,0.137018,-0.124333
2.09837,-0.159619,-0.122557
2.00135,0.0436697,-0.0932484
2.04844,-0.0554291,-0.107393
1.9495,0.138032,-0.0796234
2.03097,0.0443159,-0.0472707
1.97922,0.133195,-0.0346256
2.07415,-0.0633711,-0.060392
2.06365,0.0378227,0
1.885,0.0345484,-0.293312
1.96324,-0.0599823,-0.250011
2.00743,0.135093,0.0116936
1.92454,0.035273,-0.20734
2.05653,-0.163658,-0.19258
2.08708,0.0382521,0.0485734
1.98282,0.0363412,-0.138676
2.02033,-0.0617268,-0.165007
2.03055,0.136649,0.0592283
1.93564,0.130262,-0.124333
2.01348,0.036903,-0.0938067
2.05622,-0.0628231,-0.107812
1.95794,0.131763,-0.0799491
2.02711,0.0371529,-0.0471777
1.97967,0.126285,-0.0346256
2.08591,-0.071019,-0.060741
2.06377,0.0306189,0
1.89302,0.0280855,-0.294542
1.97095,-0.0671049,-0.251021
2.01188,0.128339,0.0117168
1.93261,0.0286729,-0.208197
2.07579,-0.172485,-0.194439
1.97895,0.0293605,-0.138397
2.02011,-0.0687787,-0.165007
2.03899,0.130069,0.0594611
1.94007,0.123759,-0.124589
2.01759,0.0299337,-0.0939929
2.06397,-0.0702721,-0.108231
1.95839,0.124927,-0.0799491
2.03523,0.0301954,-0.0473638
1.9801,0.119374,-0.0346256
2.08565,-0.0782998,-0.060741
2.07187,0.0235056,0
1.88915,0.0214327,-0.293927
1.97467,-0.0741333,-0.251526
2.01631,0.121556,0.0117401
1.93667,0.0219718,-0.208625
1.98702,0.022543,-0.138955
2.03181,-0.0762784,-0.165984
2.04342,0.123191,0.0595774
1.94846,0.117466,-0.125101
2.00969,0.0228002,-0.0936206
2.06371,-0.0774763,-0.108231
1.96281,0.118331,-0.0801119
2.03532,0.0230909,-0.0473638
1.99249,0.113142,-0.034835
2.08936,-0.0857435,-0.0608574
2.07194,0.0162733,0
1.88921,0.0148382,-0.293927
1.98232,-0.0813511,-0.252536
2.0247,0.114971,0.0117866
1.94071,0.0152426,-0.209053
1.98709,0.0156069,-0.138955
2.03551,-0.0835338,-0.166309
2.04783,0.116284,0.0596938
1.94886,0.110664,-0.125101
2.02175,0.0158791,-0.094179
2.06742,-0.0848433,-0.10844
1.97119,0.111932,-0.0804376
2.04738,0.0160804,-0.0476429
2.00086,0.106611,-0.0349746
2.07598,0.00905823,0
1.89716,0.00827797,-0.295157
1.98599,-0.0884468,-0.253042
2.02909,0.108116,0.0118098
1.94473,0.00848554,-0.209482
1.99511,0.00870536,-0.139513
2.03521,-0.0906385,-0.166309
2.04024,0.10871,0.0594611
1.94923,0.103861,-0.125101
2.02978,0.00885664,-0.0945512
2.0711,-0.0922372,-0.108649
1.97157,0.105051,-0.0804376
2.05143,0.00895108,-0.047736
2.00521,0.0998253,-0.0350444
2.088,0.00182212,0
1.89322,0.00165215,-0.294542
1.97378,-0.0948075,-0.251526
2.02146,0.100634,0.0117633
1.95668,0.00170753,-0.210767
2.00311,0.00174804,-0.140071
2.03886,-0.0979334,-0.166634
2.04859,0.101985,0.0596938
1.95357,0.0972544,-0.125357
2.03779,0.00177831,-0.0949235
2.07077,-0.0994661,-0.108649
1.97591,0.0983667,-0.0806004
2.04745,0.00178673,-0.0476429
1.99756,0.0924554,-0.0349048
2.09199,-0.00547684,0
1.90112,-0.00497714,-0.295772
1.98929,-0.102514,-0.253547
2.03379,0.0941323,0.0118331
1.94872,-0.00510175,-0.20991
2.00709,-0.00525457,-0.14035
2.0385,-0.10505,-0.166634
2.04894,0.0948335,0.0596938
1.94991,0.09025,-0.125101
2.02979,-0.005314,-0.0945512
2.07041,-0.106694,-0.108649
1.98024,0.0916537,-0.0807633
2.04744,-0.00536019,-0.0476429
2.00186,0.085653,-0.0349746
2.09196,-0.0127792,0
1.909,-0.0116616,-0.297001
1.98892,-0.109457,-0.253547
2.0381,0.0872035,0.0118563
1.96062,-0.0119769,-0.211195
2.00706,-0.0122606,-0.14035
2.04609,-0.112603,-0.167285
2.06124,0.0881936,0.0600429
1.96218,0.0839549,-0.125868
2.03376,-0.0124237,-0.0947374
2.08199,-0.114579,-0.109277
1.98454,0.0849117,-0.0809261
2.0594,-0.0125803,-0.0479221
2.01014,0.0789787,-0.0351142
2.0879,-0.020043,0
1.90895,-0.0183251,-0.297001
1.99645,-0.116863,-0.254557
2.04239,0.0802457,0.0118796
1.96057,-0.0188207,-0.211195
2.011,-0.0193048,-0.140629
2.05364,-0.12021,-0.167936
2.06154,0.080998,0.0600429
1.96246,0.0771051,-0.125868
2.0377,-0.0195611,-0.0949235
2.08556,-0.122079,-0.109487
1.98881,0.0781407,-0.0810889
2.06335,-0.0198073,-0.0480151
2.01038,0.0726633,-0.0351142
1.90888,-0.0243222,-0.297001
2.05063,0.0741179,0.011926
1.96448,-0.0250305,-0.211624
2.01093,-0.0256224,-0.140629
2.05325,-0.126662,-0.167936
2.06578,0.0746655,0.0601592
1.97067,0.0712279,-0.12638
2.04961,-0.0261153,-0.0954819
2.08916,-0.128876,-0.109696
1.98905,0.0718923,-0.0810889
2.06727,-0.0263403,-0.0481082
2.01862,0.0659063,-0.0352539
1.92064,-0.0311777,-0.298846
2.04687,0.0668289,0.0119028
1.96835,-0.0319522,-0.212052
2.02678,-0.0329007,-0.141745
2.05678,-0.134087,-0.168262
2.06602,0.0674541,0.0601592
1.96691,0.0642183,-0.126124
2.0535,-0.0333345,-0.095668
2.08869,-0.136168,-0.109696
1.99728,0.0652096,-0.0814146
2.07517,-0.0336861,-0.0482943
2.02283,0.0589762,-0.0353237
1.92447,-0.0379598,-0.299461
2.0471,0.0596836,0.0119028
1.96823,-0.0388229,-0.212052
2.02666,-0.0399753,-0.141745
2.06027,-0.141539,-0.168587
2.06625,0.0602419,0.0601592
1.97112,0.0574684,-0.12638
2.05737,-0.0405811,-0.0958541
2.00149,0.0583539,-0.0815774
2.07503,-0.0409296,-0.0482943
2.02303,0.0519148,-0.0353237
1.92828,-0.0447689,-0.300076
2.05529,0.0527428,0.0119493
1.98001,-0.04597,-0.213337
2.02252,-0.0469568,-0.141466
2.06374,-0.149017,-0.168913
1.9753,0.05069,-0.126636
2.05322,-0.0476697,-0.095668
2.00967,0.0515721,-0.0819031
2.07088,-0.0480798,-0.0482012
2.0312,0.0446756,-0.0354633
1.93205,-0.0519423,-0.300691
2.05947,0.0452974,0.0119725
1.97188,-0.053013,-0.212481
2.03031,-0.0545839,-0.142024
2.07113,-0.157184,-0.169564
1.97946,0.0435376,-0.126892
2.05703,-0.0553022,-0.0958541
2.01384,0.0442938,-0.0820659
2.08268,-0.055992,-0.0484804
2.05134,0.0379551,-0.0358123
1.92791,-0.0585661,-0.300076
2.06361,0.0381822,0.0119958
1.99156,-0.0604996,-0.214623
2.03808,-0.061913,-0.142582
2.06262,-0.163781,-0.168913
1.98359,0.0367016,-0.127148
2.0688,-0.0628462,-0.0964125
2.01398,0.0372639,-0.0820659
2.09447,-0.0636259,-0.0487595
2.05145,0.0311524,-0.0358123
1.9356,-0.0652252,-0.301306
2.07173,0.0314603,0.0120423
1.99929,-0.0673714,-0.215479
2.03786,-0.0686711,-0.142582
2.07796,-0.171935,-0.170214
1.9837,0.0301236,-0.127148
2.06858,-0.0697062,-0.0964125
2.0141,0.0305851,-0.0820659
2.09025,-0.0704363,-0.0486665
2.04755,0.0239445,-0.0357425
1.93931,-0.0721282,-0.301921
2.06782,0.0241816,0.012019
1.99507,-0.074202,-0.215051
2.04559,-0.0760808,-0.14314
2.07735,-0.179187,-0.170214
1.99178,0.0232923,-0.127659
2.07631,-0.0772235,-0.0967847
2.02218,0.0236479,-0.0823915
2.05162,0.0168299,-0.0358123
1.93905,-0.0788972,-0.301921
2.0719,0.0169963,0.0120423
1.99877,-0.0813273,-0.215479
2.04531,-0.0832208,-0.14314
1.99584,0.0163723,-0.127915
2.07204,-0.0843083,-0.0965986
2.02625,0.0166218,-0.0825544
2.05167,0.00931024,-0.0358123
2.08394,0.00945671,0.012112
2.00244,-0.0888289,-0.215908
2.04898,-0.0908935,-0.143419
2.00387,0.00909333,-0.128427
2.0797,-0.0922563,-0.0969709
2.0263,0.00919512,-0.0825544
2.06368,0.00252125,-0.0360218
2.07996,0.00254114,0.0120888
2.00213,-0.0954688,-0.215908
2.04866,-0.0976876,-0.143419
2.00389,0.0024482,-0.128427
2.07938,-0.0991523,-0.0969709
2.02632,0.0024756,-0.0825544
2.07568,-0.00507184,-0.0362312
2.00971,-0.103214,-0.216764
2.05626,-0.105605,-0.143977
2.00388,-0.00489641,-0.128427
2.08299,-0.106978,-0.097157
2.03431,-0.00497075,-0.08288
2.06365,-0.0115257,-0.0360218
2.00541,-0.109311,-0.216336
2.06787,-0.112716,-0.144814
2.00386,-0.0111918,-0.128427
2.08265,-0.113521,-0.097157
2.03828,-0.011384,-0.0830429
2.0676,-0.0187654,-0.0360916
2.01295,-0.116771,-0.217193
2.06747,-0.119934,-0.144814
2.01578,-0.0182951,-0.129194
2.08623,-0.121022,-0.0973431
2.05021,-0.0186077,-0.0835313
2.07552,-0.0260831,-0.0362312
2.01253,-0.123797,-0.217193
