2.45774,-0.385751,-0.028963
2.46131,-0.413649,-0.0290561
2.45212,-0.420029,-0.028963
2.43874,-0.426945,-0.0288233
2.44662,-0.428324,0.0289165
2.44511,-0.436862,-0.0289165
2.44114,-0.436152,-0.144417
2.44365,-0.444968,-0.0289165
2.43414,-0.452459,-0.0288233
2.41682,-0.457974,-0.0286371
2.43254,-0.460953,0.0288233
2.42467,-0.459461,-0.14372
2.41922,-0.466744,-0.0286836
2.42313,-0.467499,-0.14372
2.41749,-0.475608,-0.0286836
2.41357,-0.474836,-0.143255
2.4119,-0.483258,-0.0286371
2.40798,-0.482473,-0.143022
2.40645,-0.490034,-0.0285905
2.40254,-0.489239,-0.142789
2.39689,-0.496808,-0.0284974
2.40082,-0.497622,-0.142789
2.4634,-0.395455,-0.07261
2.39114,-0.504764,-0.0284508
2.39507,-0.505593,-0.142557
2.45806,-0.403404,-0.0724936
2.38936,-0.513107,-0.0284508
2.38548,-0.512274,-0.142092
2.44488,-0.409572,-0.0721445
2.38765,-0.521028,-0.0284508
2.37987,-0.51933,-0.141859
2.44336,-0.41853,-0.0721445
2.46013,-0.421401,-0.0145065
2.38182,-0.528908,0.0284042
2.37405,-0.527184,-0.141627
2.44196,-0.42663,-0.0721445
2.36834,-0.534164,-0.0282646
2.4469,-0.427492,-0.0144368
2.37229,-0.535053,-0.141627
2.43259,-0.433748,-0.0719118
2.36647,-0.542428,-0.0282646
2.44539,-0.43603,-0.0144368
2.37036,-0.543321,0.0283111
2.35873,-0.540655,-0.140929
2.43491,-0.443377,-0.0720282
2.36446,-0.551098,-0.0282646
2.44377,-0.44499,-0.0144368
2.35673,-0.549296,-0.140929
2.4444,-0.445104,-0.130212
2.4137,-0.448224,-0.0714464
2.35863,-0.558426,-0.028218
2.43434,-0.452057,-0.0143903
2.3548,-0.557519,-0.140929
2.4122,-0.456225,-0.0714464
2.35288,-0.56531,-0.0281714
2.4289,-0.459384,-0.0143671
2.3506,-0.564762,-0.225668
2.34899,-0.564376,0.0281249
2.4325,-0.460065,0.0432122
2.34906,-0.564392,-0.140696
2.42561,-0.458762,-0.129375
2.40274,-0.463129,-0.0712136
2.33923,-0.570676,-0.0280317
2.42335,-0.467103,-0.0143438
2.42302,-0.467039,0.0430725
2.34319,-0.571642,-0.140464
2.42399,-0.467226,-0.129375
2.39718,-0.470743,-0.0710973
2.33334,-0.577876,-0.0279852
2.42171,-0.475559,-0.0143438
2.41745,-0.474724,0.0430027
2.33731,-0.578858,-0.140231
2.41451,-0.474145,-0.128956
2.39552,-0.479108,-0.0710973
2.33519,-0.586993,-0.0280317
2.40826,-0.481656,-0.0142741
2.40423,-0.480849,-0.200157
2.40794,-0.481591,0.0428631
2.3314,-0.58604,-0.139999
2.40631,-0.481265,0.0999771
2.405,-0.481004,-0.128537
2.38609,-0.485455,-0.0708645
2.40665,-0.489639,-0.0142741
2.32329,-0.592199,-0.223809
2.40633,-0.489573,0.0428631
2.32557,-0.592781,-0.139766
2.38038,-0.493385,-0.0707482
2.32329,-0.601277,-0.0279386
2.39701,-0.496833,-0.0142276
2.3211,-0.60071,-0.223809
2.4006,-0.497578,0.0427933
2.31565,-0.5993,-0.139301
2.39377,-0.496161,-0.128118
2.38255,-0.502517,-0.0708645
2.31731,-0.608367,-0.027892
2.39918,-0.506023,-0.0142508
2.31899,-0.608809,-0.223809
2.32118,-0.609383,0.0279386
2.39126,-0.504354,-0.199506
2.39885,-0.505954,0.0427933
2.31741,-0.608393,-0.139534
2.39202,-0.504514,-0.128118
2.47569,-0.396985,-0.058344
2.38087,-0.510415,-0.0708645
2.31141,-0.61502,-0.0278455
2.39357,-0.513138,-0.0142276
2.30926,-0.614447,-0.223066
2.38958,-0.512281,-0.199506
2.31538,-0.616075,-0.139534
2.38643,-0.511606,-0.127909
2.46647,-0.4039,-0.0581579
2.36736,-0.516167,-0.0705155
2.30925,-0.623085,-0.0278455
2.38395,-0.519785,-0.0141811
2.3071,-0.622504,-0.223066
2.37998,-0.51892,-0.198855
2.3055,-0.622073,-0.139069
2.38463,-0.519933,-0.127909
2.44927,-0.409867,-0.0577856
2.35374,-0.522242,-0.0701664
2.29924,-0.629432,-0.0277523
2.38203,-0.528519,-0.0141811
2.29712,-0.628853,-0.222322
2.3031,-0.630488,0.0277989
2.37806,-0.52764,-0.198855
2.3778,-0.527582,0.0425141
2.30321,-0.630519,-0.139069
2.37881,-0.527804,-0.1277
2.44775,-0.418842,-0.0577856
2.3558,-0.531335,-0.0702827
2.28932,-0.635315,-0.0276592
2.29108,-0.635803,-0.22195
2.29317,-0.636384,0.0277058
2.2933,-0.636419,-0.138603
2.37824,-0.536395,0.0993258
2.44429,-0.427036,-0.115583
2.36526,-0.533468,-0.127072
2.45021,-0.428071,-0.0578787
2.35013,-0.538251,-0.0701664
2.44944,-0.436312,0
2.2872,-0.642903,-0.0276592
2.28512,-0.642319,-0.221579
2.2872,-0.642903,0.0276592
2.35887,-0.540254,-0.197553
2.37255,-0.543387,0.0991629
2.43892,-0.434438,-0.115397
2.36737,-0.5422,-0.127281
2.44484,-0.435493,-0.0577856
2.34434,-0.545545,-0.07005
2.4361,-0.442714,0
2.27725,-0.648691,-0.0275661
2.36477,-0.5503,-0.0141113
2.2867,-0.651383,-0.22195
2.28494,-0.650883,0.0276592
2.36086,-0.549388,-0.197878
2.44132,-0.443664,-0.115583
2.36157,-0.549555,-0.127072
2.43937,-0.44331,-0.0576926
2.34242,-0.553725,-0.07005
2.43847,-0.451944,0
2.27497,-0.656637,-0.0275661
2.28058,-0.658256,-0.221579
2.28266,-0.658855,0.0276592
2.35116,-0.555792,-0.197227
2.35863,-0.557556,0.0423046
2.27511,-0.656678,-0.137906
2.43583,-0.451455,-0.115397
2.35187,-0.555957,-0.126653
2.42208,-0.448907,-0.0573204
2.34436,-0.562832,-0.0701664
2.42509,-0.458225,0
2.27267,-0.664574,-0.0275661
2.34921,-0.563995,-0.0140416
2.2668,-0.66286,-0.220463
2.27267,-0.664574,0.0275661
2.41918,-0.457109,-0.172159
2.34533,-0.563065,-0.196902
2.26897,-0.663495,-0.137673
2.41854,-0.456987,-0.114653
2.35379,-0.565096,-0.126862
2.41657,-0.456616,-0.0572273
2.33462,-0.569118,-0.0699336
2.41955,-0.465931,0
2.27033,-0.672503,-0.0275661
2.26448,-0.670768,-0.220463
2.2665,-0.671367,0.0275195
2.34335,-0.571248,-0.196902
2.41693,-0.465427,-0.114653
2.34405,-0.571417,-0.126444
2.33948,-0.570304,0.196577
2.41889,-0.465805,-0.0573204
2.32873,-0.576303,-0.0698173
2.41005,-0.472834,0
2.25265,-0.675826,-0.0273798
2.25449,-0.67638,-0.21972
2.41333,-0.473476,0.0572273
2.26031,-0.678125,0.027473
2.33361,-0.577509,-0.196251
2.26429,-0.679319,-0.137673
2.41137,-0.473091,-0.114467
2.33428,-0.577676,-0.126025
2.32974,-0.576551,0.195926
2.4094,-0.472706,-0.0571343
2.31895,-0.582481,-0.0695846
2.40447,-0.48046,0
2.2541,-0.684848,-0.0274264
2.3283,-0.58483,-0.305569
2.25974,-0.686561,-0.220463
2.2541,-0.684848,0.0274264
2.41426,-0.482417,-0.172159
2.32771,-0.58468,-0.195926
2.25808,-0.686058,-0.137441
2.4097,-0.481505,-0.114467
2.33225,-0.585821,-0.126025
2.31998,-0.582738,0.195275
2.40774,-0.481113,-0.0571343
2.31313,-0.58918,-0.0694682
2.40286,-0.488431,0
2.24799,-0.691144,-0.0273798
2.31866,-0.590589,-0.304559
2.25364,-0.69288,-0.220092
2.41005,-0.489892,0.0572273
2.24417,-0.689968,0.0273333
2.40092,-0.488036,-0.171322
2.32189,-0.591412,-0.1956
2.24816,-0.691195,-0.136976
2.40026,-0.487902,-0.114094
2.3303,-0.593552,-0.126025
2.31803,-0.590428,0.195275
2.39829,-0.487502,-0.0569482
2.30332,-0.59525,-0.0692355
2.40114,-0.496815,0
2.24175,-0.697798,-0.0273333
2.31659,-0.598679,-0.304559
2.32749,-0.601497,-0.0139718
2.24741,-0.699559,-0.21972
2.40049,-0.496681,0.0570412
2.23793,-0.696609,0.0272867
2.40311,-0.497222,-0.171601
2.31981,-0.599513,-0.1956
2.24192,-0.697851,-0.136743
2.32173,-0.600009,0.0976975
2.39071,-0.494658,-0.113722
2.32434,-0.600683,-0.125816
2.31595,-0.598515,0.195275
2.39266,-0.49506,-0.0568551
2.46428,-0.394272,-0.0435612
2.3051,-0.604301,-0.0693518
2.38374,-0.501897,0
2.2393,-0.705619,-0.0273333
2.31064,-0.605755,-0.304054
2.23356,-0.703809,-0.218604
2.39483,-0.504233,0.0569482
2.23167,-0.703214,0.0272401
2.37793,-0.500675,-0.169927
2.3212,-0.608521,0.0418858
2.24328,-0.706873,-0.136976
2.31962,-0.608109,0.0976975
2.38115,-0.501354,-0.11335
2.3145,-0.606767,-0.125397
2.31,-0.605585,0.194949
2.46656,-0.394637,-0.101768
2.39092,-0.503409,-0.0568551
2.45499,-0.401581,-0.0434216
2.30297,-0.612343,-0.0693518
2.38197,-0.510215,0
2.22158,-0.708569,-0.027147
2.30468,-0.612797,-0.303549
2.23867,-0.714021,-0.219348
2.38523,-0.510915,0.0567621
2.22539,-0.709785,0.0271936
2.38007,-0.509808,-0.170206
2.30787,-0.613645,-0.194949
2.23319,-0.712272,-0.13651
2.3872,-0.511336,-0.113722
2.31237,-0.614842,-0.125397
2.29631,-0.610571,0.193973
2.38914,-0.511752,-0.0568551
2.45358,-0.410148,-0.0434216
2.2931,-0.618297,-0.0691191
2.37236,-0.516824,0
2.21529,-0.715091,-0.0271004
2.2987,-0.619806,-0.303044
2.23238,-0.720608,-0.218976
2.38344,-0.519238,0.0567621
2.21909,-0.71632,0.027147
2.37827,-0.518113,-0.170206
2.30186,-0.620659,-0.194624
2.23449,-0.72129,-0.136743
2.3815,-0.518815,-0.113536
2.30635,-0.62187,-0.125188
2.29416,-0.618583,0.193973
2.44797,-0.409211,-0.101117
2.37953,-0.518386,-0.056669
2.43636,-0.416017,-0.0431423
2.29478,-0.627352,-0.0692355
2.37054,-0.525102,0
2.21278,-0.72282,-0.0271004
2.29269,-0.626779,-0.302539
2.30343,-0.629716,-0.0138789
2.38161,-0.527554,0.0567621
2.21658,-0.724061,0.027147
2.36476,-0.523823,-0.169369
2.30353,-0.629742,-0.194949
2.22437,-0.726606,-0.136278
2.30417,-0.629917,-0.125188
2.28814,-0.625536,0.193647
2.44653,-0.417754,-0.101117
2.38161,-0.527554,-0.0567621
2.43883,-0.425206,-0.0432122
2.28487,-0.633222,-0.0690027
2.36869,-0.533373,0
2.20644,-0.729284,-0.0270539
2.28667,-0.633719,-0.302034
2.29737,-0.636685,-0.0138556
2.22351,-0.734925,-0.218604
2.37195,-0.534107,0.056576
2.21024,-0.730539,0.0271004
2.36292,-0.532074,-0.169369
2.29363,-0.635649,-0.194298
2.30091,-0.637666,0.0416763
2.21423,-0.731859,-0.135813
2.37248,-0.534225,0.141627
2.2955,-0.636168,0.0970462
2.36223,-0.531918,-0.112791
2.29426,-0.635823,-0.124769
2.27442,-0.630325,0.192671
2.43718,-0.424918,-0.100791
2.37195,-0.534107,-0.056576
2.4334,-0.433016,-0.0431423
2.28265,-0.641194,-0.0690027
2.35122,-0.538069,0
2.20388,-0.736981,-0.0270539
2.28444,-0.641697,-0.302034
2.43766,-0.433775,0.0143903
2.29128,-0.643618,-0.0138324
2.32994,-0.5332,-0.257461
2.21338,-0.740156,-0.217861
2.36617,-0.541492,0.0564829
2.20388,-0.736981,0.0270539
2.35716,-0.539429,-0.16909
2.28756,-0.642573,-0.193973
2.29482,-0.644613,0.0416065
2.21167,-0.739584,-0.135813
2.36281,-0.540722,0.141162
2.29327,-0.644177,0.0970462
2.36036,-0.54016,-0.112791
2.29202,-0.643827,-0.124769
2.28372,-0.641495,0.193647
2.43962,-0.434123,-0.100954
2.36617,-0.541492,-0.0564829
2.424,-0.440079,-0.0430027
2.27271,-0.646969,-0.06877
2.34933,-0.546273,0
2.19751,-0.743388,-0.0270073
2.27455,-0.647494,-0.301023
2.42826,-0.440853,0.0143438
2.21078,-0.747878,-0.217861
2.36037,-0.548842,0.0563898
2.19372,-0.742107,0.0269608
2.34749,-0.545846,-0.168532
2.27763,-0.648371,-0.193322
2.20907,-0.7473,-0.135813
2.36091,-0.548967,0.141162
2.28332,-0.649989,0.0967205
2.35456,-0.547491,-0.112605
2.28208,-0.649637,-0.12435
2.26997,-0.646188,0.192671
2.42629,-0.440495,-0.100466
2.36427,-0.549748,-0.0564829
2.42245,-0.448537,-0.0430027
2.26659,-0.65379,-0.0686537
2.34351,-0.553551,0
2.18733,-0.748465,-0.0269142
2.26847,-0.65433,-0.300518
2.42671,-0.449326,0.0143438
2.20816,-0.75559,-0.217861
2.18733,-0.748465,0.0269142
2.34557,-0.554037,-0.168532
2.27919,-0.657423,-0.193647
2.35509,-0.556286,0.140929
2.28103,-0.657955,0.0967205
2.34875,-0.554788,-0.112419
2.2562,-0.650793,0.191695
2.41295,-0.446778,-0.0999771
2.40908,-0.454765,-0.0427933
2.26046,-0.660576,-0.0685373
2.34157,-0.561728,0
2.18093,-0.754787,-0.0268676
2.26617,-0.662245,-0.300518
2.41727,-0.45631,0.0142973
2.27674,-0.665333,-0.0137859
2.34743,-0.563136,-0.260032
2.20174,-0.761991,-0.217489
2.19227,-0.758712,0.0270073
2.33974,-0.56129,-0.168253
2.27305,-0.664256,-0.193322
2.27643,-0.665243,0.0413971
2.4202,-0.456865,-0.157847
2.19248,-0.758785,-0.135115
2.34537,-0.562641,0.140464
2.27872,-0.665914,0.0967205
2.3468,-0.562984,-0.112419
2.27365,-0.664432,-0.124141
2.25775,-0.659783,0.19202
2.4153,-0.45594,-0.10014
2.34871,-0.563441,-0.0562037
2.41157,-0.463085,-0.0428631
2.25454,-0.666541,-0.0684209
2.3359,-0.568136,0
2.17854,-0.761635,-0.0268676
2.25647,-0.667111,-0.299508
2.41189,-0.463148,0.0142741
2.33406,-0.567688,-0.258747
2.19182,-0.766276,-0.216746
2.34693,-0.570817,0.0562037
2.18232,-0.762955,0.0269142
2.33797,-0.568638,-0.168253
2.27095,-0.671394,-0.193322
2.27433,-0.672391,0.0413971
2.41484,-0.463713,-0.157591
2.18255,-0.763034,-0.13465
2.34359,-0.570006,0.140464
2.25746,-0.667404,0.0959064
2.33337,-0.567521,-0.111861
2.27156,-0.671572,-0.124141
2.25184,-0.665743,0.191695
2.40993,-0.462772,-0.0999771
2.34304,-0.569872,-0.0561107
2.40192,-0.470803,-0.0427235
2.25196,-0.675193,-0.0684209
2.32594,-0.57518,0
2.1756,-0.769994,-0.0268676
2.25769,-0.67691,-0.300013
2.4101,-0.472405,0.0142741
2.26054,-0.677765,-0.0137161
2.33572,-0.577601,-0.259175
2.18511,-0.773357,-0.216374
2.33695,-0.577905,0.0560176
2.17183,-0.76866,0.0268211
2.32027,-0.573779,-0.167137
2.26454,-0.678964,-0.192997
2.40912,-0.472213,0.0714464
2.26407,-0.678822,0.0412575
2.41304,-0.472982,-0.157591
2.18336,-0.772741,-0.134883
2.33363,-0.577083,0.139999
2.25105,-0.674919,0.0957435
2.33118,-0.576476,-0.111861
2.26131,-0.677995,-0.123722
2.24545,-0.673239,0.191369
2.40814,-0.472022,-0.0999771
2.39634,-0.478401,-0.0426537
2.24959,-0.68305,-0.0684209
2.32004,-0.582322,0
2.16537,-0.774889,-0.0267745
2.25152,-0.683634,-0.299508
2.40843,-0.480815,0.0142741
2.26199,-0.686814,-0.0137394
2.32598,-0.583814,-0.258318
2.18614,-0.782322,-0.216746
2.3388,-0.587032,0.0561107
2.16914,-0.776236,0.0268211
2.31825,-0.581875,-0.167137
2.25071,-0.68339,-0.19202
2.39569,-0.478272,0.0710973
2.25786,-0.685559,0.0411877
2.40354,-0.479839,-0.15708
2.17689,-0.779012,-0.13465
2.33548,-0.586198,0.140231
2.24868,-0.682772,0.0957435
2.31752,-0.581692,-0.111302
2.25893,-0.685884,-0.123722
2.23164,-0.677598,0.190393
2.39472,-0.478077,-0.0994886
2.39091,-0.485132,-0.0425839
2.24361,-0.68894,-0.0683046
2.31432,-0.588622,0
2.15916,-0.780328,-0.0267279
2.24556,-0.689539,-0.299003
2.39515,-0.485993,0.0142043
2.25217,-0.691568,-0.0136929
2.32028,-0.590138,-0.25789
2.18367,-0.789186,-0.216746
2.33307,-0.593391,0.0560176
2.15916,-0.780328,0.0267279
2.31642,-0.589155,-0.167137
2.25237,-0.691627,-0.192346
2.39026,-0.485,0.0709809
2.3942,-0.4858,-0.156568
2.17444,-0.785847,-0.13465
2.25034,-0.691007,0.0959064
2.31956,-0.589954,-0.111489
2.25294,-0.691805,-0.123513
2.22569,-0.683436,0.190067
2.38929,-0.484804,-0.0993258
2.37736,-0.491463,-0.0423744
2.24107,-0.697158,-0.0683046
2.31602,-0.598101,0
2.14878,-0.78549,-0.0266348
2.23544,-0.695407,-0.297993
2.38552,-0.493149,0.0141578
2.23816,-0.696254,-0.0136231
2.3027,-0.594661,-0.256176
2.17703,-0.795817,-0.216374
2.32701,-0.600938,0.0559246
2.1638,-0.790983,0.0268211
2.31038,-0.596644,-0.166857
2.24601,-0.698694,-0.19202
2.38846,-0.493758,0.0709809
2.2455,-0.698535,0.0410481
2.38458,-0.492956,-0.156056
2.16404,-0.79107,-0.134185
2.31983,-0.599086,0.139534
2.24398,-0.698063,0.0957435
2.31351,-0.597453,-0.111302
2.25039,-0.700057,-0.123513
2.22697,-0.692773,0.190393
2.3875,-0.493557,-0.0993258
2.32314,-0.599939,-0.0558315
2.37572,-0.499344,-0.0423744
2.23112,-0.702186,-0.0680718
2.31015,-0.604764,0
2.14241,-0.791226,-0.0265882
2.22934,-0.701625,-0.297488
2.38778,-0.50188,0.0141811
2.23966,-0.704873,-0.0136464
2.30841,-0.604308,-0.257033
2.1669,-0.800272,-0.21563
2.32113,-0.607639,0.0558315
2.15742,-0.796768,0.0267745
2.30066,-0.602281,-0.166299
2.23988,-0.704941,-0.191695
2.3829,-0.500853,0.0708645
2.23936,-0.704777,0.0409782
2.37903,-0.500039,-0.155801
2.15391,-0.795475,-0.13372
2.31011,-0.604753,0.139069
2.23022,-0.701901,0.095255
2.29992,-0.602086,-0.110744
2.22086,-0.698957,0.190067
2.37802,-0.499828,-0.0990001
2.36996,-0.507211,-0.0423046
2.22472,-0.709144,-0.0679555
2.21608,-0.706388,-0.46519
2.30019,-0.611173,0
2.14699,-0.801871,-0.0266814
2.22675,-0.709791,-0.297488
2.38202,-0.509791,0.0141578
2.22944,-0.710647,-0.0135999
2.29465,-0.609701,-0.255748
2.16022,-0.806815,-0.215258
2.31503,-0.615115,0.0557385
2.14699,-0.801871,0.0266814
2.29459,-0.609684,-0.16602
2.38105,-0.509584,0.0708645
2.23676,-0.71298,0.0409782
2.37718,-0.508756,-0.155801
2.15846,-0.806158,-0.134185
2.31174,-0.614241,0.139301
2.22763,-0.71007,0.095255
2.2977,-0.610511,-0.110744
2.23403,-0.712111,-0.122885
2.21829,-0.707092,0.190067
2.38008,-0.509377,-0.0991629
2.3073,-0.613062,-0.0555524
2.36427,-0.51463,-0.0422348
2.21843,-0.715678,-0.0678391
2.20613,-0.711711,-0.463621
2.29032,-0.617117,0
2.13295,-0.805124,-0.0265417
2.22049,-0.716342,-0.296983
2.37632,-0.517252,0.0141346
2.22694,-0.718425,-0.0135999
2.30018,-0.619776,-0.256605
2.15739,-0.814351,-0.215258
2.14417,-0.809361,0.0266814
2.2963,-0.618729,-0.166299
2.22719,-0.718503,-0.191044
2.36754,-0.515341,0.0705155
2.23045,-0.719556,0.0409084
2.37149,-0.516201,-0.155545
2.14443,-0.809457,-0.133487
2.30187,-0.620229,0.138836
2.22133,-0.716615,0.0950922
2.28784,-0.616449,-0.110372
2.23153,-0.719905,-0.122885
2.20442,-0.711159,0.189091
2.36658,-0.515132,-0.0986745
2.35465,-0.521151,-0.0420952
2.20832,-0.720936,-0.0676064
2.20363,-0.719407,-0.463621
2.28815,-0.625108,0
2.12639,-0.811138,-0.0264951
2.21043,-0.721625,-0.295973
2.36668,-0.523815,0.0140881
2.22442,-0.726194,-0.0135999
2.29417,-0.626753,-0.256176
2.15826,-0.823296,-0.21563
2.1376,-0.815415,0.0266348
2.28642,-0.624637,-0.165741
2.22467,-0.726273,-0.191044
2.36182,-0.522738,0.0703991
2.22792,-0.727337,0.0409084
2.36578,-0.523614,-0.155289
2.15278,-0.821207,-0.134185
2.29969,-0.62826,0.138836
2.21122,-0.721884,0.0947666
2.28567,-0.624431,-0.110372
2.22521,-0.726451,-0.122675
2.20193,-0.71885,0.189091
2.36086,-0.522526,-0.0985116
2.34891,-0.528489,-0.0420254
2.20958,-0.729894,-0.0677228
2.19739,-0.725865,-0.462837
2.28595,-0.633092,0
2.13474,-0.822872,-0.0266348
2.2079,-0.729337,-0.295973
2.36094,-0.531195,0.0140648
2.21428,-0.731445,-0.0135534
2.27664,-0.630512,-0.254463
2.14794,-0.82796,-0.214887
2.13474,-0.822872,0.0266348
2.28423,-0.632614,-0.165741
2.21833,-0.732784,-0.190718
2.36388,-0.531856,0.0705155
2.22157,-0.733855,0.0408386
2.36004,-0.530992,-0.155033
2.135,-0.822972,-0.133255
2.29363,-0.635218,0.138603
2.20869,-0.729598,0.0947666
2.28348,-0.632406,-0.110372
2.28804,-0.633671,0.291512
2.19183,-0.72403,0.18844
2.35902,-0.530763,-0.0985116
2.34706,-0.536685,-0.0420254
2.19944,-0.735068,-0.06749
2.19112,-0.732288,-0.462052
2.28373,-0.641067,0
2.12813,-0.828867,-0.0265882
2.268,-0.636652,-0.366486
2.20534,-0.737039,-0.295973
2.36297,-0.540324,0.0140881
2.21171,-0.73917,-0.0135534
2.27442,-0.638455,-0.254463
2.1339,-0.831117,-0.213771
2.29081,-0.643055,0.0553663
2.13186,-0.830318,0.0266348
2.28201,-0.640584,-0.165741
2.21954,-0.741786,-0.191044
2.35811,-0.539214,0.0703991
2.21521,-0.740338,0.0407688
2.35817,-0.539227,-0.155033
2.12839,-0.82897,-0.133022
2.28371,-0.641062,0.138138
2.20613,-0.737303,0.0947666
2.26971,-0.637133,-0.109813
2.22008,-0.741968,-0.122675
2.28582,-0.641654,0.291512
2.18929,-0.731677,0.18844
2.34936,-0.537213,-0.098186
2.29081,-0.643055,-0.0553663
2.34127,-0.54397,-0.0419556
2.19307,-0.74146,-0.0673737
2.18855,-0.739932,-0.462052
2.27763,-0.64794,0
2.11778,-0.833361,-0.0264951
2.26196,-0.643483,-0.365871
2.19899,-0.743462,-0.295468
2.34938,-0.545854,0.0140183
2.20912,-0.746886,-0.0135534
2.26836,-0.645302,-0.254034
2.1347,-0.840019,-0.214143
2.28855,-0.651048,0.0553663
2.1215,-0.834826,0.0265417
2.27592,-0.647454,-0.165462
2.20561,-0.745699,-0.190067
2.35232,-0.546537,0.0702827
2.20503,-0.745504,0.0406292
2.3485,-0.545649,-0.154521
2.1292,-0.837857,-0.133255
2.2853,-0.650122,0.138371
2.19597,-0.742439,0.0944409
2.26748,-0.645052,-0.109813
2.20613,-0.745875,-0.122047
2.27593,-0.647456,0.290537
2.18672,-0.739315,0.18844
2.35137,-0.546315,-0.0983488
2.28471,-0.649953,-0.0552732
2.33936,-0.552139,-0.0419556
2.1829,-0.746523,-0.067141
2.27151,-0.654779,0
2.10371,-0.836316,-0.0263554
2.2559,-0.65028,-0.365256
2.19263,-0.74985,-0.294963
2.35135,-0.55497,0.0140416
2.19514,-0.75071,-0.0134836
2.26609,-0.653216,-0.254034
2.12805,-0.845994,-0.213771
2.11857,-0.842226,0.0265417
2.26214,-0.652079,-0.164625
2.20299,-0.753393,-0.190067
2.34262,-0.552908,0.07005
2.19863,-0.751902,0.0405594
2.34658,-0.553843,-0.154521
2.12626,-0.845284,-0.133255
2.27918,-0.65699,0.138138
2.19336,-0.7501,0.0944409
2.26137,-0.651856,-0.109627
2.20351,-0.753571,-0.122047
2.27365,-0.655397,0.290537
2.17659,-0.744363,0.187789
2.34167,-0.552683,-0.0980231
2.27858,-0.656817,-0.0551802
2.32983,-0.557624,-0.041816
2.18432,-0.754683,-0.0672573
2.2656,-0.660792,0
2.09736,-0.841431,-0.0263088
2.24247,-0.654044,-0.363412
2.18651,-0.755438,-0.294457
2.33404,-0.55863,0.0139486
2.19277,-0.757602,-0.0134836
2.26403,-0.660332,-0.254034
2.12169,-0.851192,-0.2134
2.10849,-0.845899,0.0264485
2.26391,-0.6603,-0.164904
2.19685,-0.759009,-0.189742
2.33698,-0.559334,0.0699336
2.18492,-0.754887,0.04035
2.33318,-0.558425,-0.153754
2.11989,-0.850473,-0.133022
2.27327,-0.663028,0.137906
2.18344,-0.754377,0.0941152
2.25548,-0.657839,-0.109441
2.20113,-0.76049,-0.122047
2.26396,-0.660313,0.289562
2.17047,-0.749895,0.187464
2.33603,-0.559107,-0.0978603
2.27651,-0.663972,-0.0551802
2.32389,-0.565214,-0.0417462
2.17777,-0.761364,-0.067141
2.25549,-0.666823,0
2.09426,-0.849113,-0.0263088
2.24005,-0.662259,-0.363412
2.18373,-0.763447,-0.294457
2.33975,-0.569072,0.0139951
2.18998,-0.765634,-0.0134836
2.25015,-0.665243,-0.252749
2.11855,-0.858962,-0.2134
2.10908,-0.855124,0.0264951
2.25765,-0.667462,-0.164625
2.19405,-0.767055,-0.189742
2.3388,-0.56884,0.07005
2.18591,-0.76421,0.0404198
2.32724,-0.566029,-0.153498
2.10196,-0.852235,-0.132092
2.25934,-0.66796,0.137208
2.18443,-0.763693,0.0942781
2.25305,-0.666101,-0.109441
2.19456,-0.767234,-0.121838
2.26533,-0.669732,0.290049
2.16771,-0.757845,0.187464
2.33008,-0.56672,-0.0976975
2.26639,-0.670044,-0.0549941
2.322,-0.572917,-0.0417462
2.17146,-0.76725,-0.0670246
2.24944,-0.673152,0
2.09513,-0.857568,-0.0263554
2.23406,-0.66855,-0.362797
2.1737,-0.768041,-0.293447
2.33397,-0.575869,0.0139718
2.17235,-0.767562,-0.0133907
2.24412,-0.671561,-0.252321
2.10832,-0.862966,-0.212656
2.10254,-0.860598,0.0264485
2.2516,-0.673801,-0.164346
2.18773,-0.772999,-0.189416
2.32914,-0.574677,0.0698173
2.18714,-0.772787,0.0404896
2.32535,-0.573744,-0.153498
2.09912,-0.859201,-0.132092
2.25328,-0.674303,0.136976
2.17435,-0.76827,0.0939524
2.25466,-0.674714,-0.109627
2.192,-0.774507,-0.121838
2.2593,-0.676102,0.289562
2.16894,-0.766358,0.187789
2.32819,-0.574444,-0.0976975
2.25649,-0.675263,-0.054808
2.31989,-0.581424,-0.0417462
2.16487,-0.773858,-0.0669082
2.24313,-0.680232,0
2.08828,-0.863713,-0.0263088
2.23538,-0.677881,-0.363412
2.17087,-0.776003,-0.293447
2.32408,-0.582475,0.0139253
2.17328,-0.776865,-0.0134139
2.24164,-0.679782,-0.252321
2.10882,-0.87221,-0.213028
2.26165,-0.68585,0.0549941
2.09937,-0.868299,0.0264485
2.24148,-0.679733,-0.163788
2.18113,-0.77967,-0.189091
2.33089,-0.584182,0.0699336
2.17676,-0.778106,0.04035
2.31936,-0.581292,-0.153242
2.09965,-0.868415,-0.132324
2.2508,-0.682558,0.136976
2.16399,-0.773544,0.0936268
2.25217,-0.682974,-0.109627
2.18163,-0.779847,-0.121419
2.2492,-0.682074,0.288587
2.15861,-0.771618,0.187138
2.32219,-0.582002,-0.0975347
2.26165,-0.68585,-0.0549941
2.31397,-0.588532,-0.0416763
2.1584,-0.780051,-0.0667919
2.24456,-0.689232,0
2.08156,-0.869455,-0.0262623
2.22166,-0.682199,-0.361567
2.16815,-0.783576,-0.293447
2.31816,-0.589598,0.0139021
2.1668,-0.783087,-0.0133907
2.23926,-0.687602,-0.252321
2.09474,-0.874961,-0.211912
2.25542,-0.692567,0.054901
2.09263,-0.87408,0.026402
2.23528,-0.686381,-0.163509
2.17465,-0.785924,-0.188766
2.31334,-0.588373,0.0694682
2.17027,-0.78434,0.0402802
2.32119,-0.590369,-0.153498
2.09292,-0.8742,-0.132092
2.24458,-0.689238,0.136743
2.16504,-0.782451,0.0937896
2.24213,-0.688485,-0.109255
2.17513,-0.7861,-0.12121
2.23922,-0.68759,0.287612
2.15215,-0.777794,0.186813
2.3124,-0.588134,-0.097209
2.24778,-0.690219,-0.0547149
2.30426,-0.594205,-0.0415367
2.15955,-0.788575,-0.0669082
2.24227,-0.696671,0
2.07867,-0.876353,-0.0262623
2.21561,-0.68839,-0.360952
2.16181,-0.7894,-0.292942
2.30457,-0.594286,0.0138324
2.16043,-0.788896,-0.0133674
2.23697,-0.695024,-0.252321
2.0955,-0.883449,-0.212284
2.25311,-0.700042,0.054901
2.08604,-0.879461,0.0263554
2.23299,-0.69379,-0.163509
2.16828,-0.791763,-0.18844
2.3075,-0.595043,0.0693518
2.16014,-0.788789,0.0401405
2.30762,-0.595072,-0.152731
2.08633,-0.879584,-0.131859
2.24229,-0.696677,0.136743
2.15868,-0.788255,0.0936268
2.23221,-0.693545,-0.108883
2.16501,-0.790568,-0.120791
2.24072,-0.69619,0.288099
2.14207,-0.782191,0.186162
2.30657,-0.594801,-0.0970462
2.24166,-0.696482,-0.0546219
2.29819,-0.601634,-0.0414669
2.1529,-0.7951,-0.0667919
2.23207,-0.702483,0
2.07544,-0.883966,-0.0262623
2.21307,-0.696506,-0.360952
2.15518,-0.795943,-0.292437
2.31011,-0.604754,0.0138789
2.15377,-0.795423,-0.0133442
2.22682,-0.700831,-0.251464
2.09225,-0.891124,-0.212284
2.24672,-0.707095,0.054808
2.0828,-0.887101,0.0263554
2.22663,-0.700772,-0.16323
2.16163,-0.798324,-0.188115
2.30531,-0.603496,0.0693518
2.15723,-0.796701,0.0401405
2.30542,-0.603526,-0.152731
2.07574,-0.884095,-0.131394
2.2321,-0.702494,0.136278
2.15577,-0.796162,0.0936268
2.22965,-0.701722,-0.108883
2.1621,-0.798498,-0.120791
2.23436,-0.703206,0.287612
2.13919,-0.790037,0.186162
2.30437,-0.603251,-0.0970462
2.23909,-0.704694,-0.0546219
2.29608,-0.609652,-0.0414669
2.13887,-0.798415,-0.0664428
2.22579,-0.709056,0
2.06499,-0.888045,-0.0261692
2.2031,-0.701827,-0.359722
2.14867,-0.802074,-0.291932
2.30026,-0.610761,0.0138324
2.14349,-0.800139,-0.0132977
2.22436,-0.708599,-0.251464
2.07815,-0.893701,-0.211169
2.23662,-0.712505,0.0546219
2.07602,-0.892785,0.0263088
2.22797,-0.709751,-0.163509
2.15883,-0.805865,-0.188115
2.30705,-0.612565,0.0694682
2.14695,-0.801429,0.0400009
2.29944,-0.610546,-0.152475
2.06898,-0.889758,-0.131162
2.22583,-0.709069,0.136045
2.14924,-0.802284,0.0934639
2.22338,-0.708288,-0.108697
2.16304,-0.807437,-0.121001
2.2319,-0.711001,0.287612
2.13642,-0.797499,0.186162
2.29839,-0.610265,-0.0968833
2.23281,-0.711292,-0.0545288
2.29018,-0.616224,-0.0413971
2.13621,-0.805504,-0.0664428
2.21581,-0.713979,0
2.06204,-0.894888,-0.0261692
2.20452,-0.710341,-0.360337
2.146,-0.809195,-0.291932
2.29436,-0.617347,0.0138091
2.14831,-0.810065,-0.0133442
2.22199,-0.715972,-0.251464
2.07882,-0.902173,-0.211541
2.23044,-0.718692,0.0545288
2.06571,-0.89648,0.0262157
2.21041,-0.71224,-0.162393
2.15241,-0.811613,-0.187789
2.28956,-0.616057,0.0690027
2.1555,-0.812777,0.0402103
2.29355,-0.61713,-0.152219
2.06601,-0.896614,-0.131162
2.22347,-0.716446,0.136045
2.14656,-0.809407,0.0934639
2.21721,-0.714432,-0.108511
2.14914,-0.810378,-0.120373
2.22197,-0.715963,0.286637
2.13376,-0.80458,0.186162
2.29635,-0.617884,-0.0968833
2.23044,-0.718692,-0.0545288
2.28416,-0.623162,-0.0413273
2.13339,-0.812956,-0.0664428
2.2133,-0.72171,0
2.0589,-0.90208,-0.0261692
2.19075,-0.714356,-0.358492
2.13575,-0.813855,-0.290922
2.28447,-0.623246,0.0137626
2.14173,-0.816135,-0.0133209
2.21192,-0.721258,-0.250607
2.07931,-0.911023,-0.211912
2.22791,-0.726473,0.0545288
2.06256,-0.903685,0.0262157
2.21171,-0.721189,-0.162672
2.14212,-0.816282,-0.187138
2.28354,-0.622993,0.0688864
2.14144,-0.816024,0.0400009
2.28753,-0.624082,-0.151963
2.06653,-0.905423,-0.131394
2.22095,-0.724203,0.136045
2.13999,-0.815472,0.0933011
2.21851,-0.723405,-0.108697
2.14256,-0.816452,-0.120163
2.21568,-0.722484,0.286149
2.12349,-0.809184,0.185511
2.28647,-0.623792,-0.0965577
2.22411,-0.725234,-0.0544357
2.28197,-0.631131,-0.0413273
2.12681,-0.818961,-0.0663264
2.20697,-0.728178,0
2.05574,-0.909262,-0.0261692
2.18825,-0.721999,-0.358492
2.1366,-0.822731,-0.291427
2.27842,-0.63015,0.0137394
2.1314,-0.820731,-0.0132744
2.20939,-0.728974,-0.250607
2.06883,-0.915053,-0.211169
2.22536,-0.734246,0.0545288
2.05574,-0.909262,0.0261692
2.21297,-0.730155,-0.162951
2.13181,-0.820889,-0.186487
2.28135,-0.63096,0.0688864
2.13858,-0.823494,0.0400009
2.27765,-0.629935,-0.151451
2.06336,-0.912631,-0.131394
2.21082,-0.729449,0.13558
2.12967,-0.820065,0.0929754
2.21217,-0.729893,-0.108511
2.1397,-0.823926,-0.120163
2.21315,-0.730214,0.286149
2.12437,-0.818024,0.185836
2.28043,-0.630704,-0.0963948
2.21397,-0.730487,-0.0542496
2.27205,-0.636934,-0.0411877
2.12021,-0.82493,-0.0662101
2.21201,-0.73841,0
2.0489,-0.914801,-0.0261226
2.18571,-0.729633,-0.358492
2.11892,-0.824429,-0.289407
2.27236,-0.63702,0.0137161
2.1248,-0.826716,-0.0132512
2.19928,-0.734163,-0.24975
2.06926,-0.923893,-0.211541
2.21141,-0.738211,0.0542496
2.0489,-0.914801,0.0261226
2.19526,-0.732821,-0.161835
2.13265,-0.829771,-0.186813
2.27914,-0.63892,0.0688864
2.13196,-0.829504,0.0399311
2.27159,-0.636804,-0.151196
2.05287,-0.916572,-0.130929
2.20448,-0.735897,0.135348
2.12307,-0.826044,0.0928126
2.20582,-0.736345,-0.108324
2.13681,-0.83139,-0.120163
2.20305,-0.735421,0.285174
2.11779,-0.823989,0.185511
2.27821,-0.63866,-0.0963948
2.20382,-0.735678,-0.0540635
2.26981,-0.644861,-0.0411877
2.10615,-0.827937,-0.065861
2.19805,-0.742288,0
2.04205,-0.920304,-0.026076
2.17941,-0.735994,-0.357877
2.11972,-0.833272,-0.289912
2.27012,-0.644948,0.0137161
2.11818,-0.832664,-0.0132279
2.19294,-0.740563,-0.249322
2.05513,-0.926201,-0.210425
2.20124,-0.743366,0.0540635
2.05299,-0.925234,0.0262157
2.20025,-0.743033,-0.162393
2.12974,-0.83721,-0.186813
2.2692,-0.644686,0.0686537
2.13278,-0.838404,0.0400009
2.26935,-0.644729,-0.151196
2.04601,-0.922091,-0.130697
2.2019,-0.743587,0.135348
2.12018,-0.83345,0.0928126
2.19567,-0.741484,-0.107952
2.1339,-0.838844,-0.120163
2.19671,-0.741836,0.284687
2.11119,-0.829917,0.185186
2.27212,-0.645517,-0.096232
2.19745,-0.742087,-0.0539705
2.26755,-0.65278,-0.0411877
2.10325,-0.835284,-0.065861
2.19166,-0.748663,0
2.03518,-0.925771,-0.0260295
2.17683,-0.743597,-0.357877
2.11311,-0.839202,-0.289407
2.26786,-0.652869,0.0137161
2.12269,-0.843006,-0.0132744
2.19787,-0.750785,-0.250179
2.19863,-0.751046,0.0540635
2.04246,-0.929083,0.0261226
2.19009,-0.748129,-0.161835
2.12681,-0.844639,-0.186813
2.27078,-0.653709,0.06877
2.11869,-0.841415,0.0397915
2.26325,-0.651543,-0.15094
2.04642,-0.930881,-0.130929
2.18795,-0.747397,0.13465
2.11725,-0.840846,0.0928126
2.1855,-0.74656,-0.10758
2.11982,-0.841865,-0.119535
2.18283,-0.745649,0.283224
2.10457,-0.83581,0.18486
2.26217,-0.651233,-0.0959064
2.19863,-0.751046,-0.0540635
2.26153,-0.659177,-0.0411179
2.10418,-0.843742,-0.0659773
2.18538,-0.754621,0
2.02847,-0.930846,-0.0259829
2.16688,-0.748231,-0.356648
2.11032,-0.846204,-0.289407
2.26184,-0.659266,0.0136929
2.11617,-0.848552,-0.0132512
2.18785,-0.755473,-0.249322
2.19613,-0.758333,0.0540635
2.03937,-0.935851,0.0261226
2.19137,-0.75669,-0.162114
2.11659,-0.84872,-0.186162
2.25324,-0.656761,0.0683046
2.11217,-0.846948,0.0397217
2.25725,-0.657927,-0.150684
2.03969,-0.935997,-0.130697
2.18546,-0.754648,0.13465
2.11445,-0.847863,0.0928126
2.18679,-0.755108,-0.107766
2.11702,-0.84889,-0.119535
2.18786,-0.755475,0.284199
2.09809,-0.841301,0.184535
2.26,-0.658731,-0.0959064
2.19613,-0.758333,-0.0540635
2.25527,-0.666328,-0.0410481
2.10107,-0.851449,-0.0659773
2.17882,-0.761306,0
2.02504,-0.938275,-0.0259829
2.16412,-0.756168,-0.356648
2.09985,-0.850953,-0.288397
2.2479,-0.664152,0.0136231
2.10563,-0.853297,-0.0132047
2.18507,-0.763487,-0.249322
2.19334,-0.766377,0.0540635
2.0323,-0.941638,0.026076
2.17728,-0.760768,-0.161277
2.10977,-0.854975,-0.185836
2.25082,-0.665015,0.0683046
2.10535,-0.853182,0.0396519
2.24716,-0.663934,-0.150172
2.029,-0.940109,-0.130231
2.17891,-0.761336,0.134417
2.10763,-0.854105,0.0926498
2.18401,-0.763118,-0.107766
2.11019,-0.855143,-0.119326
2.18132,-0.76218,0.283712
2.09869,-0.850482,0.18486
2.25374,-0.665877,-0.0957435
2.18201,-0.762419,-0.0537844
2.24143,-0.670757,-0.0408386
2.09439,-0.857263,-0.065861
2.17993,-0.77024,0
2.02538,-0.947032,-0.0260295
2.16147,-0.763718,-0.356648
2.09687,-0.858277,-0.288397
2.24557,-0.671994,0.0136231
2.09894,-0.859127,-0.0131814
2.17489,-0.76846,-0.248465
2.18688,-0.772696,0.0539705
2.02538,-0.947032,0.0260295
2.16709,-0.765705,-0.160719
2.0994,-0.859313,-0.185186
2.24082,-0.670575,0.0680718
2.10236,-0.860526,0.0396519
2.24101,-0.67063,-0.149916
2.0257,-0.947185,-0.130231
2.16871,-0.766276,0.133952
2.10093,-0.859943,0.0924869
2.1738,-0.768074,-0.107394
2.11089,-0.864017,-0.119535
2.18239,-0.771112,0.284199
2.09202,-0.856293,0.184535
2.24757,-0.672594,-0.0955807
2.17557,-0.768699,-0.0536913
2.23908,-0.678576,-0.0408386
2.08399,-0.861514,-0.0656282
2.17346,-0.776499,0
2.01844,-0.952389,-0.0259829
2.15507,-0.769928,-0.356033
2.08286,-0.861044,-0.286881
2.23555,-0.677508,0.0135766
2.09223,-0.86492,-0.0131582
2.16845,-0.774709,-0.248037
2.1691,-0.774943,0.0535983
2.02206,-0.954096,0.0260295
2.1644,-0.773265,-0.160719
2.10375,-0.869683,-0.185836
2.23847,-0.678393,0.0680718
2.09565,-0.866331,0.0395821
2.24247,-0.679606,-0.150172
2.02239,-0.954251,-0.130231
2.16602,-0.773842,0.133952
2.09053,-0.864218,0.0921613
2.16734,-0.774313,-0.107208
2.10047,-0.868328,-0.119117
2.17969,-0.778725,0.284199
2.08533,-0.862067,0.184209
2.24139,-0.679276,-0.0954179
2.1691,-0.774943,-0.0535983
2.24064,-0.68717,-0.0409084
2.08112,-0.86842,-0.0656282
2.16335,-0.780985,0
2.01888,-0.960796,-0.0260295
2.1525,-0.77707,-0.356033
2.23329,-0.684918,0.0135766
2.09304,-0.873394,-0.0131814
2.16587,-0.781895,-0.248037
2.17028,-0.78349,0.0536913
2.01527,-0.959077,0.0259829
2.16183,-0.780438,-0.160719
2.10086,-0.876654,-0.185836
2.24003,-0.686984,0.0681882
2.09276,-0.873276,0.0395821
2.24021,-0.687038,-0.150172
2.01921,-0.960952,-0.130231
2.16344,-0.78102,0.133952
2.09134,-0.872685,0.0923241
2.16852,-0.782853,-0.107394
2.09758,-0.875288,-0.119117
2.16589,-0.781905,0.282737
2.08246,-0.868978,0.184209
2.23912,-0.686705,-0.0954179
2.16652,-0.782132,-0.0535983
2.23429,-0.694191,-0.0408386
2.07424,-0.874488,-0.0655119
2.16798,-0.791653,0
2.00453,-0.962993,-0.0258898
2.14221,-0.782243,-0.354803
2.23459,-0.694285,0.0135999
2.08983,-0.88106,-0.0131814
2.16672,-0.791192,-0.248465
2.1674,-0.791439,0.0536913
2.01535,-0.968189,0.0260295
2.15895,-0.788356,-0.160719
2.09028,-0.881251,-0.185186
2.22604,-0.691631,0.0678391
2.08586,-0.879386,0.0395123
2.23386,-0.69406,-0.149916
2.01208,-0.966617,-0.129999
2.16432,-0.790314,0.134185
2.08813,-0.880344,0.0923241
2.16563,-0.790796,-0.107394
2.087,-0.879867,-0.118698
2.16301,-0.789838,0.282737
2.22514,-0.69135,-0.0949294
2.1674,-0.791439,-0.0536913
2.23185,-0.701986,-0.0408386
2.07486,-0.88329,-0.0656282
2.15395,-0.795061,0
2.00116,-0.969985,-0.0258898
2.13947,-0.789716,-0.354803
2.22452,-0.699681,0.0135534
2.08674,-0.888349,-0.0131814
2.16022,-0.797374,-0.248037
2.16462,-0.799,0.0536913
2.01196,-0.975218,0.0260295
2.1487,-0.793124,-0.160161
2.07986,-0.885419,-0.184535
2.2198,-0.698197,0.0677228
2.0791,-0.885096,0.0394424
2.23143,-0.701854,-0.149916
2.01228,-0.975376,-0.130231
2.15031,-0.793716,0.133487
2.08137,-0.886062,0.0921613
2.15162,-0.7942,-0.106835
2.08392,-0.887147,-0.118698
2.17514,-0.802882,0.284687
2.22271,-0.699113,-0.0949294
2.16087,-0.797615,-0.0535983
2.21807,-0.705746,-0.0406292
2.06457,-0.887009,-0.0653955
2.1513,-0.802199,0
1.99793,-0.976615,-0.0258898
2.13314,-0.795426,-0.354188
2.21456,-0.704629,0.0135069
2.07276,-0.890527,-0.0131117
2.15011,-0.801754,-0.24718
2.15821,-0.804776,0.0535983
2.00512,-0.980128,0.0259829
2.14232,-0.798851,-0.159882
2.07691,-0.892311,-0.184535
2.21747,-0.705555,0.0677228
2.07248,-0.890407,0.0393726
2.21767,-0.705619,-0.149149
2.00186,-0.978537,-0.129766
2.14018,-0.798052,0.133022
2.07842,-0.892959,0.0921613
2.15271,-0.802726,-0.107022
2.08096,-0.894052,-0.118698
2.21657,-0.705268,-0.0947666
2.14697,-0.800585,-0.0533191
2.2194,-0.71471,-0.040699
2.05046,-0.889437,-0.0650464
2.14849,-0.809704,0
1.9981,-0.985353,-0.0259363
2.13035,-0.802867,-0.354188
2.2159,-0.713581,0.0135301
2.07331,-0.899349,-0.0131349
2.14357,-0.807852,-0.246752
2.14791,-0.809485,0.0534122
1.9981,-0.985353,0.0259363
2.14325,-0.807731,-0.160161
2.07012,-0.897969,-0.184209
2.21119,-0.712065,0.0676064
2.07303,-0.899227,0.0394424
2.2228,-0.715803,-0.149661
2.14112,-0.806926,0.133255
2.06796,-0.897028,0.0918356
2.14242,-0.807418,-0.106649
2.07416,-0.899721,-0.118489
2.2179,-0.714226,-0.0949294
2.14791,-0.809485,-0.0534122
2.20929,-0.719974,-0.0405594
2.051,-0.898192,-0.0651628
2.13817,-0.814351,0
1.99465,-0.992321,-0.0259363
2.13122,-0.811705,-0.354803
2.20579,-0.718833,0.0134836
2.06649,-0.904976,-0.0131117
2.13331,-0.812498,-0.245895
2.13759,-0.814131,0.0532261
1.99106,-0.99054,0.0258898
2.12923,-0.810947,-0.159324
2.07063,-0.906788,-0.184535
2.21249,-0.721018,0.0677228
2.06621,-0.904853,0.0393726
2.21649,-0.72232,-0.149405
2.13829,-0.814395,0.133255
2.06115,-0.902638,0.0916728
2.13586,-0.813469,-0.106463
2.06003,-0.902148,-0.117861
2.2116,-0.720726,-0.0947666
2.14133,-0.815554,-0.0533191
2.20297,-0.726429,-0.0404896
2.04054,-0.902113,-0.0649301
2.13905,-0.823246,0
1.98402,-0.99569,-0.0258432
2.20327,-0.726528,0.0134836
2.06698,-0.913801,-0.0131349
2.13788,-0.822797,-0.246752
2.1422,-0.82446,0.0534122
1.98759,-0.997484,0.0258898
2.12639,-0.818375,-0.159324
2.06016,-0.910787,-0.183884
2.19478,-0.723728,0.0672573
2.05938,-0.910443,0.0393028
2.21396,-0.730053,-0.149405
2.12798,-0.818985,0.13279
2.05799,-0.909827,0.0916728
2.133,-0.82092,-0.106463
2.06418,-0.912564,-0.118279
2.20527,-0.727189,-0.0946037
2.13101,-0.820151,-0.053133
2.20421,-0.735381,-0.0405594
2.03738,-0.90923,-0.0649301
2.12125,-0.824909,0
2.18554,-0.729151,0.0133907
2.06012,-0.919381,-0.0131117
2.13129,-0.828813,-0.246323
2.13186,-0.829034,0.0532261
2.12724,-0.827238,-0.159603
2.05333,-0.916348,-0.183558
2.18844,-0.73012,0.067141
2.04889,-0.914367,0.0391632
2.20003,-0.733987,-0.148637
2.12511,-0.826408,0.13279
2.0548,-0.917005,0.0916728
2.13012,-0.82836,-0.106463
2.05733,-0.918136,-0.11807
2.19893,-0.733618,-0.0944409
2.13186,-0.829034,-0.0532261
2.19405,-0.740512,-0.0404198
2.03419,-0.916337,-0.0649301
2.12208,-0.833771,0
2.18677,-0.738054,0.0134139
2.05325,-0.924923,-0.0130884
2.12468,-0.834793,-0.245895
2.13267,-0.837933,0.0533191
2.12063,-0.8332,-0.159324
2.05012,-0.92351,-0.183558
2.18588,-0.737754,0.067141
2.04568,-0.921513,0.0391632
2.19746,-0.741662,-0.148637
2.11849,-0.832361,0.132557
2.05159,-0.924172,0.0916728
2.1235,-0.834329,-0.106277
2.04319,-0.92039,-0.117442
2.19257,-0.740011,-0.0942781
2.11778,-0.832083,-0.0529469
2.19145,-0.748167,-0.0404198
2.12287,-0.842649,0
2.18418,-0.745683,0.0134139
2.04637,-0.930429,-0.0130652
2.11806,-0.840737,-0.245466
2.11858,-0.840946,0.05304
2.114,-0.839125,-0.159045
2.04688,-0.93066,-0.183558
2.18329,-0.74538,0.067141
2.04245,-0.928648,0.0391632
2.19108,-0.748038,-0.148382
2.10815,-0.836804,0.132092
2.03743,-0.926365,0.0911843
2.11315,-0.838788,-0.105905
2.0436,-0.92917,-0.117651
2.18997,-0.74766,-0.0942781
2.11858,-0.840946,-0.05304
2.18505,-0.754506,-0.04035
2.02048,-0.92718,-0.0646974
2.10878,-0.845588,0
2.17778,-0.751997,0.0133907
2.03948,-0.935899,-0.0130419
2.11142,-0.846646,-0.245038
2.11935,-0.849824,0.053133
2.10365,-0.843529,-0.158487
2.03999,-0.936137,-0.183233
2.1769,-0.751692,0.0670246
2.04283,-0.93744,0.039233
2.18468,-0.754379,-0.148126
2.10522,-0.844158,0.132092
2.03782,-0.935139,0.0913472
2.11021,-0.84616,-0.105905
2.03308,-0.932966,-0.117233
2.18357,-0.753995,-0.0941152
2.11564,-0.848336,-0.05304
2.17485,-0.759492,-0.0402103
2.01723,-0.934227,-0.0646974
2.0984,-0.849941,0
2.17892,-0.760913,0.0134139
2.03257,-0.941331,-0.0130187
2.10845,-0.854011,-0.245038
2.10895,-0.854215,0.0529469
2.09699,-0.849369,-0.158208
2.17049,-0.757968,0.0669082
2.03592,-0.942884,0.0391632
2.1858,-0.763316,-0.148382
2.09856,-0.850002,0.131859
2.03454,-0.942246,0.0913472
2.10724,-0.85352,-0.105905
2.02982,-0.940057,-0.117233
2.16961,-0.75766,-0.0936268
2.10525,-0.852713,-0.0528539
2.17219,-0.767079,-0.0402103
2.01396,-0.941263,-0.0646974
2.09913,-0.858775,0
2.16871,-0.765851,0.0133674
2.03652,-0.951807,-0.0130652
2.10914,-0.862871,-0.245466
2.10596,-0.861571,0.0529469
2.09771,-0.858194,-0.158487
2.16406,-0.764208,0.0667919
2.02537,-0.946598,0.0390236
2.1756,-0.768283,-0.14787
2.10297,-0.860346,0.132324
2.03124,-0.949342,0.0913472
2.10055,-0.859358,-0.105719
2.03014,-0.948828,-0.117442
2.17448,-0.76789,-0.0939524
2.10596,-0.861571,-0.0529469
2.15443,-0.769277,-0.0399311
2.00704,-0.946582,-0.064581
2.09612,-0.866097,0
2.16225,-0.772071,0.0133442
2.02233,-0.953792,-0.0129954
2.09141,-0.864153,-0.243753
2.09924,-0.86739,0.0528539
2.09101,-0.863988,-0.158208
2.16138,-0.771757,0.0667919
2.01482,-0.950251,0.038884
2.16538,-0.773188,-0.147358
2.08888,-0.863107,0.131627
2.09385,-0.865159,-0.105533
2.0232,-0.954204,-0.117233
2.16803,-0.774132,-0.0937896
2.09555,-0.865863,-0.0527608
2.15549,-0.77815,-0.0400009
2.00011,-0.951864,-0.0644646
2.0857,-0.870328,0
2.15578,-0.778256,0.0133209
2.01899,-0.960845,-0.0129954
2.08471,-0.869917,-0.243325
2.08882,-0.871632,0.0526678
2.08798,-0.871281,-0.158208
2.15491,-0.77794,0.0666755
2.02232,-0.962434,0.0390934
2.16267,-0.780742,-0.147358
2.08585,-0.870394,0.131627
2.08713,-0.870924,-0.105346
2.02347,-0.962978,-0.117442
2.16531,-0.781695,-0.0937896
2.09251,-0.873172,-0.0527608
2.15666,-0.786664,-0.0400707
1.99695,-0.958491,-0.0644646
2.0828,-0.87724,0
2.15319,-0.7854,0.0133209
2.01579,-0.967535,-0.0129954
2.08548,-0.878369,-0.243753
2.08592,-0.878554,0.0526678
2.07405,-0.873554,-0.157371
2.14856,-0.783711,0.0665591
2.01191,-0.965673,0.0389538
2.15632,-0.786541,-0.147102
2.0756,-0.874206,0.131162
2.08423,-0.87784,-0.105346
2.00226,-0.96104,-0.116395
2.15144,-0.784763,-0.0933011
2.08592,-0.878554,-0.0526678
2.14653,-0.791046,-0.0399311
2.07252,-0.881012,0
2.15057,-0.792536,0.0133209
2.01257,-0.974214,-0.0129954
2.0789,-0.883724,-0.243325
2.07932,-0.883902,0.0525747
2.07848,-0.883549,-0.157929
2.13845,-0.788067,0.0663264
2.0087,-0.97234,0.0389538
2.15744,-0.795068,-0.147358
2.07636,-0.882646,0.131394
2.07763,-0.883184,-0.10516
2.00625,-0.971155,-0.116814
2.14883,-0.791893,-0.0933011
2.083,-0.885467,-0.0526678
2.13626,-0.795742,-0.0397915
1.98678,-0.970307,-0.0643483
2.0731,-0.889819,0
2.1403,-0.797246,0.0132744
2.00916,-0.981233,-0.0129954
2.0758,-0.890975,-0.243325
2.07989,-0.892732,0.0526678
2.06805,-0.887651,-0.157371
2.13568,-0.795526,0.0663264
2.0017,-0.97759,0.038884
2.14343,-0.798414,-0.146591
2.07327,-0.889888,0.131394
2.07453,-0.890431,-0.10516
1.99926,-0.976399,-0.116605
2.14231,-0.797994,-0.0931383
2.07989,-0.892732,-0.0526678
2.13721,-0.804603,-0.0398613
1.98697,-0.979003,-0.0644646
2.06631,-0.895459,0
2.13376,-0.803303,0.0132512
1.99495,-0.982937,-0.0129257
2.06173,-0.893472,-0.242039
2.07309,-0.898397,0.0525747
2.06128,-0.893278,-0.157092
2.13289,-0.802976,0.0663264
1.99827,-0.984572,0.038884
2.14437,-0.807297,-0.146847
2.06648,-0.895532,0.131162
2.07508,-0.899256,-0.105346
1.99584,-0.983372,-0.116605
2.13951,-0.805467,-0.0931383
2.06576,-0.895217,-0.0523886
2.13051,-0.811008,-0.0397915
2.07035,-0.906234,0
2.1308,-0.811118,0.0132512
1.9985,-0.993805,-0.0129722
2.0588,-0.901179,0.0522955
2.05799,-0.900827,-0.157092
2.13367,-0.812211,0.0664428
1.99107,-0.990108,0.0388142
2.13767,-0.813731,-0.146591
2.05587,-0.899898,0.130697
2.06078,-0.902048,-0.104788
1.99937,-0.994238,-0.117023
2.13654,-0.813303,-0.0931383
2.06612,-0.904386,-0.0524816
2.12781,-0.818069,-0.0397915
2.04904,-0.905014,0
2.1281,-0.81818,0.0132512
1.99162,-0.998633,-0.0129489
2.04848,-0.90477,0.0521094
2.05135,-0.906034,-0.156813
2.1235,-0.816412,0.0662101
2.13123,-0.819383,-0.146335
2.04922,-0.905097,0.130464
2.05778,-0.908877,-0.104788
2.13383,-0.820384,-0.0931383
2.0558,-0.908001,-0.0522955
2.11734,-0.822964,-0.0396519
2.0384,-0.909259,0
2.12136,-0.824525,0.0132279
2.0488,-0.913901,0.0522025
2.04437,-0.911921,-0.156534
2.10932,-0.819844,0.065861
2.12449,-0.825743,-0.146079
2.04225,-0.910975,0.130231
2.05444,-0.916413,-0.104788
2.11219,-0.82096,-0.0923241
2.05976,-0.918788,-0.0524816
2.11475,-0.829612,-0.0396519
2.04283,-0.918941,0
2.11503,-0.829724,0.0132047
2.04592,-0.920333,0.0522025
2.04149,-0.918339,-0.156534
2.11045,-0.827927,0.0659773
2.11445,-0.829497,-0.145567
2.05155,-0.922863,-0.104788
2.11704,-0.83051,-0.0926498
2.04957,-0.921973,-0.0522955
2.11184,-0.836989,-0.0396519
2.03961,-0.926066,0
2.10841,-0.835629,0.0131814
2.0427,-0.927469,0.0522025
2.04554,-0.928759,-0.157092
2.10383,-0.833816,0.065861
2.10784,-0.835402,-0.145312
2.04468,-0.928367,-0.104602
2.10669,-0.83495,-0.0923241
2.04634,-0.929122,-0.0522955
2.1049,-0.843604,-0.0395821
2.0324,-0.932223,0
2.10518,-0.843718,0.0131814
2.03185,-0.931971,0.0520164
2.0347,-0.933279,-0.156534
2.10062,-0.841888,0.065861
2.10461,-0.84349,-0.145312
2.0302,-0.931213,-0.104044
2.09976,-0.841546,-0.0921613
2.03549,-0.933638,-0.0521094
2.10224,-0.850212,-0.0395821
2.0222,-0.935245,0
2.0951,-0.847328,0.0131349
2.02528,-0.936671,0.0519233
2.02814,-0.937992,-0.156255
2.09425,-0.846984,0.0657446
2.10195,-0.850098,-0.145312
2.02726,-0.937587,-0.104044
2.10081,-0.849637,-0.0923241
2.03617,-0.941707,-0.0522025
2.09555,-0.856033,-0.0395123
2.0153,-0.940607,0
2.09584,-0.856149,0.0131582
2.022,-0.943735,0.0519233
2.02124,-0.943378,-0.155975
2.08388,-0.851265,0.0655119
2.09528,-0.85592,-0.145056
2.02036,-0.942968,-0.103857
2.08674,-0.852431,-0.0918356
2.02925,-0.947117,-0.0521094
2.09225,-0.864073,-0.0395123
2.01529,-0.950043,0
2.08514,-0.861136,0.0131117
2.01475,-0.949786,0.0518303
2.0176,-0.951132,-0.155975
2.08429,-0.860786,0.0656282
2.08829,-0.862435,-0.1448
2.01672,-0.950718,-0.103857
2.08345,-0.860437,-0.0918356
2.0256,-0.954902,-0.0521094
2.07446,-0.865213,-0.039233
2.00474,-0.953636,0
2.07843,-0.86687,0.0130884
2.02225,-0.961967,0.0521094
2.01787,-0.959883,-0.156255
2.08128,-0.868057,0.0656282
2.08526,-0.869719,-0.1448
2.01339,-0.957752,-0.103857
2.07674,-0.866166,-0.0916728
2.02586,-0.963685,-0.0522025
2.08279,-0.876379,-0.0394424
2.00895,-0.963388,0
2.0757,-0.873395,0.0130884
2.0048,-0.961399,0.0517372
2.07485,-0.87304,0.0655119
2.07884,-0.874718,-0.144544
2.00317,-0.960617,-0.103485
2.07401,-0.872686,-0.0916728
2.01561,-0.966586,-0.0520164
2.0722,-0.880878,-0.0393028
2.0688,-0.879432,0.0130652
1.99766,-0.966998,0.0516442
2.07532,-0.882203,0.0656282
2.07929,-0.883893,-0.1448
1.99604,-0.966212,-0.103299
2.0708,-0.880282,-0.0916728
2.01566,-0.975709,-0.0521094
2.06927,-0.887745,-0.0393028
1.98779,-0.970371,0
2.06587,-0.886288,0.0130652
2.00163,-0.977125,0.0518303
2.06136,-0.884351,0.0652792
2.06535,-0.886062,-0.144032
1.99641,-0.974578,-0.103485
2.06052,-0.883992,-0.0913472
2.00882,-0.980634,-0.0520164
2.066,-0.895323,-0.0393028
2.05894,-0.892263,0.0130419
2.0581,-0.8919,0.0652792
2.05842,-0.892039,-0.143777
1.99283,-0.981889,-0.103485
2.0536,-0.889949,-0.0911843
2.00521,-0.98799,-0.0520164
2.06286,-0.902529,-0.0393028
1.98438,-0.986351,0
2.05215,-0.897841,0.0130187
2.05498,-0.899079,0.0652792
2.05164,-0.897618,-0.143521
1.98581,-0.987061,-0.103299
2.04682,-0.89551,-0.0910215
1.99817,-0.993204,-0.0519233
2.05238,-0.906492,-0.0391632
1.98093,-0.993271,0
2.049,-0.904999,0.0130187
2.04817,-0.904631,0.0651628
2.0558,-0.908,-0.144032
1.98592,-0.995778,-0.103485
2.04734,-0.904264,-0.0911843
1.99111,-0.99838,-0.0518303
2.04222,-0.909681,-0.0390236
1.97066,-0.995882,0
2.04615,-0.911432,0.0130187
2.04532,-0.911061,0.0651628
2.05293,-0.914454,-0.144032
2.04449,-0.910692,-0.0911843
2.03887,-0.91716,-0.0390236
2.05009,-0.922207,0.0130652
2.03467,-0.915271,0.0649301
2.04229,-0.918697,-0.143521
2.03385,-0.9149,-0.0908587
2.04294,-0.927578,-0.0391632
2.03593,-0.924397,0.0129954
2.03146,-0.922368,0.0649301
2.03543,-0.92417,-0.143265
2.03064,-0.921994,-0.0908587
2.02878,-0.929705,-0.0389538
2.03633,-0.933164,0.0130187
2.02823,-0.929454,0.0649301
2.03219,-0.931269,-0.143265
2.02014,-0.925746,-0.090533
2.0181,-0.933776,-0.0388142
2.0329,-0.940621,0.0130187
2.02481,-0.936881,0.0649301
2.02152,-0.935359,-0.142753
2.02399,-0.936501,-0.0908587
2.01878,-0.941803,-0.038884
2.0263,-0.945312,0.0129954
2.01823,-0.941547,0.0648137
2.02219,-0.943393,-0.143009
2.01742,-0.941165,-0.0906958
2.01893,-0.950899,-0.0389538
2.02645,-0.954437,0.0130187
2.00754,-0.945531,0.064581
2.01511,-0.949097,-0.142753
2.00672,-0.945147,-0.0903702
2.01199,-0.956224,-0.038884
2.01226,-0.956354,0.0129489
2.00422,-0.952533,0.064581
2.00818,-0.954412,-0.142497
2.0016,-0.959434,-0.0387443
2.00547,-0.961293,0.0129257
1.99745,-0.957445,0.0644646
2.0194,-0.967968,-0.143521
1.99664,-0.957057,-0.0902073
1.99823,-0.966415,-0.0387443
2.00211,-0.968287,0.0129257
1.99328,-0.964021,-0.0902073
1.99468,-0.973732,-0.0387443
1.99854,-0.975619,0.0129257
1.98974,-0.97132,-0.0902073
1.98768,-0.978922,-0.0386745
1.99154,-0.980822,0.0129024
1.98275,-0.976494,-0.0900445
1.98442,-0.985508,-0.0386745
1.98111,-0.983862,0.012856
1.98097,-0.992429,-0.0386745
1.97766,-0.990772,0.012856
1.97606,-0.989967,-0.0900445
1.97375,-0.997878,-0.0386047
