2.07134,0.0462825,0.0241203
2.13148,0.152039,-0.174445
2.13026,0.151952,0.0372783
2.07197,0.0462965,-0.120697
2.20029,0.265485,0.129069
2.12882,0.151849,0.0869508
2.13962,0.15262,-0.112418
2.14706,0.15315,0.392459
2.20739,0.266342,-0.0517372
2.12222,0.143934,-0.0619047
2.11711,0.143588,-0.424398
2.18506,0.255913,0
2.05949,0.0388251,-0.0239806
2.11405,0.14338,-0.269709
2.12708,0.144264,-0.012391
2.20433,0.258169,0.0516442
2.06749,0.0389759,0.0240738
2.12404,0.144058,-0.173795
2.12679,0.144244,0.0372085
2.06414,0.0389126,-0.120232
2.19723,0.257338,0.128836
2.12136,0.143876,0.0866251
2.19638,0.257238,0.271525
2.1358,0.144855,0.390307
2.20036,0.257704,-0.0515511
2.11371,0.135577,-0.423613
2.05962,0.0312769,-0.0239806
2.17179,0.246292,-0.340045
2.11456,0.135631,-0.269709
2.25413,0.367917,0.0132744
2.1236,0.136211,-0.0123678
2.17342,0.246477,-0.235614
2.05483,0.0312041,-0.191837
2.18937,0.248286,0.051272
2.06362,0.0313376,0.0240272
2.1767,0.246849,-0.153185
2.12455,0.136272,-0.173795
2.1313,0.136705,0.0372783
2.05628,0.0312261,-0.119766
2.19419,0.248834,0.128604
2.11789,0.135845,0.0864623
2.17965,0.247184,-0.102182
2.13268,0.136794,-0.111999
2.19336,0.248739,0.271037
2.13239,0.136775,0.389589
2.19732,0.249188,-0.0514581
2.1112,0.128387,-0.0615556
2.10632,0.12809,-0.422044
2.05572,0.0243987,-0.0239341
2.10311,0.127895,-0.268194
2.24744,0.359177,0.0132279
2.12005,0.128925,-0.0123445
2.0589,0.0244366,-0.192208
2.19018,0.241024,0.051272
2.05172,0.0243513,0.0238875
2.17354,0.239193,-0.152906
2.11703,0.128741,-0.173144
2.11976,0.128907,0.0370689
2.06036,0.0244539,-0.119999
2.19104,0.241119,0.128371
2.11434,0.128577,0.0862994
2.11718,0.12875,-0.111162
2.12498,0.129225,0.388154
2.19018,0.241024,-0.051272
2.10366,0.120561,-0.0613228
2.09892,0.120289,-0.420475
2.17171,0.231324,0
2.10751,0.120781,-0.268699
2.24473,0.350714,0.0132047
2.1125,0.121067,-0.012298
2.16318,0.230415,-0.234328
2.05499,0.0172176,-0.191837
2.18703,0.232956,0.0511789
2.04779,0.0171572,0.0238409
2.17039,0.231183,-0.152627
2.10155,0.12044,-0.171842
2.12419,0.121737,0.0371387
2.05644,0.0172297,-0.119766
2.18392,0.232625,0.127906
2.11078,0.120969,0.0861366
2.16936,0.231073,-0.101624
2.1216,0.121589,-0.111371
2.18316,0.232543,0.269575
2.12542,0.121808,0.388154
2.18703,0.232956,-0.0511789
2.14956,0.221377,-0.604927
2.09149,0.11254,-0.418907
2.03984,0.00996934,-0.0237478
2.09207,0.112571,-0.266678
2.23803,0.341668,0.0131582
2.11291,0.113692,-0.012298
2.16397,0.222862,-0.234328
2.05106,0.0100242,-0.191465
2.17988,0.2245,0.0509928
2.04784,0.0100084,0.0238409
2.16722,0.223196,-0.152348
2.10196,0.113103,-0.171842
2.10863,0.113462,0.0368595
2.05649,0.0100507,-0.119766
2.18472,0.224999,0.127906
2.11119,0.1136,0.0861366
2.17016,0.223499,-0.101624
2.11803,0.113967,-0.111162
2.18001,0.224514,0.269088
2.11797,0.113964,0.386719
2.17988,0.2245,-0.0509928
2.09644,0.105834,-0.0610901
2.14261,0.213484,-0.602771
2.08794,0.105405,-0.418122
2.1613,0.215345,0
2.03586,0.00319808,-0.0237012
2.09243,0.105632,-0.266678
2.23124,0.333063,0.0131117
2.10129,0.106079,-0.0122283
2.15678,0.214896,-0.233472
2.0471,0.00321573,-0.191093
2.17663,0.216873,0.0508998
2.05186,0.00322321,0.0238875
2.16795,0.216008,-0.152348
2.09834,0.10593,-0.171516
2.10899,0.106468,0.0368595
2.04853,0.00321798,-0.119301
2.16956,0.216169,0.126976
2.10757,0.106396,0.0859738
2.16293,0.215508,-0.101252
2.1144,0.106741,-0.110952
2.17679,0.216889,0.2686
2.19915,0.219117,0.592178
2.11441,0.106741,0.386002
2.17265,0.216477,-0.0508067
2.08831,0.0977523,-0.418122
2.15809,0.207041,0
2.03186,-0.00425492,-0.0236547
2.08488,0.0975916,-0.265668
2.22849,0.324308,0.0130884
2.09767,0.0981903,-0.012205
2.1536,0.20661,-0.233043
2.03913,-0.00427015,-0.190349
2.16547,0.207749,0.0506206
2.03986,-0.00427167,0.0237478
2.15681,0.206918,-0.151511
2.09473,0.0980528,-0.171191
2.23154,0.324752,0.0656282
2.10537,0.098551,0.0367897
2.04453,-0.00428146,-0.119069
2.17034,0.208216,0.126976
2.09996,0.0982974,0.0856481
2.15973,0.207198,-0.101066
2.1068,0.0986177,-0.110534
2.17757,0.20891,0.2686
2.10692,0.0986234,0.384567
2.16945,0.208131,-0.0507136
2.13258,0.197083,-0.599536
2.15083,0.19877,0
2.03183,-0.0113479,-0.0236547
2.08521,0.0903128,-0.265668
2.22961,0.316526,0.0130884
2.098,0.0908669,-0.012205
2.15034,0.198724,-0.232615
2.03512,-0.0113663,-0.189978
2.1622,0.19982,0.0505275
2.03183,-0.0113479,0.0236547
2.14957,0.198653,-0.150953
2.08709,0.0903946,-0.17054
2.09771,0.0908546,0.0366501
2.0445,-0.0114187,-0.119069
2.17105,0.200638,0.126976
2.09629,0.0907931,0.0854853
2.14851,0.198554,-0.100507
2.09117,0.0905711,-0.109696
2.18527,0.201952,0.588037
2.10725,0.0912677,0.384567
2.1622,0.19982,-0.0505275
2.08147,0.0828732,-0.0606247
2.07327,0.0825466,-0.414984
2.14753,0.190907,0
2.02378,-0.0183673,-0.0235616
2.08154,0.0828762,-0.265163
2.21881,0.307097,0.0130187
2.09431,0.0833843,-0.0121818
2.13914,0.190161,-0.23133
2.03507,-0.0184697,-0.189978
2.16288,0.192272,0.0505275
2.02378,-0.0183673,0.0235616
2.14627,0.190795,-0.150674
2.09402,0.083373,0.0365802
2.03247,-0.0184461,-0.118371
2.15583,0.191645,0.126045
2.0966,0.0834756,0.0854853
2.14521,0.1907,-0.100321
2.09147,0.0832714,-0.109696
2.16316,0.192296,0.26665
2.18596,0.194323,0.588037
2.10756,0.083912,0.384567
2.16288,0.192272,-0.0505275
2.13003,0.182235,-0.598457
2.06961,0.0755283,-0.4142
2.15214,0.184126,0
2.01971,-0.0250283,-0.023515
2.21189,0.298667,0.0129722
2.09457,0.0764393,-0.0121818
2.14769,0.183745,-0.232186
2.02703,-0.025119,-0.189234
2.15554,0.184417,0.0503414
2.02771,-0.0251274,0.0236081
2.1469,0.183677,-0.150674
2.0823,0.0759914,0.0363708
2.16043,0.184836,0.126278
2.09287,0.0763772,0.0853225
2.14583,0.183586,-0.100321
2.09174,0.0763358,-0.109696
2.15587,0.184446,0.265675
2.16735,0.185427,0.582861
2.09996,0.076636,0.383132
2.15952,0.184758,-0.0504345
2.12298,0.174168,-0.596301
2.06202,0.0680443,-0.412631
2.14479,0.175958,0
2.0662,0.0681821,-0.263143
2.08283,0.0687311,-0.012112
2.13246,0.174946,-0.230473
2.02693,-0.0321951,-0.189234
2.15617,0.176891,0.0503414
2.02761,-0.0322058,0.0236081
2.14355,0.175855,-0.150395
2.07855,0.0685899,0.036301
2.02431,-0.0321535,-0.117906
2.14515,0.175987,0.125348
2.08513,0.0688071,0.0849968
2.14247,0.175767,-0.100135
2.088,0.0689015,-0.109487
2.14859,0.176269,0.2647
2.2032,0.289666,-0.090533
2.09628,0.0691749,0.382414
2.14421,0.17591,-0.0500623
2.05833,0.0603716,-0.411846
2.14543,0.168096,0
2.01548,-0.0394022,-0.0234684
2.0704,0.0607255,-0.263648
2.20207,0.281311,0.0129024
2.08307,0.0610971,-0.012112
2.13705,0.16744,-0.230901
2.01485,-0.03939,-0.188119
2.14086,0.167738,0.0499692
2.01948,-0.0394803,0.023515
2.13622,0.167375,-0.149837
2.06424,0.0605449,-0.168587
2.08279,0.0610888,0.0363708
2.02418,-0.0395723,-0.117906
2.1418,0.167812,0.125115
2.07738,0.0609303,0.0846712
2.13513,0.16729,-0.0997627
2.08424,0.0611315,-0.109277
2.14922,0.168394,0.2647
2.08865,0.0612609,0.380979
2.14484,0.16805,-0.0500623
2.0546,0.0534431,-0.411062
2.13002,0.159783,0
2.01534,-0.0460861,-0.0234684
2.06662,0.0537557,-0.263143
2.07526,0.0539805,-0.0120655
2.12966,0.159757,-0.230044
2.01869,-0.0461628,-0.188491
2.13741,0.160338,0.0498762
2.01134,-0.0459946,0.0234219
2.13279,0.159991,-0.149558
2.06842,0.0538024,-0.168913
2.19812,0.273402,0.0644646
2.07898,0.0540772,0.036301
2.01606,-0.0461025,-0.117441
2.13836,0.160409,0.124883
2.06958,0.0538327,0.0843455
2.13169,0.159909,-0.0995766
2.06846,0.0538035,-0.10844
2.08885,0.0543338,0.380979
2.13741,0.160338,-0.0498762
2.00717,-0.0529104,-0.0233753
2.06283,0.0464516,-0.262638
2.19599,0.265355,0.012856
2.07544,0.0467356,-0.0120655
2.13021,0.152321,-0.230044
2.01454,-0.0531047,-0.188119
2.13397,0.15259,0.0497831
2.01117,-0.0530157,0.0234219
2.12139,0.151691,-0.148721
2.07516,0.0467293,0.0362312
2.01588,-0.0531401,-0.117441
2.13492,0.152658,0.12465
2.06576,0.0465177,0.0841827
2.12825,0.152181,-0.0993905
2.07263,0.0466723,-0.108649
2.13448,0.152627,0.26275
2.08509,0.0469529,0.380262
2.13397,0.15259,-0.0497831
2.05476,0.0387361,-0.0598101
2.04709,0.0385914,-0.409493
2.12312,0.143996,0
2.00696,-0.0602662,-0.0233753
2.05108,0.0386668,-0.261123
2.0676,0.0389781,-0.012019
2.11488,0.143437,-0.228331
2.01433,-0.0604876,-0.188119
2.13053,0.144498,0.0496901
1.99896,-0.0600261,0.0232822
2.11795,0.143645,-0.148442
2.05281,0.0386992,-0.167611
2.07132,0.0390482,0.0361614
2.1275,0.144292,0.124185
2.06992,0.0390218,0.0843455
2.12481,0.14411,-0.0992044
2.0648,0.0389253,-0.108231
2.13502,0.144803,0.26275
2.07738,0.0391625,0.378827
2.12255,0.143957,-0.049504
2.05488,0.0319225,-0.0598101
2.04328,0.0317423,-0.408708
2.11561,0.13644,0
1.99476,-0.0665208,-0.0232356
2.0512,0.0318653,-0.261123
2.05572,0.0319355,-0.0119493
2.11534,0.136423,-0.228331
2.01014,-0.0670338,-0.187747
2.127,0.137175,0.049597
1.99476,-0.0665208,0.0232356
2.12638,0.137135,-0.149
2.05292,0.0318921,-0.167611
2.06344,0.0320554,0.0360218
2.00349,-0.0668121,-0.116743
2.12,0.136723,0.12372
2.06204,0.0320337,0.0840198
2.12528,0.137064,-0.0992044
2.06092,0.0320163,-0.108021
2.12361,0.136956,0.261288
2.07356,0.0322127,0.37811
2.11503,0.136403,-0.0493179
2.03946,0.024562,-0.407924
2.11208,0.12881,0
1.99851,-0.0736312,-0.0232822
2.04336,0.024609,-0.260113
2.05982,0.0248071,-0.0119725
2.11184,0.128796,-0.227903
1.99795,-0.0736108,-0.186632
2.1115,0.128775,0.0492248
1.99451,-0.073484,0.0232356
2.1149,0.128982,-0.148163
2.04903,0.0246773,-0.167285
2.18186,0.240494,0.0638828
2.06354,0.0248519,0.0360218
2.00723,-0.0739527,-0.116976
2.12445,0.129565,0.123952
2.05415,0.0247388,0.0836942
2.11378,0.128914,-0.098646
2.06102,0.0248216,-0.108021
2.12407,0.129542,0.261288
2.177,0.239958,-0.0892304
2.1115,0.128775,-0.0492248
2.04306,0.0174734,-0.0594611
2.03169,0.0173761,-0.406355
2.10453,0.120978,0
1.99424,-0.0804452,-0.0232356
2.09924,0.120674,-0.327132
2.04344,0.0174766,-0.260113
2.05989,0.0176173,-0.0119725
2.11624,0.121652,-0.228331
1.9937,-0.0804235,-0.18626
2.10795,0.121175,0.0491318
1.99025,-0.080284,0.023189
2.10737,0.121141,-0.147605
2.04512,0.017491,-0.16696
2.05961,0.0176149,0.035952
2.16723,0.231228,-0.139683
2.00297,-0.0807975,-0.116743
2.11293,0.121461,0.123255
2.05422,0.0175688,0.0836942
2.11421,0.121535,-0.098646
2.04512,0.017491,-0.107184
2.11262,0.121443,0.259825
2.17385,0.231934,-0.0890675
2.058,0.0176011,0.37524
2.11194,0.121404,-0.0492248
2.03173,0.0106391,-0.406355
2.10891,0.114215,0
1.98198,-0.0865342,-0.0230959
2.04348,0.0107006,-0.260113
2.16842,0.224085,0.01267
2.05594,0.0107658,-0.0119493
2.10869,0.114204,-0.227474
1.99741,-0.0872077,-0.186632
2.11233,0.114401,0.0492248
1.98597,-0.0867086,0.0231425
2.10776,0.114153,-0.147605
2.05566,0.0107644,0.0358821
2.16401,0.22363,-0.139427
1.99073,-0.0869162,-0.116045
2.11332,0.114454,0.123255
2.04228,0.0106943,0.0832057
2.10663,0.114092,-0.0982737
2.04916,0.0107303,-0.107393
2.11301,0.114438,0.259825
2.05804,0.0107769,0.37524
2.10834,0.114184,-0.0491318
2.03514,0.0035523,-0.0592283
2.02784,0.00353956,-0.405571
2.1053,0.10665,0
2.08817,0.105782,-0.325287
2.03557,0.00355306,-0.259102
2.04796,0.00357469,-0.0119028
2.09716,0.106238,-0.226189
1.99311,-0.0939924,-0.18626
2.10473,0.106621,0.0490387
2.09619,0.106189,-0.146768
2.05168,0.00358119,0.0358123
2.15684,0.215281,-0.138916
2.10573,0.106672,0.12279
2.0423,0.00356481,0.0832057
2.09903,0.106333,-0.0979015
2.04519,0.00356985,-0.107184
2.10943,0.10686,0.259338
2.16345,0.215941,-0.0885791
2.11846,0.107317,0.568367
2.0502,0.00357859,0.373805
2.10074,0.106419,-0.0489456
2.03114,-0.00389875,-0.059112
2.02391,-0.00388489,-0.404786
2.09769,0.0985582,0
1.97332,-0.100309,-0.0230028
2.03557,-0.00390726,-0.259102
2.03996,-0.00391569,-0.0118563
2.09357,0.0983647,-0.225761
1.9848,-0.100892,-0.185516
2.10111,0.0987192,0.0489456
1.98131,-0.100715,0.0230959
2.08859,0.0981309,-0.14621
2.02925,-0.00389512,-0.165658
2.05168,-0.00393819,0.0358123
1.99005,-0.101159,-0.116045
2.09813,0.0985789,0.122325
2.0423,-0.00392018,0.0832057
2.1034,0.0988265,-0.0980876
2.04519,-0.00392572,-0.107184
2.10188,0.0987552,0.258363
2.11112,0.0991893,0.566296
2.04626,-0.00392778,0.373087
2.01604,-0.0109077,-0.403217
2.09402,0.091061,0
1.96896,-0.10698,-0.0229562
2.08098,0.0904937,-0.324057
2.03158,-0.0109918,-0.258597
2.03994,-0.011037,-0.0118563
2.08595,0.09071,-0.224904
1.98046,-0.107604,-0.185145
1.98094,-0.107631,0.0230959
2.08493,0.0906658,-0.145931
2.02523,-0.0109575,-0.165333
2.03966,-0.0110355,0.0356029
2.09447,0.0910804,0.122092
2.03428,-0.0110064,0.08288
2.08776,0.0907888,-0.0973431
2.04117,-0.0110437,-0.106975
2.09824,0.0912447,0.257876
2.153,0.199349,-0.0880906
2.11531,0.0919868,0.567331
2.0423,-0.0110498,0.37237
2.08946,0.0908626,-0.0486665
2.08232,0.0836343,0
1.97259,-0.113739,-0.0230028
2.08126,0.0835919,-0.324057
2.03153,-0.0177292,-0.258597
2.03589,-0.0177673,-0.0118331
2.08227,0.0836321,-0.224475
1.97214,-0.113713,-0.184401
1.9686,-0.113509,0.0229562
2.08921,0.083911,-0.14621
2.02519,-0.0176739,-0.165333
2.03961,-0.0177998,0.0356029
1.98135,-0.114244,-0.11558
2.03823,-0.0177877,0.0830429
2.09604,0.0841851,-0.0977154
2.03313,-0.0177432,-0.106556
2.14568,0.191497,-0.0877649
2.10788,0.084661,0.565261
2.03832,-0.0177885,0.371652
2.08575,0.0837722,-0.0485734
2.01899,-0.0246678,-0.0587629
2.0826,0.0763656,0
2.06969,0.0758924,-0.322213
2.02749,-0.0247716,-0.258092
2.03581,-0.0248733,-0.0118331
2.08652,0.0765093,-0.224904
1.97173,-0.120596,-0.184401
2.08204,0.0763449,0.0484804
1.9642,-0.120135,0.0229097
2.0855,0.076472,-0.145931
2.01714,-0.0246451,-0.164682
2.03954,-0.0249188,0.0356029
2.09105,0.0766754,0.121859
2.03016,-0.0248043,0.0827172
2.08434,0.0764293,-0.097157
2.03306,-0.0248396,-0.106556
2.1043,0.0771614,0.564226
2.03824,-0.024903,0.371652
2.09003,0.076638,-0.0486665
2.01489,-0.0320037,-0.0586465
2.07887,0.0686005,0
1.95975,-0.127074,-0.0228631
2.06601,0.0681761,-0.321598
2.01151,-0.03195,-0.256072
2.03171,-0.0322708,-0.0118098
2.07486,0.0684683,-0.223619
2.0823,0.0687138,0.0484804
1.96773,-0.127592,0.0229562
2.07779,0.068565,-0.145372
2.00906,-0.0319111,-0.164031
2.02344,-0.0321394,0.0353237
1.97649,-0.12816,-0.115348
2.07934,0.0686162,0.121162
2.02606,-0.0321811,0.0825544
2.07662,0.0685262,-0.0967847
2.02896,-0.0322271,-0.106347
2.10457,0.0694487,0.564226
2.0342,-0.0323104,0.370935
2.0823,0.0687138,-0.0484804
2.01078,-0.038608,-0.0585302
2.00002,-0.0384013,-0.400079
2.07109,0.0614694,0
1.96331,-0.133844,-0.0229097
2.06227,0.0612078,-0.320983
2.00743,-0.0385437,-0.255567
2.01959,-0.0387772,-0.0117401
2.06315,0.0612339,-0.222334
1.96686,-0.134086,-0.184029
2.07453,0.0615714,0.0482943
1.96331,-0.133844,0.0229097
2.07801,0.0616748,-0.145372
2.01293,-0.0386493,-0.164356
2.01932,-0.038772,0.0352539
2.12904,0.16756,-0.136869
1.96411,-0.133898,-0.11465
2.02595,-0.0388992,0.0825544
2.06884,0.0614028,-0.0964125
2.02884,-0.0389548,-0.106347
2.09321,0.0621259,0.56112
2.03015,-0.03898,0.370217
2.07053,0.0614528,-0.0482012
2.00379,-0.045472,-0.400864
2.07529,0.0543438,0
1.95086,-0.139839,-0.02277
2.06247,0.0540082,-0.320983
2.00728,-0.0455512,-0.255567
2.01945,-0.0458272,-0.0117401
2.06733,0.0541353,-0.222762
1.96241,-0.140667,-0.183657
2.06673,0.0541197,0.0481082
1.95485,-0.140125,0.0228165
2.07023,0.0542114,-0.144814
2.00481,-0.0454952,-0.163705
2.01917,-0.045821,0.0352539
1.96363,-0.140754,-0.11465
2.00981,-0.0456087,0.0819031
2.02071,-0.0458558,-0.105928
2.0757,0.0543544,0.254951
2.12822,0.160022,-0.0869508
2.09727,0.0549194,0.562155
2.02607,-0.0459775,0.3695
2.07473,0.0543291,-0.0482943
1.99186,-0.0521586,-0.39851
1.95435,-0.146948,-0.0228165
2.05475,0.0466287,-0.319753
2.00711,-0.0525581,-0.255567
2.01927,-0.0528765,-0.0117401
2.05955,0.0467378,-0.221905
1.95397,-0.146919,-0.182914
2.06291,0.046814,0.0480151
2.00066,-0.052389,-0.16338
2.011,-0.05266,0.0351142
1.95914,-0.147309,-0.114418
2.06397,0.046838,0.120232
2.00964,-0.0526244,0.0819031
2.01255,-0.0527004,-0.105509
2.12478,0.152306,-0.0867879
2.09359,0.0475102,0.56112
2.0259,-0.05305,0.3695
2.07091,0.0469954,-0.0482012
1.94585,-0.153142,-0.0227234
2.04699,0.0393043,-0.318523
1.99898,-0.0593285,-0.254557
2.01108,-0.0596875,-0.0116936
2.0597,0.0395483,-0.221905
1.94947,-0.153427,-0.182542
2.05906,0.039536,0.0479221
1.99648,-0.059254,-0.163054
2.01081,-0.0596794,0.0351142
2.06412,0.0396332,0.120232
2.00545,-0.0595204,0.0817402
2.05739,0.0395039,-0.0958541
2.01235,-0.0597252,-0.105509
2.08215,0.0399794,0.558014
2.0257,-0.0601213,0.3695
2.06706,0.0396896,-0.0481082
1.99406,-0.0661497,-0.0580647
1.98752,-0.065933,-0.397726
1.9453,-0.159933,-0.0227234
2.04317,0.0320966,-0.317908
1.98687,-0.0659112,-0.253042
2.01486,-0.0668397,-0.0117168
2.05188,0.0322334,-0.221048
1.95289,-0.160557,-0.182914
2.05919,0.0323483,0.0479221
1.9453,-0.159933,0.0227234
2.05872,0.0323409,-0.143977
1.99227,-0.0660905,-0.162729
2.00259,-0.0664329,0.0349746
2.06025,0.0323651,0.119999
2.00523,-0.0665204,0.0817402
2.05751,0.032322,-0.0958541
2.00415,-0.0664844,-0.105091
2.08228,0.0327111,0.558014
2.01761,-0.066931,0.368065
2.06719,0.0324739,-0.0481082
1.98336,-0.0727266,-0.396941
2.04785,0.0250204,0
1.94075,-0.166381,-0.0226768
2.03931,0.0249162,-0.317293
1.99059,-0.0729916,-0.253547
1.99862,-0.0732862,-0.0116238
2.05929,0.0251602,0.0479221
1.94872,-0.167064,0.02277
2.05084,0.025057,-0.143419
1.99203,-0.0730444,-0.162729
2.00635,-0.0735694,0.0350444
1.94555,-0.166793,-0.11372
2.05237,0.0250757,0.119534
1.997,-0.0732267,0.0814146
2.05362,0.0250909,-0.095668
2.0039,-0.0734797,-0.105091
2.07465,0.0253479,0.555943
2.0095,-0.073685,0.36663
2.05529,0.0251114,-0.047829
1.9831,-0.0796494,-0.396941
2.04392,0.017837,0
1.93617,-0.172799,-0.0226303
2.04729,0.0178665,-0.318523
1.98239,-0.0796212,-0.252536
1.99036,-0.0799412,-0.0115773
2.04012,0.0178039,-0.219763
1.94379,-0.173479,-0.18217
2.04737,0.0178671,0.0476429
1.94016,-0.173154,0.0226768
2.05091,0.0178981,-0.143419
1.98778,-0.0798375,-0.162403
1.99808,-0.0802514,0.0349048
1.94098,-0.173228,-0.113487
2.04845,0.0178766,0.119301
1.99964,-0.0803139,-0.104881
2.07859,0.0181396,0.556979
2.00137,-0.0803832,0.365195
2.05936,0.0179718,-0.0479221
1.97105,-0.0860579,-0.394588
1.93556,-0.179556,-0.0226303
2.03944,0.0106786,-0.317293
1.98607,-0.0867136,-0.253042
1.99007,-0.0868884,-0.0115773
1.94317,-0.180263,-0.18217
2.04742,0.0107204,0.0476429
1.93157,-0.179187,0.0225837
1.98749,-0.0867756,-0.162403
1.9938,-0.087051,0.034835
1.94037,-0.180002,-0.113487
2.0485,0.010726,0.119301
2.03776,0.0106698,-0.0949235
1.99536,-0.0871192,-0.104672
2.07478,0.0108636,0.555943
1.99714,-0.0871971,0.364478
2.05542,0.0107622,-0.047829
1.98096,-0.0934197,-0.0577156
1.97466,-0.0931224,-0.395372
1.92696,-0.185545,-0.0225371
2.02761,0.00353885,-0.315449
1.98575,-0.0936458,-0.253042
2.09728,0.106243,0.012205
1.98976,-0.0938345,-0.0115773
2.04019,0.00356082,-0.219763
1.93857,-0.186663,-0.181799
2.04344,0.00356649,0.0475499
1.93094,-0.185928,0.0225837
1.97921,-0.0933371,-0.161753
1.98949,-0.0938218,0.0347652
2.04453,0.00356839,0.119069
1.98015,-0.0933817,0.0807633
2.03379,0.00354964,-0.0947374
1.98307,-0.0935193,-0.104044
2.06708,0.00360774,0.553873
1.9929,-0.0939825,0.36376
2.05144,0.00358045,-0.047736
1.98062,-0.100334,-0.0577156
2.0184,-0.00352278,-0.56503
1.9704,-0.0998162,-0.394588
1.9263,-0.19227,-0.0225371
1.96956,-0.0997738,-0.251021
1.98942,-0.100779,-0.0115773
2.02826,-0.00354,-0.218478
2.04744,-0.00357347,0.0476429
1.9263,-0.19227,0.0225371
1.97887,-0.100245,-0.161753
1.98915,-0.100766,0.0347652
1.93112,-0.192751,-0.113022
2.04054,-0.00356142,0.118836
1.97583,-0.100091,0.0806004
1.98273,-0.100441,-0.104044
2.05549,-0.00358751,0.550767
1.98862,-0.100739,0.363043
2.05144,-0.00358045,-0.047736
1.97227,-0.106815,-0.0574829
2.01838,-0.0105683,-0.56503
1.97004,-0.106694,-0.394588
1.92959,-0.199404,-0.0225837
2.01968,-0.0105751,-0.314219
1.96524,-0.106434,-0.250516
1.98106,-0.107291,-0.0115308
2.04342,-0.0106994,0.0475499
1.92561,-0.198993,0.0225371
2.035,-0.0106553,-0.142303
1.97453,-0.106937,-0.161427
1.9808,-0.107276,0.0346256
1.92646,-0.19908,-0.11279
1.97945,-0.107203,0.0807633
2.02578,-0.010607,-0.0943651
1.98237,-0.107361,-0.104044
2.05546,-0.0107625,0.550767
1.98433,-0.107468,0.362325
2.04342,-0.0106994,-0.0475499
1.9679,-0.113468,-0.0573665
2.00677,-0.0175128,-0.561795
1.96183,-0.113118,-0.393019
1.92093,-0.205288,-0.0224906
2.01567,-0.0175905,-0.313604
1.96486,-0.113293,-0.250516
1.98467,-0.114435,-0.0115541
2.02024,-0.0176303,-0.217621
1.92463,-0.205683,-0.180683
2.03537,-0.0177624,0.0473638
1.91298,-0.204438,0.0223974
2.01899,-0.0176195,-0.141187
1.97414,-0.113828,-0.161427
1.9844,-0.11442,0.0346954
1.92575,-0.205804,-0.11279
2.02849,-0.0177023,0.118138
1.98198,-0.11428,-0.104044
2.05541,-0.0179373,0.550767
1.97609,-0.11394,0.36089
2.04337,-0.0178322,-0.0475499
2.0067,-0.0241674,-0.561795
1.95361,-0.119146,-0.39145
1.91626,-0.211219,-0.022444
2.01165,-0.024227,-0.312989
1.96447,-0.119808,-0.250516
2.07855,0.0765804,0.0120888
1.96831,-0.120042,-0.0114611
2.01619,-0.0242817,-0.217193
1.92393,-0.212064,-0.180683
2.0353,-0.0245119,0.0473638
1.91229,-0.210781,0.0223974
1.96978,-0.120132,-0.161102
1.98401,-0.121,0.0346954
1.91712,-0.211313,-0.112325
2.02842,-0.0244289,0.118138
1.97362,-0.120366,-0.103625
2.04761,-0.0246601,0.548696
1.97177,-0.120253,0.360173
2.0313,-0.0244637,-0.0472707
1.95912,-0.126004,-0.0571338
2.00276,-0.0307626,-0.560717
1.9532,-0.125623,-0.39145
1.91158,-0.217121,-0.0223974
1.96406,-0.126322,-0.250516
1.9679,-0.126569,-0.0114611
2.01212,-0.0309064,-0.216764
2.03121,-0.0311996,0.0472707
1.9076,-0.21667,0.0223509
1.95743,-0.125895,-0.160125
1.97163,-0.126808,0.034486
1.91641,-0.21767,-0.112325
2.02832,-0.0311553,0.118138
1.97321,-0.12691,-0.103625
2.04366,-0.0313908,0.547661
1.95466,-0.132912,-0.0570174
2.00263,-0.0381029,-0.560717
1.95273,-0.132781,-0.39145
1.91077,-0.224126,-0.0223974
2.00353,-0.03812,-0.311759
1.95171,-0.132712,-0.249001
1.96343,-0.133509,-0.0114378
2.00802,-0.0382053,-0.216336
2.03108,-0.0386442,0.0472707
1.9068,-0.22366,0.0223509
2.00674,-0.0381809,-0.14035
1.96093,-0.133339,-0.160451
1.96317,-0.133491,0.0343463
2.0242,-0.0385133,0.117906
1.96875,-0.13387,-0.103416
2.04739,-0.0389545,0.548696
1.97088,-0.134016,0.360173
2.03108,-0.0386442,-0.0472707
1.95817,-0.14002,-0.0571338
1.99864,-0.0450065,-0.559639
1.94443,-0.139037,-0.389881
1.90601,-0.230314,-0.0223509
2.00339,-0.0451134,-0.311759
1.95123,-0.139524,-0.249001
1.95498,-0.139791,-0.0113914
2.02694,-0.0456437,0.0471777
1.90601,-0.230314,0.0223509
2.01058,-0.0452753,-0.140629
1.96443,-0.140468,-0.160776
1.96269,-0.140343,0.0343463
1.91084,-0.230899,-0.112092
2.01607,-0.045399,0.117441
1.96428,-0.140457,-0.103207
2.01634,-0.0454051,0.247639
1.96255,-0.140333,0.358738
2.02694,-0.0456437,-0.0471777
1.99462,-0.0518826,-0.55856
1.94393,-0.145824,-0.389881
1.90122,-0.236473,-0.0223043
1.99531,-0.0519006,-0.310529
1.94282,-0.14574,-0.247991
1.95049,-0.146315,-0.0113681
2.00373,-0.0521195,-0.215908
2.01877,-0.0525108,0.0469915
1.90122,-0.236473,0.0223043
1.99844,-0.051982,-0.139792
1.94803,-0.146131,-0.159474
1.95421,-0.146595,0.0342067
1.91002,-0.237567,-0.112092
2.01191,-0.0523323,0.117208
2.0122,-0.05234,0.247151
2.01877,-0.0525108,-0.0469915
1.98287,-0.058504,-0.555325
1.93559,-0.151994,-0.388312
1.90038,-0.243108,-0.0223043
1.99512,-0.0588653,-0.310529
1.9423,-0.152521,-0.247991
2.05958,0.0399055,0.0119725
1.94598,-0.15281,-0.0113449
1.90019,-0.243082,-0.178824
2.01458,-0.0594394,0.0468985
1.89245,-0.242093,0.0222112
1.99426,-0.0588399,-0.139513
1.94751,-0.15293,-0.159474
2.05874,0.0398893,0.0599265
1.95767,-0.153729,0.0342765
2.01171,-0.0593549,0.117208
1.9444,-0.152686,0.0794606
1.95131,-0.153229,-0.102578
2.01857,-0.0595573,-0.0469915
1.97882,-0.0649527,-0.554247
1.93508,-0.158412,-0.388312
1.89164,-0.248367,-0.0222112
1.94178,-0.158961,-0.247991
1.95742,-0.160241,-0.0114146
2.01037,-0.0659884,0.0468054
1.88767,-0.247846,0.0221646
1.99405,-0.0654528,-0.139513
1.94301,-0.159062,-0.159149
1.95317,-0.159893,0.0342067
2.01151,-0.0660256,0.117208
1.94388,-0.159133,0.0794606
1.94681,-0.159373,-0.102369
1.94924,-0.159572,0.356585
1.98242,-0.0723455,-0.555325
1.93448,-0.165504,-0.388312
1.88675,-0.254763,-0.0221646
1.93328,-0.165401,-0.246981
1.94486,-0.166392,-0.0113449
1.98717,-0.0725191,-0.214194
1.89071,-0.255298,0.0222112
1.98583,-0.0724699,-0.138955
1.93447,-0.165503,-0.158498
1.94061,-0.166028,0.0339973
2.00726,-0.0732521,0.116976
1.9393,-0.165916,0.0792978
1.95019,-0.166847,-0.102578
2.00361,-0.0731189,0.246176
1.94472,-0.166379,0.355868
1.9395,-0.172754,-0.0566684
1.9783,-0.0791111,-0.554247
1.92999,-0.171907,-0.387528
1.88585,-0.261348,-0.0221646
1.9786,-0.0791228,-0.30807
1.92874,-0.171796,-0.246476
2.04788,0.0182291,0.0119028
1.94029,-0.172825,-0.0113216
1.88585,-0.261348,0.0221646
1.98556,-0.0794013,-0.138955
1.94183,-0.172962,-0.159149
1.94401,-0.173156,0.0340671
1.8907,-0.262019,-0.111162
2.00699,-0.0802583,0.116976
1.93871,-0.172684,0.0792978
1.98426,-0.0793493,-0.0925039
1.99937,-0.0799537,0.245689
1.99786,-0.0798932,-0.0465263
1.96647,-0.0855141,-0.551012
1.92156,-0.17792,-0.385959
1.88492,-0.267929,-0.0221646
1.98226,-0.0862006,-0.308685
1.92418,-0.178162,-0.245971
2.03994,0.0110372,0.0118563
1.9317,-0.178859,-0.0112751
1.97867,-0.0860447,-0.213337
1.88492,-0.267929,0.0221646
1.98527,-0.0863317,-0.138955
1.93724,-0.179371,-0.158823
1.93144,-0.178835,0.0338577
1.88582,-0.268056,-0.110929
1.99473,-0.086743,0.116278
1.97998,-0.0861015,-0.0923178
1.94102,-0.179722,-0.10216
1.99512,-0.0867598,0.245201
1.99757,-0.0868665,-0.0465263
1.96616,-0.0923779,-0.551012
1.91703,-0.184251,-0.385174
1.97782,-0.0929256,0
1.88002,-0.27393,-0.0221181
1.9701,-0.092563,-0.30684
1.92749,-0.185257,-0.246476
2.04796,0.00393182,0.0119028
1.93107,-0.185601,-0.0112751
1.97836,-0.0929511,-0.213337
1.88383,-0.274485,-0.177709
1.99726,-0.0938388,0.0465263
1.87606,-0.273353,0.0220715
1.97699,-0.0928865,-0.138397
1.93264,-0.185751,-0.158498
2.04313,0.00392254,0.0594611
1.93081,-0.185575,0.0338577
1.88882,-0.275213,-0.111162
1.99043,-0.093518,0.116045
1.93641,-0.186114,-0.10195
1.98687,-0.0933509,0.244226
1.99326,-0.0936511,-0.0464332
1.91637,-0.190941,-0.385174
1.8751,-0.2799,-0.0220715
1.96582,-0.0992401,-0.306225
1.91894,-0.191197,-0.245465
2.03596,-0.00319809,0.0118331
1.93041,-0.19234,-0.0112751
1.97405,-0.0996558,-0.212909
1.88286,-0.28106,-0.177709
1.99292,-0.100608,0.0464332
1.8751,-0.2799,0.0220715
1.97267,-0.0995857,-0.138118
1.91611,-0.190915,-0.157196
1.92617,-0.191918,0.0337879
1.87995,-0.280625,-0.110697
1.99408,-0.100667,0.116278
1.97534,-0.0997208,-0.0921316
1.9278,-0.19208,-0.101532
1.98653,-0.100286,0.244226
1.93046,-0.192345,0.353715
1.91708,-0.197096,-0.0560866
1.95781,-0.105003,-0.548855
1.90796,-0.196159,-0.383605
1.97716,-0.106041,0
1.9655,-0.105415,-0.306225
1.91438,-0.196819,-0.24496
1.92184,-0.197586,-0.0112286
1.96976,-0.105644,-0.212481
1.9926,-0.106869,0.0464332
1.8663,-0.284584,0.0219784
1.97234,-0.105783,-0.138118
1.9155,-0.196934,-0.157196
1.9176,-0.19715,0.0336482
1.87906,-0.28653,-0.110697
1.98578,-0.106503,0.115813
1.92028,-0.197425,0.0786465
1.97103,-0.105712,-0.0919455
1.92718,-0.198135,-0.101532
1.98621,-0.106526,0.244226
1.92985,-0.198409,0.353715
1.9886,-0.106655,-0.0463402
1.91233,-0.204032,-0.0559702
1.95739,-0.11252,-0.548855
1.91109,-0.203899,-0.38439
1.97274,-0.113402,0
1.86914,-0.292366,-0.0220249
1.95719,-0.112508,-0.304995
1.90572,-0.203326,-0.24395
2.02389,-0.017309,0.0117633
1.91709,-0.204539,-0.0112054
1.96537,-0.112978,-0.212052
1.98818,-0.11429,0.0463402
1.86914,-0.292366,0.0220249
1.96794,-0.113126,-0.137839
1.91869,-0.20471,-0.157522
2.03107,-0.0173703,0.059112
1.91683,-0.204511,0.0336482
2.01978,-0.0172738,-0.12945
1.87794,-0.293743,-0.110697
1.97738,-0.113669,0.115348
1.9195,-0.204797,0.0786465
1.97061,-0.113279,-0.0919455
1.91846,-0.204686,-0.101113
1.98182,-0.113924,0.243739
1.98419,-0.11406,-0.0462471
1.95314,-0.119117,-0.547777
1.91037,-0.210569,-0.38439
1.96435,-0.119801,0
1.86416,-0.298257,-0.0219784
1.96073,-0.11958,-0.30561
1.905,-0.209977,-0.24395
2.02782,-0.0244217,0.0117866
1.92034,-0.211668,-0.0112286
1.96099,-0.119596,-0.211624
1.87195,-0.299503,-0.176966
1.97978,-0.120742,0.0461541
1.86811,-0.298889,0.0220249
1.96753,-0.119995,-0.137839
1.91004,-0.210533,-0.156871
2.023,-0.0243637,0.0588792
1.9161,-0.211201,0.0336482
2.01572,-0.024276,-0.129194
1.87297,-0.299665,-0.110464
1.97697,-0.12057,0.115348
1.91481,-0.211058,0.0784836
1.96621,-0.119914,-0.0917594
1.92171,-0.211819,-0.101322
1.97745,-0.120599,0.243251
1.94503,-0.125439,-0.545621
1.89793,-0.215906,-0.382037
1.95993,-0.126399,0
1.86706,-0.305408,-0.0220249
1.9603,-0.126423,-0.30561
2.01572,-0.0313136,0.0117168
1.91164,-0.217466,-0.0111821
1.95262,-0.125928,-0.210767
1.97536,-0.127395,0.046061
1.85916,-0.304116,0.0219318
1.96312,-0.126605,-0.13756
1.91325,-0.21765,-0.157196
2.0229,-0.0314251,0.0588792
1.91138,-0.217436,0.0335784
2.01163,-0.03125,-0.128938
1.86797,-0.305557,-0.110232
1.96857,-0.126957,0.114883
1.96179,-0.12652,-0.0915733
1.91302,-0.217623,-0.100904
1.97305,-0.127246,0.242764
1.97536,-0.127395,-0.046061
1.94463,-0.131548,-0.545621
1.89724,-0.221868,-0.382037
1.96351,-0.132826,0
1.8582,-0.309956,-0.0219318
1.89568,-0.221685,-0.24294
2.01561,-0.037646,0.0117168
1.90697,-0.223006,-0.0111589
1.95222,-0.132062,-0.210767
1.86207,-0.310601,-0.176222
1.96697,-0.13306,0.0458749
1.8582,-0.309956,0.0219318
1.95873,-0.132502,-0.137281
1.90068,-0.22227,-0.15622
2.0148,-0.0376307,0.0586465
1.90671,-0.222975,0.0335086
2.00753,-0.037495,-0.128683
1.867,-0.311423,-0.110232
1.97214,-0.13341,0.115115
1.90542,-0.222824,0.078158
1.96139,-0.132682,-0.0915733
1.90836,-0.223168,-0.100694
1.96868,-0.133176,0.242276
1.97096,-0.13333,-0.045968
1.94413,-0.138675,-0.545621
1.89252,-0.22835,-0.381252
1.95503,-0.139453,0
1.84916,-0.315419,-0.0218387
1.89092,-0.228156,-0.242435
2.00747,-0.0448547,0.0116703
1.91011,-0.230473,-0.0111821
1.95172,-0.139216,-0.210767
1.85699,-0.316754,-0.17585
1.97046,-0.140553,0.045968
1.86099,-0.317437,0.0219784
1.95823,-0.139681,-0.137281
1.90381,-0.229712,-0.156545
2.01065,-0.0449258,0.0585302
1.90191,-0.229483,0.0334388
2.00339,-0.0447636,-0.128427
1.97164,-0.140637,0.115115
1.90459,-0.229807,0.078158
1.96089,-0.13987,-0.0915733
1.90356,-0.229682,-0.100485
1.97214,-0.140673,0.242764
1.97046,-0.140553,-0.045968
1.89662,-0.235564,-0.0556211
1.95132,-0.146035,-0.547777
1.89561,-0.235438,-0.382037
1.95852,-0.146575,0
1.85593,-0.323245,-0.0219318
1.89011,-0.234756,-0.242435
1.89739,-0.23566,-0.0111124
1.95122,-0.146028,-0.210767
1.85593,-0.323245,0.0219318
1.94977,-0.14592,-0.136723
1.89509,-0.235374,-0.155894
2.00648,-0.0518407,0.0584138
1.89713,-0.235628,0.033369
1.99923,-0.0516534,-0.128171
1.95919,-0.146625,0.114418
1.90378,-0.236454,0.078158
1.9564,-0.146416,-0.0913871
1.90671,-0.236818,-0.100694
1.96372,-0.146964,0.241789
2.00167,-0.0517164,-0.0815774
1.95799,-0.146535,-0.0456888
1.93162,-0.151004,-0.542386
1.88703,-0.24073,-0.380468
1.95404,-0.152757,0
1.85485,-0.329397,-0.0219318
1.94657,-0.152173,-0.303765
1.88932,-0.241022,-0.242435
1.99912,-0.0582848,0.0116238
1.8966,-0.24195,-0.0111124
1.94676,-0.152188,-0.210339
1.85087,-0.32869,-0.175478
1.95351,-0.152715,0.0455958
1.85091,-0.328698,0.0218852
1.94928,-0.152385,-0.136723
1.89034,-0.241152,-0.155569
2.0023,-0.0583776,0.0582974
1.89634,-0.241918,0.033369
1.99905,-0.0582827,-0.128171
1.9587,-0.153121,0.114418
1.89506,-0.241754,0.0778323
1.94395,-0.151968,-0.0908288
1.89799,-0.242128,-0.100276
1.95926,-0.153165,0.241301
1.99749,-0.0582374,-0.0814146
1.96148,-0.153339,-0.0457819
1.99462,-0.0654714,-0.034835
1.87836,-0.246624,-0.378899
1.94151,-0.158939,0
1.8497,-0.33548,-0.0218852
1.88056,-0.246912,-0.241425
1.99889,-0.0656115,0.0116238
1.89966,-0.249421,-0.0111356
1.94223,-0.158998,-0.20991
1.84965,-0.335472,-0.175478
1.95692,-0.160201,0.0456888
1.8497,-0.33548,0.0218852
1.94473,-0.159203,-0.136444
1.88944,-0.248079,-0.155569
2.00207,-0.065716,0.0582974
1.89148,-0.248346,0.0332992
1.99882,-0.0656092,-0.128171
1.95812,-0.160299,0.114418
1.8902,-0.248178,0.0776695
1.94737,-0.159418,-0.0910149
1.88521,-0.247523,-0.0996477
1.95078,-0.159697,0.240326
1.99727,-0.0655582,-0.0814146
1.95294,-0.159874,-0.0455958
1.99038,-0.0722884,-0.0347652
1.92282,-0.164167,-0.540229
1.8736,-0.252655,-0.378114
1.94094,-0.165715,0
1.84458,-0.341207,-0.0218387
1.88362,-0.254005,-0.24193
1.99865,-0.0725885,0.0116238
1.89482,-0.255516,-0.0111124
1.94563,-0.166115,-0.210339
1.84455,-0.341202,-0.175107
1.95635,-0.167031,0.0456888
1.84851,-0.341934,0.0218852
1.94416,-0.16599,-0.136444
1.88066,-0.253607,-0.154918
1.99384,-0.0724139,0.0580647
1.88663,-0.254412,0.0332294
1.99459,-0.0724411,-0.127915
1.94959,-0.166453,0.113952
1.88932,-0.254774,0.0776695
1.9468,-0.166215,-0.0910149
1.88434,-0.254102,-0.0996477
1.95021,-0.166506,0.240326
1.98904,-0.0722395,-0.0810889
1.95237,-0.16669,-0.0455958
1.87735,-0.259502,-0.0551557
1.87664,-0.259404,-0.378899
1.94038,-0.17215,0
1.84737,-0.348062,-0.0218852
1.89,-0.26125,-0.0110891
1.93318,-0.171512,-0.209053
1.84341,-0.347317,-0.175107
1.94782,-0.17281,0.0455027
1.83951,-0.346581,0.0217921
1.93565,-0.171731,-0.135886
1.87981,-0.259843,-0.154918
1.88182,-0.26012,0.0331596
1.99035,-0.0788969,-0.127659
1.94107,-0.172212,0.113487
1.94624,-0.17267,-0.0910149
1.88744,-0.260897,-0.099857
1.94964,-0.172972,0.240326
1.98479,-0.0786767,-0.0809261
1.93985,-0.172104,-0.0453166
1.98184,-0.0858359,-0.0346256
1.88034,-0.266943,-0.055272
1.92546,-0.177941,-0.541307
1.87179,-0.265729,-0.378114
1.93575,-0.178893,0
1.83823,-0.353321,-0.0217921
1.92455,-0.177857,-0.300691
1.87394,-0.266034,-0.24092
1.98211,-0.0858475,0.0115308
1.88111,-0.267051,-0.0110426
1.93254,-0.178596,-0.209053
1.94717,-0.179948,0.0455027
1.84215,-0.354076,0.0218387
1.93501,-0.178824,-0.135886
1.87885,-0.266731,-0.154918
1.87689,-0.266453,0.0330898
1.98606,-0.0860187,-0.127403
1.93645,-0.178958,0.113255
1.87958,-0.266834,0.0773438
1.94161,-0.179434,-0.0908288
1.88252,-0.267251,-0.0996477
1.94504,-0.179751,0.239839
1.9805,-0.0857778,-0.0807633
1.94319,-0.17958,-0.0454097
1.90949,-0.18319,-0.536994
1.87085,-0.272261,-0.378114
1.94308,-0.186413,0
1.83306,-0.358967,-0.0217455
1.91605,-0.183819,-0.299461
1.86907,-0.272002,-0.240415
1.9818,-0.0927658,0.0115308
1.88808,-0.274768,-0.0110891
1.93586,-0.18572,-0.209482
1.83306,-0.358968,-0.174363
1.93857,-0.18598,0.0453166
1.84091,-0.360504,0.0218387
1.93835,-0.185959,-0.136165
1.87396,-0.272713,-0.154593
1.87991,-0.273579,0.0331596
1.98176,-0.0927641,-0.127148
1.93979,-0.186097,0.113487
1.87468,-0.272818,0.077181
1.937,-0.185829,-0.0906426
1.87762,-0.273246,-0.0994383
1.9444,-0.18654,0.239839
1.98418,-0.0928774,-0.0809261
1.93857,-0.18598,-0.0453166
1.97324,-0.0985789,-0.034486
1.86667,-0.277643,-0.0549229
1.86223,-0.276983,-0.376545
1.92258,-0.190544,0
1.83192,-0.364724,-0.0217455
1.91546,-0.189838,-0.299461
1.86821,-0.277872,-0.240415
1.88325,-0.28011,-0.0110659
1.92735,-0.191017,-0.208625
1.94196,-0.192464,0.0454097
1.83584,-0.365505,0.0217921
1.92981,-0.19126,-0.135607
1.86521,-0.277426,-0.153942
1.9767,-0.0987517,0.0575993
1.87508,-0.278895,0.0330898
1.97747,-0.0987904,-0.126892
1.93125,-0.191403,0.113022
1.87381,-0.278706,0.077181
1.92845,-0.191125,-0.0902704
1.8728,-0.278555,-0.099229
1.928,-0.191081,0.237889
1.97589,-0.0987116,-0.0806004
1.93002,-0.191281,-0.0451305
1.97286,-0.105811,-0.034486
1.91203,-0.196577,-0.538072
1.85732,-0.283215,-0.375761
1.92187,-0.197589,0
1.82665,-0.37064,-0.021699
1.86326,-0.28412,-0.23991
1.8743,-0.285804,-0.0110194
1.92268,-0.197673,-0.208197
1.82667,-0.370645,-0.173991
1.92931,-0.198353,0.0451305
1.83449,-0.372231,0.0217921
1.9291,-0.198332,-0.135607
1.86418,-0.284261,-0.153942
1.88196,-0.286971,0.0332294
1.97311,-0.105824,-0.126636
1.93451,-0.198888,0.113255
1.87673,-0.286175,0.0773438
1.92376,-0.197784,-0.0900843
1.86782,-0.284815,-0.0990196
1.92334,-0.19774,0.237402
1.92533,-0.197944,-0.0450374
1.86068,-0.290377,-0.0548066
1.85632,-0.289697,-0.375761
1.91719,-0.203873,0
1.82535,-0.377014,-0.021699
1.90619,-0.202704,-0.298231
1.86225,-0.290622,-0.23991
1.87725,-0.292962,-0.0110426
1.92198,-0.204383,-0.208197
1.92462,-0.204664,0.0450374
1.92442,-0.204643,-0.135328
1.86318,-0.290766,-0.153942
1.96796,-0.112438,0.0573665
1.86909,-0.291689,0.03302
1.96874,-0.112483,-0.12638
1.92983,-0.205217,0.113022
1.86388,-0.290875,0.0768554
1.92306,-0.204498,-0.0900843
1.87076,-0.291949,-0.099229
1.92264,-0.204453,0.237402
1.92065,-0.204241,-0.0449444
1.85966,-0.29687,-0.0548066
1.85143,-0.295556,-0.374976
1.91647,-0.210564,0
1.8201,-0.382561,-0.0216524
1.90547,-0.209356,-0.298231
1.85731,-0.296495,-0.239405
1.87226,-0.298882,-0.0110194
1.91335,-0.210222,-0.20734
1.92787,-0.211818,0.0451305
1.82793,-0.384206,0.0217455
1.91973,-0.210923,-0.135049
1.85427,-0.296011,-0.153291
1.86411,-0.297581,0.0329501
1.96834,-0.119354,-0.12638
1.82496,-0.383582,-0.108604
1.91323,-0.210208,0.112092
1.87074,-0.29864,0.077181
1.92631,-0.211645,-0.0902704
1.86578,-0.297848,-0.0990196
1.91797,-0.210729,0.236914
1.96276,-0.119016,-0.0801119
1.91197,-0.210071,-0.0447583
1.84657,-0.301063,-0.374192
1.91178,-0.216468,0
1.82274,-0.38943,-0.021699
1.90084,-0.215229,-0.297616
1.8524,-0.302014,-0.238899
1.86731,-0.304446,-0.0109961
1.91264,-0.216566,-0.20734
1.81497,-0.387771,-0.173248
1.91127,-0.21641,0.0447583
1.81883,-0.388594,0.0216524
1.91506,-0.216839,-0.134769
1.86115,-0.303441,-0.153942
1.96715,-0.125831,0.0573665
1.86311,-0.303761,0.0329501
1.96793,-0.125881,-0.12638
1.92045,-0.21745,0.112557
1.85791,-0.302912,0.0766925
1.91765,-0.217133,-0.0898981
1.86478,-0.304034,-0.0990196
1.91726,-0.217088,0.236914
1.95837,-0.125269,-0.0799491
1.91524,-0.21686,-0.0448513
1.95922,-0.132536,-0.0342765
1.84545,-0.307829,-0.374192
1.90303,-0.222545,0
1.81739,-0.395258,-0.0216524
1.90789,-0.223113,-0.298846
1.85128,-0.308801,-0.238899
1.85829,-0.309972,-0.0109496
1.91184,-0.223574,-0.20734
1.91046,-0.223414,0.0447583
1.81348,-0.394408,0.0216059
1.91029,-0.223393,-0.13449
1.85216,-0.308949,-0.153291
1.86199,-0.310588,0.0329501
1.95949,-0.132554,-0.125868
1.90775,-0.223096,0.111859
1.86073,-0.310377,0.0768554
1.91288,-0.223696,-0.089712
1.85578,-0.309552,-0.0986009
1.90856,-0.223192,0.235939
1.9579,-0.132446,-0.0799491
1.90649,-0.222949,-0.0446652
1.84436,-0.314269,-0.374192
1.90621,-0.229665,0
1.81209,-0.400736,-0.0216059
1.85019,-0.315262,-0.238899
1.86114,-0.317128,-0.0109729
1.91105,-0.230247,-0.20734
1.80437,-0.399028,-0.172504
1.90967,-0.230081,0.0447583
1.80819,-0.399872,0.0215593
1.90553,-0.229583,-0.134211
1.84714,-0.314743,-0.152965
1.85695,-0.316413,0.0328803
1.95902,-0.139393,-0.125868
1.91488,-0.230709,0.112325
1.85175,-0.315528,0.0765297
1.90812,-0.229894,-0.0895259
1.85469,-0.316028,-0.0986009
1.91171,-0.230327,0.236427
1.95344,-0.138996,-0.0797863
1.9057,-0.229603,-0.0446652
1.9503,-0.145275,-0.0341369
1.83945,-0.319712,-0.373407
1.90544,-0.235985,0
1.88672,-0.233665,-0.295772
1.84522,-0.320716,-0.238394
1.86008,-0.323298,-0.0109729
1.90238,-0.235605,-0.206483
1.80692,-0.405883,-0.172876
1.90493,-0.235921,0.0446652
1.81466,-0.407619,0.0216524
1.90476,-0.2359,-0.134211
1.85195,-0.321885,0.0328105
1.90222,-0.235585,0.111627
1.85463,-0.322351,0.0766925
1.90734,-0.23622,-0.0895259
1.85756,-0.322861,-0.0988103
1.907,-0.236178,0.235939
1.94898,-0.145176,-0.0796234
1.90493,-0.235921,-0.0446652
1.83446,-0.325446,-0.372623
1.90064,-0.242129,0
1.80542,-0.412171,-0.0215593
1.88589,-0.24025,-0.295772
1.84019,-0.326462,-0.237889
1.84713,-0.327693,-0.0109032
1.89365,-0.241239,-0.205626
1.8055,-0.412187,-0.172876
1.90806,-0.243074,0.0447583
1.89205,-0.241035,-0.133374
1.84496,-0.327308,-0.152965
1.85475,-0.329046,0.0328803
1.94608,-0.151793,-0.125101
1.80638,-0.41239,-0.107906
1.8535,-0.328823,0.0766925
1.85249,-0.328645,-0.0986009
1.89829,-0.241829,0.234964
1.94448,-0.151668,-0.0794606
1.83325,-0.332167,-0.372623
1.89181,-0.248053,0
1.8039,-0.418785,-0.0215593
1.88108,-0.246646,-0.295157
1.84288,-0.333912,-0.238394
1.84591,-0.334461,-0.0109032
1.8967,-0.248695,-0.206055
1.79621,-0.417001,-0.172132
1.89526,-0.248506,0.0444791
1.89907,-0.249005,-0.133932
1.83982,-0.333358,-0.15264
1.94071,-0.158533,0.0566684
1.8496,-0.335129,0.0328105
1.94154,-0.1586,-0.124845
1.80097,-0.418105,-0.107673
1.89653,-0.248672,0.111394
1.84835,-0.334902,0.0765297
1.89768,-0.248824,-0.0891536
1.85128,-0.335432,-0.0986009
1.90132,-0.249301,0.235452
1.83982,-0.333358,0.15264
1.94391,-0.158794,-0.0794606
1.88733,-0.247466,-0.044293
1.82443,-0.33682,-0.371054
1.88305,-0.253259,0
1.88808,-0.253937,-0.296387
1.83786,-0.339301,-0.237889
1.84873,-0.341306,-0.0109264
1.89192,-0.254453,-0.205626
1.79482,-0.422955,-0.172132
1.89046,-0.254257,0.0443861
1.88637,-0.253706,-0.133095
1.83479,-0.338733,-0.152314
1.84454,-0.340534,0.0327407
1.94498,-0.165376,-0.125101
1.88778,-0.253895,0.110929
1.83937,-0.339578,0.076204
1.89685,-0.255115,-0.0891536
1.8423,-0.340119,-0.0981823
1.89262,-0.254547,0.234477
1.93939,-0.1649,-0.0792978
1.89046,-0.254257,-0.0443861
1.88215,-0.259831,0
1.87544,-0.258904,-0.294542
1.84057,-0.346448,-0.238394
1.84359,-0.347018,-0.0109032
1.88708,-0.260512,-0.205198
1.88956,-0.260854,0.0443861
1.88942,-0.260835,-0.133374
1.82968,-0.344398,-0.151989
1.84727,-0.347711,0.0328105
1.93246,-0.171108,-0.124333
1.88688,-0.260483,0.110929
1.83817,-0.345997,0.076204
1.89199,-0.261189,-0.0889675
1.8411,-0.346548,-0.0981823
1.93482,-0.171317,-0.079135
1.89352,-0.261401,-0.0444791
1.88519,-0.26696,0
1.79561,-0.436394,-0.0215127
1.87061,-0.264895,-0.293927
1.82766,-0.350628,-0.236879
1.83451,-0.351944,-0.0108567
1.88222,-0.26654,-0.20477
1.79182,-0.435475,-0.172132
1.88864,-0.267448,0.0443861
1.87665,-0.26575,-0.132537
1.82455,-0.350032,-0.151663
1.83427,-0.351896,0.0326011
1.882,-0.266508,0.110697
1.83695,-0.352411,0.076204
1.89106,-0.267791,-0.0889675
1.83595,-0.35222,-0.0979729
1.93421,-0.178069,-0.079135
1.88468,-0.266888,-0.044293
1.88425,-0.273539,0
1.86967,-0.271423,-0.293927
1.82253,-0.356244,-0.236374
1.82935,-0.357578,-0.0108334
1.88522,-0.27368,-0.205198
1.87978,-0.27289,0.0442
1.79019,-0.441701,0.0214662
1.87966,-0.272873,-0.132816
1.83303,-0.358297,0.0326011
1.87711,-0.272502,0.110464
1.83179,-0.358054,0.0760412
1.88616,-0.273817,-0.0887814
1.83471,-0.358626,-0.0979729
1.88199,-0.273211,0.233502
1.9296,-0.18444,-0.0789721
1.87978,-0.27289,-0.0442
1.78864,-0.447947,-0.0214662
1.86872,-0.277948,-0.293927
1.82516,-0.363379,-0.236879
1.83201,-0.364742,-0.0108567
1.87638,-0.279088,-0.204341
1.77715,-0.445071,-0.171017
1.87869,-0.279432,-0.132816
1.81815,-0.361982,-0.151338
1.83176,-0.364693,0.0326011
1.91864,-0.190153,-0.123566
1.8722,-0.278466,0.110232
1.82661,-0.363666,0.0758784
1.87729,-0.279223,-0.0884091
1.8771,-0.279195,0.233014
1.92496,-0.19078,-0.0788093
1.87882,-0.27945,-0.0442
1.86653,-0.283952,0
1.86778,-0.284143,-0.293927
1.82395,-0.369429,-0.236879
1.83471,-0.37161,-0.0108799
1.87938,-0.285907,-0.20477
1.77953,-0.451942,-0.171389
1.77939,-0.451907,0.021373
1.86592,-0.28386,-0.131979
1.82085,-0.368801,-0.151663
1.83054,-0.370765,0.0326011
1.918,-0.196515,-0.123566
1.82147,-0.368928,0.0757155
1.8803,-0.286048,-0.0885953
1.82048,-0.368728,-0.0973449
1.91637,-0.196347,-0.0784836
1.87393,-0.285078,-0.0441069
1.86942,-0.291407,0
1.78159,-0.459424,-0.0214196
1.85892,-0.289769,-0.292697
1.82258,-0.376112,-0.236879
1.8255,-0.376715,-0.0108334
1.87046,-0.291569,-0.203913
1.774,-0.457467,-0.171017
1.86497,-0.290712,0.0439208
1.86487,-0.290697,-0.131979
1.81558,-0.374666,-0.151338
1.82134,-0.375856,0.0324615
1.86626,-0.290914,0.109999
1.82402,-0.376409,0.0758784
1.87924,-0.292938,-0.0885953
1.82303,-0.376205,-0.0975542
1.86892,-0.291328,-0.0440139
1.8684,-0.297931,0
1.8618,-0.296879,-0.293312
1.81737,-0.381656,-0.236374
1.86943,-0.298096,-0.203913
1.85999,-0.296591,0.0438278
1.77998,-0.46564,0.0214196
1.87173,-0.298462,-0.132537
1.81036,-0.380182,-0.151012
1.82002,-0.382211,0.0324615
1.86523,-0.297427,0.109999
1.81487,-0.381131,0.0755527
1.87032,-0.298237,-0.088223
1.82562,-0.383387,-0.0977636
1.90697,-0.209184,-0.078158
1.86789,-0.29785,-0.0440139
1.86345,-0.303482,0
1.77456,-0.470515,-0.021373
1.8569,-0.302416,-0.292697
1.80834,-0.386024,-0.235364
1.81507,-0.387462,-0.0107869
1.86058,-0.303015,-0.203056
1.767,-0.46851,-0.170645
1.86294,-0.3034,0.0439208
1.77456,-0.470515,0.021373
1.85891,-0.302743,-0.1317
1.81299,-0.387016,-0.151338
1.81483,-0.387409,0.0323917
1.77168,-0.469751,-0.106743
1.81751,-0.387981,0.0757155
1.86932,-0.304438,-0.088223
1.86523,-0.303773,0.232039
1.91024,-0.215956,-0.0783208
1.859,-0.302757,-0.0438278
1.85054,-0.308015,0
1.85584,-0.308896,-0.292697
1.81473,-0.394017,-0.236374
1.81762,-0.394644,-0.0108102
1.85559,-0.308855,-0.202628
1.7615,-0.473641,-0.170274
1.86178,-0.309885,-0.131979
1.80773,-0.392496,-0.151012
1.81346,-0.393742,0.0323917
1.89921,-0.221426,-0.122543
1.85529,-0.308805,0.109534
1.80833,-0.392627,0.0753899
1.85248,-0.308337,-0.0874785
1.85793,-0.309244,-0.0438278
1.85475,-0.315372,-0.292697
1.80172,-0.397783,-0.234859
1.81623,-0.400986,-0.0108102
1.8545,-0.31533,-0.202628
1.76368,-0.480835,-0.170645
1.76351,-0.480788,0.0212799
1.81024,-0.399663,-0.151338
1.80427,-0.398345,0.032252
1.89447,-0.227578,-0.122287
1.79915,-0.397214,0.0750642
1.85533,-0.315471,-0.0876646
1.80987,-0.399582,-0.0971355
1.90075,-0.228333,-0.0779952
1.85684,-0.315728,-0.0438278
1.8444,-0.320242,0
1.83806,-0.31914,-0.290237
1.8042,-0.404939,-0.235364
1.81092,-0.406448,-0.0107869
1.85731,-0.322482,-0.203056
1.85179,-0.321523,0.0437347
1.76568,-0.488007,0.0213265
1.85171,-0.32151,-0.131421
1.79327,-0.402488,-0.150036
1.80287,-0.404641,0.032252
1.89366,-0.23419,-0.122287
1.80945,-0.406117,0.0755527
1.85422,-0.321946,-0.0876646
1.80847,-0.405897,-0.0971355
1.892,-0.233985,-0.0776695
1.85179,-0.321523,-0.0437347
1.83934,-0.32598,0
1.84472,-0.326933,-0.291467
1.7989,-0.410352,-0.234859
1.80169,-0.410987,-0.0107404
1.84442,-0.326881,-0.201771
1.75645,-0.492062,-0.170274
1.84671,-0.327287,0.0436417
1.85057,-0.327971,-0.131421
1.78797,-0.407858,-0.149711
1.80144,-0.410931,0.032252
1.84409,-0.326822,0.109069
1.80412,-0.411542,0.0753899
1.85308,-0.328416,-0.0876646
1.80314,-0.411319,-0.0969262
1.85459,-0.328683,-0.0438278
1.84212,-0.33311,0
1.84356,-0.333371,-0.291467
1.79746,-0.416629,-0.234859
1.80414,-0.418177,-0.0107637
1.84327,-0.333317,-0.201771
1.84556,-0.333732,0.0436417
1.84156,-0.333009,-0.130863
1.79042,-0.414997,-0.150036
1.8,-0.417217,0.032252
1.88406,-0.246369,-0.121775
1.83901,-0.332547,0.108836
1.79099,-0.41513,0.0749014
1.85192,-0.334882,-0.0876646
1.88636,-0.24667,-0.0775067
1.84556,-0.333732,-0.0436417
1.83702,-0.338813,0
1.83462,-0.33837,-0.290237
1.79213,-0.421991,-0.234354
1.80267,-0.424472,-0.0107637
1.83036,-0.337586,-0.200486
1.74914,-0.503211,-0.169902
1.84431,-0.340159,-0.131142
1.79284,-0.422158,-0.150362
1.79464,-0.422581,0.0321822
1.88319,-0.252944,-0.121775
1.79731,-0.423211,0.0752271
1.83896,-0.339171,-0.0871063
1.88153,-0.252721,-0.0773438
1.84438,-0.340172,-0.0436417
1.83189,-0.344484,0
1.84119,-0.346233,-0.291467
1.79065,-0.428244,-0.234354
1.74355,-0.508199,-0.16953
1.8314,-0.344391,0.0433625
1.82743,-0.343645,-0.130026
1.79136,-0.428414,-0.150362
1.78926,-0.427913,0.0321124
1.87834,-0.258971,-0.121519
1.83272,-0.344639,0.108604
1.79194,-0.428553,0.0750642
1.83776,-0.345588,-0.0871063
1.79485,-0.42925,-0.0967169
1.88459,-0.259833,-0.0775067
1.84319,-0.346608,-0.0436417
1.82675,-0.350124,0
1.74538,-0.51535,-0.0211868
1.82833,-0.350426,-0.289623
1.87729,-0.265506,0.0110194
1.82796,-0.350356,-0.200486
1.73795,-0.513154,-0.169158
1.82626,-0.350029,0.0432694
1.83406,-0.351524,-0.130584
1.77823,-0.431841,-0.149385
1.78776,-0.434156,0.0321124
1.87347,-0.264967,-0.121264
1.83654,-0.352001,-0.0871063
1.79334,-0.435512,-0.0967169
1.83804,-0.352287,-0.0435486
1.7741,-0.437403,-0.0531775
1.82552,-0.356498,0
1.73974,-0.520293,-0.0211402
1.83097,-0.357563,-0.290237
1.78376,-0.439785,-0.233849
1.79036,-0.441411,-0.0107172
1.82673,-0.356734,-0.200486
1.82895,-0.357168,0.0433625
1.8289,-0.357159,-0.130305
1.77284,-0.437092,-0.14906
1.78623,-0.440394,0.0321124
1.82635,-0.35666,0.108371
1.82746,-0.356878,-0.086734
1.76868,-0.442622,-0.0530611
1.82818,-0.363648,0
1.82584,-0.363181,-0.289623
