2.76351,0.540176,-0.0327813
2.76891,0.683186,-0.0165756
2.75173,0.537874,0.0326416
2.76365,0.681887,-0.232377
2.77242,0.684051,0.0498441
2.76517,0.682261,-0.149262
2.76716,0.673538,-0.0165523
2.75341,0.529227,0.0326416
2.76341,0.672626,-0.149053
2.75533,0.519131,-0.0326416
2.76572,0.662459,-0.0165291
2.75533,0.519131,0.0326416
2.76047,0.661202,-0.231726
2.77313,0.664233,0.0497743
2.75086,0.518288,-0.163022
2.77125,0.663783,0.116097
2.76586,0.662493,-0.149053
2.76106,0.510237,-0.0326882
2.76023,0.650965,-0.0164826
2.75713,0.509511,0.0326416
2.76277,0.651563,-0.231726
2.77153,0.653631,0.0497045
2.77355,0.654106,0.116097
2.76427,0.651918,-0.148843
2.7588,0.500365,-0.0326416
2.75848,0.640904,-0.0164593
2.75093,0.498938,0.0325485
2.77369,0.644437,0.0497045
2.76792,0.643097,0.115772
2.76642,0.642748,-0.148843
2.76512,0.7762,0
2.75266,0.489331,-0.0325485
2.7646,0.632162,-0.0164826
2.74478,0.487931,0.0324553
2.75936,0.630965,-0.231075
2.74819,0.488537,-0.162557
2.76235,0.631649,0.115446
2.76085,0.631306,-0.148425
2.77207,0.778151,-0.0669978
2.76409,0.764993,0
2.75443,0.47924,-0.0325485
2.7669,0.622025,-0.0164826
2.75777,0.619974,-0.23075
2.77042,0.622818,0.0495648
2.74602,0.477777,-0.162324
2.76855,0.622397,0.115609
2.7765,0.768428,-0.134196
2.76315,0.621184,-0.148425
2.77105,0.76692,-0.0669048
2.76661,0.755822,0
2.74812,0.468757,-0.0324553
2.76504,0.611982,-0.0164593
2.74812,0.468757,0.0324553
2.75592,0.609963,-0.230424
2.77247,0.613627,0.0495648
2.74759,0.468667,-0.162324
2.76669,0.612348,0.115446
2.77133,0.75711,-0.133824
2.76519,0.612016,-0.148425
2.77358,0.757725,-0.0669048
2.7655,0.744638,0
2.74982,0.458682,-0.0324553
2.75944,0.600144,-0.0164128
2.74596,0.458038,-0.259872
2.74982,0.458682,0.0324553
2.76203,0.600706,-0.23075
2.76689,0.601762,0.0494252
2.76501,0.601355,0.115283
2.77023,0.745909,-0.133637
2.77132,0.602727,-0.148634
2.77248,0.746516,-0.0668117
2.7514,0.44908,-0.0324553
2.76543,0.591343,-0.0164361
2.74746,0.448436,0.0324088
2.77677,0.737285,-0.200899
2.76411,0.59106,-0.23075
2.76506,0.591263,0.0493554
2.74693,0.448351,-0.162092
2.76319,0.590863,0.11512
2.76509,0.734183,-0.133265
2.76169,0.590543,-0.148006
2.7712,0.735806,-0.0667187
2.749,0.438843,-0.0324088
2.76357,0.580864,-0.0164128
2.74505,0.438213,0.0323622
2.75835,0.579768,-0.230099
2.76319,0.580786,0.0492856
2.75741,0.579571,0.114795
2.76377,0.723515,-0.133079
2.76374,0.5809,-0.148006
2.77375,0.726129,-0.0667187
2.76146,0.571368,-0.0163896
2.76441,0.714409,0.0664395
2.75626,0.570291,-0.229773
2.765,0.572101,0.0492856
2.74985,0.430123,-0.162092
2.75922,0.570904,0.114795
2.76216,0.713828,-0.132893
2.76555,0.572214,-0.148006
2.77215,0.71641,-0.0666256
2.75066,0.558628,-0.0816862
2.74402,0.418914,-0.0323156
2.76091,0.56071,-0.358602
2.76354,0.561244,-0.0163896
2.76701,0.704273,0.0664395
2.74402,0.418914,0.0323156
2.75833,0.560186,-0.229773
2.75924,0.560372,0.049146
2.75141,0.420042,-0.162092
2.76129,0.560788,0.114795
2.76476,0.7037,-0.132893
2.76371,0.561279,-0.147797
2.77088,0.705259,-0.0665326
2.75331,0.410993,-0.0324088
2.75362,0.549726,-0.0163199
2.76933,0.695092,0.0664395
2.74539,0.409811,0.0323156
2.75626,0.550255,-0.229448
2.75716,0.550435,0.0490762
2.75922,0.550845,0.114632
2.76708,0.694527,-0.132893
2.76556,0.55211,-0.147797
2.74844,0.548693,0.228797
2.76933,0.695092,-0.0664395
2.75077,0.400804,-0.0323622
2.75298,0.539615,-0.357087
2.75159,0.539344,-0.0162966
2.76397,0.683503,0.0662534
2.73889,0.399074,0.0322225
2.76208,0.541399,-0.229773
2.75907,0.540809,0.0490762
2.7463,0.400154,-0.161626
2.7572,0.540443,0.114469
2.76173,0.682948,-0.132521
2.76355,0.541687,-0.147587
2.75034,0.539098,0.228797
2.77174,0.685423,-0.0664395
2.74826,0.390155,-0.0323156
2.75494,0.529519,-0.357087
2.74962,0.528498,-0.0162734
2.76646,0.673366,0.0662534
2.76013,0.530517,-0.229448
2.76496,0.531446,0.049146
2.74379,0.389522,-0.161394
2.75132,0.528823,0.114143
2.76033,0.671874,-0.132335
2.76159,0.530798,-0.147378
2.77423,0.675258,-0.0664395
2.73772,0.378917,-0.032176
2.75145,0.518899,-0.0162734
2.76879,0.663707,0.0662534
2.73772,0.378917,0.032176
2.75805,0.520142,-0.229122
2.74118,0.379396,-0.161161
2.75314,0.519218,0.114143
2.7595,0.520417,-0.147169
2.77657,0.665572,-0.0664395
2.74292,0.37037,-0.0322225
2.75709,0.510499,-0.0162966
2.76319,0.652683,0.0660673
2.73896,0.369835,0.032176
2.75191,0.509541,-0.228471
2.75672,0.51043,0.0489365
2.74242,0.370303,-0.161161
2.75485,0.510085,0.114143
2.75706,0.651234,-0.131962
2.76121,0.511263,-0.147169
2.74407,0.508089,0.227821
2.74816,0.361314,-0.0322691
2.75492,0.500157,-0.0162734
2.76546,0.643033,0.0660673
2.7576,0.500643,-0.228797
2.75061,0.499375,0.0487969
2.7437,0.360727,-0.161161
2.75661,0.500465,0.114143
2.76298,0.50162,-0.147169
2.76935,0.643938,-0.0661604
2.73757,0.349719,-0.0321294
2.74886,0.488657,-0.0162269
2.7561,0.630219,0.0657882
2.74153,0.350226,0.032176
2.75549,0.489836,-0.228471
2.75636,0.48999,0.0488667
2.74104,0.350164,-0.160929
2.75056,0.488959,0.113818
2.76087,0.490792,-0.146959
2.74764,0.48844,0.227821
2.76779,0.632893,-0.0660673
2.74268,0.341134,-0.032176
2.76378,0.765945,0.0166686
2.7544,0.480226,-0.0162501
2.7389,0.340663,-0.257641
2.76207,0.621955,0.0658812
2.73871,0.34064,0.0321294
2.76103,0.481381,-0.228797
2.75797,0.480848,0.0488667
2.76984,0.623703,0.165347
2.74823,0.479149,0.113655
2.75461,0.480262,-0.146541
2.74532,0.478642,0.227495
2.77378,0.62459,-0.0661604
2.76644,0.756293,0.0166686
2.75212,0.469934,-0.0162269
2.74007,0.3311,-0.257641
2.76423,0.612309,0.0658812
2.73591,0.330597,0.0320828
2.7509,0.469726,-0.227821
2.75175,0.469871,0.0487271
2.7681,0.613166,0.165115
2.74595,0.46888,0.113492
2.75627,0.470643,-0.146541
2.76813,0.613174,-0.0659743
2.74102,0.321512,-0.0321294
2.7498,0.459666,-0.0162036
2.76244,0.601806,0.0657882
2.74102,0.321512,0.0321294
2.75252,0.460121,-0.227821
2.75732,0.460922,0.0487969
2.74054,0.321455,-0.160696
2.76632,0.60265,0.164882
2.74757,0.459293,0.113492
2.7579,0.461019,-0.146541
2.77026,0.603508,-0.0659743
2.73418,0.311037,-0.0320363
2.76392,0.734905,0.0166221
2.75139,0.450064,-0.0162036
2.76453,0.592158,0.0657882
2.73815,0.311489,0.0320828
2.75805,0.451153,-0.228146
2.75891,0.451294,0.0487969
2.75669,0.59048,0.164185
2.74915,0.449698,0.113492
2.75447,0.590003,-0.131218
2.75555,0.450744,-0.146331
2.76453,0.592158,-0.0657882
2.7352,0.301969,-0.0320363
2.74496,0.439673,-0.0161571
2.76647,0.582988,0.0657882
2.7352,0.301969,0.0320363
2.75559,0.441375,-0.227821
2.76039,0.442143,0.0487969
2.76254,0.58216,0.164417
2.74668,0.439948,0.113329
2.75703,0.441605,-0.146331
2.73985,0.438853,0.226519
2.76647,0.582988,-0.0657882
2.74424,0.29279,-0.0321294
2.76124,0.71359,0.0165756
2.75051,0.430226,-0.0161804
2.76076,0.571224,0.0656021
2.73231,0.291517,0.0319897
2.75325,0.430655,-0.227495
2.75409,0.430786,0.0486573
2.76075,0.571221,0.164185
2.74038,0.428642,0.113003
2.74679,0.429644,-0.145703
2.73326,0.282455,-0.0319897
2.76359,0.70443,0.0165756
2.75192,0.421103,-0.0161804
2.76656,0.562863,0.0656951
2.74122,0.283277,0.0320828
2.75072,0.42092,-0.22717
2.7555,0.421651,0.0486573
2.73279,0.282407,-0.159999
2.74574,0.420157,0.113166
2.7482,0.420533,-0.145703
2.77048,0.56366,-0.0657882
2.74039,0.409554,-0.080639
2.74942,0.410903,-0.0161571
2.73843,0.273331,-0.256897
2.76851,0.553202,0.0656951
2.73423,0.272912,0.0319897
2.75218,0.411315,-0.22717
2.74509,0.410256,0.0484479
2.73376,0.272865,-0.159999
2.76457,0.552416,0.164185
2.74719,0.410569,0.113166
2.75058,0.549621,-0.130659
2.74035,0.409548,0.226193
2.76851,0.553202,-0.0656951
2.7418,0.399986,-0.080639
2.73516,0.263367,-0.0319897
2.74688,0.400726,-0.0161339
2.7665,0.542765,0.0656021
2.73516,0.263367,0.0319897
2.74965,0.401131,-0.226844
2.75955,0.68292,0.0827335
2.75442,0.401827,0.0485875
2.76256,0.541994,0.163952
2.7486,0.400978,0.113166
2.75502,0.401914,-0.145913
2.7665,0.542765,-0.0656021
2.73208,0.253447,-0.0319431
2.76304,0.673556,0.0165291
2.74826,0.391135,-0.0161339
2.76052,0.531592,0.0654159
2.73208,0.253447,0.0319431
2.74709,0.390968,-0.226519
2.76192,0.673282,0.0827335
2.75185,0.391645,0.0485177
2.76052,0.531592,0.16372
2.73811,0.389691,0.112678
2.7564,0.392294,-0.145913
2.76445,0.532348,-0.065509
2.73295,0.243911,-0.0319431
2.73772,0.379892,-0.0160641
2.75843,0.521212,0.0653229
2.74844,0.381378,-0.226519
2.76425,0.663639,0.0827335
2.7532,0.382039,0.0485177
2.76236,0.521954,0.16372
2.75776,0.382672,-0.145913
2.76629,0.522697,-0.065509
2.756,0.651491,0.0164593
2.75092,0.37194,-0.0161339
2.73007,0.234051,-0.255782
2.76023,0.51158,0.0653229
2.7298,0.234027,0.0318966
2.74185,0.370713,-0.225868
2.74659,0.371354,0.0483781
2.7373,0.23467,-0.159999
2.76416,0.512308,0.16372
2.74077,0.370567,0.112678
2.7472,0.371437,-0.145285
2.76023,0.51158,-0.0653229
2.74701,0.499216,0
2.73459,0.224824,-0.0319431
2.74427,0.36129,-0.0160874
2.73484,0.224845,-0.256154
2.762,0.501941,0.0653229
2.7306,0.224496,0.0318966
2.74708,0.36166,-0.226193
2.7439,0.361241,0.0483083
2.73015,0.224459,-0.159533
2.76201,0.501941,0.163487
2.73808,0.360475,0.112515
2.74796,0.49939,-0.130101
2.75244,0.362366,-0.145494
2.76594,0.502656,-0.0654159
2.74044,0.351059,-0.0804062
2.72738,0.21465,-0.03185
2.76048,0.632234,0.0164593
2.74155,0.351201,-0.0160641
2.73561,0.215298,-0.256154
2.76374,0.492297,0.0653229
2.73137,0.214964,0.0318966
2.74832,0.352069,-0.226193
2.75546,0.631085,0.082268
2.74911,0.35217,0.0483781
2.75588,0.490897,0.163022
2.74329,0.351424,0.112678
2.74969,0.489795,-0.130101
2.75369,0.352756,-0.145494
2.76374,0.492297,-0.0653229
2.74648,0.479338,0
2.72811,0.205128,-0.03185
2.75486,0.620835,0.0164128
2.73879,0.341134,-0.0160409
2.75756,0.481271,0.0651368
2.72811,0.205128,0.03185
2.74558,0.34198,-0.225868
2.75374,0.620583,0.0821517
2.75033,0.342571,0.0483781
2.76151,0.48196,0.163254
2.7549,0.343141,-0.145494
2.73767,0.340994,0.225217
2.75756,0.481271,-0.0651368
2.75311,0.61035,0.0163896
2.74394,0.332053,-0.0160641
2.75528,0.470969,0.0650437
2.74676,0.332395,-0.225868
2.75589,0.610967,0.0821517
2.74753,0.332489,0.0483083
2.73377,0.330823,0.112189
2.74516,0.46924,-0.129729
2.74815,0.332563,-0.145075
2.75922,0.471643,-0.0651368
2.72549,0.185805,-0.0318034
2.75522,0.600735,0.0163896
2.74111,0.322006,-0.0160409
2.75296,0.460688,0.0649507
2.72549,0.185805,0.0318034
2.74394,0.322339,-0.225542
2.74868,0.322895,0.0483083
2.72903,0.186046,-0.159301
2.76087,0.46201,0.163022
2.73888,0.321744,0.112352
2.74679,0.459654,-0.129729
2.7493,0.322968,-0.145075
2.74338,0.449738,0
2.73008,0.177025,-0.03185
2.74216,0.312914,-0.0160409
2.7264,0.176786,-0.255039
2.75448,0.451557,0.0649507
2.73008,0.177025,0.03185
2.74103,0.312786,-0.225217
2.75217,0.590517,0.0819189
2.73781,0.312419,0.0480988
2.72963,0.176996,-0.159301
2.75844,0.452207,0.162789
2.73596,0.312207,0.112189
2.7483,0.450543,-0.129729
2.75432,0.314302,-0.145285
2.76237,0.452851,-0.0651368
2.74493,0.440159,0
2.72669,0.16725,-0.0318034
2.75142,0.580317,0.0163431
2.73528,0.302462,-0.0159944
2.73467,0.16774,0.0318966
2.74211,0.303217,-0.225217
2.7503,0.580082,0.0818026
2.74684,0.30374,0.0482385
2.76,0.442576,0.162789
2.74101,0.303095,0.112352
2.74591,0.440315,-0.129543
2.74746,0.303809,-0.144866
2.75209,0.441307,-0.0648576
2.75033,0.431675,0
2.72324,0.157976,-0.0317569
2.75333,0.571191,0.0163431
2.73627,0.29339,-0.0159944
2.75354,0.432178,0.0648576
2.73122,0.158439,0.03185
2.74706,0.294548,-0.225542
2.75612,0.571771,0.0819189
2.74783,0.29463,0.0482385
2.73405,0.293152,0.112026
2.7434,0.430588,-0.129357
2.73121,0.292848,0.22424
2.75749,0.432798,-0.0649507
2.7238,0.147992,-0.0317569
2.75148,0.560295,0.0163199
2.73733,0.283357,-0.0159944
2.7551,0.422081,0.0648576
2.7238,0.147992,0.0317569
2.74416,0.284065,-0.225217
2.75428,0.560865,0.0818026
2.74889,0.284554,0.0482385
2.75513,0.422086,0.162324
2.74496,0.420528,-0.129357
2.74554,0.284208,-0.144657
2.75905,0.422687,-0.0649507
2.74148,0.410207,0
2.75342,0.550689,0.0163199
2.7526,0.411872,0.0647646
2.7243,0.138485,0.0317569
2.7372,0.273693,-0.224566
2.7523,0.550466,0.0816862
2.74589,0.274561,0.0481686
2.72386,0.138463,-0.158836
2.75659,0.412468,0.162324
2.7321,0.273183,0.111864
2.74641,0.410946,-0.129357
2.74652,0.274624,-0.144657
2.75656,0.412464,-0.0648576
2.74678,0.401692,0
2.73919,0.26472,-0.0159944
2.75,0.402162,0.0646715
2.72075,0.129259,0.0317103
2.73809,0.264613,-0.224566
2.74678,0.265453,0.0481686
2.73697,0.264505,0.112026
2.74381,0.401257,-0.12917
2.74344,0.26513,-0.144447
2.75791,0.403319,-0.0648576
2.74421,0.391536,0
2.72518,0.119937,-0.0317569
2.73213,0.254414,-0.0159479
2.75534,0.393124,0.0647646
2.72518,0.119937,0.0317569
2.739,0.255053,-0.224566
2.75206,0.53096,0.0815699
2.73973,0.255121,0.048029
2.75538,0.39313,0.162092
2.73787,0.254949,0.112026
2.74915,0.392241,-0.129357
2.74832,0.255922,-0.144657
2.72709,0.253944,0.22359
2.75095,0.530744,-0.114143
2.75081,0.520268,-0.0488667
2.74563,0.381476,0
2.7256,0.109948,-0.0317569
2.75118,0.520338,0.0162734
2.73305,0.244399,-0.0159479
2.72194,0.109801,-0.254295
2.7528,0.382473,0.0646715
2.7256,0.109948,0.0317569
2.73992,0.245013,-0.224566
2.75006,0.520127,0.0814535
2.74064,0.245079,0.048029
2.74951,0.520024,-0.179337
2.74889,0.38193,0.161626
2.73481,0.244557,0.111864
2.74661,0.381613,-0.12917
2.74526,0.245492,-0.144447
2.728,0.243948,0.22359
2.74894,0.519916,-0.11398
2.74884,0.381923,-0.0645785
2.73901,0.370816,0
2.72597,0.100433,-0.0317569
2.7299,0.234515,-0.0159246
2.72231,0.100298,-0.254295
2.75412,0.372861,0.0646715
2.74473,0.235788,-0.224891
2.75186,0.510523,0.0814535
2.74547,0.235852,0.0480988
2.72768,0.234324,0.111538
2.74397,0.371486,-0.128984
2.73814,0.235223,-0.144029
2.72884,0.234423,0.22359
2.74029,0.361253,0
2.74687,0.499687,0.0162269
2.73469,0.225313,-0.0159479
2.75541,0.363246,0.0646715
2.7223,0.0907839,0.0317103
2.73759,0.225552,-0.22424
2.74576,0.499484,0.0812208
2.74627,0.226268,0.0480988
2.74915,0.500101,-0.179081
2.73645,0.225458,0.111864
2.74921,0.362428,-0.12917
2.73895,0.225664,-0.144029
2.75135,0.362711,0.340747
2.75144,0.362723,-0.0645785
2.74147,0.352164,0
2.72259,0.0817565,-0.0317103
2.73143,0.215929,-0.0159246
2.72293,0.0817667,-0.254295
2.71859,0.0816364,0.0316637
2.73435,0.216159,-0.223915
2.73106,0.215899,0.0478196
2.75268,0.353604,0.161626
2.7332,0.216068,0.111701
2.74643,0.352801,-0.128984
2.74366,0.216895,-0.144238
2.74628,0.490177,-0.113655
2.74866,0.353088,-0.0644854
2.72711,0.205532,-0.0795917
2.73878,0.341619,0
2.71887,0.0716724,-0.0316637
2.72822,0.205616,-0.0159014
2.72321,0.0717867,-0.254295
2.74994,0.343012,0.0644854
2.71887,0.0716724,0.0316637
2.73512,0.206136,-0.223915
2.74524,0.479616,0.0811044
2.73981,0.20649,0.0479592
2.74999,0.343019,0.161394
2.73397,0.20605,0.111701
2.75167,0.343228,-0.12917
2.72717,0.205537,0.223264
2.74806,0.480109,-0.113655
2.74994,0.343012,-0.0644854
2.74392,0.332538,0
2.7231,0.062272,-0.0317103
2.72892,0.196091,-0.0159014
2.74715,0.332929,0.0643924
2.7231,0.062272,0.0317103
2.73724,0.331728,-0.192807
2.73582,0.196587,-0.223915
2.75084,0.470704,0.0812208
2.73653,0.196637,0.0478894
2.7267,0.195931,0.111375
2.74492,0.332658,-0.128798
2.74116,0.19697,-0.144029
2.72787,0.196015,0.223264
2.74578,0.469839,-0.113492
2.73966,0.196862,0.500798
2.74318,0.332448,-0.0642993
2.73701,0.322979,0
2.71929,0.0536385,-0.0316637
2.74553,0.460924,0.0161804
2.7375,0.188065,-0.0159479
2.74421,0.323829,0.0642993
2.73643,0.187991,-0.223915
2.74836,0.461398,0.0811044
2.74783,0.461309,-0.178569
2.75221,0.324772,0.161394
2.7273,0.187365,0.111375
2.74198,0.323566,-0.128612
2.7338,0.187811,-0.14361
2.74818,0.324297,-0.0643924
2.74296,0.449669,-0.0485177
2.73426,0.312013,0
2.73022,0.177034,-0.0159014
2.73178,0.0433916,-0.255039
2.74146,0.312835,0.0642063
2.71547,0.0431326,0.0316172
2.73713,0.177482,-0.223915
2.74222,0.449548,0.0808717
2.73384,0.177269,0.0478196
2.72401,0.176632,0.111212
2.7432,0.313034,-0.128612
2.73848,0.17757,-0.143819
2.74543,0.313289,-0.0642993
2.74452,0.440091,-0.0485177
2.7393,0.302906,0
2.71961,0.0337024,-0.0316637
2.73082,0.167502,-0.0159014
2.72793,0.0338055,-0.254667
2.71561,0.0336528,0.0316172
2.73375,0.167682,-0.22359
2.74377,0.439972,0.0808717
2.73045,0.16748,0.0477498
2.72461,0.167122,0.111212
2.74031,0.303017,-0.128426
2.74307,0.168254,-0.144029
2.72181,0.16695,0.222613
2.7466,0.440426,-0.113329
2.75049,0.304142,-0.0643924
2.74193,0.430847,-0.0484479
2.72924,0.158801,-0.546775
2.74422,0.294726,0
2.7197,0.0251588,-0.0316637
2.72734,0.158691,-0.0158782
2.72802,0.0252358,-0.254667
2.7237,0.0251958,0.0317103
2.73426,0.159093,-0.22359
2.74119,0.43073,0.0807553
2.73496,0.159134,0.0478196
2.74752,0.29508,0.160929
2.72513,0.158562,0.111212
2.74125,0.294407,-0.128426
2.73561,0.159172,-0.14361
2.74745,0.295073,0.339284
2.72232,0.158399,0.222613
2.74403,0.431176,-0.113166
2.73422,0.159091,0.499363
2.74348,0.294646,-0.0642063
2.74342,0.421272,-0.0484479
2.73727,0.284318,0
2.71977,0.0156644,-0.0316637
2.72788,0.149169,-0.0158782
2.72013,0.0156665,-0.253923
2.73653,0.284241,0.0640202
2.71577,0.0156414,0.0316172
2.7348,0.149547,-0.22359
2.74268,0.421158,0.0807553
2.7355,0.149585,0.0478196
2.74456,0.285075,0.160696
2.74226,0.284836,-0.128426
2.73082,0.14933,0.223264
2.74156,0.420987,-0.113003
2.73083,0.14933,0.498645
2.74051,0.284654,-0.0641132
2.74495,0.411215,-0.0484479
2.73432,0.273885,0
2.71581,0.00568813,-0.0316172
2.72643,0.139069,-0.34749
2.74136,0.410678,0.0161106
2.72841,0.13917,-0.0158782
2.72813,0.00571395,-0.254667
2.74551,0.275007,0.0642063
2.73135,0.13932,-0.223264
2.7442,0.411103,0.0807553
2.72804,0.139151,0.04768
2.72619,0.139057,0.111212
2.74328,0.274783,-0.128426
2.73269,0.139389,-0.143401
2.71941,0.138711,0.222288
2.74154,0.274608,-0.0641132
2.74241,0.401051,-0.0483781
2.73526,0.264338,0
2.71581,-0.0037926,-0.0316172
2.74278,0.401105,0.0161106
2.72888,0.129645,-0.0158782
2.71619,-0.00379312,-0.253551
2.74646,0.265421,0.0642063
2.71581,-0.0037926,0.0316172
2.73257,0.264078,-0.19197
2.72784,0.129595,-0.222939
2.7365,0.130007,0.0478196
2.74511,0.401446,-0.177802
2.74255,0.265044,0.160464
2.72267,0.12935,0.111049
2.74025,0.264821,-0.12824
2.72917,0.129659,-0.143191
2.73576,0.129972,0.499363
2.74248,0.265036,-0.0641132
2.73983,0.390913,-0.0483083
2.73218,0.25442,0
2.71178,-0.0132511,-0.0315706
2.73331,0.120296,-0.0159014
2.72811,-0.0133309,-0.254667
2.74737,0.255834,0.0642063
2.71178,-0.0132511,0.0315706
2.73744,0.25491,-0.192249
2.72827,0.120074,-0.222939
2.72894,0.120104,0.04768
2.7271,0.120023,0.111212
2.74513,0.255626,-0.128426
2.7336,0.120309,-0.143401
2.72031,0.119724,0.222288
2.74737,0.255834,-0.0642063
2.73305,0.244881,0
2.71572,-0.0227512,-0.0316172
2.72572,0.11043,-0.0158549
2.72804,-0.0228544,-0.254667
2.71572,-0.0227512,0.0316172
2.73434,0.244996,-0.19197
2.72868,0.11055,-0.222939
2.72935,0.110577,0.04768
2.74036,0.245535,0.160231
2.72351,0.11034,0.111049
2.74601,0.246042,-0.128426
2.72071,0.110227,0.222288
2.72874,0.110552,0.497928
2.73629,0.245171,-0.0639271
2.74249,0.371776,-0.0483083
2.72807,0.100988,-0.545991
2.74186,0.236026,0
2.71562,-0.0322301,-0.0316172
2.7389,0.371289,0.0160641
2.72209,0.100767,-0.0158317
2.71998,-0.0322818,-0.253923
2.73713,0.235619,0.0639271
2.71163,-0.0321826,0.0315706
2.73518,0.235451,-0.19197
2.72905,0.101025,-0.222939
2.72971,0.101049,0.04768
2.73491,0.235427,-0.127868
2.73038,0.101074,-0.143191
2.72108,0.10073,0.222288
2.7446,0.372061,-0.112841
2.73304,0.101173,0.498645
2.7451,0.236305,-0.0641132
2.74371,0.362678,-0.0483083
2.73465,0.226272,0
2.7155,-0.041236,-0.0316172
2.74012,0.362203,0.0160641
2.72241,0.091739,-0.0158317
2.71986,-0.0413022,-0.253923
2.74587,0.2272,0.0641132
2.73197,0.226049,-0.191691
2.73734,0.092242,-0.22359
2.74297,0.36258,0.0805226
2.73003,0.091996,0.04768
2.73851,0.361991,-0.177034
2.73799,0.226547,0.159999
2.7202,0.0916645,0.110887
2.73966,0.226685,-0.128054
2.7307,0.0920184,-0.143191
2.74197,0.226877,0.337822
2.7214,0.0917049,0.222288
2.73789,0.361909,-0.112515
2.72943,0.0919756,0.497928
2.7379,0.22654,-0.0639271
2.74106,0.35211,-0.0482385
2.73945,0.216562,0
2.73746,0.351648,0.0160409
2.72673,0.0818796,-0.0158549
2.72367,-0.0513464,-0.254295
2.7427,0.216818,0.0640202
2.71133,-0.0511138,0.0315706
2.7288,0.21572,-0.191412
2.72969,0.0819685,-0.222939
2.73035,0.0819886,0.04768
2.72851,0.0819331,0.111212
2.74445,0.216957,-0.12824
2.72703,0.0818887,-0.142982
2.74278,0.216825,0.337822
2.7392,0.351871,-0.112515
2.74669,0.217133,-0.0641132
2.74227,0.34254,-0.0482385
2.73222,0.206396,0
2.71114,-0.0605773,-0.0315706
2.72699,0.0723617,-0.0158549
2.7195,-0.060764,-0.253923
2.71114,-0.0605773,0.0315706
2.72954,0.206194,-0.191412
2.72995,0.0724402,-0.222939
2.73062,0.072458,0.04768
2.71073,-0.0605681,-0.157906
2.74352,0.20725,0.160231
2.72478,0.0723029,0.111049
2.74519,0.207376,-0.12824
2.7273,0.0723697,-0.142982
2.73645,0.341813,-0.112352
2.73148,0.20634,-0.063741
2.74333,0.333924,-0.0482385
2.72135,0.0636576,-0.544422
2.73684,0.198101,0
2.73576,0.333002,0.0160176
2.71921,0.0636077,-0.0158084
2.72327,-0.0694082,-0.254295
2.74408,0.198624,0.0640202
2.71493,-0.0691957,0.0316172
2.73017,0.197618,-0.191412
2.73017,0.063864,-0.222939
2.72284,0.0636926,0.0475404
2.73619,0.198054,0.159766
2.72499,0.0637429,0.111049
2.74185,0.198463,-0.128054
2.7355,0.0639886,-0.143401
2.71423,0.0634911,0.221637
2.74147,0.333698,-0.112515
2.7263,0.0637734,0.49721
2.73211,0.197758,-0.063741
2.72156,0.0536823,-0.544422
2.74154,0.188342,0
2.72342,0.053719,-0.0158317
2.71106,-0.0790415,-0.25318
2.73681,0.188017,0.0638341
2.71466,-0.0791466,0.0316172
2.73088,0.187609,-0.191412
2.73437,0.0539349,-0.223264
2.73982,0.32331,0.0802899
2.72306,0.0537117,0.0475404
2.74088,0.188297,0.159999
2.73458,0.187864,-0.127681
2.72773,0.0538038,-0.142982
2.71444,0.0535418,0.221637
2.73474,0.32271,-0.112189
2.72651,0.0537799,0.49721
2.73282,0.187742,-0.063741
2.73373,0.31292,-0.048029
2.72621,0.17773,0
2.71437,-0.0886215,-0.0316172
2.7341,0.312962,0.0159944
2.7196,0.0441478,-0.0158084
2.71873,-0.0887637,-0.253923
2.74144,0.178723,0.0639271
2.70637,-0.0883605,0.0315241
2.72657,0.044261,-0.222613
2.73299,0.312835,0.0800572
2.72323,0.0442067,0.0475404
2.70996,-0.0884776,-0.157906
2.74153,0.178729,0.159999
2.71739,0.0441119,0.110724
2.7432,0.178838,-0.128054
2.7239,0.0442177,-0.142773
2.71461,0.0440669,0.221637
2.73982,0.313617,-0.112352
2.72668,0.0442629,0.49721
2.73745,0.178463,-0.0638341
2.73475,0.303853,-0.048029
2.72679,0.16869,0
2.72206,-0.0979092,-0.0317103
2.72373,0.0351813,-0.0158317
2.71842,-0.0977783,-0.253923
2.74201,0.169632,0.0639271
2.71006,-0.0974779,0.0315706
2.72811,0.168771,-0.191133
2.72271,0.0351682,-0.222288
2.72336,0.0351765,0.0475404
2.71752,0.0351011,0.110724
2.73979,0.169494,-0.127868
2.72803,0.0352368,-0.142982
2.73687,0.304089,-0.112189
2.74201,0.169632,-0.0639271
2.73982,0.294254,-0.0480988
2.73138,0.158926,0
2.70569,-0.107252,-0.0315241
2.72384,0.0251974,-0.0158317
2.71008,-0.107426,-0.25318
2.70969,-0.107411,0.0315706
2.72871,0.15877,-0.191133
2.72283,0.025188,-0.222288
2.71547,0.02512,0.0474007
2.73473,0.159121,0.159533
2.72562,0.0252139,0.111049
2.74039,0.15945,-0.127868
2.72814,0.0252372,-0.142982
2.734,0.293628,-0.112026
2.72693,0.0252259,0.49721
2.73863,0.159347,-0.0638341
2.73288,0.283863,-0.0479592
2.71812,0.0156565,-0.543637
2.73591,0.14961,0
2.7053,-0.116696,-0.0315241
2.71991,0.0156668,-0.0158084
2.71367,-0.117057,-0.253551
2.73517,0.149569,0.063741
2.7053,-0.116696,0.0315241
2.7229,0.015684,-0.222288
2.73214,0.283786,0.0799408
2.71954,0.0156647,0.0474705
2.73128,0.149356,0.159301
2.7217,0.0156771,0.110887
2.74093,0.149884,-0.127868
2.72821,0.0157146,-0.142982
2.71492,0.0156381,0.221637
2.73898,0.284497,-0.112189
2.71913,0.0156623,0.495776
2.72719,0.149132,-0.0635549
2.73381,0.274798,-0.0479592
2.71816,0.00664204,-0.543637
2.7324,0.14033,0
2.70889,-0.125853,-0.0315706
2.71995,0.0066464,-0.0158084
2.71326,-0.126056,-0.253551
2.72767,0.140087,0.0635549
2.7049,-0.125667,0.0315241
2.72973,0.140193,-0.191133
2.72692,0.00666344,-0.222613
2.73306,0.274724,0.0799408
2.72358,0.00665527,0.0475404
2.73177,0.140298,0.159301
2.71374,0.00663124,0.110561
2.73343,0.140383,-0.127495
2.72825,0.00666669,-0.142982
2.71496,0.00663422,0.221637
2.73196,0.274612,-0.111864
2.71917,0.00664449,0.495776
2.72767,0.140087,-0.0635549
2.73479,0.264777,-0.0479592
2.72091,0.129744,0
2.70841,-0.13578,-0.0315706
2.72395,-0.00332703,-0.0158317
2.71676,-0.136198,-0.253923
2.73615,0.13047,0.063741
2.70442,-0.135579,0.0315241
2.72624,0.129998,-0.190854
2.72693,-0.00333066,-0.222613
2.73007,0.26432,0.0798244
2.71958,-0.0033217,0.0474705
2.708,-0.135759,-0.157906
2.73625,0.130475,0.159533
2.72174,-0.00332433,0.110887
2.73393,0.130364,-0.127495
2.72026,-0.00332253,-0.142563
2.73235,0.130289,0.335872
2.71497,-0.00331606,0.221637
2.73294,0.264598,-0.111864
2.72311,-0.003326,0.496493
2.73615,0.13047,-0.063741
2.7357,0.255228,-0.0479592
2.72934,0.120597,0
2.71992,-0.0128173,-0.0158084
2.71627,-0.145681,-0.253923
2.73659,0.120918,0.063741
2.71494,-0.0127938,-0.221637
2.71956,-0.0128155,0.0474705
2.71948,-0.145853,-0.158603
2.7327,0.120746,0.159301
2.71772,-0.0128068,0.110724
2.73836,0.120996,-0.127681
2.72024,-0.0128187,-0.142563
2.7286,0.120565,-0.0635549
2.73653,0.246156,-0.0479592
2.72972,0.111547,0
2.70343,-0.153985,-0.0315241
2.71987,-0.0218362,-0.0158084
2.71975,-0.154914,-0.254295
2.73298,0.11168,0.0636479
2.70743,-0.154212,0.0315706
2.72307,0.111275,-0.190575
2.71488,-0.0217962,-0.221637
2.7115,-0.0217691,0.0473309
2.71499,-0.154643,-0.158371
2.73308,0.111684,0.159301
2.71366,-0.0217864,0.110561
2.73076,0.111589,-0.127309
2.72018,-0.0218387,-0.142563
2.73318,0.111688,0.335872
2.71089,-0.0217642,0.221311
2.7307,0.245631,-0.111701
2.73298,0.11168,-0.0636479
2.72941,0.235914,-0.0478196
2.71799,-0.0313091,-0.543637
2.73009,0.102018,0
2.70288,-0.16342,-0.0315241
2.71577,-0.0312836,-0.0157852
2.72936,0.10199,0.0635549
2.70288,-0.16342,0.0315241
2.71479,-0.0312722,-0.221637
2.71541,-0.0312793,0.0474007
2.70248,-0.163396,-0.157673
2.73346,0.102144,0.159301
2.72156,-0.0313502,0.110887
2.73912,0.102355,-0.127681
2.72808,-0.0314253,-0.142982
2.73154,0.236098,-0.111701
2.72536,0.101841,-0.0634618
2.73818,0.227045,-0.0479592
2.71786,-0.0407972,-0.543637
2.72644,0.0923513,0
2.70229,-0.172855,-0.0315241
2.71565,-0.0407639,-0.0157852
2.71065,-0.173389,-0.253551
2.7257,0.0923264,0.0634618
2.70229,-0.172855,0.0315241
2.72378,0.0922615,-0.190575
2.72264,-0.0408688,-0.222288
2.71528,-0.0407584,0.0474007
2.70986,-0.173339,-0.158138
2.72981,0.0924655,0.159068
2.71344,-0.0407308,0.110561
2.72348,0.0922513,-0.126937
2.72395,-0.0408886,-0.142773
2.71865,-0.040809,0.221962
2.73235,0.226561,-0.111701
2.7217,0.092191,-0.0633688
2.73497,0.217168,-0.0478894
2.72638,-0.0504453,-0.079359
2.72674,0.082833,0
2.70566,-0.182556,-0.0315706
2.71364,-0.0502095,-0.34547
2.72737,0.216564,0.0159014
2.71949,-0.0503178,-0.0158084
2.72696,0.0828396,-0.293874
2.71003,-0.182851,-0.253551
2.73,0.082932,0.0635549
2.70167,-0.182287,0.0315241
2.71849,-0.0502993,-0.221962
2.72312,-0.0503849,0.0475404
2.72979,0.216757,-0.1755
2.70526,-0.182529,-0.157906
2.7341,0.0830567,0.159301
2.71728,-0.0502769,0.110724
2.72778,0.0828646,-0.127123
2.71181,-0.0501758,-0.142144
2.70653,-0.050078,0.220986
2.73711,0.217338,-0.111864
2.726,0.0828106,-0.0634618
2.73169,0.207793,-0.0478196
2.71752,-0.0592974,-0.543637
2.723,0.0736814,0
2.71346,-0.0592087,-0.34547
2.72807,0.207518,0.0159014
2.72731,-0.0595109,-0.0158549
2.71735,-0.1924,-0.254295
2.73426,0.073986,0.0636479
2.70504,-0.191528,0.0315706
2.72435,0.0737178,-0.190575
2.71034,-0.0591407,-0.221311
2.71894,-0.0593284,0.0474705
2.73049,0.207702,-0.1755
2.70463,-0.191499,-0.157906
2.73037,0.0738808,0.159068
2.7171,-0.0592882,0.110724
2.73204,0.0739258,-0.127309
2.71563,-0.0592561,-0.142354
2.73049,0.0738839,0.335384
2.70635,-0.0590537,0.220986
2.72984,0.207653,-0.111538
2.72626,0.0737696,-0.0634618
2.73243,0.197781,-0.0478196
2.71729,-0.0692564,-0.543637
2.71926,0.063608,0
2.71507,-0.0691999,-0.0157852
2.72747,0.0638001,-0.293874
2.71663,-0.202357,-0.254295
2.73451,0.0639648,0.0636479
2.70831,-0.201738,0.0316172
2.7246,0.063733,-0.190575
2.71409,-0.0691748,-0.221637
2.7187,-0.0692925,0.0474705
2.7079,-0.201707,-0.158138
2.72663,0.0637805,0.158836
2.71287,-0.0691437,0.110561
2.73229,0.0639128,-0.127309
2.71938,-0.0693098,-0.142563
2.70612,-0.0689717,0.220986
2.7266,0.197358,-0.111375
2.72652,0.0637778,-0.0634618
2.72345,0.0546705,0
2.71083,-0.0780879,-0.0157619
2.73071,0.0548162,0.0635549
2.71162,-0.211028,0.0316637
2.7248,0.0546975,-0.190575
2.71783,-0.0782895,-0.221962
2.71046,-0.0780773,0.0473309
2.70323,-0.210376,-0.157906
2.72683,0.0547383,0.158836
2.71662,-0.0782546,0.110724
2.73249,0.0548519,-0.127309
2.71515,-0.0782122,-0.142354
2.70587,-0.0779451,0.220986
2.73123,0.188591,-0.111538
2.71872,0.0545755,-0.0632757
2.72577,0.178178,-0.04768
2.71963,0.0446226,0
2.70285,-0.220315,-0.0315706
2.71452,-0.0881529,-0.0157852
2.7199,0.0446269,-0.293018
2.71118,-0.220994,-0.253923
2.72689,0.0447417,0.0634618
2.70285,-0.220315,0.0315706
2.72099,0.0446448,-0.190296
2.72151,-0.0883797,-0.222288
2.71416,-0.0881409,0.0474007
2.70642,-0.220606,-0.158138
2.72302,0.0446781,0.158603
2.71631,-0.088211,0.110724
2.72468,0.0447053,-0.126937
2.71085,-0.0880335,-0.142144
2.73112,0.044811,0.335384
2.70955,-0.0879915,0.221311
2.73589,0.17884,-0.111701
2.7229,0.0446761,-0.0633688
2.72637,0.168663,-0.04768
2.70207,-0.229749,-0.0315706
2.73073,0.168932,0.0159014
2.7142,-0.0976278,-0.0157852
2.72004,0.0351324,-0.293018
2.71039,-0.230457,-0.253923
2.73103,0.0352744,0.0635549
2.70207,-0.229749,0.0315706
2.72118,-0.097879,-0.222288
2.71783,-0.0977583,0.0474705
2.72519,0.168589,-0.174988
2.70962,-0.230391,-0.158371
2.72715,0.0352243,0.158836
2.708,-0.0974049,0.110398
2.72082,0.0351426,-0.126751
2.70653,-0.0973521,-0.141935
2.72332,0.0351748,0.33441
2.70525,-0.0973057,0.220986
2.72852,0.168795,-0.111375
2.71504,0.0350679,-0.0631827
2.73091,0.159854,-0.0477498
2.71215,-0.106561,-0.542853
2.72387,0.0261481,0
2.70527,-0.23906,-0.0316172
2.71201,-0.106555,-0.34547
2.72185,-0.106942,-0.0158317
2.72014,0.0261123,-0.293018
2.70961,-0.239443,-0.253923
2.73114,0.0262178,0.0635549
2.70527,-0.23906,0.0316172
2.72084,-0.106902,-0.222288
2.71349,-0.106613,0.0474007
2.71281,-0.239726,-0.158603
2.72326,0.0261422,0.158603
2.71166,-0.106541,0.110561
2.72492,0.0261582,-0.126937
2.71019,-0.106484,-0.142144
2.70491,-0.106276,0.220986
2.72314,0.0261411,-0.0633688
2.73148,0.149844,-0.0477498
2.72395,0.0161645,0
2.70438,-0.248974,-0.0316172
2.71345,-0.116574,-0.0157852
2.72022,0.0161423,-0.293018
2.71269,-0.249738,-0.254295
2.73121,0.0162075,0.0635549
2.7004,-0.248607,0.0315706
2.71732,0.0161251,-0.190017
2.72043,-0.116874,-0.222288
2.70909,-0.116386,0.0473309
2.71192,-0.249668,-0.158603
2.73132,0.0162082,0.159068
2.71524,-0.116651,0.110724
2.725,0.0161707,-0.126937
2.71377,-0.116588,-0.142354
2.71922,0.0161364,-0.0632757
2.71999,0.00664621,0
2.69553,-0.257651,-0.0315241
2.70721,-0.125775,-0.344965
2.70903,-0.125859,-0.0157619
2.71576,-0.259585,-0.254667
2.73125,0.00667372,0.0635549
2.70349,-0.258412,0.0316172
2.71603,-0.126184,-0.221962
2.72326,0.13986,0.079359
2.71266,-0.126028,0.0474007
2.70308,-0.258372,-0.158138
2.72338,0.00665448,0.158603
2.71482,-0.126128,0.110724
2.72504,0.00665854,-0.126937
2.71335,-0.12606,-0.142354
2.70408,-0.125629,0.220986
2.72614,0.140009,-0.111212
2.71526,0.00663464,-0.0631827
2.72444,0.130864,-0.0476102
2.72,-0.00237365,0
2.69864,-0.266982,-0.0315706
2.7086,-0.134842,-0.0157619
2.71629,-0.00237041,-0.292589
2.70696,-0.267805,-0.253923
2.72326,-0.00237649,0.0633688
2.7066,-0.26777,0.0316637
2.71736,-0.00237135,-0.190017
2.71559,-0.13519,-0.221962
2.71223,-0.135023,0.0474007
2.71016,-0.268121,-0.158603
2.72338,-0.0023766,0.158603
2.7064,-0.134733,0.110398
2.72105,-0.00237456,-0.126751
2.71291,-0.135057,-0.142354
2.72752,-0.00238021,0.334897
2.70763,-0.134794,0.221311
2.73458,0.131351,-0.111538
2.71526,-0.00236951,-0.0631827
2.72089,0.121176,-0.0475404
2.69371,-0.275993,-0.0315241
2.71211,-0.144509,-0.0157852
2.72024,-0.0118693,-0.293018
2.71393,-0.278064,-0.254667
2.72324,-0.0118824,0.0633688
2.70167,-0.276808,0.0316172
2.7151,-0.144669,-0.221962
2.72015,0.121143,0.0792426
2.70375,-0.144064,0.0472611
2.70523,-0.277173,-0.158371
2.72336,-0.011883,0.158603
2.7099,-0.144392,0.110561
2.71703,-0.0118553,-0.126565
2.70844,-0.144313,-0.142144
2.72352,-0.0118837,0.33441
2.70316,-0.144032,0.220986
2.72703,0.121449,-0.111212
2.71924,-0.011865,-0.0632757
2.72929,0.112005,-0.04768
2.71592,-0.0213312,0
2.70467,-0.286659,-0.0316637
2.71558,-0.154202,-0.0158084
2.7162,-0.0213334,-0.292589
2.70898,-0.287116,-0.254295
2.72318,-0.0213882,0.0633688
2.69671,-0.285815,0.0315706
2.71458,-0.154145,-0.221962
2.71122,-0.153954,0.0474007
2.70822,-0.287035,-0.158603
2.72729,-0.0214206,0.158836
2.70938,-0.15385,0.110561
2.72496,-0.0214022,-0.126937
2.70792,-0.153767,-0.142144
2.72744,0.111929,-0.111212
2.72718,-0.0214196,-0.0634618
2.72566,0.102327,-0.0476102
2.71583,-0.0308114,0
2.6957,-0.295227,-0.0315706
2.70522,-0.163089,-0.344965
2.71103,-0.163439,-0.0157852
2.71611,-0.0308146,-0.292589
2.71192,-0.297004,-0.254667
2.70365,-0.296098,0.0316637
2.7132,-0.0307816,-0.189738
2.71801,-0.16386,-0.222288
2.70667,-0.163176,0.0473309
2.7072,-0.296486,-0.158603
2.72321,-0.0308952,0.158603
2.70484,-0.163066,0.110398
2.72087,-0.0308687,-0.126751
2.71135,-0.163458,-0.142354
2.72781,0.102408,-0.111212
2.72309,-0.0308938,-0.0633688
2.7237,-0.0404099,0
2.69465,-0.304635,-0.0315706
2.71838,0.0925528,0.0158084
2.71599,-0.0402955,-0.292589
2.71087,-0.306469,-0.254667
2.7026,-0.305534,0.0316637
2.72106,-0.0403706,-0.190296
2.71742,-0.173346,-0.222288
2.7021,-0.172369,0.0472611
2.70218,-0.305486,-0.158371
2.71909,-0.0403415,0.158371
2.71223,-0.173016,0.110724
2.72475,-0.0404254,-0.126937
2.71076,-0.172922,-0.142354
2.7015,-0.172331,0.220986
2.73215,0.0930216,-0.111375
2.71497,-0.0402803,-0.0631827
2.71954,-0.0498438,0
2.69357,-0.314039,-0.0315706
2.70583,-0.182093,-0.0157619
2.71583,-0.0497758,-0.292589
2.70583,-0.315468,-0.254295
2.71481,-0.049757,0.0631827
2.70152,-0.314966,0.0316637
2.71292,-0.0497224,-0.189738
2.71282,-0.182563,-0.221962
2.72158,0.0831517,0.0792426
2.70547,-0.182068,0.0473309
2.70506,-0.315379,-0.158603
2.71894,-0.0498327,0.158371
2.70762,-0.182214,0.110561
2.72059,-0.049863,-0.126751
2.71014,-0.182383,-0.142354
2.72846,0.0833621,-0.111212
2.71481,-0.049757,-0.0631827
2.72259,0.0736711,-0.0475404
2.71135,-0.059162,0
2.69643,-0.323917,-0.0316172
2.70337,-0.191409,-0.344965
2.70917,-0.19182,-0.0157852
2.71564,-0.0592555,-0.292589
2.70867,-0.325386,-0.254667
2.71862,-0.0593204,0.0632757
2.7004,-0.324394,0.0316637
2.71614,-0.192313,-0.222288
2.71279,-0.192076,0.0474705
2.70395,-0.324819,-0.158603
2.72274,-0.0594103,0.158603
2.70299,-0.191382,0.110398
2.71641,-0.0592722,-0.126565
2.7055,-0.19156,-0.142144
2.71893,-0.0593272,0.333922
2.70023,-0.191187,0.220986
2.71062,-0.059146,-0.0630896
2.71882,0.0645473,-0.0474705
2.71514,-0.0682533,0
2.69137,-0.332366,-0.0315706
2.70272,-0.200372,-0.344965
2.71919,0.0645561,0.0158084
2.70852,-0.200803,-0.0157852
2.71941,-0.0683605,-0.293018
2.71152,-0.334855,-0.255039
2.69931,-0.333347,0.0316637
2.70356,-0.200435,-0.221311
2.70417,-0.20048,0.0473309
2.69889,-0.333295,-0.158371
2.71454,-0.0682382,0.158138
2.70632,-0.20064,0.110561
2.7162,-0.0682798,-0.126565
2.70485,-0.200531,-0.142144
2.72269,-0.068443,0.33441
2.7224,-0.0684359,-0.0633688
2.71902,0.055531,-0.0474705
2.7149,-0.0772567,0
2.69025,-0.341289,-0.0315706
2.71183,-0.210092,-0.0158084
2.71916,-0.077378,-0.293018
2.7104,-0.343845,-0.255039
2.72216,-0.0774633,0.0633688
2.70216,-0.342799,0.0317103
2.71228,-0.077182,-0.189738
2.71481,-0.210323,-0.222288
2.6995,-0.209137,0.0472611
2.70569,-0.343248,-0.158836
2.70564,-0.209613,0.110561
2.71995,-0.0774003,-0.126751
2.71612,-0.210425,-0.142773
2.72216,-0.0774633,-0.0633688
2.7232,0.0461072,-0.0475404
2.69301,-0.351195,-0.0316172
2.7031,-0.218911,-0.0157619
2.71093,-0.0866152,-0.292161
2.71788,-0.0868372,0.0632757
2.70095,-0.35223,0.0317103
2.71598,-0.0867766,-0.190017
2.71008,-0.219476,-0.221962
2.70672,-0.219204,0.0474007
2.70448,-0.35269,-0.158836
2.71401,-0.0867138,0.158138
2.70091,-0.218733,0.110398
2.72366,-0.0870219,-0.126937
2.71537,-0.219905,-0.142773
2.71736,0.0460084,-0.110724
2.70988,-0.0865818,-0.0630896
2.71535,0.035546,-0.0474007
2.71426,-0.0971557,0
2.69561,-0.362066,-0.0316637
2.71022,-0.229965,-0.0158084
2.70781,-0.363704,-0.255039
2.71353,-0.0971294,0.0631827
2.69561,-0.362066,0.0316637
2.71164,-0.0970618,-0.189738
2.71319,-0.230218,-0.222288
2.70188,-0.229258,0.0473309
2.7031,-0.363072,-0.158836
2.70967,-0.0969914,0.157906
2.69607,-0.228765,0.110235
2.71931,-0.0973363,-0.126751
2.71053,-0.229992,-0.142563
2.7218,-0.0974257,0.33441
2.6973,-0.228869,0.220986
2.72551,0.0356788,-0.111049
2.70953,-0.0969864,-0.0630896
2.71546,0.0260674,-0.0474007
2.70591,-0.106316,0
2.70225,-0.372565,-0.0317569
2.69961,-0.23856,-0.344965
2.70541,-0.239072,-0.0157852
2.71022,-0.106485,-0.292161
2.70652,-0.373154,-0.255039
2.70918,-0.106444,0.0630896
2.69433,-0.371473,0.0316637
2.70505,-0.23904,0.0474007
2.70182,-0.372506,-0.158836
2.72129,-0.10692,0.158603
2.70321,-0.238878,0.110561
2.71496,-0.106671,-0.126565
2.70573,-0.2391,-0.142354
2.70046,-0.238634,0.221311
2.72162,0.0261265,-0.110887
2.71717,-0.106758,-0.0632757
2.70954,-0.115458,0
2.68912,-0.379846,-0.0316172
2.70276,-0.247873,-0.34547
2.70859,-0.248407,-0.0158084
2.70985,-0.115472,-0.292161
2.7168,-0.115768,0.0632757
2.69704,-0.380965,0.0317103
2.71091,-0.115517,-0.189738
2.70362,-0.247952,-0.221637
2.70424,-0.248009,0.0474007
2.70057,-0.381463,-0.158836
2.71294,-0.115603,0.158138
2.70241,-0.247841,0.110561
2.70492,-0.248071,-0.142354
2.71769,0.017076,-0.110724
2.72079,-0.115938,-0.0633688
2.71557,0.00805729,-0.0474007
2.70914,-0.124443,0
2.69181,-0.389334,-0.0316637
2.69797,-0.256459,-0.344965
2.70775,-0.257388,-0.0158084
2.71343,-0.12464,-0.292589
2.70399,-0.391096,-0.255039
2.7164,-0.124776,0.0632757
2.69972,-0.390479,0.0317569
2.7145,-0.124689,-0.190017
2.71469,-0.258048,-0.222613
2.69942,-0.256596,0.0473309
2.70324,-0.390988,-0.159068
2.72052,-0.124965,0.158603
2.70953,-0.257557,0.110887
2.69485,-0.256162,0.220986
2.7164,-0.124776,-0.0632757
2.71668,-0.134294,0
2.69439,-0.399314,-0.0317103
2.69706,-0.265875,-0.344965
2.70285,-0.266446,-0.0157852
2.709,-0.133914,-0.292161
2.69834,-0.3999,0.0317569
2.71405,-0.134164,-0.190017
2.71377,-0.267523,-0.222613
2.70249,-0.26641,0.0474007
2.69396,-0.399251,-0.158603
2.71209,-0.134067,0.158138
2.69668,-0.265838,0.110398
2.72172,-0.134543,-0.126937
2.71112,-0.267261,-0.142773
2.69394,-0.265567,0.220986
2.71375,-0.00142091,-0.110561
2.70796,-0.133863,-0.0630896
2.71157,-0.010885,-0.0473309
2.7122,-0.143565,0
2.69298,-0.408717,-0.0317103
2.70006,-0.275691,-0.34547
2.70589,-0.276285,-0.0158084
2.71249,-0.14358,-0.292589
2.70748,-0.143314,0.0630896
2.69693,-0.409317,0.0317569
2.7056,-0.143215,-0.189459
2.70154,-0.275842,0.0474007
2.7044,-0.41045,-0.159301
2.71559,-0.143744,0.158371
2.69971,-0.275655,0.110561
2.71326,-0.14362,-0.126565
2.71414,-0.277129,-0.142982
2.69696,-0.275374,0.221311
2.71147,-0.143526,-0.0631827
2.71151,-0.02035,-0.0473309
2.7037,-0.15258,0
2.69153,-0.418115,-0.0317103
2.69908,-0.285114,-0.34547
2.7049,-0.285729,-0.0158084
2.71197,-0.153047,-0.292589
2.71095,-0.15299,0.0631827
2.69153,-0.418115,0.0317103
2.70508,-0.152658,-0.189459
2.70056,-0.28527,0.0474007
2.71435,-0.0203714,-0.173965
2.70295,-0.419887,-0.159301
2.71109,-0.152997,0.158138
2.69873,-0.285077,0.110561
2.70875,-0.152865,-0.126379
2.70522,-0.285762,-0.142563
2.71526,-0.153233,0.333922
2.69202,-0.284368,0.220986
2.71367,-0.0203663,-0.110561
2.71494,-0.153215,-0.0632757
2.70711,-0.162729,0
2.68603,-0.427348,-0.0316637
2.69802,-0.295005,-0.34547
2.71179,-0.0302922,0.0157619
2.70782,-0.296076,-0.0158317
2.70742,-0.162747,-0.292161
2.70638,-0.162685,0.0630896
2.68998,-0.427977,0.0317103
2.7045,-0.162572,-0.189459
2.70681,-0.295966,-0.222288
2.6995,-0.295166,0.0474007
2.71051,-0.162933,0.158138
2.69767,-0.294967,0.110561
2.72014,-0.163512,-0.126937
2.70415,-0.295675,-0.142563
2.71071,-0.162945,0.333435
2.71037,-0.162925,-0.0631827
2.70254,-0.171923,0
2.68452,-0.436722,-0.0316637
2.70279,-0.305077,-0.0158084
2.71478,-0.172702,-0.293018
2.71777,-0.172892,0.0633688
2.69242,-0.438006,0.0317569
2.7079,-0.172265,-0.189738
2.70972,-0.30586,-0.222613
2.69448,-0.304139,0.0473309
2.70992,-0.172393,0.158138
2.69662,-0.304381,0.110561
2.71556,-0.172752,-0.126751
2.71104,-0.306009,-0.142982
2.69784,-0.304518,0.221637
2.71777,-0.172892,-0.0633688
2.71396,-0.181212,0
2.69103,-0.446462,-0.0317569
2.70182,-0.313567,-0.0158084
2.70628,-0.1807,-0.292161
2.71721,-0.18143,0.0633688
2.68709,-0.445808,0.0317103
2.70336,-0.180505,-0.189459
2.70875,-0.314371,-0.222613
2.70145,-0.313524,0.0474705
2.69848,-0.447698,-0.159301
2.70937,-0.180906,0.158138
2.69566,-0.312852,0.110561
2.71899,-0.181549,-0.126937
2.7061,-0.314063,-0.142773
2.71332,-0.0483086,-0.110561
2.71322,-0.181163,-0.0632757
2.71324,-0.191632,0
2.69718,-0.458131,-0.03185
2.69265,-0.322986,-0.0157619
2.70557,-0.19109,-0.292161
2.70453,-0.191017,0.0630896
2.69324,-0.457462,0.0318034
2.70663,-0.191165,-0.189738
2.7042,-0.324371,0.0475404
2.69674,-0.458056,-0.159301
2.70467,-0.191026,0.157906
2.69047,-0.322724,0.110398
2.71827,-0.191987,-0.126937
2.71282,-0.191602,0.333922
2.71311,-0.0587266,-0.110561
2.70852,-0.191298,-0.0631827
2.69041,-0.332248,-0.0788935
2.70059,-0.200214,0
2.69163,-0.46686,-0.0318034
2.69945,-0.333364,-0.0158084
2.71282,-0.201121,-0.293018
2.70385,-0.200456,0.0630896
2.68375,-0.465493,0.0317103
2.70595,-0.200612,-0.189738
2.71033,-0.334707,-0.222939
2.70305,-0.333809,0.0475404
2.69906,-0.468149,-0.159533
2.70398,-0.200466,0.157906
2.69726,-0.333093,0.110724
2.7136,-0.201179,-0.126751
2.70372,-0.333892,-0.142773
2.70026,-0.20019,0.33246
2.71289,-0.0681968,-0.110561
2.71182,-0.201047,-0.0632757
2.70792,-0.209314,0
2.68227,-0.473922,-0.0317103
2.69839,-0.341843,-0.0158084
2.71217,-0.209643,-0.293018
2.70719,-0.209257,0.0631827
2.69015,-0.475314,0.0318034
2.7053,-0.209112,-0.189738
2.70531,-0.342719,-0.222613
2.70199,-0.342299,0.0475404
2.69364,-0.475931,-0.159301
2.7113,-0.209576,0.158371
2.69223,-0.341063,0.110561
2.71296,-0.209703,-0.126751
2.70662,-0.342886,-0.142982
2.70867,-0.0766062,-0.110398
2.71516,-0.209874,-0.0633688
2.71419,-0.0871935,-0.0474007
2.7071,-0.21971,0
2.68437,-0.484929,-0.0317569
2.70102,-0.352719,-0.0158317
2.71135,-0.220055,-0.293018
2.70637,-0.219651,0.0631827
2.6883,-0.48564,0.0318034
2.70846,-0.219821,-0.190017
2.70792,-0.35362,-0.222939
2.69669,-0.352153,0.0474705
2.71446,-0.220308,0.158603
2.69883,-0.352433,0.110887
2.71434,-0.220298,-0.0633688
2.70591,-0.095438,-0.0472611
2.69088,-0.359996,-0.0790099
2.70241,-0.227878,0
2.68676,-0.494083,-0.0318034
2.69197,-0.360142,-0.0157852
2.70668,-0.228238,-0.292589
2.71363,-0.228824,0.0633688
2.6907,-0.494806,0.03185
2.6998,-0.227658,-0.189459
2.7068,-0.362126,-0.222939
2.69953,-0.361154,0.0475404
2.70182,-0.227828,0.157906
2.69375,-0.36038,0.110724
2.71143,-0.228638,-0.126751
2.71206,-0.0956551,-0.110561
2.70168,-0.227816,-0.0630896
2.70556,-0.104883,-0.0472611
2.70957,-0.238009,0
2.69288,-0.504933,-0.0318966
2.70492,-0.237601,-0.422443
2.69466,-0.370081,-0.0158084
2.70587,-0.237685,-0.292589
2.70883,-0.237945,0.0632757
2.68502,-0.503458,0.0318034
2.70297,-0.23743,-0.189738
2.69429,-0.370031,0.0474705
2.70841,-0.104993,-0.173709
2.70498,-0.237607,0.158138
2.69247,-0.36978,0.110724
2.70663,-0.237752,-0.126565
2.71171,-0.105121,-0.110561
2.70883,-0.237945,-0.0632757
2.70915,-0.114968,-0.0473309
2.70868,-0.247939,0
2.69494,-0.515551,-0.0319431
2.70952,-0.114984,0.0157619
2.69725,-0.380513,-0.0158317
2.7129,-0.248326,-0.293446
2.70794,-0.247872,0.0632757
2.68709,-0.514048,0.03185
2.70208,-0.247335,-0.189738
2.69688,-0.380462,0.0475404
2.71205,-0.248248,0.158603
2.6911,-0.379646,0.110724
2.70972,-0.248035,-0.126751
2.70151,-0.381114,-0.142982
2.7153,-0.115229,-0.110724
2.69998,-0.247143,-0.0630896
2.70476,-0.123768,-0.0472611
2.69092,-0.388726,-0.0791263
2.70386,-0.256542,0
2.68144,-0.522191,-0.0318034
2.69201,-0.388884,-0.0158084
2.7081,-0.256945,-0.293018
2.70711,-0.25685,0.0632757
2.70124,-0.256294,-0.189738
2.70286,-0.390451,-0.222939
2.69956,-0.389975,0.0476102
2.71121,-0.25724,0.158603
2.69378,-0.38914,0.110887
2.70888,-0.257019,-0.126751
2.70418,-0.390642,-0.143191
2.70692,-0.123867,-0.110398
2.71109,-0.257228,-0.0633688
2.7123,-0.133603,-0.0474007
2.6935,-0.398702,-0.0792426
2.70693,-0.26637,0
2.69137,-0.533882,-0.0319431
2.69064,-0.398278,-0.0158084
2.71115,-0.266786,-0.293446
2.70221,-0.265907,0.0631827
2.70033,-0.265722,-0.189738
2.69027,-0.398224,0.0474705
2.70235,-0.26592,0.158138
2.69241,-0.39854,0.110887
2.70797,-0.266473,-0.126751
2.70221,-0.265907,-0.0631827
2.71182,-0.143069,-0.0474007
2.69604,-0.408701,-0.079359
2.70598,-0.275818,0
2.68949,-0.543274,-0.0319431
2.68923,-0.407668,-0.0158084
2.70624,-0.275844,-0.293018
2.70923,-0.276149,0.0633688
2.70336,-0.27555,-0.190017
2.70401,-0.409908,-0.223264
2.69677,-0.408812,0.0476102
2.69743,-0.274946,0.157906
2.69495,-0.408535,0.111049
2.70702,-0.275924,-0.126751
2.70599,-0.142762,-0.110398
2.70127,-0.275338,-0.0631827
2.70893,-0.286154,0
2.68357,-0.552321,-0.0318966
2.69167,-0.418136,-0.0158317
2.70521,-0.285762,-0.293018
2.70422,-0.285656,0.0632757
2.7063,-0.285876,-0.190296
2.69131,-0.418079,0.0475404
2.70613,-0.152718,-0.173709
2.70832,-0.286089,0.158603
2.69343,-0.41841,0.111049
2.70944,-0.152904,-0.110561
2.70422,-0.285656,-0.0632757
2.70279,-0.161049,-0.0472611
2.6853,-0.42579,-0.0791263
2.70006,-0.293797,0
2.68573,-0.561568,-0.0319431
2.69034,-0.42659,-0.0158317
2.70826,-0.294689,-0.293446
2.70728,-0.294583,0.0633688
2.69745,-0.293513,-0.189738
2.69788,-0.427785,0.04768
2.70963,-0.161456,-0.173965
2.70344,-0.294164,0.158371
2.70906,-0.294776,-0.126937
2.70894,-0.161415,-0.110561
2.70728,-0.294583,-0.0633688
2.7102,-0.170986,-0.0474007
2.68775,-0.435801,-0.0792426
2.703,-0.303667,0
2.67593,-0.569275,-0.03185
2.68884,-0.435978,-0.0158317
2.70326,-0.303697,-0.293018
2.70624,-0.304032,0.0633688
2.69641,-0.302928,-0.189738
2.69637,-0.4372,0.04768
2.70506,-0.170662,-0.173709
2.70239,-0.303599,0.158371
2.70007,-0.303338,-0.126565
2.70438,-0.170619,-0.110398
2.70226,-0.303585,-0.0632757
2.71354,-0.181185,-0.0474705
2.69007,-0.446304,-0.079359
2.70981,-0.314494,0
2.69117,-0.446485,-0.0158549
2.70213,-0.313603,-0.293018
2.70908,-0.314409,0.0634618
2.70321,-0.313728,-0.190296
2.68686,-0.44577,0.0475404
2.70126,-0.313502,0.158371
2.70688,-0.314154,-0.126937
2.70772,-0.180796,-0.110561
2.70511,-0.313948,-0.0633688
2.70096,-0.189343,-0.0472611
2.69252,-0.455889,-0.0794753
2.69684,-0.322056,0
2.68573,-0.454739,-0.0158317
2.70107,-0.322562,-0.293018
2.70802,-0.323391,0.0634618
2.70612,-0.323164,-0.190575
2.69325,-0.456013,0.04768
2.70021,-0.322458,0.158371
2.70312,-0.189495,-0.110398
2.70008,-0.322443,-0.0632757
2.68697,-0.464604,-0.079359
2.6957,-0.331468,0
2.68413,-0.464111,-0.0158317
2.70388,-0.332473,-0.293446
2.70291,-0.332354,0.0633688
2.70497,-0.332608,-0.190575
2.6877,-0.46473,0.0476102
2.6951,-0.331394,0.158138
2.70468,-0.332572,-0.126937
2.70643,-0.199222,-0.110561
2.70291,-0.332354,-0.0633688
2.7115,-0.209591,-0.0474705
2.69843,-0.341848,0
2.69028,-0.475338,-0.0158782
2.6987,-0.341882,-0.293018
2.6977,-0.341756,0.0632757
2.70374,-0.34252,-0.190575
2.68598,-0.474578,0.0476102
2.70238,-0.208886,-0.173709
2.69783,-0.341772,0.158371
2.70344,-0.342482,-0.126937
2.70966,-0.209449,-0.110724
2.70167,-0.342258,-0.0633688
2.7068,-0.21826,-0.0474007
2.69728,-0.350795,0
2.69657,-0.485675,-0.0159246
2.70543,-0.351855,-0.293874
2.70052,-0.351216,0.0633688
2.69863,-0.35097,-0.190296
2.68439,-0.483482,0.0476102
2.70565,-0.218167,-0.173965
2.70229,-0.351445,-0.126937
2.70099,-0.217791,-0.110398
2.70845,-0.352247,-0.0635549
2.70602,-0.227707,-0.0474007
2.68589,-0.493438,-0.0794753
2.70001,-0.360738,0
2.69092,-0.494362,-0.0159014
2.70025,-0.36077,-0.293446
2.7053,-0.361444,-0.190854
2.70336,-0.361185,0.158836
2.70104,-0.360876,-0.126937
2.70817,-0.227888,-0.110724
2.70721,-0.361699,-0.0635549
