3.07451,0.734234,0.0151717
3.08188,0.716034,0.0151861
3.08914,0.697771,0.0152005
3.1002,0.680304,0.015234
3.0897,0.659734,0.129433
3.10236,0.660852,0.0152244
3.10244,0.640995,0.0152053
3.10533,0.62175,0.0152005
3.10696,0.621004,-0.100346
3.10034,0.602561,0.129392
3.11758,0.603258,-0.100568
3.11183,0.585003,0.12972
3.13105,0.585956,-0.100884
3.1134,0.565541,0.129638
3.1336,0.566555,-0.100853
3.11583,0.546254,0.129597
3.11769,0.54501,0.0151909
3.13406,0.546802,-0.100758
3.12503,0.528124,0.129843
3.07275,0.751116,0.0701817
3.13478,0.528196,0.015258
3.13736,0.527561,-0.100758
3.13212,0.524152,-0.215772
3.12624,0.508619,0.129761
3.08605,0.73433,0.0703813
3.13993,0.509272,0.0152676
3.13528,0.504924,-0.215772
3.12831,0.489273,0.12972
3.0944,0.716283,0.07047
3.14497,0.490304,0.0152772
3.14952,0.489943,-0.100948
3.14424,0.486592,-0.216179
3.11333,0.584419,0.215119
3.09581,0.696624,0.0704035
3.14496,0.470553,0.0152628
3.09956,0.695707,-0.0451895
3.14654,0.469723,-0.100758
3.12361,0.581779,-0.130336
3.14815,0.467437,-0.216247
3.11784,0.565483,0.215187
3.14101,0.451842,0.130006
3.08928,0.675267,0.0701595
3.14778,0.451247,0.0152628
3.10573,0.677101,-0.0452179
3.14936,0.450408,-0.100758
3.15787,0.449094,-0.216721
3.12518,0.547029,0.215458
3.14273,0.432425,0.129965
3.09728,0.657129,0.0702482
3.15446,0.432468,0.015282
3.12489,0.54445,-0.0151137
3.10884,0.657825,-0.0452037
3.15306,0.431211,-0.100789
3.13741,0.5446,-0.130623
3.15661,0.429172,-0.21645
3.17243,0.430364,-0.335304
3.14214,0.414835,0.361893
3.12651,0.527511,0.215323
3.14929,0.413654,0.130129
3.10909,0.639724,0.0704257
3.07885,0.749454,0.0394346
3.15705,0.413104,0.015282
3.13507,0.526425,-0.0151471
3.11184,0.638536,-0.0451895
3.15961,0.412373,-0.100916
3.13675,0.524679,-0.130459
3.14406,0.523929,-0.247329
3.18093,0.411656,-0.335929
3.14364,0.395424,0.361779
3.14679,0.394871,0.246091
3.12378,0.507358,0.214916
3.15672,0.394943,0.130334
3.11099,0.620244,0.0703813
3.09118,0.732393,0.0395342
3.15357,0.392983,0.0152532
3.13726,0.507019,-0.0151423
3.171,0.394088,-0.101201
3.14484,0.506217,-0.130664
3.14623,0.50447,-0.247252
3.14897,0.376481,0.36212
3.1288,0.488489,0.215052
3.1571,0.37533,0.130252
3.11179,0.600575,0.0703148
3.1599,0.374096,0.0152724
3.1413,0.487913,-0.0151471
3.12632,0.601623,-0.0452891
3.17237,0.374506,-0.101169
3.14591,0.486605,-0.130582
3.14336,0.484244,-0.246788
3.16109,0.358271,0.363254
3.1347,0.469725,0.215255
3.16729,0.356846,0.130579
3.14162,0.468857,0.100267
3.11935,0.582204,0.0704035
3.17008,0.355592,0.0153108
3.13731,0.467597,-0.0151137
3.12897,0.582246,-0.0452748
3.1756,0.355145,-0.101201
3.17413,0.352456,-0.216992
3.14923,0.465385,-0.24702
3.19291,0.353583,-0.33645
3.16619,0.339186,0.363594
3.14439,0.451972,0.331923
3.1395,0.450766,0.21539
3.16346,0.336771,0.130334
3.1484,0.450137,0.100393
3.11696,0.561989,0.0702704
3.18115,0.337083,0.015354
3.1315,0.56286,-0.0452606
3.10572,0.674466,-0.0752848
3.19064,0.337018,-0.101613
3.1467,0.44726,-0.130377
3.15301,0.446193,-0.247097
3.19799,0.334295,-0.336762
3.20163,0.331795,-0.456609
3.1692,0.319852,0.363708
3.16545,0.318524,0.246865
3.14616,0.432037,0.215661
3.12823,0.544223,0.0704479
3.18416,0.317656,0.0153588
3.15632,0.428886,-0.130664
3.14035,0.542888,-0.161108
3.18516,0.314164,-0.217467
3.15569,0.426838,-0.247097
3.19899,0.314569,-0.336658
3.20262,0.312048,-0.456469
3.17111,0.3004,0.363708
3.1566,0.414257,0.332651
3.16834,0.299189,0.246942
3.15172,0.413113,0.215865
3.17531,0.298673,0.130661
3.19003,0.298485,0.015378
3.15927,0.411579,-0.0151804
3.19951,0.298302,-0.101771
3.16186,0.409896,-0.130787
3.19995,0.295808,-0.218348
3.20482,0.2953,-0.337075
3.17104,0.407823,-0.365627
3.16749,0.28096,0.480351
3.17289,0.280937,0.363708
3.14724,0.393401,0.331404
3.17409,0.280094,0.247252
3.16113,0.394632,0.216339
3.15516,0.391986,0.100362
3.1406,0.50675,0.070581
3.1908,0.278819,0.0153732
3.16074,0.392063,-0.0151757
3.2027,0.276254,-0.218416
3.14204,0.502425,-0.277154
3.18532,0.389807,-0.366991
3.21804,0.27373,-0.458154
3.17704,0.26217,0.481546
3.18049,0.261952,0.364389
3.15256,0.374434,0.331716
3.16646,0.375581,0.216542
3.18471,0.260173,0.130907
3.16148,0.373087,0.100488
3.14463,0.487623,0.0706031
3.1237,0.599742,0.039584
3.19644,0.259559,0.0153924
3.16507,0.372896,-0.0151852
3.20891,0.2595,-0.101961
3.17658,0.372228,-0.131197
3.20433,0.256597,-0.218416
3.17391,0.369949,-0.247948
3.15294,0.484347,-0.277848
3.18568,0.370025,-0.366763
3.21572,0.253668,-0.457592
3.17957,0.242746,0.481695
3.18303,0.242508,0.364502
3.16172,0.355862,0.332443
3.17069,0.356368,0.216678
3.19422,0.241229,0.131234
3.16569,0.353904,0.100551
3.14658,0.468172,0.070581
3.12437,0.580016,0.0395466
3.20495,0.240465,0.015426
3.17128,0.353912,-0.0152043
3.21144,0.239881,-0.101992
3.18476,0.353391,-0.131443
3.16162,0.46697,-0.161563
3.20684,0.237004,-0.218484
3.18305,0.351233,-0.24849
3.15881,0.465427,-0.278108
3.18591,0.350254,-0.366536
3.21529,0.230972,-0.578096
3.18988,0.223855,0.483039
3.18743,0.223181,0.364842
3.16681,0.336771,0.332755
3.1748,0.337117,0.216813
3.20062,0.221971,0.131439
3.16582,0.334263,0.100488
3.15038,0.448997,0.0706031
3.12787,0.560835,0.0395466
3.20338,0.220589,0.0154116
3.17041,0.334132,-0.01519
3.19084,0.334259,-0.131607
3.18912,0.332109,-0.248799
3.16456,0.446454,-0.278369
3.19393,0.331314,-0.367218
3.19549,0.329447,-0.486121
3.22647,0.211884,-0.579861
3.1902,0.204215,0.48289
3.19767,0.204189,0.365863
3.17178,0.317631,0.333067
3.16589,0.316538,0.216068
3.20192,0.202328,0.131439
3.15704,0.430198,0.0706919
3.13717,0.542655,0.0396213
3.20766,0.201117,0.015426
3.17737,0.315166,-0.0152138
3.16665,0.429762,-0.0454598
3.19482,0.31487,-0.131689
3.12999,0.540006,-0.191596
3.21349,0.197879,-0.218755
3.18911,0.31234,-0.248644
3.16329,0.426496,-0.278021
3.20283,0.312386,-0.368013
3.21123,0.311168,-0.488215
3.23458,0.192492,-0.581097
3.19633,0.184922,0.483637
3.16233,0.298545,0.449239
3.20184,0.184736,0.366204
3.17367,0.298163,0.333067
3.12989,0.524276,0.270502
3.20111,0.182564,0.131357
3.16557,0.411592,0.0708249
3.21383,0.181714,0.01545
3.1892,0.29659,-0.0152614
3.22729,0.181401,-0.102372
3.19769,0.295353,-0.13173
3.14506,0.522755,-0.192318
3.22759,0.178875,-0.219636
3.1999,0.293586,-0.249341
3.1619,0.40657,-0.277674
3.20468,0.292728,-0.368013
3.16864,0.406032,-0.395978
3.21505,0.291637,-0.488515
3.23964,0.172851,-0.581803
3.19642,0.165255,0.483487
3.20192,0.165035,0.36609
3.17742,0.278858,0.333274
3.20316,0.164146,0.248876
3.18742,0.279231,0.217287
3.172,0.392652,0.0709137
3.21888,0.162192,0.0154692
3.18997,0.27693,-0.0152567
3.17466,0.391237,-0.0455024
3.22834,0.161595,-0.102372
3.20143,0.275898,-0.131812
3.1482,0.503447,-0.192318
3.22564,0.158921,-0.219433
3.20661,0.274371,-0.249727
3.1673,0.387524,-0.277935
3.24236,0.15878,-0.339991
3.20444,0.27289,-0.367786
3.17502,0.387062,-0.39647
3.21086,0.271405,-0.487617
3.24555,0.153202,-0.582685
3.20401,0.145605,0.60568
3.19737,0.145639,0.483487
3.18106,0.259518,0.333482
3.18908,0.259668,0.217287
3.17435,0.373182,0.0709137
3.22081,0.142482,0.015474
3.19061,0.257271,-0.0152519
3.17899,0.371983,-0.0455309
3.22627,0.141652,-0.102277
3.20008,0.256011,-0.131689
3.14038,0.482453,-0.191656
3.22656,0.139125,-0.219433
3.21022,0.254849,-0.249882
3.17358,0.368543,-0.278282
3.15053,0.481424,-0.308511
3.21992,0.254318,-0.369377
3.18029,0.367916,-0.396839
3.21838,0.252162,-0.488515
3.2484,0.133365,-0.583039
3.20386,0.125904,0.605494
3.20414,0.126251,0.484383
3.1935,0.240818,0.334625
3.20056,0.240844,0.217965
3.17956,0.354029,0.0709802
3.21863,0.122603,0.0154596
3.19412,0.237837,-0.0152614
3.18419,0.3528,-0.0455736
3.23607,0.122193,-0.102562
3.1986,0.23615,-0.131566
3.14526,0.463466,-0.191776
3.23034,0.119436,-0.219636
3.20079,0.234345,-0.249031
3.17875,0.349389,-0.278542
3.25432,0.116455,-0.461947
3.21888,0.232338,-0.488365
3.25604,0.113671,-0.584274
3.2026,0.106178,0.605123
3.20683,0.106655,0.484682
3.18056,0.221674,0.45092
3.19392,0.221149,0.334521
3.19899,0.220995,0.217762
3.22432,0.103011,0.0154836
3.19752,0.21837,-0.015271
3.23376,0.102239,-0.102467
3.21693,0.217666,-0.132263
3.19366,0.332335,-0.16232
3.15595,0.445274,-0.192258
3.2151,0.215568,-0.250037
3.18281,0.330084,-0.278716
3.16902,0.444523,-0.309764
3.25695,0.096543,-0.462227
3.22025,0.212583,-0.488365
3.26553,0.0939454,-0.585863
3.22385,0.210956,-0.610923
3.20614,0.0866052,0.60568
3.21434,0.0871634,0.485728
3.18482,0.202343,0.45134
3.21593,0.086701,0.367338
3.19919,0.201798,0.334937
3.19332,0.200924,0.217287
3.18494,0.31584,0.186673
3.18964,0.315575,0.0711133
3.20179,0.198933,-0.0152853
3.23733,0.0824719,-0.102562
3.22319,0.19823,-0.132468
3.16258,0.426435,-0.192499
3.23755,0.0799332,-0.220043
3.21536,0.195776,-0.249959
3.18775,0.310838,-0.278976
3.16774,0.424541,-0.309378
3.20726,0.311328,-0.399422
3.22643,0.193116,-0.489113
3.26605,0.0739067,-0.585863
3.19206,0.184151,0.571265
3.2313,0.067277,0.36904
3.19739,0.181995,0.334625
3.18574,0.297649,0.303749
3.19947,0.181609,0.217626
3.19079,0.296661,0.186906
3.18853,0.295721,0.0710468
3.16352,0.408217,0.039696
3.23977,0.0626451,-0.102625
3.22535,0.178504,-0.132509
3.1592,0.406258,-0.192138
3.2175,0.176098,-0.250037
3.20151,0.29236,-0.280017
3.16732,0.404718,-0.309089
3.26559,0.0596095,-0.342074
3.21208,0.291912,-0.399791
3.2315,0.173527,-0.489712
3.26841,0.0538976,-0.586216
3.20001,0.164916,0.572497
3.23364,0.047478,0.369267
3.20639,0.162776,0.335457
3.18453,0.277837,0.303465
3.21049,0.162478,0.218304
3.19327,0.276409,0.0711133
3.24309,0.0428047,-0.10272
3.22439,0.158612,-0.132427
3.16559,0.38735,-0.192378
3.23346,0.157078,-0.251197
3.21217,0.273471,-0.280798
3.17073,0.385396,-0.309186
3.2649,0.039559,-0.34197
3.21084,0.271947,-0.399422
3.275,0.0367659,-0.464615
3.23152,0.153649,-0.489562
3.20903,0.270778,-0.519059
3.27065,0.0338624,-0.586569
3.19703,0.145099,0.571793
3.22529,0.0280692,0.487221
3.20086,0.144266,0.45316
3.23685,0.0276614,0.369607
3.2123,0.143321,0.335976
3.19213,0.258774,0.304032
3.21142,0.142776,0.218304
3.19491,0.256811,0.0711133
3.17723,0.370407,0.039808
3.24829,0.0229399,-0.102879
3.17882,0.369186,-0.193041
3.23137,0.137108,-0.250965
3.17996,0.366732,-0.30986
3.27006,0.019555,-0.342491
3.21938,0.252784,-0.400283
3.18639,0.366628,-0.429213
3.27418,0.0166651,-0.464475
3.24722,0.134431,-0.491806
3.21654,0.251545,-0.520014
3.27276,0.0138018,-0.586922
3.23886,0.132216,-0.612967
3.20278,0.125673,0.572672
3.19327,0.24106,0.421656
3.23398,0.00779275,0.369267
3.21014,0.123493,0.335665
3.21423,0.123145,0.218439
3.20268,0.238397,0.187314
3.20041,0.237498,0.071202
3.17647,0.350576,0.0397706
3.25337,0.00301299,-0.103037
3.2143,0.235088,-0.162926
3.17904,0.349456,-0.19292
3.23514,0.117387,-0.251197
3.19106,0.348185,-0.310727
3.26614,-0.000509481,-0.342074
3.22285,0.233169,-0.400529
3.28511,-0.00343658,-0.46602
3.25786,0.114852,-0.493303
3.21802,0.231803,-0.520014
3.27869,-0.00629106,-0.587981
3.26647,0.110818,-0.744171
3.21136,0.106279,0.57408
3.20734,0.105138,0.453861
3.19766,0.221667,0.422047
3.21879,0.104051,0.336496
3.21892,0.103549,0.21871
3.2011,0.218538,0.187139
3.2038,0.217992,0.0712464
3.18452,0.331701,0.0398453
3.26032,-0.0169858,-0.103259
3.23075,0.0993575,-0.132591
3.21867,0.215561,-0.163077
3.18112,0.329943,-0.19292
3.26142,-0.0195531,-0.221602
3.24875,0.0979247,-0.252203
3.1961,0.328904,-0.311016
3.27403,-0.0206002,-0.342908
3.25235,0.0967265,-0.372104
3.20248,0.328713,-0.430805
3.28899,-0.023622,-0.466581
3.25653,0.0948027,-0.493003
3.22825,0.212638,-0.521446
3.28253,-0.0264403,-0.588687
3.20703,0.0864401,0.5732
3.2391,-0.0314368,0.489312
3.22235,0.0843766,0.336808
3.22049,0.0838218,0.218778
3.21035,0.199387,0.187605
3.20009,0.198021,0.0711355
3.18849,0.31235,0.0398702
3.26915,-0.0370925,-0.103543
3.22591,0.196172,-0.16338
3.18408,0.310515,-0.19298
3.26523,-0.0396129,-0.221873
3.24929,0.0779889,-0.252203
3.22289,0.194859,-0.281232
3.1941,0.308904,-0.310631
3.25984,0.0769327,-0.372899
3.23438,0.194137,-0.401636
3.19457,0.308105,-0.429479
3.28185,-0.0437101,-0.465598
3.26199,0.0749328,-0.493751
3.22654,0.192649,-0.520969
3.28722,-0.0466508,-0.58957
3.22804,0.19059,-0.643156
3.18952,0.182587,0.539662
3.24847,-0.0519739,0.370968
3.2228,0.0646031,0.336808
3.20348,0.180694,0.304599
3.22892,0.0642183,0.21932
3.20752,0.179462,0.187372
3.19234,0.292962,0.0398951
3.27386,-0.0572383,-0.103702
3.22905,0.176483,-0.163481
3.18791,0.291154,-0.193101
3.26068,0.058246,-0.253054
3.228,0.175296,-0.281579
3.19494,0.289209,-0.310535
3.26422,0.0569986,-0.373353
3.23452,0.174234,-0.401513
3.20627,0.289389,-0.430805
3.29241,-0.0640582,-0.467143
3.2703,0.0550493,-0.494948
3.23752,0.173376,-0.52256
3.25881,0.0529785,-0.616311
3.24386,-0.0716416,0.612731
3.20553,0.161084,0.304694
3.23325,0.0444597,0.219591
3.21056,0.159877,0.187488
3.21326,0.159281,0.0713795
3.27744,-0.0774196,-0.103828
3.23207,0.156763,-0.163582
3.20356,0.272773,-0.193944
3.25798,0.0382027,-0.252822
3.22802,0.155438,-0.281492
3.20757,0.27052,-0.311594
3.29099,-0.0813029,-0.344783
3.26849,0.0370136,-0.373808
3.23355,0.15429,-0.401267
3.29294,-0.0842841,-0.467284
3.27354,0.0350138,-0.495397
3.24148,0.153648,-0.523038
3.20493,0.268889,-0.550735
3.26988,0.0330911,-0.618355
3.21739,0.141895,0.305733
3.21447,0.140305,0.187663
3.21718,0.139691,0.071446
3.27491,-0.0974687,-0.103765
3.23796,0.13714,-0.163835
3.20717,0.253268,-0.194064
3.25816,0.0182114,-0.252822
3.22892,0.135628,-0.281492
3.28546,-0.101341,-0.344262
3.26865,0.0169579,-0.373808
3.24534,0.134899,-0.40262
3.30028,-0.104739,-0.468407
3.27666,0.0149406,-0.495846
3.25124,0.134122,-0.52447
3.21241,0.249678,-0.551748
3.26806,0.0130191,-0.617984
3.19924,0.124115,0.540828
3.19075,0.239728,0.509193
3.25909,-0.111664,0.492598
3.21682,0.12401,0.423875
3.19637,0.238973,0.390551
3.22716,0.122491,0.306584
3.21797,0.119949,0.071446
3.23749,0.118922,-0.0460856
3.28524,-0.117956,-0.104113
3.23275,0.117053,-0.163532
3.20468,0.233295,-0.193823
3.26419,-0.0017839,-0.253286
3.24263,0.116277,-0.28262
3.30167,-0.122123,-0.346033
3.2677,-0.00309756,-0.373694
3.24511,0.114949,-0.402497
3.22292,0.231174,-0.432397
3.30947,-0.125362,-0.469812
3.28065,-0.00517112,-0.496445
3.27692,-0.00705263,-0.619656
3.24449,0.111751,-0.645692
3.21176,0.104869,0.542826
3.18624,0.219738,0.50825
3.2623,-0.131819,0.493196
3.23676,-0.0130992,0.457782
3.22149,0.104398,0.424397
3.24132,-0.0145885,0.338678
3.23083,0.102782,0.306867
3.22464,0.100388,0.0715791
3.24415,0.0992383,-0.046171
3.28545,-0.138153,-0.104145
3.24339,0.0975152,-0.164037
3.218,0.214423,-0.194546
3.2681,-0.0218392,-0.253596
3.24826,0.0965267,-0.283054
3.31378,-0.142937,-0.347387
3.27855,-0.0232251,-0.374944
3.25667,0.0953544,-0.40385
3.27759,-0.0252778,-0.495996
3.2635,0.0945281,-0.52622
3.25492,0.0921191,-0.647643
3.24157,-0.0330097,0.458482
3.23297,0.0849159,0.425833
3.24913,-0.0345613,0.33951
3.25032,-0.0350846,0.220743
3.24146,0.0817422,0.189119
3.2262,0.0806249,0.0716013
3.21879,0.196055,0.0401315
3.2507,0.0794773,-0.0462563
3.24493,0.0776361,-0.164087
3.22723,0.195156,-0.195028
3.27489,-0.0419809,-0.254137
3.25776,0.0768053,-0.283835
3.22814,0.19261,-0.31304
3.31184,-0.163218,-0.347283
3.28729,-0.0434597,-0.375967
3.25521,0.0753241,-0.403604
3.32153,-0.166659,-0.471778
3.28726,-0.0455252,-0.497492
3.26698,0.0745695,-0.526697
3.22827,0.191205,-0.553773
3.2613,0.0722759,-0.648814
3.19166,0.180788,0.508722
3.22649,0.0649376,0.424919
3.25184,-0.0545469,0.339821
3.23683,0.063224,0.30734
3.21437,0.178642,0.274409
3.2429,0.0618705,0.189177
3.22093,0.176356,0.0401439
3.29548,-0.179111,-0.104525
3.24934,0.0577952,-0.164289
3.22537,0.175188,-0.194847
3.28154,-0.0622067,-0.254679
3.26315,0.0569015,-0.284269
3.22628,0.17264,-0.312751
3.30979,-0.183481,-0.347178
3.28696,-0.0636293,-0.375967
3.25065,0.0552648,-0.402989
3.31352,-0.186647,-0.470795
3.28889,-0.065734,-0.497791
3.27329,0.0546211,-0.527652
3.23431,0.171654,-0.554617
3.26855,0.0523736,-0.650179
3.2006,0.1616,0.509979
3.23179,0.0452083,0.425572
3.25442,-0.0745672,0.340133
3.24512,0.0434687,0.308096
3.21839,0.159063,0.274664
3.24821,0.0420359,0.189468
3.22029,0.157805,0.157575
3.22794,0.156881,0.0402186
3.22041,0.155106,-0.194486
3.2811,-0.0823408,-0.254679
3.26742,0.0369231,-0.284616
3.22927,0.152935,-0.312943
3.31853,-0.204398,-0.34822
3.2865,-0.0837965,-0.375967
3.25787,0.0353936,-0.40385
3.23653,0.152429,-0.43359
3.29436,-0.086068,-0.498689
3.27554,0.0345564,-0.52797
3.24022,0.152036,-0.555461
3.26979,0.0323268,-0.650374
3.20646,0.142177,0.510765
3.24588,0.0254865,0.427399
3.2503,0.0235924,0.308568
3.22129,0.139398,0.274834
3.2504,0.022118,0.189584
3.21985,0.13669,0.0401066
3.26461,0.0197076,-0.0464412
3.26079,0.0179771,-0.164844
3.22728,0.135595,-0.194847
3.28651,-0.102658,-0.255143
3.26659,0.0168688,-0.284529
3.23214,0.133199,-0.313136
3.32118,-0.225025,-0.348637
3.29387,-0.104212,-0.376876
3.2749,0.0154827,-0.405942
3.23939,0.132648,-0.433856
3.30068,-0.106503,-0.499736
3.2539,0.132674,-0.557655
3.27875,0.0122963,-0.65213
3.20629,0.122462,0.510608
3.21887,0.121761,0.392487
3.25038,0.00364844,0.308568
3.22508,0.119741,0.275088
3.25347,0.00217553,0.189759
3.2482,0.00143501,0.0720671
3.23562,0.117475,0.0402933
3.26167,-0.000323772,-0.0463985
3.26183,-0.00203168,-0.164895
3.23105,0.115897,-0.195028
3.2918,-0.123046,-0.255607
3.26962,-0.00317784,-0.28479
3.24881,0.113923,-0.314678
3.3356,-0.246572,-0.350303
3.30608,-0.124908,-0.378353
3.28287,-0.00462315,-0.406926
3.24113,0.112804,-0.433988
3.30491,-0.126944,-0.500484
3.20994,0.102881,0.511079
3.2654,-0.0178529,0.190458
3.23628,0.0976193,0.0402933
3.26461,-0.0203557,-0.0464412
3.31899,-0.262216,-0.105443
3.26476,-0.0220661,-0.165046
3.23369,0.0961291,-0.195148
3.32275,-0.265139,-0.226483
3.29198,-0.143285,-0.255684
3.27053,-0.0232469,-0.284877
3.34196,-0.26767,-0.351137
3.3112,-0.145453,-0.379034
3.28477,-0.0247814,-0.407172
3.24473,0.0929998,-0.434386
3.30506,-0.147264,-0.500634
3.28747,-0.0258346,-0.52988
3.21643,0.083337,0.512022
3.25869,-0.0343999,0.429096
3.23825,0.0804526,0.276107
3.23881,0.0778081,0.0403182
3.27542,-0.0405226,-0.0465977
3.3223,-0.283,-0.105601
3.27554,-0.0422395,-0.165602
3.23721,0.0763563,-0.195329
3.29602,-0.163729,-0.256071
3.27631,-0.0433932,-0.285397
3.25991,0.0742731,-0.315641
3.31819,-0.166165,-0.379943
3.25317,0.0732673,-0.435447
3.28922,-0.0460333,-0.530198
3.26564,0.0729779,-0.559343
3.22084,0.0636779,0.512651
3.25544,-0.0543446,0.428705
3.26881,-0.0565081,0.310364
3.23968,0.0606001,0.276192
3.27192,-0.058047,0.190865
3.23923,0.0579336,0.0403182
3.32422,-0.302608,0.0160212
3.27911,-0.0606935,-0.0466546
3.32448,-0.303743,-0.105728
3.27023,-0.0622421,-0.165349
3.28196,-0.0636113,-0.285918
3.25533,0.0541864,-0.315159
3.32207,-0.186801,-0.380511
3.26049,0.0534185,-0.436376
3.27194,0.0530348,-0.560356
3.22117,0.043914,0.512651
3.25901,-0.0744091,0.429227
3.27239,-0.0766573,0.310742
3.2745,-0.0781936,0.19104
3.24652,0.0381392,0.0404053
3.32727,-0.323483,0.0160452
3.28067,-0.0808618,-0.046683
3.33151,-0.32501,-0.106013
3.28077,-0.0825831,-0.165905
3.30769,-0.205027,-0.257154
3.28449,-0.083824,-0.286178
3.25859,0.0342424,-0.315448
3.31887,-0.207058,-0.380284
3.29764,-0.0855995,-0.408894
3.2677,0.0334826,-0.437304
3.2894,-0.0864196,-0.530357
3.27615,0.0329973,-0.561031
3.22631,0.0241855,0.513437
3.26345,-0.0945482,0.42988
3.27396,-0.0982841,0.19104
3.2507,0.0182406,0.040455
3.28311,-0.101082,-0.0467257
3.25904,0.017036,-0.077203
3.34138,-0.346683,-0.106392
3.28419,-0.102837,-0.166107
3.25205,0.0168292,-0.196172
3.34204,-0.349405,-0.228313
3.31532,-0.225929,-0.25785
3.29387,-0.104291,-0.287046
3.26172,0.0142605,-0.315738
3.32943,-0.228233,-0.381648
3.29309,-0.105705,-0.408402
3.26982,0.0134399,-0.437569
3.29571,-0.106825,-0.531471
3.2753,0.0128907,-0.560862
3.22936,0.00439279,0.513908
3.26975,-0.114814,0.430794
3.28015,-0.117128,0.311593
3.2532,0.000961696,0.277296
3.28128,-0.118659,0.191506
3.26175,-0.0017114,0.0405919
3.28543,-0.121336,-0.0467684
3.27008,-0.0029714,-0.0774635
3.34813,-0.368162,-0.106677
3.29548,-0.123435,-0.166713
3.31785,-0.246562,-0.25816
3.28919,-0.124349,-0.286699
3.32896,-0.248732,-0.381761
3.30626,-0.126439,-0.410124
3.27877,-0.00664172,-0.438763
3.28715,-0.00723241,-0.562887
3.2769,-0.135202,0.431838
3.28037,-0.137295,0.311687
3.27949,-0.138749,0.191448
3.33606,-0.384794,0.137579
3.25968,-0.0217118,0.040567
3.29261,-0.141837,-0.0468822
3.276,-0.0230784,-0.0776056
3.35375,-0.389622,-0.106931
3.3256,-0.265622,-0.136853
3.30464,-0.144089,-0.167217
3.26798,-0.023193,-0.197135
3.35335,-0.392245,-0.229398
3.32224,-0.267396,-0.258624
3.29931,-0.14501,-0.287653
3.33133,-0.269474,-0.382216
3.3084,-0.146856,-0.410493
3.27569,-0.0267355,-0.438365
3.28803,-0.02741,-0.563056
3.23379,-0.0331422,0.636472
3.23905,-0.0353445,0.51548
3.28394,-0.155681,0.432882
3.25869,-0.0367534,0.397083
3.28742,-0.157802,0.312443
3.28855,-0.159352,0.19203
3.27084,-0.0405446,0.159869
3.26148,-0.0417379,0.0405919
3.30067,-0.16248,-0.0470102
3.36221,-0.411528,-0.107279
3.33287,-0.286794,-0.137222
3.30868,-0.164611,-0.16747
3.26977,-0.043271,-0.197256
3.32749,-0.288378,-0.259166
3.31527,-0.166099,-0.289128
3.31636,-0.167604,-0.4116
3.28141,-0.0469192,-0.439161
3.28385,-0.0475274,-0.562381
3.24667,-0.055353,0.516737
3.28886,-0.176147,0.433666
3.26337,-0.0568341,0.397687
3.29235,-0.178293,0.31301
3.29548,-0.179962,0.192496
3.26416,-0.061806,0.0406293
3.3046,-0.183006,-0.0470813
3.3626,-0.432533,-0.107374
3.33005,-0.307146,-0.137181
3.31359,-0.185244,-0.167773
3.36313,-0.435287,-0.230415
3.31917,-0.186718,-0.289562
3.279,-0.0661518,-0.317472
3.32517,-0.188511,-0.41283
3.29533,-0.0679196,-0.564406
3.29761,-0.196914,0.434971
3.26693,-0.0769501,0.398171
3.29219,-0.198551,0.313105
3.27516,-0.0794318,0.27925
3.29431,-0.20018,0.192496
3.27272,-0.0820589,0.0407413
3.3134,-0.203893,-0.0472235
3.29101,-0.0837821,-0.0779845
3.36879,-0.45436,-0.107659
3.36633,-0.45672,-0.230821
3.28152,-0.0863487,-0.317761
3.31999,-0.208662,-0.412338
3.28455,-0.087289,-0.439692
3.29189,-0.088059,-0.5639
3.30228,-0.217535,0.435754
3.27433,-0.0972299,0.399139
3.29786,-0.21921,0.313766
3.29701,-0.220656,0.192729
3.28552,-0.101235,0.16065
3.30175,-0.221726,0.0734202
3.27515,-0.102232,0.0407786
3.31408,-0.224355,-0.047252
3.29043,-0.103974,-0.0779845
3.38178,-0.477257,-0.108165
3.34491,-0.349964,-0.13796
3.34442,-0.351978,-0.260945
3.33054,-0.228389,-0.290777
3.28491,-0.106611,-0.318146
3.32063,-0.229165,-0.412584
3.25991,-0.115629,0.519094
3.30088,-0.237794,0.435754
3.29844,-0.239585,0.313955
3.2819,-0.119908,0.279929
3.30854,-0.241828,0.193485
3.28683,-0.121467,0.160747
3.31229,-0.242858,0.0736863
3.27746,-0.122438,0.0408159
3.31663,-0.24498,-0.0473089
3.29673,-0.124425,-0.0781503
3.38768,-0.49931,-0.10845
3.32754,-0.247538,-0.168682
3.28667,-0.124218,-0.1984
3.35904,-0.374369,-0.26226
3.32709,-0.248672,-0.290604
3.29613,-0.127226,-0.319302
3.29908,-0.128205,-0.441814
3.26209,-0.135753,0.519566
3.29989,-0.260054,0.314239
3.2831,-0.140128,0.280099
3.31495,-0.262755,0.193951
3.29301,-0.141933,0.161089
3.31772,-0.263732,0.0738416
3.29563,-0.143372,0.0410524
3.31307,-0.265167,-0.0472804
3.30389,-0.145002,-0.0783397
3.39345,-0.521453,-0.108735
3.35625,-0.392843,-0.138616
3.33691,-0.268833,-0.169237
3.29483,-0.144777,-0.198942
3.37154,-0.396721,-0.263421
3.30125,-0.147715,-0.319881
3.28488,-0.158104,0.400711
3.29213,-0.160756,0.280948
3.31527,-0.283261,0.194068
3.29307,-0.162185,0.161138
3.324,-0.284767,0.0740191
3.2857,-0.163144,0.0409404
3.32533,-0.286693,-0.0474796
3.39315,-0.542738,-0.10883
3.35972,-0.414163,-0.138862
3.34217,-0.289907,-0.16959
3.29587,-0.165091,-0.199062
3.36013,-0.416297,-0.262724
3.30326,-0.16812,-0.32017
3.31904,-0.169794,-0.444732
3.28087,-0.178095,0.400348
3.29108,-0.180953,0.280948
3.32341,-0.304508,0.19465
3.29999,-0.18283,0.161529
3.32717,-0.305614,0.07413
3.34242,-0.308839,-0.0477498
3.3937,-0.564204,-0.108956
3.35712,-0.43477,-0.138862
3.34629,-0.310964,-0.169893
3.31273,-0.18632,-0.200146
3.34774,-0.312277,-0.29286
3.30515,-0.188555,-0.320459
3.32783,-0.190723,-0.446058
3.28368,-0.198462,0.400832
3.29587,-0.201508,0.281458
3.32644,-0.32538,0.194941
3.30778,-0.203627,0.161968
3.32324,-0.325829,0.0740856
3.30141,-0.204566,0.0411643
3.34743,-0.330029,-0.0478494
3.31563,-0.206725,-0.078695
3.39411,-0.585696,-0.109083
3.36231,-0.456436,-0.139189
3.35326,-0.332377,-0.170348
3.32448,-0.207451,-0.200929
3.35468,-0.3337,-0.293641
3.31387,-0.20946,-0.321422
3.32165,-0.210825,-0.445395
3.29726,-0.219596,0.402646
3.30054,-0.222129,0.281968
3.31544,-0.224527,0.162407
3.33212,-0.347354,0.0743296
3.30508,-0.225159,0.0412266
3.35031,-0.351083,-0.0479205
3.32527,-0.227817,-0.0789555
3.37725,-0.479586,-0.139927
3.35712,-0.353573,-0.170651
3.31219,-0.227095,-0.200266
3.35455,-0.354487,-0.293814
3.32245,-0.230478,-0.322386
3.29882,-0.24004,0.403009
3.29713,-0.242231,0.281798
3.33589,-0.368451,0.0744627
3.31461,-0.246249,0.0413634
3.35804,-0.372737,-0.0480627
3.32481,-0.24829,-0.0789792
3.38116,-0.501326,-0.140214
3.35985,-0.374719,-0.170903
3.36023,-0.375949,-0.294508
3.32891,-0.25146,-0.323156
3.3075,-0.263406,0.282817
3.33477,-0.388286,0.195815
3.33952,-0.389608,0.0745958
3.323,-0.267384,0.0414879
3.32621,-0.268928,-0.0790502
3.36146,-0.395795,-0.171105
3.33204,-0.269575,-0.201651
3.33227,-0.272286,-0.323638
3.3078,-0.283866,0.282987
3.34223,-0.409956,0.196397
3.33226,-0.288718,0.0416248
3.36115,-0.414897,-0.0481765
3.33147,-0.289939,-0.079216
3.36789,-0.417519,-0.171559
3.34026,-0.290881,-0.202253
3.33648,-0.29325,-0.324216
3.31195,-0.304705,0.283496
3.33479,-0.308214,0.163676
3.33042,-0.309159,0.0416248
3.36151,-0.435898,-0.0482192
3.3346,-0.310839,-0.0793344
3.36526,-0.438176,-0.171559
3.33643,-0.311185,-0.202133
3.34651,-0.314836,-0.325372
3.31696,-0.325702,0.284091
3.33681,-0.329063,0.163872
3.33045,-0.329785,0.0416497
3.36175,-0.45692,-0.0482619
3.33562,-0.33159,-0.0794054
3.36647,-0.459357,-0.171761
3.33446,-0.331651,-0.202133
3.34947,-0.33586,-0.325854
3.34168,-0.35026,0.164213
3.34925,-0.352412,0.041911
3.36977,-0.479087,-0.0484183
3.38237,-0.482685,-0.172721
3.34229,-0.353154,-0.202735
3.35039,-0.371969,0.16475
3.34702,-0.372956,0.041911
3.37666,-0.501222,-0.0485606
3.38527,-0.504313,-0.173024
3.34666,-0.393719,0.0419359
3.38439,-0.523613,-0.048717
3.3831,-0.525228,-0.173074
3.35356,-0.396015,-0.203698
3.36143,-0.415014,0.165531
3.35311,-0.415353,0.0420479
3.38407,-0.544847,-0.0487597
3.36814,-0.418528,-0.0804001
3.36494,-0.418309,-0.204541
3.35347,-0.436307,0.0420852
3.36626,-0.439464,-0.204782
3.36698,-0.457713,0.166068
3.36064,-0.458226,0.0422096
3.36272,-0.479544,0.0422718
3.40595,-0.612888,-0.0492291
3.3705,-0.482154,-0.205384
3.3885,-0.505783,-0.0811579
3.39126,-0.527487,-0.0813
3.39487,-0.549404,-0.0814658
3.39969,-0.593084,-0.0817499
3.39894,-0.614467,-0.081821
