2.41833,0.432077,-0.128746
2.358,0.541354,-0.0562968
2.3568,0.531559,0
2.4687,0.30793,-0.028963
2.41953,0.422711,-0.31264
2.48585,0.310069,-0.233847
2.47267,0.308425,0.0290096
2.35884,0.53202,-0.16909
2.42704,0.424023,-0.201133
2.48054,0.309407,-0.14558
2.41735,0.422329,0.0999771
2.35425,0.530984,-0.112419
2.42391,0.423475,-0.128956
2.41191,0.412709,-0.0712136
2.47373,0.299793,-0.0290096
2.421,0.414263,-0.31264
2.49482,0.302348,-0.234591
2.46976,0.299311,0.028963
2.36458,0.524648,-0.169369
2.42458,0.414876,-0.200808
2.48557,0.301227,-0.145813
2.42275,0.414563,0.10014
2.36389,0.524494,-0.112791
2.42931,0.415686,-0.129165
2.36581,0.524921,-0.0563898
2.36418,0.516771,0
2.48261,0.292956,-0.0291027
2.4262,0.407312,-0.313145
2.47466,0.292019,0.0290096
2.36622,0.517216,-0.169369
2.43373,0.408577,-0.201458
2.42962,0.407887,0.0430027
2.48254,0.292949,-0.14558
2.42798,0.407611,0.100303
2.36162,0.516211,-0.112605
2.4306,0.408051,-0.129165
2.31103,0.624861,-0.0975347
2.36354,0.516631,-0.0562968
2.36606,0.508103,0
2.49161,0.284764,-0.0291958
2.42767,0.398417,-0.313145
2.50078,0.285812,-0.234963
2.48764,0.28431,0.0291493
2.3642,0.507703,-0.16909
2.4311,0.39898,0.0430027
2.49153,0.284755,-0.146045
2.42551,0.398063,0.10014
2.3674,0.508391,-0.112791
2.43997,0.400434,-0.129584
2.3133,0.616387,-0.0975347
2.36399,0.498602,0
2.49264,0.275631,-0.0291958
2.43695,0.390774,-0.314155
2.43683,0.390753,-0.0143438
2.50181,0.276645,-0.234963
2.48071,0.274312,0.0290561
2.36995,0.499858,-0.169369
2.44454,0.391989,-0.202109
2.5005,0.2765,-0.14651
2.43485,0.390436,0.100466
2.43747,0.390857,-0.129375
2.32328,0.609934,-0.0978603
2.379,0.501769,-0.056576
2.49747,0.268226,-0.0292424
2.44209,0.383732,-0.31466
2.39088,0.496434,-0.26303
2.51058,0.269635,-0.235706
2.49747,0.268226,0.0292424
2.37932,0.494033,-0.169927
2.44575,0.384308,-0.202109
2.50929,0.269496,-0.146975
2.38254,0.494703,-0.11335
2.44264,0.383818,-0.129584
2.32518,0.602633,-0.0978603
2.38057,0.494293,-0.056576
2.32895,0.594509,-0.0419556
2.37909,0.484896,0
2.49843,0.25907,-0.0292424
2.44348,0.374778,-0.31466
2.38628,0.486362,0.056669
2.49446,0.258657,0.0291958
2.38111,0.485309,-0.169927
2.45109,0.375945,-0.202435
2.44701,0.375319,0.0432122
2.44797,0.375468,-0.129793
2.32738,0.594106,-0.0978603
2.3902,0.487161,-0.0567621
2.43578,0.364899,-0.0716791
2.38469,0.477374,0
2.5033,0.250746,-0.029289
2.44477,0.366247,-0.31466
2.44468,0.366233,-0.0143671
2.51641,0.252059,-0.236078
2.38404,0.477245,0.056576
2.49932,0.250348,0.0292424
2.3867,0.477778,-0.170206
2.45633,0.367978,-0.20276
2.44039,0.365591,0.0430725
2.33047,0.586238,-0.15401
2.51513,0.251931,-0.147208
2.44665,0.366528,0.100791
2.39386,0.47921,-0.113722
2.45717,0.368104,-0.130212
2.32944,0.585979,-0.0978603
2.39189,0.478815,-0.0567621
2.39811,0.471361,0
2.50814,0.242391,-0.0293355
2.44996,0.358285,-0.315165
2.4499,0.358275,-0.0143903
2.52124,0.243656,-0.23645
2.38962,0.469691,0.056669
2.50416,0.242006,0.029289
2.39619,0.470982,-0.170764
2.46154,0.359978,-0.203086
2.44561,0.357648,0.0431423
2.3325,0.578099,-0.15401
2.516,0.243149,-0.147208
2.45186,0.358563,0.100954
2.39944,0.471621,-0.113908
2.33535,0.578805,-0.0980231
2.39354,0.470462,-0.0567621
2.33505,0.570088,-0.0419556
2.51694,0.234376,-0.0294287
2.45513,0.350291,-0.315671
2.45905,0.350852,-0.0144368
2.52604,0.235224,-0.236822
2.38732,0.46059,0.056576
2.50101,0.232893,0.0292424
2.38998,0.461104,-0.170206
2.45884,0.350821,-0.20276
2.33838,0.570901,-0.154266
2.5208,0.234736,-0.147441
2.4531,0.350002,0.100954
2.39715,0.462486,-0.113722
2.45968,0.350941,-0.130212
2.4391,0.348005,0.201133
2.34123,0.571598,-0.098186
2.39517,0.462105,-0.0567621
2.34091,0.562868,-0.0420254
2.39742,0.453864,0
2.51774,0.225589,-0.0294287
2.4642,0.342812,-0.316681
2.39926,0.454212,-0.26303
2.52685,0.226404,-0.236822
2.39677,0.453741,0.0567621
2.51376,0.225232,0.0293821
2.39942,0.454242,-0.170764
2.46794,0.343334,-0.203411
2.45993,0.342219,0.0433518
2.34424,0.563668,-0.154521
2.52956,0.226648,-0.147906
2.46223,0.342538,0.10128
2.40267,0.454858,-0.113908
2.46485,0.342903,-0.130421
2.44425,0.340038,0.201458
2.33933,0.562487,-0.0980231
2.40463,0.455228,-0.0569482
2.34267,0.555512,-0.0420254
2.39883,0.44633,0
2.51844,0.217678,-0.0294287
2.46529,0.335074,-0.01446
2.40849,0.448128,-0.263887
2.40211,0.446941,0.0568551
2.51047,0.216989,0.0293355
2.40083,0.446703,-0.170764
2.46892,0.335567,0.0434914
2.34211,0.55538,-0.154266
2.53026,0.2187,-0.147906
2.46329,0.334802,0.10128
2.40409,0.447308,-0.113908
2.46987,0.335696,-0.130631
2.34109,0.555136,-0.0980231
2.40605,0.447672,-0.0569482
2.3408,0.546012,-0.0419556
2.40439,0.438251,0
2.52719,0.209105,-0.0295218
2.47443,0.327083,-0.0145065
2.53627,0.209856,-0.237565
2.51922,0.208445,0.0294287
2.41031,0.439331,-0.171322
2.47022,0.326527,-0.203411
2.35191,0.548605,-0.154777
2.53105,0.209424,-0.147906
2.46846,0.326294,0.101443
2.41357,0.439926,-0.11428
2.45046,0.323915,0.201784
2.35089,0.548367,-0.0983488
2.40767,0.43885,-0.0569482
2.53588,0.200915,-0.0296149
2.47547,0.318432,-0.317691
2.47556,0.318445,-0.0145065
2.41555,0.431581,-0.264316
2.54096,0.201317,-0.237937
2.40525,0.42974,0.0568551
2.53189,0.200599,0.0295684
2.41182,0.430915,-0.171322
2.47926,0.31892,-0.204062
2.47523,0.318402,0.0435612
2.53574,0.200904,-0.148138
2.46562,0.317166,0.10128
2.40723,0.430094,-0.113908
2.47617,0.318523,-0.13084
2.46739,0.317394,0.203086
2.35668,0.541052,-0.0985116
2.41312,0.431147,-0.0570412
2.35235,0.53142,-0.0420952
2.41133,0.422145,0
2.54056,0.192363,-0.0296615
2.4805,0.310281,-0.318196
2.36048,0.533255,0.0140648
2.42488,0.424518,-0.265172
2.54164,0.192445,-0.237937
2.41461,0.42272,0.0570412
2.5246,0.191155,0.0294752
2.41331,0.422493,-0.171322
2.48827,0.311253,-0.204713
2.48029,0.310255,0.043631
2.35568,0.532172,-0.154777
2.54838,0.192955,-0.148836
2.47861,0.310045,0.101768
2.42052,0.423755,-0.114467
2.48123,0.310373,-0.131049
2.46453,0.308284,0.20276
2.35856,0.532822,-0.0985116
2.41461,0.42272,-0.0570412
2.42067,0.415078,0
2.54121,0.183494,-0.0296615
2.48551,0.3021,-0.318701
2.36623,0.52588,0.0140881
2.48169,0.301637,-0.0145298
2.41851,0.414707,-0.264316
2.54627,0.183859,-0.238309
2.41213,0.413614,0.0569482
2.53323,0.182918,0.0295684
2.41871,0.414741,-0.171601
2.48934,0.302566,-0.204713
2.36142,0.524812,-0.155033
2.54505,0.183771,-0.148603
2.4087,0.413026,0.142324
2.47968,0.301392,0.101768
2.42593,0.415979,-0.114653
2.4823,0.30171,-0.131049
2.3565,0.523719,-0.0983488
2.42396,0.415641,-0.0572273
2.35982,0.516251,-0.042165
2.47373,0.292348,-0.0724936
2.42992,0.408375,0
2.5458,0.175341,-0.029708
2.48649,0.293857,-0.318701
2.36405,0.517176,0.0140648
2.48665,0.293876,-0.014553
2.42771,0.408003,-0.265172
2.55084,0.175689,-0.23868
2.42532,0.407601,0.0572273
2.54181,0.175067,0.0296615
2.43187,0.408703,-0.172438
2.49429,0.294778,-0.205038
2.48234,0.293366,0.043631
2.35925,0.516126,-0.154777
2.54963,0.175605,-0.148836
2.41794,0.40636,0.142789
2.42729,0.407932,-0.114653
2.49122,0.294415,-0.131468
2.46657,0.291502,0.20276
2.36213,0.516756,-0.0985116
2.42532,0.407601,-0.0572273
2.3617,0.507598,-0.042165
2.43535,0.400114,0
2.55041,0.166269,-0.0297546
2.37375,0.510188,0.0141113
2.48771,0.284759,-0.014553
2.55942,0.166856,-0.239424
2.4268,0.398709,0.0572273
2.53844,0.165488,0.0296149
2.42942,0.399139,-0.172159
2.49931,0.286086,-0.205364
2.48738,0.28472,0.0437008
2.55424,0.166519,-0.149068
2.41547,0.396847,0.142557
2.48966,0.284982,0.102094
2.43666,0.400328,-0.115025
2.50022,0.28619,-0.131887
2.47159,0.282913,0.203086
2.36401,0.508094,-0.0985116
2.43075,0.399357,-0.0573204
2.43278,0.390976,0
2.55098,0.157366,-0.0297546
2.50036,0.277369,-0.320216
2.37943,0.502727,0.0141346
2.49267,0.276515,-0.0145763
2.55601,0.157676,-0.239052
2.43213,0.39087,0.0573204
2.54299,0.156873,0.0296615
2.4308,0.390657,-0.172159
2.50426,0.277801,-0.205689
2.4963,0.276918,0.0438404
2.55879,0.157848,-0.149301
2.42078,0.389047,0.142789
2.48667,0.27585,0.101931
2.43409,0.391187,-0.114839
2.5012,0.277462,-0.131887
2.48048,0.275163,0.203737
2.37359,0.501492,-0.0988373
2.42818,0.390236,-0.0572273
2.36902,0.492325,-0.0422348
2.51149,0.270174,-0.505198
2.56346,0.149604,-0.0298943
2.50522,0.269499,-0.320721
2.37325,0.493205,0.0140881
2.50152,0.269102,-0.0146228
2.43578,0.383176,-0.265601
2.56049,0.149431,-0.239424
2.43341,0.382802,0.0573204
2.54749,0.148672,0.029708
2.43602,0.383213,-0.172438
2.50516,0.269494,-0.205689
2.37234,0.493016,-0.155289
2.5593,0.149361,-0.149301
2.42995,0.382258,0.143255
2.49155,0.268029,0.102094
2.43932,0.383733,-0.115025
2.50211,0.269165,-0.131887
2.48535,0.267362,0.204062
2.37524,0.493618,-0.0988373
2.43736,0.383424,-0.0574134
2.37472,0.484438,-0.0423046
2.51246,0.260968,-0.505198
2.43545,0.373982,0
2.56,0.13999,-0.0298477
2.51013,0.260726,-0.321226
2.38288,0.486103,0.0141346
2.50249,0.259933,-0.0146228
2.4411,0.37485,-0.266029
2.57295,0.140698,-0.240539
2.44665,0.375702,0.0575995
2.55601,0.139771,0.0298012
2.44135,0.374888,-0.172717
2.5101,0.260723,-0.206015
2.50613,0.260311,0.0439801
2.37804,0.485116,-0.155545
2.57179,0.140634,-0.149999
2.43133,0.37335,0.143255
2.50444,0.260134,0.102582
2.45256,0.37661,-0.115583
2.48234,0.257839,0.203737
2.44665,0.375702,-0.0575995
2.3764,0.476145,-0.0423046
2.51726,0.252587,-0.505983
2.4407,0.366072,0
2.56447,0.131257,-0.0298943
2.44687,0.366996,-0.384934
2.50313,0.251169,-0.320216
2.38064,0.476996,0.0141113
2.50737,0.251594,-0.014646
2.44239,0.366326,-0.266029
2.57343,0.131715,-0.240539
2.44795,0.367159,0.0575995
2.56447,0.131257,0.0298943
2.45054,0.367547,-0.173275
2.51496,0.252357,-0.20634
2.37968,0.476802,0.0706318
2.50703,0.25156,0.0439801
2.57227,0.131656,-0.149999
2.43657,0.365452,0.143487
2.50931,0.251789,0.102745
2.48719,0.24957,0.204062
2.44399,0.366566,-0.0575065
2.49921,0.242408,-0.0730754
2.52589,0.244996,-0.507552
2.44982,0.359137,0
2.57688,0.123326,-0.030034
2.5158,0.244017,-0.321731
2.38614,0.469872,0.0141346
2.50819,0.243279,-0.014646
2.44753,0.358802,-0.266457
2.57783,0.123371,-0.240911
2.45311,0.35962,0.0576926
2.5609,0.122561,0.0298477
2.45174,0.359419,-0.173275
2.51975,0.244401,-0.206666
2.38124,0.468908,0.0706318
2.51183,0.243632,0.0440499
2.57668,0.123316,-0.150231
2.44172,0.35795,0.14372
2.51013,0.243467,0.102745
2.49594,0.242091,0.204713
2.44915,0.35904,-0.0575995
2.52282,0.235813,-0.506767
2.45501,0.35115,0
2.57729,0.114331,-0.030034
2.52059,0.235604,-0.322237
2.39169,0.462299,0.0141578
2.513,0.234895,-0.0146693
2.57824,0.114373,-0.240911
2.44247,0.349356,0.0574134
2.57729,0.114331,0.030034
2.46483,0.352555,-0.174112
2.52456,0.235975,-0.206991
2.38679,0.461353,0.0707482
2.52063,0.235607,0.0441895
2.58507,0.114676,-0.150696
2.44691,0.349991,0.143952
2.50698,0.234332,0.102582
2.45235,0.35077,-0.115397
2.52551,0.236064,-0.132933
2.50074,0.233749,0.205038
2.39367,0.462682,-0.0993258
2.45831,0.351621,-0.0577856
2.38903,0.453141,-0.0424443
2.45622,0.342578,0
2.58567,0.105659,-0.0301271
2.45834,0.342873,-0.386163
2.53325,0.22787,-0.323752
2.39722,0.454693,0.0141811
2.52178,0.226837,-0.0147158
2.46179,0.343354,-0.267743
2.57863,0.105372,-0.240911
2.44764,0.34138,0.0575065
2.57368,0.10517,0.0299874
2.45815,0.342845,-0.173554
2.52537,0.227161,-0.206991
2.39232,0.453763,0.0708645
2.52542,0.227165,0.0442593
2.58147,0.105488,-0.150464
2.44812,0.341446,0.143952
2.51575,0.226295,0.102908
2.46939,0.344414,-0.116142
2.51836,0.22653,-0.132515
2.50552,0.225375,0.205364
2.3992,0.455068,-0.0994886
2.46348,0.34359,-0.0578787
2.39453,0.44553,-0.0425141
2.53613,0.219206,-0.509121
2.45344,0.333462,0
2.57803,0.0963337,-0.030034
2.53008,0.218683,-0.323247
2.39486,0.44559,0.0141578
2.53052,0.218722,-0.0147623
2.47086,0.335829,-0.268599
2.58694,0.0966668,-0.241655
2.45278,0.333372,0.0575995
2.58202,0.0964831,0.0300806
2.46724,0.335337,-0.174112
2.52615,0.218343,-0.206991
2.39389,0.445409,0.0708645
2.5898,0.0967738,-0.150929
2.45721,0.333974,0.144417
2.5205,0.217856,0.103071
2.46662,0.335254,-0.115956
2.53506,0.219113,-0.133352
2.4607,0.334449,-0.0577856
2.40394,0.438605,-0.0426537
2.53688,0.210353,-0.509121
2.46252,0.325946,0
2.59034,0.0877409,-0.0301737
2.53083,0.209851,-0.323247
2.40427,0.438664,0.0142043
2.53526,0.210218,-0.0147855
2.46413,0.326159,-0.267743
2.59124,0.0877715,-0.242026
2.46186,0.325858,0.0577856
2.58634,0.0876055,0.0301271
2.46839,0.326723,-0.174112
2.53087,0.209854,-0.207317
2.39543,0.43705,0.0708645
2.53093,0.209859,0.0443291
2.59811,0.088004,-0.151394
2.4544,0.324871,0.144185
2.52523,0.209387,0.103234
2.53979,0.210594,-0.133561
2.51497,0.208536,0.206015
2.40232,0.438308,-0.0994886
2.46582,0.326383,-0.0578787
2.52295,0.200777,-0.0736572
2.54538,0.202562,-0.510689
2.45962,0.317267,0
2.60261,0.0795175,-0.0303134
2.53151,0.201458,-0.323247
2.40177,0.429984,0.0141811
2.53195,0.201493,-0.0147623
2.5955,0.0793003,-0.242398
2.46292,0.317693,0.0577856
2.59461,0.0792732,0.0302203
2.47342,0.319047,-0.174391
2.54347,0.20241,-0.208293
2.40473,0.430514,0.0710973
2.5356,0.201783,0.0443989
2.59439,0.0792665,-0.151161
2.46338,0.317752,0.14465
2.53388,0.201646,0.103559
2.48074,0.319991,-0.116514
2.54047,0.202171,-0.133561
2.40769,0.431044,-0.0996514
2.47085,0.318716,-0.0579717
2.40695,0.421812,-0.0426537
2.54611,0.193232,-0.510689
2.47664,0.31024,0
2.60688,0.070086,-0.0303599
2.5441,0.193079,-0.324762
2.41121,0.42256,0.0142276
2.54065,0.192818,-0.0148088
2.47029,0.309444,-0.268171
2.59577,0.0697874,-0.242398
2.59888,0.0698711,0.0302668
2.48249,0.310972,-0.174949
2.40629,0.421698,0.0710973
2.54031,0.192791,0.0444687
2.59866,0.0698649,-0.151394
2.46057,0.308226,0.144417
2.53062,0.192056,0.103397
2.47793,0.3104,-0.116328
2.41319,0.422907,-0.0998143
2.47597,0.310156,-0.0580648
2.41235,0.414084,-0.0427235
2.5323,0.183295,-0.07389
2.55068,0.184626,-0.511474
2.47374,0.301109,0
2.61111,0.0610787,-0.0304065
2.54871,0.184483,-0.325267
2.42056,0.415493,0.0142741
2.5453,0.184236,-0.014832
2.47925,0.301779,-0.269028
2.60396,0.0609116,-0.243142
2.46513,0.300061,0.0577856
2.60711,0.0609852,0.0303599
2.4796,0.301822,-0.17467
2.54883,0.184492,-0.208619
2.41169,0.413972,0.0712136
2.54495,0.184211,0.0445385
2.60288,0.0608861,-0.151627
2.47749,0.301564,0.145348
2.53924,0.183798,0.103722
2.48693,0.302714,-0.1167
2.54982,0.184563,-0.13398
2.521,0.182477,0.20634
2.42253,0.415832,-0.10014
2.48101,0.301993,-0.0581579
2.41765,0.406745,-0.0427933
2.53688,0.175171,-0.0740063
2.55519,0.176436,-0.512258
2.47075,0.292433,0
2.6073,0.0523386,-0.0303599
2.55327,0.176303,-0.325772
2.42587,0.408127,0.0142973
2.54989,0.176069,-0.0148553
2.48419,0.294023,-0.269456
2.60813,0.0523554,-0.243513
2.47406,0.292824,0.0579717
2.6073,0.0523386,0.0303599
2.48851,0.294535,-0.175228
2.54943,0.176038,-0.208619
2.60706,0.0523338,-0.151859
2.47451,0.292877,0.145115
2.54782,0.175926,0.104048
2.5544,0.176381,-0.134189
2.47803,0.293294,-0.0580648
2.41912,0.397882,-0.0427933
2.55974,0.167326,-0.513043
2.48373,0.284742,0
2.60747,0.0427826,-0.0303599
2.54994,0.166685,-0.325267
2.41551,0.397286,0.0142276
2.55451,0.166984,-0.0148785
2.4892,0.28537,-0.269885
2.61627,0.042927,-0.244257
2.48306,0.284665,0.0581579
2.61147,0.0428483,0.0304065
2.48957,0.285412,-0.175228
2.55801,0.167213,-0.209269
2.41452,0.397125,0.0712136
2.55017,0.1667,0.0446084
2.61921,0.0429752,-0.152557
2.4835,0.284716,0.14558
2.55243,0.166848,0.104211
2.53017,0.165393,0.206991
2.42932,0.399558,-0.100303
2.49101,0.285576,-0.058344
2.55004,0.157754,-0.0743554
2.56813,0.158873,-0.514612
2.48869,0.276512,0
2.6236,0.0338865,-0.0305462
2.56635,0.158763,-0.327287
2.42083,0.389487,0.0142508
2.55906,0.158312,-0.0149017
2.49018,0.276678,-0.269885
2.48801,0.276437,0.0582509
2.6196,0.0338349,0.0304996
2.49849,0.277601,-0.175786
2.56256,0.158528,-0.209595
2.41984,0.389329,0.07133
2.55473,0.158044,0.0446782
2.61535,0.0337799,-0.152324
2.48448,0.276044,0.14558
2.553,0.157937,0.104211
2.47014,0.274451,0.305161
2.53471,0.156805,0.207317
2.43464,0.39171,-0.100466
2.49199,0.276879,-0.058344
2.57256,0.150586,-0.515396
2.49357,0.268687,0
2.6277,0.0252251,-0.0305928
2.56686,0.150252,-0.327287
2.42606,0.38208,0.0142741
2.49504,0.268846,-0.270313
2.62447,0.025194,-0.245001
2.49687,0.269042,0.058437
2.6237,0.0251867,0.0305462
2.50336,0.269742,-0.176065
2.56705,0.150263,-0.20992
2.42902,0.382546,-0.157591
2.62343,0.0251841,-0.152789
2.48935,0.268232,0.145813
2.56149,0.149937,0.104536
2.50676,0.270108,-0.117445
2.49472,0.268811,0.308086
2.53919,0.148632,0.207642
2.43198,0.383013,-0.100303
2.50084,0.269471,-0.0585301
2.431,0.374167,-0.0429329
2.57307,0.141605,-0.515396
2.49449,0.259981,0
2.62777,0.0160531,-0.0305928
2.57926,0.141946,-0.328802
2.43528,0.374826,0.0143206
2.56408,0.14111,-0.014925
2.62852,0.0160577,-0.245372
2.48984,0.259496,0.0582509
2.61977,0.0160042,0.0304996
2.50032,0.260589,-0.175786
2.57154,0.141521,-0.210246
2.43034,0.374066,0.0715627
2.62351,0.016027,-0.152789
2.49027,0.259542,0.145813
2.56199,0.140996,0.104536
2.50768,0.261357,-0.117445
2.56459,0.141139,-0.134608
2.49169,0.25969,0.307598
2.43725,0.37513,-0.100466
2.50177,0.26074,-0.0585301
2.4402,0.366868,-0.0430725
2.56351,0.132105,-0.0747045
2.57747,0.132824,-0.516181
2.63181,0.00689013,-0.0306393
2.57973,0.132941,-0.328802
2.44053,0.366917,0.0143438
2.50477,0.252217,-0.27117
2.49868,0.251604,0.058437
2.63181,0.00689013,0.0306393
2.50518,0.252259,-0.176065
2.576,0.132748,-0.210571
2.43163,0.365579,0.0715627
2.63153,0.00688939,-0.153254
2.50308,0.252047,0.14651
2.56646,0.132257,0.104699
2.51256,0.253001,-0.117631
2.57704,0.132802,-0.135236
2.49653,0.251388,0.308086
2.43855,0.366619,-0.100466
2.49471,0.251204,-0.058344
2.44147,0.358347,-0.0430725
2.56396,0.123155,-0.0747045
2.58575,0.124202,-0.51775
2.51615,0.244493,0
2.63182,-0.00229736,-0.0306393
2.58018,0.123934,-0.328802
2.43784,0.357815,0.0143206
2.58098,0.123973,-0.015018
2.50564,0.243472,-0.27117
2.64052,-0.00230496,-0.246488
2.51149,0.24404,0.0587162
2.64382,-0.00230784,0.030779
2.51002,0.243898,-0.176344
2.57645,0.123755,-0.210571
2.43685,0.357669,0.0716791
2.57264,0.123572,0.0449574
2.63154,-0.00229712,-0.153254
2.50394,0.243307,0.14651
2.57489,0.12368,0.105025
2.52138,0.245001,-0.118003
2.5053,0.243439,0.309061
2.44772,0.359265,-0.100791
2.50353,0.243267,-0.0585301
2.4427,0.349824,-0.0430725
2.56837,0.114384,-0.0748209
2.59792,0.1157,-0.520103
2.51699,0.235711,0
2.6478,-0.0115521,-0.0308256
2.5806,0.114929,-0.328802
2.44303,0.349872,0.0143438
2.5814,0.114964,-0.015018
2.6405,-0.0115202,-0.246488
2.51631,0.235647,0.0588092
2.6478,-0.0115521,0.0308256
2.52675,0.236625,-0.17746
2.58483,0.115117,-0.211222
2.57705,0.114771,0.0450272
2.50478,0.234567,0.14651
2.5793,0.114871,0.105188
2.51008,0.235064,0.309548
2.56093,0.114053,0.209269
2.45687,0.351854,-0.101117
2.50834,0.234901,-0.0586231
2.57274,0.105581,-0.0749372
2.59831,0.106631,-0.520103
2.52178,0.227282,0
2.64774,-0.0207953,-0.0308256
2.58892,0.106245,-0.329813
2.4482,0.341894,0.0143671
2.58978,0.10628,-0.0150645
2.5152,0.226688,-0.272027
2.64442,-0.0207692,-0.246859
2.51711,0.226861,0.0588092
2.65174,-0.0208267,0.0308722
2.52358,0.227444,-0.177181
2.44325,0.341202,0.0717954
2.58543,0.106102,0.0451668
2.63945,-0.0207301,-0.15372
2.52149,0.227256,0.147441
2.58368,0.10603,0.10535
2.52303,0.227394,-0.118003
2.51484,0.226657,0.310036
2.45809,0.343275,-0.101117
2.57141,0.105527,0.469229
2.50915,0.226143,-0.0586231
2.57709,0.0967507,-0.0750536
2.59867,0.0975607,-0.520103
2.51459,0.217788,0
2.65165,-0.0300823,-0.0308722
2.60117,0.0976544,-0.331328
2.45731,0.334426,0.0144135
2.59413,0.0973903,-0.0150877
2.51993,0.218251,-0.272455
2.52187,0.218419,0.0589023
2.65165,-0.0300823,0.0308722
2.52436,0.218634,-0.177181
2.59752,0.0975177,-0.212199
2.44838,0.333211,0.0719118
2.58978,0.097227,0.0452366
2.45627,0.334285,-0.158871
2.64335,-0.0299882,-0.153952
2.52625,0.218798,0.147673
2.58004,0.0968614,0.105188
2.52381,0.218586,-0.118003
2.5986,0.0975582,-0.136283
2.51166,0.217535,0.309548
2.56964,0.0964707,0.20992
2.46719,0.335771,-0.101443
2.52187,0.218419,-0.0589023
2.46198,0.327186,-0.0433518
2.58138,0.0887908,-0.0751699
2.60288,0.0895304,-0.520888
2.51924,0.210219,0
2.64754,-0.0383554,-0.0308256
2.60543,0.0896178,-0.331833
2.46627,0.327757,0.01446
2.52457,0.210663,-0.272883
2.65219,-0.0384227,-0.247603
2.52653,0.210827,0.0589953
2.65154,-0.0384133,0.0308722
2.52504,0.210702,-0.177181
2.59782,0.0893562,-0.212199
2.65123,-0.0384088,-0.154417
2.52294,0.210527,0.147441
2.58832,0.0890295,0.105513
2.53244,0.21132,-0.118375
2.59889,0.0893932,-0.136283
2.51629,0.209972,0.310036
2.56993,0.0883968,0.20992
2.46427,0.327491,-0.10128
2.51856,0.210162,-0.0588092
2.46321,0.31773,-0.0433518
2.5857,0.0789998,-0.0752863
2.60713,0.0796546,-0.521672
2.532,0.201495,0
2.65138,-0.0485948,-0.0308722
2.60575,0.0796125,-0.331833
2.45958,0.317261,0.0144135
2.60274,0.0795206,-0.0151342
2.65999,-0.0487527,-0.248347
2.52732,0.201124,0.0589953
2.66737,-0.048888,0.0310584
2.53776,0.201954,-0.178019
2.60213,0.0795017,-0.212524
2.59439,0.0792655,0.0453064
2.65905,-0.0487354,-0.154882
2.53169,0.201471,0.147906
2.59264,0.0792119,0.105676
2.5412,0.202228,-0.118747
2.60321,0.0795349,-0.136492
2.525,0.200938,0.311011
2.46551,0.318026,-0.10128
2.53131,0.201441,-0.0590884
2.46822,0.31006,-0.0434216
2.58994,0.0705355,-0.0754027
2.6113,0.0711171,-0.522456
2.53265,0.1931,0
2.6592,-0.0575582,-0.0309653
2.606,0.0709728,-0.331833
2.60699,0.0709998,-0.0151575
2.66777,-0.0577438,-0.24909
2.53595,0.193351,0.0591814
2.66719,-0.0577313,0.0310584
2.53842,0.193539,-0.178019
2.60636,0.0709826,-0.212849
2.60264,0.0708813,0.0454461
2.53633,0.19338,0.148138
2.54584,0.194106,-0.118934
2.61145,0.0711212,-0.136911
2.52961,0.192868,0.311498
2.58245,0.0703314,0.210897
2.48241,0.311843,-0.101931
2.59229,0.0705994,0.472816
2.52798,0.192743,-0.0589953
2.47723,0.302411,-0.0435612
2.61545,0.062094,-0.523241
2.5373,0.184547,0
2.66698,-0.0670419,-0.0310584
2.61813,0.0621576,-0.333348
2.46962,0.301482,0.01446
2.61122,0.0619935,-0.0151807
2.67154,-0.0671565,-0.249462
2.53661,0.184497,0.0591814
2.67497,-0.0672429,0.0311515
2.54704,0.185256,-0.178577
2.61058,0.0619782,-0.213175
2.46862,0.30136,0.0723772
2.47253,0.301838,-0.159638
2.66265,-0.066933,-0.155115
2.54097,0.184814,0.148371
2.6051,0.0618483,0.106165
2.54252,0.184927,-0.118747
2.53422,0.184324,0.311986
2.59464,0.0615997,0.211873
2.48745,0.303659,-0.102094
2.59645,0.0616429,0.473534
2.5406,0.184787,-0.0592745
2.47822,0.294194,-0.0435612
2.61172,0.0533396,-0.522456
2.5379,0.176132,0
2.66674,-0.0758862,-0.0310584
2.61832,0.0534745,-0.333348
2.47458,0.293762,0.0144833
2.67528,-0.0761293,-0.249834
2.54519,0.176638,0.0593675
2.67074,-0.076,0.031105
2.54764,0.176808,-0.178577
2.61475,0.0534016,-0.2135
2.61106,0.0533261,0.0455857
2.48145,0.294577,-0.16015
2.67039,-0.0759902,-0.15558
2.61329,0.0533716,0.10649
2.54711,0.176771,-0.118934
2.61986,0.0535058,-0.13733
2.53482,0.175918,0.311986
2.59483,0.0529946,0.211873
2.48845,0.295408,-0.102094
2.54519,0.176638,-0.0593675
2.47928,0.285109,-0.0435612
2.62759,0.0440303,-0.525594
2.54252,0.167091,0
2.67044,-0.0857877,-0.031105
2.62247,0.0439445,-0.333853
2.47962,0.285148,0.0145065
2.68295,-0.0861894,-0.250577
2.54582,0.167308,0.0593675
2.67444,-0.0859161,0.0311515
2.55225,0.167731,-0.178856
2.61095,0.0437515,-0.213175
2.48648,0.285937,-0.160406
2.67808,-0.086033,-0.156045
2.55017,0.167594,0.148836
2.60947,0.0437267,0.106327
2.55172,0.167697,-0.11912
2.54337,0.167148,0.312961
2.48554,0.285829,-0.101931
2.54981,0.167571,-0.0594606
2.48419,0.27733,-0.043631
2.60666,0.0350342,-0.0758681
2.62772,0.0353172,-0.525594
2.55104,0.159158,0
2.61863,0.0351951,-0.333348
2.48452,0.277368,0.0145298
2.69061,-0.0953675,-0.251321
2.55035,0.159115,0.0594606
2.68213,-0.0950672,0.0312447
2.56076,0.159764,-0.179414
2.61506,0.0351471,-0.2135
2.62336,0.0352587,0.0457951
2.48741,0.27769,-0.160406
2.68177,-0.0950543,-0.156278
2.55071,0.159137,0.148836
2.61759,0.0351811,0.106653
2.55625,0.159483,-0.119306
2.54787,0.15896,0.313448
2.59912,0.0349328,0.212199
2.49045,0.278029,-0.102094
2.55434,0.159364,-0.0595536
2.48912,0.269086,-0.0437008
2.63175,0.0261828,-0.526379
2.55557,0.150487,0
2.67779,-0.104274,-0.0311981
2.62271,0.0260929,-0.333853
2.48548,0.268693,0.0145298
2.62783,0.0261438,-0.0152737
2.69424,-0.104915,-0.251693
2.55887,0.150681,0.0596467
2.68978,-0.104741,0.0313378
2.5613,0.150824,-0.179414
2.62713,0.0261369,-0.214477
2.62347,0.0261005,0.0457951
2.48837,0.269005,-0.160406
2.55922,0.150702,0.149301
2.62569,0.0261226,0.106979
2.56477,0.151028,-0.119678
2.55634,0.150532,0.314423
2.61118,0.0259783,0.213175
2.50333,0.270622,-0.102582
2.6128,0.0259943,0.476404
2.56287,0.150916,-0.0597397
2.49804,0.260792,-0.0438404
2.63967,0.0165867,-0.527948
2.5601,0.14134,0
2.63469,0.0165554,-0.335368
2.6279,0.0165128,-0.0152737
2.69781,-0.114958,-0.252064
2.55542,0.141081,0.0595536
2.68938,-0.114598,0.0313378
2.56582,0.141656,-0.179693
2.63518,0.0165585,-0.215128
2.48941,0.259892,0.0728427
2.50125,0.261127,-0.161173
2.55577,0.141101,0.149068
2.62177,0.0164742,0.106816
2.56132,0.141407,-0.119492
2.55688,0.141162,0.314423
2.61126,0.0164082,0.213175
2.50828,0.261861,-0.102745
2.61681,0.016443,0.477121
2.5634,0.141522,-0.0597397
2.50292,0.252472,-0.0439103
2.55658,0.132195,0
2.68896,-0.123986,-0.0313378
2.6387,0.00736889,-0.335873
2.70933,-0.124925,-0.25318
2.57187,0.132986,0.0599259
2.68896,-0.123986,0.0313378
2.5663,0.132698,-0.179693
2.63921,0.00737032,-0.215453
2.4903,0.2512,0.0728427
2.50214,0.252394,-0.161173
2.69656,-0.124336,-0.157208
2.62981,0.00734406,0.107142
2.56978,0.132878,-0.119864
2.64436,0.0073847,-0.138586
2.55339,0.13203,0.313935
2.62326,0.00732578,0.214151
2.50918,0.253103,-0.102745
2.56388,0.132573,-0.0597397
2.51166,0.245386,-0.0440499
2.56098,0.124358,0
2.63871,-0.00092035,-0.335873
2.64396,-0.000922179,-0.0153667
2.7129,-0.133632,-0.253551
2.69655,-0.132826,0.0314309
2.57467,0.125022,-0.180251
2.63523,-0.000919137,-0.215128
2.49506,0.243764,0.0729591
2.6396,-0.00092066,0.0460744
2.51087,0.245309,-0.161685
2.70413,-0.1332,-0.157673
2.63382,-0.000918643,0.107304
2.57018,0.124804,-0.119864
2.64837,-0.000923718,-0.138795
2.56172,0.124393,0.31491
2.62327,-0.000914966,0.214151
2.51791,0.245997,-0.103071
2.62867,-0.000916846,0.479274
2.58026,0.125294,-0.060112
2.51258,0.235739,-0.0440499
2.64754,-0.01109,-0.529517
2.57343,0.115059,0
2.70001,-0.143392,-0.0314775
2.64662,-0.0110861,-0.336884
2.72032,-0.14447,-0.254295
2.57673,0.115206,0.0600189
2.70401,-0.143604,0.0315241
2.57513,0.115135,-0.180251
2.64318,-0.0110717,-0.215779
2.64357,-0.0110733,0.0461442
2.51179,0.235665,-0.161685
2.7036,-0.143582,-0.157673
2.57705,0.115221,0.150231
2.57863,0.115291,-0.120236
2.65234,-0.0111101,-0.139004
2.56218,0.114556,0.31491
2.62325,-0.0109882,0.214151
2.51884,0.236326,-0.103071
2.58472,0.115563,-0.060205
2.51729,0.228206,-0.0441197
2.65142,-0.0194357,-0.530301
2.57777,0.10714,0
2.70754,-0.152322,-0.0315706
2.64788,-0.0194098,-0.0153899
2.72781,-0.153463,-0.255039
2.58507,0.107443,0.060205
2.70754,-0.152322,0.0315706
2.57947,0.10721,-0.18053
2.65111,-0.0194334,-0.21643
2.50865,0.227422,0.0733081
2.64753,-0.0194071,0.046214
2.51252,0.227774,-0.161685
2.7151,-0.152748,-0.158371
2.58139,0.10729,0.150464
2.64973,-0.0194233,0.107956
2.57498,0.107024,-0.12005
2.65628,-0.0194713,-0.139214
2.57443,0.107001,0.316373
2.63516,-0.0193165,0.215128
2.52355,0.228773,-0.103234
2.63253,-0.0192972,0.479991
2.58507,0.107443,-0.060205
2.51807,0.219417,-0.0441197
2.65918,-0.0287763,-0.53187
2.57414,0.0979884,0
2.65839,-0.0287678,-0.338399
2.6598,-0.028783,-0.0154597
2.71931,-0.162509,-0.254295
2.58143,0.0982661,0.060112
2.71098,-0.162012,0.0316172
2.5878,0.0985086,-0.181088
2.65501,-0.0287312,-0.216755
2.51341,0.219011,0.0734245
2.65544,-0.0287359,0.0463536
2.52921,0.220387,-0.162708
2.72252,-0.162701,-0.158836
2.58574,0.0984302,0.150696
2.64565,-0.0286299,0.107793
2.57933,0.0981862,-0.120236
2.66419,-0.0288305,-0.139632
2.57875,0.0981641,0.31686
2.63907,-0.0285587,0.215453
2.5323,0.220656,-0.103559
2.64425,-0.0286148,0.482144
2.58942,0.0985703,-0.0602981
2.52281,0.21096,-0.0441895
2.66224,-0.0381034,-0.338904
2.73462,-0.173006,-0.255782
2.58975,0.0895315,0.0602981
2.58414,0.0893376,-0.180809
2.66287,-0.0381123,-0.217406
2.51814,0.21057,0.0735409
2.65932,-0.0380616,0.0464234
2.52996,0.211558,-0.162708
2.72592,-0.172455,-0.159068
2.59006,0.0895422,0.150929
2.65752,-0.0380358,0.108281
2.59164,0.0895967,-0.120795
2.66407,-0.0381295,-0.139632
2.57908,0.0891625,0.31686
2.64294,-0.0378271,0.215779
2.53703,0.212149,-0.103722
2.64413,-0.0378442,0.482144
2.5236,0.201272,-0.0441895
2.67066,-0.0484806,-0.534224
2.67001,-0.0484688,-0.339914
2.66752,-0.0484235,-0.0155062
2.74188,-0.184037,-0.256526
2.59807,0.0798331,0.0604842
2.7177,-0.182414,0.0317103
2.58845,0.0795377,-0.181088
2.6627,-0.0483361,-0.217406
2.51893,0.2009,0.0735409
2.66715,-0.0484169,0.046563
2.53473,0.20216,-0.162964
2.72524,-0.18292,-0.159068
2.59438,0.0797197,0.151161
2.66135,-0.0483116,0.108444
2.58797,0.0795228,-0.120609
2.66391,-0.0483579,-0.139632
2.58734,0.0795034,0.317835
2.64676,-0.0480466,0.216104
2.53385,0.202089,-0.103559
2.65184,-0.0481389,0.483578
2.59807,0.0798331,-0.0604842
2.5322,0.193954,-0.0443291
2.67834,-0.0570369,-0.535792
2.60301,0.0718009,0
2.59973,0.0717103,-0.404611
2.74526,-0.192929,-0.256897
2.60231,0.0717814,0.0605772
2.59667,0.071626,-0.181646
2.66652,-0.0567853,-0.217731
2.52354,0.193291,0.0736572
2.66699,-0.0567953,0.046563
2.53536,0.194196,-0.162964
2.74457,-0.19288,-0.160231
2.66518,-0.0567568,0.108607
2.60019,0.0717231,-0.121167
2.66773,-0.0568111,-0.139842
2.58758,0.0713751,0.317835
2.65457,-0.0565307,0.216755
2.53845,0.194433,-0.103722
2.6063,0.0718917,-0.0606703
2.53286,0.185113,-0.0443291
2.68204,-0.0664845,-0.536577
2.59925,0.0626164,0
2.66963,-0.0661769,-0.339914
2.67513,-0.0663132,-0.0155527
2.74855,-0.202805,-0.257269
2.60254,0.0626957,0.0605772
2.60089,0.062656,-0.181925
2.66631,-0.0660945,-0.217731
2.52818,0.184771,0.0737736
2.67077,-0.0662051,0.0466328
2.54398,0.185926,-0.163475
2.7399,-0.202167,-0.159999
2.60683,0.062799,0.151859
2.60442,0.062741,-0.121353
2.6795,-0.0664214,-0.14047
2.59178,0.0624365,0.318323
2.65834,-0.0658969,0.21708
2.55107,0.186444,-0.104211
2.65933,-0.0659215,0.485013
2.60654,0.062792,-0.0606703
2.53748,0.176548,-0.0443989
2.69356,-0.0761789,-0.53893
2.59945,0.0535429,0
2.61202,0.0538018,-0.406455
2.67732,-0.0757196,-0.340924
2.67888,-0.0757638,-0.0155759
2.74782,-0.212398,-0.257269
2.60674,0.0536931,0.0606703
2.60508,0.053659,-0.182204
2.682,-0.075852,-0.219033
2.53679,0.1765,0.0740063
2.67852,-0.0757536,0.0467725
2.54462,0.177044,-0.163475
2.74316,-0.212038,-0.160231
2.60304,0.0536168,0.151627
2.66872,-0.0754763,0.10877
2.68324,-0.0758871,-0.140679
2.59198,0.0533891,0.318323
2.65809,-0.0751758,0.21708
2.55171,0.177538,-0.104211
2.66302,-0.0753151,0.485731
2.60674,0.0536931,-0.0606703
2.54609,0.167772,-0.0445385
2.68934,-0.0859255,-0.538146
2.68099,-0.0856587,-0.341429
2.53845,0.167269,0.0147855
2.68658,-0.0858374,-0.0156224
2.75496,-0.223111,-0.258013
2.61092,0.0442063,0.0607633
2.61324,0.0442456,-0.182762
2.68968,-0.0859362,-0.219684
2.5454,0.167727,0.074239
2.67823,-0.0855704,0.0467725
2.55321,0.168242,-0.163987
2.7543,-0.223057,-0.160929
2.6112,0.0442111,0.152092
2.68041,-0.0856401,0.109258
2.6088,0.0441704,-0.121539
2.67895,-0.0855937,-0.14047
2.6001,0.0440231,0.319298
2.66975,-0.0852996,0.218057
2.56032,0.16871,-0.104536
2.67059,-0.0853264,0.487166
2.61892,0.0443417,-0.0609494
2.55863,0.159631,-0.044748
2.7047,-0.0958683,-0.541284
2.61176,0.0351017,0
2.68861,-0.0952977,-0.342439
2.68627,-0.0952148,-0.0156224
2.61663,0.035167,-0.281879
2.75814,-0.233062,-0.258385
2.61506,0.0351459,0.0608564
2.61338,0.0351234,-0.182762
2.68139,-0.0950419,-0.219033
2.54198,0.158592,0.0741227
2.6859,-0.0952019,0.0469121
2.55777,0.159577,-0.164243
2.75748,-0.233006,-0.161161
2.61533,0.0351497,0.152324
2.68409,-0.0951375,0.109421
2.61693,0.0351711,-0.121912
2.68662,-0.0952274,-0.140888
2.59627,0.0348934,0.31881
2.66545,-0.0944771,0.217731
2.56089,0.159772,-0.104536
2.67421,-0.0947873,0.487883
2.62705,0.0353072,-0.0611355
2.56314,0.151381,-0.0448178
2.64228,0.0267485,-0.739715
2.70829,-0.104989,-0.542068
2.61187,0.0264406,0
2.54752,0.150458,0.014832
2.69793,-0.104587,-0.0156922
2.62071,0.0265301,-0.282308
2.77322,-0.243601,-0.259872
2.62715,0.0265954,0.0611355
2.74923,-0.241493,0.0321294
2.62146,0.0265378,-0.18332
2.69301,-0.104397,-0.22001
2.55047,0.150633,0.0743554
2.68957,-0.104263,0.0469819
2.55828,0.151094,-0.164243
2.76863,-0.243198,-0.161859
2.61543,0.0264767,0.152324
2.69174,-0.104347,0.109747
2.62502,0.0265737,-0.122284
2.69827,-0.1046,-0.141516
2.60034,0.0263239,0.319298
2.67309,-0.103624,0.218382
2.5654,0.151514,-0.104699
2.67781,-0.103807,0.488601
2.63115,0.0266358,-0.0612286
2.56366,0.142433,-0.0448178
2.63851,0.0174995,-0.738637
2.71183,-0.114607,-0.542853
2.62394,0.0174029,0
2.69979,-0.114099,-0.343955
2.69755,-0.114004,-0.0156922
2.77235,-0.25328,-0.259872
2.62323,0.0173982,0.0610425
2.75235,-0.251452,0.032176
2.62154,0.017387,-0.18332
2.70458,-0.114301,-0.220986
2.55897,0.142173,0.0745881
2.69319,-0.11382,0.0470517
2.56677,0.142606,-0.164755
2.77174,-0.253224,-0.162092
2.6195,0.0173735,0.152557
2.69136,-0.113743,0.109747
2.62909,0.0174371,-0.12247
2.70587,-0.114356,-0.141935
2.61232,0.0173259,0.32076
2.68068,-0.113291,0.219033
2.57389,0.143002,-0.105025
2.67743,-0.113154,0.488601
2.62723,0.0174247,-0.0611355
2.56017,0.132828,-0.044748
2.6424,0.00784019,-0.739715
2.72314,-0.125086,-0.545206
2.62399,0.00778555,0
2.76734,-0.263052,-0.0323622
2.63232,0.00781028,-0.40953
2.69935,-0.123993,-0.343955
2.70111,-0.124074,-0.0157154
2.77933,-0.264193,-0.260615
2.62728,0.00779531,0.0611355
2.63755,0.00782578,-0.184436
2.70813,-0.124396,-0.221311
2.55947,0.132792,0.0745881
2.70074,-0.124057,0.0471913
2.57525,0.133611,-0.165266
2.77477,-0.263759,-0.162324
2.61955,0.00777238,0.152557
2.69492,-0.12379,0.10991
2.62914,0.00780083,-0.12247
2.70942,-0.124456,-0.142144
2.61634,0.00776286,0.321248
2.68423,-0.123299,0.219359
2.5744,0.133567,-0.105025
2.68093,-0.123147,0.489318
2.63528,0.00781904,-0.0613216
2.57256,0.125369,-0.0449574
2.72274,-0.13364,-0.545206
2.624,-0.000457971,0
2.77048,-0.272136,-0.0324088
2.70688,-0.132862,-0.344965
2.56491,0.124996,0.014925
2.7047,-0.132755,-0.0157387
2.63675,-0.000460196,-0.284021
2.78245,-0.273312,-0.260987
2.62729,-0.000458545,0.0611355
2.7665,-0.271745,0.0323622
2.62958,-0.000458945,-0.183878
2.7117,-0.133099,-0.221637
2.56786,0.12514,0.0748209
2.70034,-0.132541,0.0471913
2.78188,-0.273255,-0.162789
2.63154,-0.000459287,0.153254
2.7025,-0.132647,0.110235
2.63315,-0.000459567,-0.122656
2.70902,-0.132967,-0.142144
2.61238,-0.000455943,0.32076
2.68781,-0.131926,0.219684
2.5788,0.125673,-0.105188
2.57298,0.116388,-0.0449574
2.73009,-0.143556,-0.546775
2.63598,-0.00966142,0
2.78543,-0.283425,-0.032595
2.64417,-0.00969144,-0.411375
2.72224,-0.143143,-0.346985
2.56933,0.116223,0.0149482
2.7162,-0.142825,-0.0158084
2.79733,-0.284636,-0.262474
2.64327,-0.00968812,0.0615077
2.76951,-0.281805,0.0324088
2.64552,-0.00969639,-0.184994
2.7152,-0.142773,-0.221962
2.56829,0.116176,0.0748209
2.70785,-0.142386,0.0473309
2.58006,0.116709,-0.165522
2.78488,-0.283369,-0.163022
2.63152,-0.00964508,0.153254
2.71001,-0.1425,0.110561
2.64511,-0.00969489,-0.123214
2.7205,-0.143052,-0.142773
2.62427,-0.00961851,0.322223
2.69132,-0.141517,0.22001
2.57922,0.116671,-0.105188
2.64727,-0.00970278,-0.0616008
2.5774,0.106673,-0.0450272
2.74126,-0.1547,-0.549128
2.63593,-0.0197828,0
2.78432,-0.294118,-0.032595
2.64807,-0.0198739,-0.41199
2.71771,-0.153371,-0.34648
2.56976,0.106357,0.0149482
2.71563,-0.153254,-0.0158084
2.80414,-0.296211,-0.263218
2.64321,-0.0198374,0.0615077
2.78432,-0.294118,0.032595
2.64547,-0.0198544,-0.184994
2.72658,-0.153871,-0.222939
2.5767,0.106644,0.0750536
2.70728,-0.152782,0.0473309
2.58049,0.106801,-0.165522
2.79171,-0.294899,-0.163487
2.63945,-0.0198092,0.15372
2.70944,-0.152904,0.110561
2.64905,-0.0198813,-0.123401
2.72791,-0.153947,-0.143191
2.63216,-0.0197545,0.323198
2.69473,-0.152074,0.220335
2.58364,0.106932,-0.10535
2.65121,-0.0198975,-0.0616939
2.57776,0.0976758,-0.0450272
2.74071,-0.164268,-0.549128
2.63984,-0.0290277,0
2.7952,-0.305137,-0.0327347
2.65589,-0.0292042,-0.413219
2.72112,-0.163094,-0.346985
2.57811,0.097689,0.0149947
2.71907,-0.162972,-0.0158317
2.64852,-0.0291231,-0.285307
2.80705,-0.30643,-0.263589
2.64312,-0.0290638,0.0615077
2.78725,-0.304269,0.0326416
2.65735,-0.0292203,-0.185831
2.73398,-0.163865,-0.22359
2.58105,0.0978007,0.0751699
2.71471,-0.16271,0.0474705
2.59282,0.0982464,-0.16629
2.79066,-0.304642,-0.163487
2.63538,-0.0289786,0.153487
2.72086,-0.163078,0.111049
2.65296,-0.029172,-0.123587
2.72736,-0.163468,-0.143191
2.63207,-0.0289423,0.323198
2.59199,0.098215,-0.105676
2.65112,-0.0291518,-0.0616939
2.58205,0.0897159,-0.045097
2.74409,-0.173124,-0.549913
2.64374,-0.0373774,0
2.79821,-0.314364,-0.0327813
2.65974,-0.0376036,-0.413834
2.73248,-0.172392,-0.3485
2.71855,-0.171513,-0.0158317
2.65239,-0.0374998,-0.285735
2.81003,-0.315692,-0.263961
2.65102,-0.0374804,0.0616939
2.79821,-0.314364,0.0327813
2.65725,-0.0375684,-0.185831
2.58934,0.0899693,0.0754027
2.72217,-0.171742,0.0476102
2.58912,0.0899617,-0.166034
2.79763,-0.314299,-0.163952
2.64326,-0.0373707,0.153952
2.72033,-0.171625,0.111049
2.65286,-0.0375064,-0.123587
2.73082,-0.172287,-0.143401
2.63594,-0.0372672,0.323685
2.70958,-0.170947,0.221637
2.59228,0.0900715,-0.105676
2.65901,-0.0375934,-0.06188
2.58636,0.0803759,-0.0451668
2.74344,-0.183181,-0.549913
2.64758,-0.0471382,0
2.80895,-0.326001,-0.032921
2.7437,-0.183199,-0.350016
2.59071,0.080511,0.0150645
2.72189,-0.181742,-0.0158549
2.66019,-0.0473626,-0.286592
2.81677,-0.326907,-0.264705
2.64686,-0.0471254,0.0616008
2.66108,-0.0473785,-0.18611
2.74474,-0.183268,-0.224566
2.59365,0.0806025,0.075519
2.72552,-0.181984,0.04768
2.6014,0.0808435,-0.166801
2.80836,-0.325932,-0.16465
2.65109,-0.0472006,0.154417
2.72367,-0.181861,0.111212
2.66469,-0.0474427,-0.124145
2.73814,-0.182827,-0.143819
2.63975,-0.0469988,0.324172
2.59659,0.0806939,-0.105839
2.66686,-0.0474813,-0.0620661
2.59062,0.0714575,-0.0452366
2.75452,-0.193581,-0.552266
2.6554,-0.05655,0
2.75492,-0.193609,-0.351531
2.59497,0.0715775,0.0150877
2.7372,-0.192364,-0.0159479
2.67193,-0.0569022,-0.287877
2.65868,-0.0566198,0.06188
2.80383,-0.335329,0.0328744
2.66888,-0.056837,-0.186668
2.74408,-0.192847,-0.224566
2.58992,0.0714382,0.0754027
2.74082,-0.192618,0.0479592
2.60566,0.0718724,-0.167057
2.81117,-0.336207,-0.164882
2.66288,-0.0567094,0.155115
2.73498,-0.192208,0.111701
2.74545,-0.192944,-0.144238
2.64751,-0.0563821,0.325147
2.59686,0.0716296,-0.105839
2.67067,-0.0568753,-0.0621591
2.59884,0.0630604,-0.0453763
2.66719,-0.0656506,0
2.81461,-0.346089,-0.0330141
2.67105,-0.0657455,-0.415679
2.75822,-0.203035,-0.352036
2.59519,0.0629719,0.0150877
2.74054,-0.201734,-0.0159711
2.67173,-0.0657623,-0.287877
2.83029,-0.348017,-0.266192
2.66247,-0.0655344,0.061973
2.81461,-0.346089,0.0330141
2.67665,-0.0658834,-0.187226
2.75138,-0.202531,-0.225217
2.59813,0.0630433,0.0756354
2.74017,-0.201706,0.0479592
2.60589,0.0632314,-0.167057
2.81797,-0.346502,-0.165347
2.66268,-0.0655395,0.155115
2.73831,-0.20157,0.111864
2.65128,-0.0652589,0.325635
2.71957,-0.20019,0.222613
2.60108,0.0631147,-0.106002
2.67447,-0.0658296,-0.0622522
2.59904,0.0539884,-0.0453763
2.68758,-0.0755402,-0.752654
2.66695,-0.0749604,0
2.81735,-0.356414,-0.0330607
2.76145,-0.212967,-0.352541
2.5994,0.0539957,0.015111
2.74381,-0.211606,-0.0159944
2.67546,-0.0751997,-0.288305
2.66623,-0.0749401,0.0620661
2.82132,-0.356916,0.0331072
2.68837,-0.0755626,-0.188063
2.76258,-0.213054,-0.226193
2.60633,0.0541398,0.0758681
2.74343,-0.211577,0.048029
2.61008,0.0542177,-0.167313
2.82466,-0.357339,-0.165813
2.66643,-0.0749458,0.155347
2.73759,-0.211127,0.111864
2.68802,-0.0755528,-0.125262
2.76001,-0.212855,-0.145075
2.65897,-0.0747363,0.32661
2.60528,0.0541179,-0.106165
2.67022,-0.0750525,-0.0621591
2.71038,-0.0861242,-0.759124
2.68265,-0.0852429,0
2.82396,-0.367771,-0.0331538
2.68236,-0.0852339,-0.417524
2.76461,-0.223406,-0.353046
2.60757,0.0446049,0.0151575
2.747,-0.221983,-0.0160176
2.68312,-0.0852579,-0.289162
2.84352,-0.370318,-0.267679
2.66993,-0.0848388,0.0621591
2.82396,-0.367771,0.0331538
2.68409,-0.0852887,-0.187784
2.76575,-0.223499,-0.226519
2.61451,0.0447235,0.0761008
2.7546,-0.222598,0.0482385
2.61824,0.0447874,-0.167825
2.82729,-0.368205,-0.166045
2.67013,-0.0848451,0.15558
2.74078,-0.221481,0.112026
2.68773,-0.0854044,-0.125262
2.67059,-0.0848597,0.328072
2.61345,0.0447054,-0.10649
2.67792,-0.0850928,-0.0623452
2.61136,0.0355521,-0.0455857
2.77891,-0.234328,-0.557758
2.83059,-0.378687,-0.0332469
2.77172,-0.233722,-0.354056
2.61171,0.0355569,0.0151807
2.75418,-0.232243,-0.0160641
2.69075,-0.0949035,-0.290019
2.85011,-0.381298,-0.268423
2.67361,-0.0942991,0.0622522
2.82266,-0.377626,0.0331538
2.68776,-0.0947981,-0.188063
2.7729,-0.233822,-0.22717
2.61865,0.0356514,0.0762172
2.75779,-0.232548,0.0483083
2.61839,0.0356478,-0.167825
2.83787,-0.37966,-0.166743
2.68179,-0.0945873,0.156278
2.74796,-0.231719,0.112352
2.75841,-0.2326,-0.145075
2.67027,-0.0941813,0.328072
2.61359,0.0355825,-0.10649
2.6856,-0.0947219,-0.0625313
2.61547,0.0264771,-0.0456555
2.78589,-0.244714,-0.559327
2.68199,-0.103969,0
2.82529,-0.388021,-0.0332004
2.77879,-0.24409,-0.355066
2.61582,0.0264806,0.015204
2.76132,-0.242556,-0.0161106
2.69835,-0.104604,-0.290876
2.68925,-0.104251,0.0626244
2.83717,-0.389653,0.0333401
2.6914,-0.104334,-0.188342
2.77604,-0.243849,-0.227495
2.61476,0.0264699,0.0761008
2.76891,-0.243223,0.0485177
2.62249,0.0265481,-0.16808
2.84443,-0.390651,-0.167208
2.68144,-0.103948,0.156278
2.7551,-0.242009,0.112678
2.70304,-0.104785,-0.126006
2.6739,-0.103655,0.32856
2.6137,0.0264591,-0.10649
2.68925,-0.104251,-0.0626244
2.61954,0.0178309,-0.0457253
2.68962,-0.113199,0
2.83587,-0.39906,-0.0333401
2.77797,-0.253304,-0.355066
2.6199,0.0178333,0.0152272
2.76847,-0.252438,-0.0161571
2.70594,-0.113886,-0.291732
2.69688,-0.113504,0.0628105
2.83983,-0.399617,0.0333866
2.703,-0.113762,-0.18918
2.62683,0.0178805,0.0764499
2.76809,-0.252403,0.0485177
2.62655,0.0178786,-0.168336
2.85103,-0.401194,-0.167673
2.69305,-0.113343,0.156975
2.76224,-0.25187,0.113003
2.70267,-0.113748,-0.126006
2.68147,-0.112856,0.329535
2.61777,0.0178189,-0.106653
2.69289,-0.113336,-0.0627174
2.61959,0.00868691,-0.0457253
2.76247,-0.261616,-0.0807553
2.6972,-0.122951,0
2.84237,-0.410099,-0.0334332
2.78497,-0.263747,-0.356076
2.62794,0.00871461,0.0152737
2.77553,-0.262854,-0.0162036
2.70155,-0.123149,-0.291304
2.69647,-0.122918,0.0628105
2.84633,-0.41067,0.0334798
2.70259,-0.123196,-0.18918
2.62687,0.00871107,0.0764499
2.77118,-0.262441,0.0485875
2.6266,0.00871016,-0.168336
2.84961,-0.411143,-0.167673
2.69264,-0.122743,0.156975
2.7693,-0.262264,0.113329
2.68503,-0.122396,0.330022
2.62581,0.00870754,-0.106979
2.69647,-0.122918,-0.0628105
2.6276,-0,-0.0458649
2.70477,-0.132285,0
2.84891,-0.420691,-0.0335263
2.79593,-0.274143,-0.357592
2.63196,-0,0.015297
2.77863,-0.272447,-0.0162269
2.70907,-0.132496,-0.292161
2.70004,-0.132054,0.0629035
2.84891,-0.420691,0.0335263
2.71412,-0.132743,-0.190017
2.63488,-0,0.0766826
2.77825,-0.27241,0.0487271
2.6306,-0,-0.168592
2.86799,-0.423507,-0.168836
2.6962,-0.131866,0.157208
2.76842,-0.271446,0.113329
2.7178,-0.132923,-0.126751
2.69254,-0.131687,0.330997
2.76153,-0.27077,0.226519
2.62982,-0,-0.107142
2.70004,-0.132054,-0.0629035
2.63158,-0.0096453,-0.0459347
2.78046,-0.282919,-0.0813371
2.70426,-0.142198,0
2.85921,-0.432926,-0.033666
2.79095,-0.283987,-0.357087
2.63594,-0.00966127,0.0153202
2.78955,-0.283844,-0.0162966
2.71651,-0.142842,-0.293018
2.70353,-0.142159,0.0629966
2.8513,-0.431728,0.0335729
2.7176,-0.142899,-0.190296
2.63886,-0.009672,0.076799
2.78519,-0.283401,0.0488667
2.63857,-0.00967091,-0.169104
2.87036,-0.434614,-0.169068
2.70368,-0.142167,0.157673
2.77933,-0.282804,0.113818
2.69204,-0.141555,0.330997
2.71551,-0.142789,-0.0632757
2.63953,-0.0188884,-0.0460744
2.77946,-0.292623,-0.0813371
2.70774,-0.151861,0
2.86164,-0.443516,-0.0337126
2.80968,-0.295805,-0.359612
2.64389,-0.0189196,0.0153667
2.79252,-0.293998,-0.0163199
2.72394,-0.152769,-0.293874
2.715,-0.152267,0.0632757
2.85373,-0.442291,0.0336195
2.72505,-0.152831,-0.190854
2.80313,-0.295116,-0.230099
2.64281,-0.0189119,0.0769154
2.79612,-0.294377,0.0490762
2.6465,-0.0189383,-0.169615
2.88067,-0.446466,-0.169766
2.70715,-0.151827,0.157906
2.77833,-0.292504,0.113818
2.69549,-0.151173,0.331485
2.715,-0.152267,-0.0632757
2.78244,-0.30227,-0.0814535
2.71521,-0.161313,0
2.8641,-0.453629,-0.0337591
2.72239,-0.16174,-0.424288
2.80868,-0.30512,-0.359612
2.64381,-0.0276869,0.0153667
2.73136,-0.162272,-0.294731
2.72246,-0.161744,0.0634618
2.8641,-0.453629,0.0337591
2.72851,-0.162104,-0.191133
2.8061,-0.30484,-0.230424
2.64274,-0.0276757,0.0769154
2.79115,-0.303216,0.0490064
2.64243,-0.0276725,-0.16936
2.88706,-0.457265,-0.170231
2.71461,-0.161277,0.158371
2.79324,-0.303442,0.114469
2.72823,-0.162086,-0.127309
2.70686,-0.160817,0.332947
2.64166,-0.0276644,-0.10763
2.72246,-0.161744,-0.0634618
2.64334,-0.0369104,-0.0461442
2.78932,-0.312872,-0.0816862
2.72262,-0.171293,0
2.87829,-0.466182,-0.0339454
2.72576,-0.17149,-0.424903
2.81549,-0.315807,-0.360622
2.6557,-0.0370829,0.0154364
2.80238,-0.314337,-0.0163896
2.7268,-0.171556,-0.294303
2.72986,-0.171748,0.0636479
2.86645,-0.464263,0.0338057
2.73191,-0.171877,-0.191412
2.81294,-0.315522,-0.231075
2.65062,-0.037012,0.0771481
2.802,-0.314295,0.0492158
2.6503,-0.0370076,-0.169871
2.88939,-0.467979,-0.170464
2.71403,-0.170752,0.158371
2.78819,-0.312745,0.114306
2.73562,-0.172111,-0.127681
2.71421,-0.170764,0.333922
2.64555,-0.0369412,-0.107793
2.72587,-0.171497,-0.0635549
2.73394,-0.182068,0
2.88446,-0.478036,-0.0340385
2.82219,-0.327038,-0.361632
2.65554,-0.0468163,0.0154364
2.80518,-0.325067,-0.0164128
2.73409,-0.182078,-0.295159
2.72921,-0.181753,0.0636479
2.87657,-0.476728,0.0339454
2.74321,-0.182685,-0.192249
2.81969,-0.326748,-0.231726
2.65047,-0.0467268,0.0771481
2.80877,-0.325483,0.0493554
2.66212,-0.0469323,-0.170639
2.89553,-0.479871,-0.170929
2.71737,-0.180964,0.158603
2.79496,-0.323883,0.114632
2.73098,-0.18187,-0.127495
2.72545,-0.181502,0.335384
2.78405,-0.322618,0.228797
2.7332,-0.182018,-0.063741
2.72534,-0.190575,0
2.89074,-0.488933,-0.0341317
2.74421,-0.191894,-0.427977
2.82897,-0.337334,-0.362642
2.66337,-0.0557897,0.0154829
2.816,-0.335788,-0.0164826
2.74141,-0.191698,-0.296016
2.73259,-0.191081,0.063741
2.88286,-0.487599,0.0340385
2.73463,-0.191224,-0.191691
2.82651,-0.337041,-0.232377
2.65429,-0.0555995,0.0772645
2.66195,-0.05576,-0.170639
2.73269,-0.191088,0.159533
2.80578,-0.334569,0.11512
2.73834,-0.191483,-0.127868
2.72483,-0.190539,0.335384
2.79484,-0.333264,0.229773
2.66121,-0.0557444,-0.108444
2.73658,-0.19136,-0.0638341
2.6588,-0.0649797,-0.0464234
2.73264,-0.200673,0
2.89296,-0.499701,-0.0341782
2.74746,-0.201761,-0.428592
2.83565,-0.348174,-0.363652
2.66716,-0.0651839,0.0155062
2.82275,-0.346591,-0.0165291
2.74469,-0.201557,-0.296445
2.88902,-0.49902,0.0341317
2.74986,-0.201937,-0.192807
2.82531,-0.346905,-0.232377
2.65808,-0.0649621,0.0773808
2.8184,-0.346056,0.0495648
2.66972,-0.0652466,-0.17115
2.73598,-0.200918,0.159766
2.81253,-0.345335,0.115446
2.74562,-0.201626,-0.12824
2.73207,-0.200631,0.336359
2.79761,-0.343504,0.230099
2.66499,-0.065131,-0.108607
2.66655,-0.0744836,-0.046563
2.73591,-0.210517,0
2.90302,-0.51188,-0.0343179
2.75462,-0.211957,-0.429822
2.84229,-0.359065,-0.364663
2.66691,-0.0744937,0.0155062
2.8255,-0.356943,-0.0165523
2.74793,-0.211442,-0.296873
2.89514,-0.510491,0.0342248
2.75312,-0.211841,-0.193086
2.83595,-0.358264,-0.233353
2.66583,-0.0744634,0.0776135
2.82511,-0.356895,0.0497045
2.67347,-0.0746768,-0.171406
2.74323,-0.21108,0.160231
2.81924,-0.356152,0.115772
2.74889,-0.211515,-0.128426
2.83356,-0.357962,-0.149681
2.73927,-0.210775,0.337334
2.67274,-0.0746564,-0.108933
2.75112,-0.211687,-0.0642063
2.81515,-0.365625,-0.0826171
2.74712,-0.221028,0
2.90909,-0.523427,-0.034411
2.75781,-0.221888,-0.430437
2.84496,-0.369496,-0.365168
2.67463,-0.0840538,0.0155527
