2.77554,0.390076,-0.0815699
2.8002,0.254838,-0.262474
2.79171,0.254066,-0.163254
2.79268,0.392486,-0.147797
2.78877,0.382014,-0.0819189
2.80108,0.245063,-0.262474
2.78119,0.243323,0.0325019
2.79258,0.24432,-0.163254
2.79404,0.382736,-0.147797
2.77806,0.371661,-0.0815699
2.80183,0.236262,-0.262474
2.78592,0.234921,0.0325485
2.79334,0.235546,-0.163254
2.79523,0.373957,-0.147797
2.78331,0.362477,-0.0816862
2.7947,0.225838,-0.0326416
2.80661,0.226801,-0.262846
2.79897,0.364517,-0.230424
2.79016,0.225472,-0.163022
2.79255,0.363681,-0.147587
2.79249,0.353763,-0.0819189
2.80738,0.217002,-0.262846
2.80419,0.355245,-0.23075
2.78695,0.215422,-0.162789
2.79777,0.354432,-0.147797
2.77783,0.342059,-0.0814535
2.79222,0.206028,-0.032595
2.80018,0.206615,-0.262102
2.80541,0.345455,-0.23075
2.79167,0.205987,-0.163022
2.78067,0.342409,0.114143
2.78298,0.332836,-0.0815699
2.79691,0.196561,-0.261731
2.80264,0.335187,-0.230424
2.79237,0.196242,-0.163022
2.78127,0.471416,-0.131404
2.79621,0.334418,-0.147587
2.78015,0.32266,-0.0814535
2.79359,0.186531,-0.032595
2.80156,0.187063,-0.262102
2.7896,0.186264,0.0325485
2.80379,0.325403,-0.230424
2.79304,0.186494,-0.163022
2.7829,0.461706,-0.131404
2.80133,0.325117,-0.147797
2.78524,0.313399,-0.0815699
2.77172,0.449914,0
2.79023,0.176525,-0.0325485
2.80617,0.177533,-0.262474
2.79023,0.176525,0.0325485
2.80095,0.315167,-0.230099
2.79367,0.176742,-0.163022
2.78844,0.452628,-0.13159
2.79848,0.314889,-0.147587
2.78631,0.303674,-0.0815699
2.80677,0.167736,-0.262474
2.79083,0.166783,0.0325485
2.80599,0.305819,-0.230424
2.79029,0.166751,-0.162789
2.78121,0.303118,0.11398
2.78606,0.442265,-0.131404
2.79559,0.304685,-0.147378
2.79539,0.157266,-0.032595
2.79247,0.294486,-0.0163199
2.80336,0.157714,-0.262102
2.7874,0.156816,0.0325019
2.80704,0.296023,-0.230424
2.79085,0.15701,-0.162789
2.77828,0.29299,0.113818
2.78758,0.432538,-0.131404
2.79663,0.294925,-0.147378
2.77628,0.420864,0
2.80787,0.148137,-0.262474
2.78793,0.147085,0.0325019
2.79537,0.147477,-0.163022
2.78326,0.283694,0.11398
2.78908,0.422804,-0.131404
2.79765,0.285161,-0.147378
2.78138,0.273699,-0.0813371
2.78169,0.411758,0
2.78444,0.137157,-0.0324553
2.80042,0.137945,-0.261731
2.79242,0.137551,0.0325485
2.80111,0.27564,-0.229773
2.79587,0.137721,-0.163022
2.78658,0.412482,-0.131218
2.79862,0.275395,-0.147378
2.77834,0.26361,-0.0812208
2.77915,0.401473,0
2.79688,0.127985,-0.032595
2.80072,0.265733,-0.358097
2.80486,0.12835,-0.262102
2.7849,0.127436,0.0324553
2.80602,0.266236,-0.230099
2.80032,0.128142,-0.163254
2.78119,0.26388,0.113818
2.78801,0.402752,-0.131218
2.78721,0.254637,-0.0814535
2.77658,0.391211,0
2.79731,0.11822,-0.032595
2.79232,0.255104,-0.0162966
2.80927,0.118726,-0.262474
2.78932,0.117883,0.0325019
2.80693,0.256439,-0.230099
2.79277,0.118028,-0.162789
2.78939,0.393017,-0.131218
2.78189,0.382061,0
2.79771,0.108456,-0.032595
2.78921,0.245006,-0.0162734
2.79773,0.108456,-0.261359
2.78572,0.107991,0.0324553
2.80384,0.246291,-0.229773
2.79716,0.108434,-0.163022
2.77899,0.244108,0.113655
2.78283,0.382191,-0.130846
2.78095,0.2345,-0.0812208
2.79008,0.0984066,-0.0325019
2.80731,0.236723,-0.358602
2.79809,0.0986892,-0.261359
2.78208,0.0981246,0.0324088
2.80866,0.236837,-0.230099
2.79752,0.0986691,-0.163022
2.77982,0.234405,0.113655
2.78019,0.371944,-0.130659
2.8022,0.236292,-0.147378
2.78171,0.225278,-0.0812208
2.77649,0.362082,0
2.78639,0.0890267,-0.0324553
2.80808,0.227413,-0.358602
2.80238,0.0895376,-0.261731
2.78639,0.0890267,0.0324553
2.80148,0.226878,-0.229448
2.79783,0.0893922,-0.163022
2.78058,0.225186,0.113655
2.78141,0.362723,-0.130659
2.80296,0.226999,-0.147378
2.78248,0.215567,-0.0812208
2.78171,0.352892,0
2.79468,0.079528,-0.0325485
2.80094,0.216997,-0.357592
2.80666,0.0798688,-0.262102
2.78269,0.0791866,0.0324088
2.7868,0.353539,-0.196434
2.80225,0.217099,-0.229448
2.78323,0.215625,0.0487271
2.79812,0.079626,-0.163022
2.78135,0.215479,0.113655
2.78266,0.353013,-0.130659
2.79976,0.216905,-0.147169
2.75853,0.213711,0.225868
2.7872,0.206147,-0.0813371
2.77895,0.34269,0
2.79494,0.0697715,-0.0325485
2.80564,0.20751,-0.358097
2.80692,0.0700705,-0.262102
2.79094,0.0696716,0.0325019
2.80697,0.207609,-0.229773
2.7904,0.0696582,-0.162557
2.78209,0.205769,0.113655
2.7918,0.344274,-0.131032
2.76721,0.204668,0.226519
2.78023,0.481729,-0.114957
2.78378,0.47234,-0.0492856
2.77616,0.332511,0
2.80239,0.197436,-0.357592
2.78904,0.196496,-0.0162501
2.79918,0.0601004,-0.261359
2.78335,0.333372,0.0652298
2.78717,0.0598424,0.0324553
2.80768,0.197809,-0.229773
2.79462,0.0600024,-0.162789
2.7788,0.195774,0.113492
2.76393,0.194727,0.226193
2.77796,0.471352,-0.114795
2.78147,0.461966,-0.0492158
2.7806,0.186149,-0.0811044
2.7773,0.322819,0
2.79536,0.0502574,-0.0325485
2.80702,0.187918,-0.358097
2.7937,0.187027,-0.0162734
2.79938,0.0503296,-0.261359
2.78736,0.0501136,0.0324553
2.80835,0.188008,-0.229773
2.79082,0.0501758,-0.162557
2.77548,0.185807,0.113329
2.78223,0.323392,-0.130473
2.7939,0.18704,-0.14675
2.76062,0.184812,0.225868
2.77959,0.461653,-0.114795
2.77517,0.45097,-0.0490762
2.78123,0.176442,-0.0811044
2.77841,0.313121,0
2.78752,0.0403828,-0.0324553
2.80766,0.178118,-0.358097
2.80352,0.0406146,-0.261731
2.78352,0.0403249,0.0324088
2.80501,0.17795,-0.229448
2.79497,0.0404908,-0.162789
2.7801,0.17637,0.113492
2.80251,0.177792,-0.147169
2.77724,0.451306,-0.114632
2.78083,0.440938,-0.049146
2.78189,0.165762,-0.0811044
2.77959,0.302451,0
2.79165,0.0297225,-0.0325019
2.80763,0.0298926,-0.262102
2.78765,0.0296799,0.0324553
2.78869,0.303441,-0.196155
2.80567,0.167179,-0.229448
2.79062,0.166282,0.0487969
2.7991,0.0298018,-0.163022
2.78076,0.165694,0.113492
2.78453,0.302988,-0.130473
2.79919,0.166793,-0.146959
2.75792,0.164334,0.225542
2.77825,0.431586,-0.0490762
2.78239,0.157022,-0.0811044
2.77257,0.292878,0
2.79173,0.0209527,-0.0325019
2.80487,0.15829,-0.357592
2.79151,0.157537,-0.0162501
2.80771,0.0210726,-0.262102
2.78773,0.0209226,0.0324553
2.78566,0.29426,-0.195876
2.81017,0.158589,-0.229773
2.78714,0.15729,0.0487271
2.79119,0.0209486,-0.162557
2.78126,0.156958,0.113492
2.78944,0.294659,-0.130659
2.79571,0.157773,-0.14675
2.77578,0.421286,-0.0490064
2.77756,0.283605,0
2.79179,0.0112081,-0.0325019
2.80144,0.148289,-0.357087
2.78012,0.421943,0.0163431
2.79204,0.147792,-0.0162501
2.80379,0.0112563,-0.261731
2.78476,0.28434,0.0651368
2.78779,0.0111921,0.0324553
2.80274,0.148358,-0.229122
2.78631,0.422883,-0.180616
2.79524,0.011222,-0.162789
2.77381,0.146827,0.113166
2.78648,0.284515,-0.130473
2.80422,0.148436,-0.147169
2.76293,0.146251,0.225868
2.77786,0.421601,-0.114469
2.77328,0.411007,-0.0489365
2.78742,0.137791,-0.0812208
2.77853,0.273907,0
2.79581,0.00146425,-0.0325485
2.80987,0.138901,-0.358097
2.77761,0.411649,0.0163199
2.79254,0.138044,-0.0162501
2.80213,0.276233,-0.303299
2.79983,0.00146636,-0.261359
2.77981,0.00145587,0.0323622
2.8112,0.138967,-0.229773
2.78817,0.137828,0.0487271
2.78382,0.412569,-0.18036
2.79127,0.00146188,-0.162557
2.78628,0.137735,0.113655
2.78348,0.274394,-0.130287
2.79275,0.138055,-0.146541
2.75944,0.136408,0.225542
2.77931,0.411901,-0.114469
2.7747,0.401323,-0.0489365
2.78388,0.127876,-0.0811044
2.77947,0.264205,0
2.7958,-0.00829569,-0.0325485
2.80637,0.128909,-0.357592
2.78299,0.402523,0.0163431
2.79516,0.265697,-0.302442
2.80778,-0.00833125,-0.262102
2.78668,0.264891,0.0651368
2.7878,-0.00827195,0.0324553
2.78859,0.265072,-0.195876
2.79972,0.128603,-0.228797
2.79525,-0.00829407,-0.162789
2.78675,0.128007,0.113655
2.78442,0.264675,-0.130287
2.79721,0.128488,-0.14675
2.77639,0.254138,0
2.79175,-0.0180284,-0.0325019
2.80284,0.118944,-0.357087
2.78042,0.392248,0.0163199
2.80003,0.256301,-0.30287
2.80375,-0.0181059,-0.261731
2.79175,-0.0180284,0.0325019
2.80812,0.119168,-0.229448
2.78507,0.11819,0.0486573
2.78268,0.392566,-0.180104
2.80319,-0.0181022,-0.163254
2.77919,0.117941,0.113329
2.7893,0.255319,-0.130473
2.80163,0.118893,-0.146959
2.76431,0.117309,0.225868
2.78212,0.392487,-0.114469
2.78471,0.108439,-0.0811044
2.77328,0.244095,0
2.79567,-0.0278125,-0.0325485
2.78177,0.38254,0.0163199
2.80091,0.246526,-0.30287
2.81164,-0.0279713,-0.262474
2.78767,-0.0277329,0.0324553
2.80852,0.109366,-0.229448
2.78946,0.108624,0.0487271
2.78799,0.383395,-0.18036
2.79513,-0.027807,-0.162789
2.79018,0.245582,-0.130473
2.79804,0.108958,-0.14675
2.76072,0.107505,0.225542
2.78347,0.382774,-0.114469
2.77806,0.235233,0
2.80359,0.0998632,-0.357087
2.78699,0.373845,0.0163431
2.79418,0.0995281,-0.0162501
2.80755,-0.0372428,-0.262102
2.78528,0.235845,0.0650437
2.79156,-0.0370308,0.0325019
2.79117,0.236344,-0.195876
2.80887,0.100051,-0.229448
2.78529,0.373616,-0.180104
2.79901,-0.0371296,-0.163022
2.78392,0.0991628,0.113492
2.78699,0.23599,-0.130287
2.80637,0.0999622,-0.147169
2.78077,0.37301,-0.114306
2.776,0.362512,-0.0488667
2.77488,0.225212,0
2.79942,-0.0469084,-0.032595
2.80392,0.0900768,-0.357087
2.78828,0.364114,0.0163431
2.79451,0.0897746,-0.0162501
2.79943,-0.0469087,-0.261359
2.78608,0.226121,0.0650437
2.78742,-0.0467074,0.0324553
2.78318,0.363449,0.0816862
2.78658,0.363892,-0.180104
2.79886,-0.0468992,-0.163022
2.78425,0.0894451,0.113492
2.7878,0.226261,-0.130287
2.79472,0.0897813,-0.146541
2.77809,0.362784,-0.114143
2.77725,0.352818,-0.0488667
2.78568,0.0797573,-0.0811044
2.77565,0.215524,0
2.78724,-0.0564378,-0.0324553
2.80422,0.080288,-0.357087
2.78556,0.353874,0.0163199
2.79933,0.217363,-0.302442
2.80722,-0.0568423,-0.262102
2.78324,-0.0563568,0.0324088
2.8095,0.0804393,-0.229448
2.78047,0.353227,0.0815699
2.78783,0.354162,-0.180104
2.79868,-0.0566695,-0.163022
2.77656,0.0794961,0.113166
2.78459,0.216218,-0.130101
2.79901,0.080139,-0.14675
2.77934,0.353083,-0.114143
2.7745,0.342632,-0.0487969
2.77638,0.205834,0
2.79502,-0.066356,-0.0325485
2.77487,0.342679,0.0162501
2.79507,0.0702631,-0.0162501
2.80302,-0.0665459,-0.261731
2.79502,-0.066356,0.0325485
2.80578,0.0705322,-0.229122
2.77771,0.34303,0.0814535
2.7827,0.069952,0.0485875
2.78509,0.34394,-0.179849
2.79448,-0.066343,-0.162789
2.77682,0.0698042,0.113166
2.78533,0.206497,-0.130101
2.78055,0.34338,-0.114143
2.79078,-0.0760025,-0.0325019
2.80471,0.0607103,-0.357087
2.78002,0.333468,0.0162734
2.7913,0.06042,-0.0162269
2.81073,-0.0765461,-0.262474
2.79477,-0.0761114,0.0325485
2.77889,0.333332,0.0814535
2.79023,0.334692,-0.180104
2.79822,-0.0762053,-0.163022
2.77705,0.0601115,0.113166
2.7995,0.0605976,-0.14675
2.78174,0.333673,-0.114143
2.78174,0.186714,0
2.79849,-0.0859901,-0.032595
2.80887,0.0509909,-0.357592
2.78514,0.324223,0.0162966
2.80647,-0.0862353,-0.262102
2.78897,0.187199,0.0650437
2.79049,-0.0857445,0.0325019
2.79089,0.187328,-0.195597
2.8062,0.0509425,-0.229122
2.78004,0.323629,0.0814535
2.78742,0.324488,-0.179849
2.79794,-0.0859732,-0.163022
2.76925,0.0502716,0.112841
2.7867,0.187047,-0.130101
2.80369,0.0508969,-0.146959
2.76235,0.0501465,0.225542
2.78685,0.324422,-0.114306
2.77439,0.176496,0
2.79018,-0.095484,-0.0325019
2.80506,0.0411282,-0.357087
2.78228,0.314051,0.0162734
2.80217,-0.0958944,-0.261731
2.78618,-0.0953472,0.0324553
2.78115,0.313924,0.0814535
2.79128,0.0409261,0.0487271
2.7925,0.315204,-0.180104
2.79762,-0.0957387,-0.163022
2.78539,0.0408398,0.113492
2.78734,0.177319,-0.130101
2.79586,0.0409933,-0.146541
2.76251,0.0405044,0.225542
2.784,0.314244,-0.114143
2.77901,0.303861,-0.0487969
2.78665,0.0311286,-0.0811044
2.77898,0.167049,0
2.79382,-0.105374,-0.0325485
2.81313,0.0314244,-0.358097
2.78734,0.304771,0.0162966
2.8058,-0.105826,-0.262102
2.78583,-0.105073,0.0324553
2.81047,0.0313948,-0.229448
2.77826,0.303778,0.0813371
2.7874,0.031137,0.0486573
2.79359,0.305454,-0.180104
2.80126,-0.105655,-0.163254
2.77752,0.0310267,0.113166
2.78794,0.167588,-0.130101
2.79599,0.031233,-0.146541
2.7811,0.304089,-0.11398
2.79819,0.168204,-0.0652298
2.78403,0.294578,-0.0488667
2.77556,0.157121,0
2.79344,-0.115127,-0.0325485
2.77645,0.293776,0.0162269
2.80327,0.15869,-0.302442
2.80939,-0.115784,-0.262474
2.78944,-0.114962,0.0325019
2.78872,0.157866,-0.195318
2.80658,0.0215528,-0.229122
2.78328,0.294498,0.0814535
2.78669,0.29486,-0.179593
2.79688,-0.115269,-0.163022
2.77761,0.0213304,0.113166
2.78851,0.157854,-0.130101
2.76273,0.0212161,0.225542
2.78215,0.294379,-0.11398
2.78111,0.283967,-0.0487969
2.78011,0.147159,0
2.79699,-0.125543,-0.032595
2.77751,0.283599,0.0162269
2.80895,-0.12608,-0.262474
2.789,-0.125185,0.0325019
2.80664,0.0112667,-0.229122
2.78434,0.284296,0.0814535
2.79155,0.0112061,0.0487271
2.78776,0.284645,-0.179593
2.79644,-0.125518,-0.163022
2.78907,0.147633,-0.130101
2.76279,0.0110906,0.225542
2.78321,0.28418,-0.11398
2.77806,0.27435,-0.0487271
2.78058,0.13794,0
2.81069,0.139433,-0.437816
2.80536,0.00195913,-0.357087
2.7864,0.275173,0.0162734
2.80454,-0.135202,-0.262102
2.79656,-0.134817,0.032595
2.78975,0.138394,-0.195318
2.81065,0.00196282,-0.229448
2.78527,0.275062,0.0814535
2.79157,0.0019495,0.0487271
2.78869,0.275399,-0.179593
2.79601,-0.13479,-0.163022
2.78569,0.00194539,0.113492
2.78954,0.138384,-0.130101
2.76281,0.00192941,0.225542
2.78811,0.275343,-0.114143
2.77705,0.128049,0
2.81329,-0.00785501,-0.358097
2.78336,0.265067,0.0162501
2.79594,-0.00780657,-0.0162501
2.78809,-0.144164,0.0325019
2.79156,-0.00779434,0.0487271
2.78963,0.265664,-0.179593
2.79951,-0.144755,-0.163254
2.78168,-0.00776675,0.113329
2.80814,-0.00784061,-0.147169
2.76679,-0.00772516,0.225868
2.78508,0.26523,-0.11398
2.77593,0.254584,-0.0486573
2.77748,0.118354,0
2.79156,-0.154117,-0.0325485
2.80928,-0.017651,-0.357592
2.78427,0.255349,0.0162501
2.80124,0.119366,-0.302014
2.81148,-0.155217,-0.262846
2.78757,-0.153897,0.0325019
2.81059,-0.0176593,-0.229448
2.77916,0.25488,0.0812208
2.79054,0.255924,-0.179593
2.795,-0.154307,-0.163022
2.78563,-0.0175024,0.113492
2.79044,0.118906,-0.130101
2.8041,-0.0176184,-0.146959
2.78599,0.255506,-0.11398
2.78074,0.245728,-0.0487271
2.77786,0.109142,0
2.79503,-0.163608,-0.032595
2.77713,0.245409,0.0162036
2.79982,-0.0268775,-0.0162734
2.79765,0.109919,-0.301585
2.81095,-0.16454,-0.262846
2.79103,-0.163374,0.0325485
2.81052,-0.0269802,-0.229448
2.77999,0.245662,0.0812208
2.78745,-0.0267587,0.0486573
2.7874,0.246317,-0.179337
2.79447,-0.163576,-0.163022
2.79082,0.109651,-0.130101
2.80802,-0.0269562,-0.147169
2.76268,-0.026521,0.225542
2.78284,0.245914,-0.113818
2.78658,-0.0364781,-0.0811044
2.77822,0.0994454,0
2.79843,-0.17361,-0.0326416
2.80512,-0.0367208,-0.357087
2.78196,0.236053,0.0162269
2.79571,-0.0365976,-0.0162501
2.81036,-0.17435,-0.262846
2.79045,-0.173115,0.0325485
2.81041,-0.03679,-0.229448
2.78083,0.235957,0.0812208
2.78734,-0.036488,0.0486573
2.79389,-0.173328,-0.163022
2.78545,-0.0364633,0.113492
2.78719,0.0997664,-0.129915
2.78766,0.236537,-0.11398
2.79745,0.100134,-0.0651368
2.77855,0.0897475,0
2.79781,-0.183377,-0.0326416
2.80895,-0.0465775,-0.357592
2.77878,0.226017,0.0162036
2.79557,-0.0463557,-0.0162501
2.80178,-0.183638,-0.262102
2.78579,0.0899815,0.0648576
2.79382,-0.183115,0.032595
2.81026,-0.0465994,-0.229448
2.78163,0.226249,0.0812208
2.78719,-0.0462168,0.0486573
2.78905,0.226852,-0.179337
2.78131,-0.0461193,0.113329
2.78752,0.0900373,-0.129915
2.78847,0.226805,-0.11398
2.77921,0.215802,-0.0486573
2.78625,-0.0564161,-0.0811044
2.80111,-0.193906,-0.0326882
2.80876,-0.0568719,-0.357592
2.78357,0.216141,0.0162269
2.79538,-0.056601,-0.0162501
2.80506,-0.19418,-0.262474
2.78515,-0.192801,0.0325019
2.795,-0.0565934,0.0487969
2.79782,0.217247,-0.179849
2.79656,-0.193591,-0.163254
2.78512,-0.0563932,0.113492
2.79183,0.0799349,-0.130101
2.80358,-0.056767,-0.146959
2.76623,-0.0560108,0.225868
2.78928,0.216584,-0.11398
2.7981,0.0801144,-0.0651368
2.77995,0.206099,-0.0486573
2.78604,-0.0661424,-0.0811044
2.8044,-0.203973,-0.0327347
2.80854,-0.0666767,-0.357592
2.79916,-0.0664541,-0.0162734
2.8029,0.07046,-0.302014
2.80437,-0.203971,-0.262474
2.79243,-0.203103,0.032595
2.80587,-0.0666133,-0.229122
2.77521,0.205747,0.080988
2.79079,-0.0662552,0.0487271
2.7906,0.206888,-0.179337
2.79586,-0.203352,-0.163254
2.7849,-0.0661155,0.113492
2.79209,0.0701884,-0.130101
2.80336,-0.0665537,-0.146959
2.78205,0.206255,-0.113655
2.7846,0.197161,-0.0487271
2.77934,0.0606454,0
2.79174,-0.212363,-0.032595
2.80831,-0.0759905,-0.357592
2.78099,0.196905,0.0162036
2.81162,-0.213874,-0.263218
2.79058,0.0608907,0.0649507
2.79174,-0.212363,0.032595
2.81361,-0.076134,-0.229773
2.77986,0.196825,0.0811044
2.78656,-0.075402,0.0486573
2.79127,0.197633,-0.179337
2.80314,-0.213229,-0.16372
2.78467,-0.075351,0.113492
2.78831,0.0608412,-0.129915
2.78671,0.197309,-0.113818
2.78952,-0.0852274,-0.0812208
2.79896,-0.222741,-0.0326882
2.80972,0.0514966,-0.437201
2.80802,-0.0857929,-0.357592
2.77767,0.186927,0.0161804
2.81483,-0.224003,-0.263589
2.79099,-0.222106,0.032595
2.81332,-0.0859548,-0.229773
2.77654,0.186852,0.080988
2.79027,-0.0852505,0.0487271
2.78796,0.18762,-0.179081
2.78282,0.0510035,0.162092
2.7804,-0.0849487,0.113329
2.80684,-0.0857566,-0.147169
2.78339,0.187312,-0.113655
2.79877,0.0512959,-0.0651368
2.77793,0.177206,-0.0485875
2.77969,0.0412406,0
2.80215,-0.232841,-0.0327347
2.80771,-0.0955942,-0.357592
2.77431,0.176976,0.0161571
2.79833,-0.095275,-0.0162734
2.79094,0.0414074,0.0649507
2.79019,-0.231847,0.032595
2.79287,0.0414361,-0.195318
2.81699,-0.0959103,-0.230099
2.78117,0.177413,0.0811044
2.79396,-0.095126,0.0487969
2.7886,0.177887,-0.179081
2.7976,-0.232463,-0.163487
2.78008,-0.0946536,0.113329
2.81051,-0.0956897,-0.147378
2.78802,0.17785,-0.113818
2.78252,0.167749,-0.0486573
2.77982,0.0315374,0
2.79734,-0.242276,-0.0326882
2.81132,-0.105543,-0.358097
2.78689,0.168013,0.0162269
2.79398,-0.104892,-0.0162501
2.80922,-0.243305,-0.263218
2.78937,-0.241585,0.032595
2.80867,-0.105444,-0.229448
2.77778,0.167463,0.080988
2.79319,0.168392,-0.179337
2.80075,-0.242571,-0.16372
2.77973,-0.104357,0.113329
2.7888,0.0316393,-0.129915
2.80617,-0.10535,-0.147169
2.78862,0.168117,-0.113818
2.79906,0.0317557,-0.0651368
2.78709,0.158262,-0.0487271
2.77991,0.0218338,0
2.79647,-0.252039,-0.0326882
2.81094,-0.115356,-0.358097
2.77948,0.15783,0.0161804
2.7976,-0.114809,-0.0162734
2.79972,0.0219894,-0.301585
2.80836,-0.25311,-0.263218
2.78716,0.0218908,0.0648576
2.79249,-0.25168,0.0326416
2.81625,-0.115574,-0.230099
2.77835,0.157766,0.080988
2.79376,0.158641,-0.179337
2.80387,-0.252705,-0.163952
2.78335,-0.114224,0.113492
2.80978,-0.115308,-0.147378
2.7852,0.158155,-0.113655
2.79205,-0.124345,-0.0813371
2.79558,-0.261799,-0.0326882
2.80118,-0.124751,-0.0162966
2.81539,-0.263654,-0.263961
2.78722,0.0121616,0.0648576
2.78761,-0.261053,0.032595
2.81185,-0.125227,-0.229773
2.78687,0.148492,0.0812208
2.79281,-0.124378,0.0487969
2.79031,0.148676,-0.179081
2.79899,-0.262118,-0.16372
2.77894,-0.123761,0.113329
2.78895,0.0121692,-0.129915
2.80936,-0.125116,-0.147378
2.78573,0.148432,-0.113655
2.78413,0.138602,-0.0486573
2.79465,-0.271556,-0.0326882
2.78874,-0.133953,-0.0162269
2.81445,-0.27348,-0.263961
2.79124,0.00243582,0.0649507
2.79863,-0.271942,0.0327347
2.81538,-0.135232,-0.230099
2.78737,0.138763,0.0812208
2.78836,-0.133935,0.0487271
2.79081,0.138935,-0.179081
2.78647,-0.133844,0.113655
2.79297,0.00243733,-0.130101
2.8089,-0.134921,-0.147378
2.78624,0.138707,-0.113655
2.80164,-0.28211,-0.0327813
2.80957,-0.144785,-0.358097
2.78098,0.128715,0.0161804
2.79225,-0.143892,-0.0162501
2.81348,-0.283302,-0.263961
2.78324,-0.00728651,0.0647646
2.79368,-0.281309,0.0326882
2.81091,-0.144854,-0.229773
2.78783,0.129033,0.0812208
2.78788,-0.143667,0.0487271
2.79128,0.129192,-0.179081
2.77801,-0.143158,0.113329
2.78897,-0.00730151,-0.129915
2.79069,0.129165,-0.113818
2.79923,-0.00732839,-0.0651368
2.78503,0.119162,-0.0486573
2.79666,-0.291474,-0.0327347
2.81301,-0.154809,-0.358602
2.78141,0.119007,0.0161804
2.80455,-0.292296,-0.263218
2.78719,-0.0170262,0.0648576
2.81436,-0.154884,-0.230099
2.78028,0.118959,0.080988
2.79135,-0.153617,0.0487969
2.79171,0.119448,-0.179081
2.78148,-0.153074,0.113492
2.8039,-0.154308,-0.147169
2.79512,0.119594,-0.11398
2.80319,-0.0171239,-0.0652298
2.78143,0.109283,-0.0485875
2.79004,-0.163316,-0.0813371
2.79563,-0.301234,-0.0327347
2.80849,-0.164396,-0.358097
2.78181,0.109297,0.0161804
2.79916,-0.16385,-0.0162966
2.81539,-0.303364,-0.264333
2.79112,-0.0267936,0.0649507
2.7837,-0.299949,0.032595
2.80983,-0.164474,-0.229773
2.77668,0.109096,0.0808717
2.7961,0.109859,-0.179337
2.80697,-0.302456,-0.164417
2.78492,-0.163016,0.113655
2.80734,-0.164328,-0.147378
2.78754,0.109523,-0.113655
2.78179,0.099573,-0.0485875
2.77976,-0.0363891,0
2.79456,-0.310991,-0.0327347
2.78217,0.0995865,0.0161804
2.79857,-0.17362,-0.0162966
2.81432,-0.31319,-0.264333
2.79101,-0.0365363,0.0649507
2.79058,-0.310548,0.0326882
2.79693,-0.0366138,-0.195597
2.81322,-0.174528,-0.230099
2.78504,0.0996891,0.0811044
2.7942,-0.173348,0.0488667
2.79248,0.0999555,-0.179081
2.79796,-0.311369,-0.163952
2.78832,-0.172984,0.113818
2.78874,-0.0365066,-0.129915
2.7879,0.0997916,-0.113655
2.79681,-0.183313,-0.0815699
2.78362,-0.0461584,0
2.8014,-0.321656,-0.0328279
2.79795,-0.183387,-0.0162966
2.80925,-0.322557,-0.263961
2.79346,-0.320744,0.0327347
2.81259,-0.184347,-0.230099
2.77738,0.0897087,0.0808717
2.79358,-0.183101,0.0488667
2.79281,0.0902073,-0.179081
2.7877,-0.182716,0.113818
2.79259,-0.0463071,-0.130101
2.78823,0.0900594,-0.113655
2.79886,-0.0464111,-0.0651368
2.78242,0.0801502,-0.0485875
2.77944,-0.0557944,0
2.80026,-0.331433,-0.0328279
2.81454,-0.194343,-0.359107
2.7788,0.0800458,0.0161571
2.80128,-0.193428,-0.0163199
2.80811,-0.332361,-0.263961
2.78668,-0.0559398,0.0648576
2.79629,-0.330963,0.0327813
2.81193,-0.194163,-0.230099
2.78566,0.0802436,0.0811044
2.79292,-0.192851,0.0488667
2.7971,0.0805729,-0.179337
2.78672,-0.0559405,0.162324
2.77907,-0.191895,0.113492
2.79252,0.0804412,-0.113818
2.78268,0.0704372,-0.0485875
2.79148,-0.202544,-0.0814535
2.79512,-0.340722,-0.0327813
2.80988,-0.20388,-0.358602
2.78306,0.0704467,0.0161804
2.7966,-0.202916,-0.0162966
2.81484,-0.343125,-0.264705
2.79047,-0.0657611,0.0649507
2.78718,-0.339754,0.0326882
2.81919,-0.204555,-0.23075
2.78992,0.0706205,0.0812208
2.79622,-0.202889,0.0489365
2.79337,0.0707077,-0.179081
2.79851,-0.341135,-0.164185
2.77839,-0.201594,0.113492
2.7922,-0.0658018,-0.130101
2.80875,-0.203798,-0.147587
2.79279,0.0706929,-0.113818
2.78689,0.0617835,-0.0486573
2.79007,-0.349005,-0.0327347
2.81318,-0.213006,-0.359107
2.77927,0.0616145,0.0161571
2.79994,-0.212003,-0.0163199
2.80979,-0.351472,-0.264333
2.79025,-0.0745272,0.0649507
2.79403,-0.349501,0.0327813
2.81455,-0.213109,-0.230424
2.78214,0.0616781,0.080988
2.79158,-0.21137,0.0488667
2.79757,0.0620202,-0.179337
2.80931,-0.351412,-0.164882
2.78571,-0.210925,0.113818
2.79198,-0.0745734,-0.130101
2.81208,-0.212922,-0.147797
2.789,0.0618302,-0.113655
2.78709,0.052055,-0.0486573
2.78273,-0.0840479,0
2.7928,-0.359252,-0.0327813
2.80317,-0.222091,-0.0163431
2.81645,-0.362294,-0.265077
2.78997,-0.0842666,0.0649507
2.7928,-0.359252,0.0327813
2.80584,-0.222303,-0.229773
2.78633,0.0520409,0.0811044
2.79083,-0.221113,0.0488667
2.79378,0.05218,-0.179081
2.80014,-0.360197,-0.164417
2.78496,-0.220648,0.113818
2.7917,-0.0843187,-0.130101
2.7892,0.0520944,-0.113655
2.80336,-0.37106,-0.032921
2.81159,-0.233131,-0.359107
2.79436,-0.231703,-0.0162966
2.823,-0.37366,-0.26582
2.79364,-0.0946272,0.0650437
2.79939,-0.370535,0.0328744
2.81296,-0.233244,-0.230424
2.78251,0.0417681,0.080988
2.79,-0.231341,0.0488667
2.79794,0.0419998,-0.179337
2.79881,-0.370458,-0.164417
2.78413,-0.230854,0.113818
2.79536,-0.0946855,-0.130287
2.76925,-0.229621,0.226844
2.78937,0.0418711,-0.113655
2.78339,0.0320638,-0.0485875
2.78206,-0.103958,0
2.79412,-0.379766,-0.0328279
2.81076,-0.242944,-0.359107
2.79354,-0.241455,-0.0162966
2.81378,-0.382439,-0.265077
2.7853,-0.10408,0.0648576
2.79412,-0.379766,0.0328279
2.8161,-0.243405,-0.23075
2.78664,0.0321012,0.0811044
2.79714,-0.241767,0.0490064
2.79807,0.0322329,-0.179337
2.78134,-0.103932,0.162092
2.78331,-0.240571,0.113818
2.81363,-0.243192,-0.148006
2.76843,-0.239286,0.226844
2.7935,0.0321802,-0.113818
2.78349,0.0223478,-0.0485875
2.8007,-0.390622,-0.032921
2.78386,0.0223508,0.0161804
2.79268,-0.251205,-0.0162966
2.81243,-0.392259,-0.265077
2.78892,-0.113965,0.0649507
2.78485,-0.388412,0.0327347
2.8192,-0.253591,-0.231075
2.78673,0.0223738,0.0811044
2.79628,-0.251529,0.0490064
2.79418,0.0224336,-0.179081
2.80406,-0.391091,-0.164882
2.78245,-0.250285,0.113818
2.79464,-0.114198,-0.130287
2.81277,-0.253012,-0.148006
2.77155,-0.249305,0.22717
2.7896,0.0223968,-0.113655
2.78355,0.0131172,-0.0485875
2.79147,-0.398776,-0.0328279
2.81694,-0.262807,-0.360117
2.78392,0.013119,0.0161804
2.79581,-0.260836,-0.0163199
2.819,-0.402709,-0.26582
2.78453,-0.123036,0.0648576
2.79147,-0.398776,0.0328279
2.81041,-0.262198,-0.230424
2.78279,0.0131137,0.080988
2.79543,-0.260801,0.0490064
2.79823,0.0131864,-0.179337
2.80275,-0.400388,-0.164882
2.78057,-0.122861,0.162092
2.7816,-0.259511,0.113818
2.78357,0.00340076,-0.0485875
2.79798,-0.409677,-0.032921
2.79887,-0.270979,-0.0163431
2.82152,-0.413124,-0.266192
2.78808,-0.132945,0.0649507
2.79402,-0.409097,0.0328744
2.81344,-0.272391,-0.23075
2.77482,0.00339007,0.0807553
2.79451,-0.270557,0.0490064
2.80528,-0.410747,-0.165115
2.78864,-0.269989,0.114143
2.79379,-0.133218,-0.130287
2.76979,-0.268164,0.22717
2.78968,0.00340823,-0.113655
2.80048,-0.420034,-0.0329675
2.81504,-0.282467,-0.360117
2.78395,-0.0063166,0.0161804
2.79392,-0.280348,-0.0163199
2.824,-0.423561,-0.266564
2.7876,-0.142677,0.0649507
2.79653,-0.419441,0.032921
2.81247,-0.28221,-0.23075
2.78281,-0.00631404,0.080988
2.78956,-0.279911,0.0489365
2.79426,-0.00634001,-0.179081
2.80383,-0.420537,-0.165115
2.79563,-0.280519,0.114469
2.79331,-0.142969,-0.130287
2.77281,-0.278229,0.227495
2.79368,-0.00633868,-0.113818
2.78353,-0.016518,-0.0485875
2.79497,-0.429688,-0.032921
2.81398,-0.292782,-0.360117
2.79288,-0.290586,-0.0163199
2.81849,-0.433304,-0.266192
2.78705,-0.152893,0.0649507
2.79893,-0.430296,0.0329675
2.81935,-0.293341,-0.231401
2.79077,-0.0165609,0.0812208
2.79648,-0.290961,0.0490762
2.79821,-0.0166051,-0.179337
2.80227,-0.430811,-0.165115
2.78708,-0.152894,0.162557
2.79458,-0.290764,0.114469
2.77177,-0.28839,0.227495
2.79363,-0.0165779,-0.113818
2.78745,-0.0262719,-0.0486573
2.80136,-0.440685,-0.0330141
2.81294,-0.302603,-0.360117
2.77983,-0.0262001,0.0161571
2.79582,-0.300761,-0.0163431
2.82089,-0.443758,-0.266564
2.7865,-0.162621,0.0649507
2.79741,-0.440063,0.0329675
2.81435,-0.302754,-0.231075
2.7867,-0.0262648,0.0811044
2.79147,-0.300293,0.0490064
2.79414,-0.026335,-0.179081
2.8047,-0.44121,-0.165347
2.78254,-0.16239,0.162324
2.78958,-0.30009,0.114306
2.79222,-0.162954,-0.130287
2.8119,-0.302491,-0.148215
2.78956,-0.0262918,-0.113655
2.76618,-0.297572,0.507255
2.78334,-0.0359501,-0.0485875
2.7919,-0.44919,-0.032921
2.81581,-0.312859,-0.360622
2.78772,-0.0360066,0.0162036
2.80271,-0.311402,-0.0163896
2.81933,-0.453602,-0.266564
2.78193,-0.172099,0.0648576
2.78796,-0.448555,0.0328744
2.81327,-0.312576,-0.231075
2.77859,-0.0358887,0.0808717
2.79835,-0.310918,0.049146
2.79803,-0.0361397,-0.179337
2.78594,-0.172348,0.162557
2.79249,-0.310267,0.114469
2.79562,-0.172946,-0.130473
2.81479,-0.312745,-0.148425
2.76969,-0.307734,0.227495
2.79745,-0.0361323,-0.11398
2.78721,-0.0452447,-0.0486573
2.80224,-0.460391,-0.0330607
2.80166,-0.320695,-0.0163896
2.80578,-0.182917,-0.30287
2.82567,-0.46424,-0.267307
2.78533,-0.181584,0.0649507
2.79829,-0.459743,0.0330141
2.81222,-0.321904,-0.231075
2.78246,-0.0451676,0.080988
2.78936,-0.319287,0.0490064
2.81345,-0.462233,-0.166045
2.78536,-0.181586,0.162557
2.78747,-0.319071,0.114306
2.79503,-0.182216,-0.130473
2.79731,-0.0454087,-0.11398
2.768,-0.316841,0.507973
2.78702,-0.05546,-0.0486573
2.79659,-0.469996,-0.0330141
2.7794,-0.0553084,0.0161571
2.79649,-0.330492,-0.0163664
2.82788,-0.475254,-0.267679
2.79662,-0.192616,0.0652298
2.80053,-0.470659,0.0330607
2.79852,-0.192747,-0.196155
2.81498,-0.332677,-0.231401
2.78227,-0.0553655,0.080988
2.79214,-0.329977,0.0490762
2.79771,-0.0556726,-0.179337
2.8078,-0.47188,-0.165813
2.78467,-0.191793,0.162557
2.79434,-0.192459,-0.130473
2.81651,-0.332857,-0.148634
2.77143,-0.32753,0.227821
2.79713,-0.0556611,-0.11398
2.76682,-0.326985,0.507973
2.80459,-0.193165,-0.0654159
2.83064,-0.34455,-0.570309
2.7887,-0.201854,0
2.80676,-0.481785,-0.0331538
2.81632,-0.342808,-0.361127
2.78719,-0.0651971,0.0162036
2.79929,-0.340735,-0.0163896
2.81835,-0.483775,-0.266935
2.78396,-0.20151,0.0649507
2.80282,-0.481108,0.0331072
2.8138,-0.342501,-0.231401
2.78606,-0.0651706,0.0811044
2.79891,-0.340688,0.0492158
2.80148,-0.0655314,-0.179593
2.80614,-0.481678,-0.165813
2.78399,-0.201512,0.162557
2.78908,-0.339492,0.114469
2.79764,-0.202501,-0.130659
2.77027,-0.337202,0.227821
2.79691,-0.0654245,-0.11398
2.78659,-0.0739429,-0.0486573
2.80129,-0.489911,-0.0331072
2.82311,-0.352637,-0.362137
2.78697,-0.0739529,0.0162036
2.79821,-0.349527,-0.0163896
2.80771,-0.212099,-0.303299
2.82074,-0.493312,-0.267307
2.7873,-0.210557,0.0650437
2.78947,-0.487844,0.0329675
2.81271,-0.351339,-0.231401
2.78584,-0.0739229,0.0811044
2.79386,-0.348984,0.049146
2.79727,-0.0742263,-0.179337
2.80854,-0.491179,-0.166045
2.78334,-0.210258,0.162557
2.788,-0.348252,0.114469
2.79301,-0.210988,-0.130473
2.81027,-0.351034,-0.148425
2.7927,-0.0741049,-0.113818
2.78629,-0.0846421,-0.0486573
2.79121,-0.221634,0
2.79939,-0.500664,-0.0331072
2.82173,-0.363475,-0.362137
2.79067,-0.084775,0.0162269
2.79684,-0.360269,-0.0163896
2.80688,-0.222878,-0.303299
2.82666,-0.505542,-0.268051
2.78647,-0.221258,0.0650437
2.79939,-0.500664,0.0331072
2.81134,-0.362136,-0.231401
2.77754,-0.0843764,0.0808717
2.80043,-0.360731,0.0492856
2.80096,-0.0850877,-0.179593
2.81057,-0.502663,-0.166278
2.78251,-0.220943,0.162557
2.78665,-0.358955,0.114469
2.81287,-0.362333,-0.148634
2.79239,-0.0848275,-0.113818
2.80242,-0.222524,-0.0654159
2.78598,-0.0943675,-0.0486573
2.78644,-0.231045,0
2.79762,-0.510432,-0.0331072
2.78236,-0.0942449,0.0161804
2.8035,-0.371079,-0.0164361
2.81005,-0.233003,-0.303727
2.8288,-0.516121,-0.268423
2.78568,-0.230983,0.0650437
2.79762,-0.510432,0.0331072
2.79953,-0.232131,-0.196434
2.81006,-0.371948,-0.231401
2.78123,-0.0942066,0.080988
2.79123,-0.369455,0.049146
2.79666,-0.0947292,-0.179337
2.81665,-0.513904,-0.166743
2.7933,-0.369729,0.114795
2.79537,-0.231786,-0.130659
2.81159,-0.372149,-0.148634
2.79208,-0.0945743,-0.113818
2.7857,-0.239798,0
2.79994,-0.519949,-0.0331538
2.81533,-0.381648,-0.361632
2.79404,-0.103429,0.0162501
2.80232,-0.379885,-0.0164361
2.7969,-0.240762,0.0653229
2.79994,-0.519949,0.0331538
2.81283,-0.381309,-0.231726
2.78891,-0.103239,0.0812208
2.79402,-0.378759,0.0492158
2.80324,-0.520563,-0.166045
2.78496,-0.239735,0.162789
2.79608,-0.379039,0.114957
2.77332,-0.375954,0.228471
2.79576,-0.103493,-0.11398
2.7969,-0.240762,-0.0653229
2.7848,-0.250007,0
2.80194,-0.530952,-0.0332004
2.81391,-0.391964,-0.361632
2.78565,-0.113344,0.0162036
2.79299,-0.38905,-0.0163896
2.8174,-0.53388,-0.267679
2.78803,-0.250297,0.0651368
2.79801,-0.530208,0.0331538
2.81141,-0.391616,-0.231726
2.78452,-0.113298,0.0811044
2.79993,-0.113925,-0.179593
2.80524,-0.531577,-0.166278
2.78804,-0.250298,0.163022
2.79072,-0.388734,0.114795
2.79372,-0.250808,-0.130659
2.79936,-0.113902,-0.114143
2.8041,-0.540999,-0.0332469
2.79325,-0.122933,0.0162501
2.7996,-0.399439,-0.0164361
2.80754,-0.261436,-0.303727
2.82734,-0.545484,-0.268794
2.79515,-0.260282,0.0653229
2.79624,-0.539483,0.0331538
2.8101,-0.400937,-0.231726
2.78013,-0.122355,0.080988
2.79526,-0.39882,0.0492856
2.79555,-0.123034,-0.179337
2.80738,-0.541633,-0.16651
2.7872,-0.259542,0.163022
2.79337,-0.39855,0.114957
2.79685,-0.260441,-0.130846
2.80767,-0.400591,-0.148634
2.77852,-0.396432,0.229122
2.79897,-0.123184,-0.114143
2.80709,-0.261394,-0.0656021
2.79827,-0.550012,-0.0332004
2.82295,-0.412831,-0.363147
2.7968,-0.132872,0.0162734
2.79423,-0.40863,-0.0164128
2.82542,-0.55535,-0.268794
2.79024,-0.269653,0.0652298
2.79827,-0.550012,0.0332004
2.81263,-0.411321,-0.232052
2.78368,-0.132249,0.0811044
2.80177,-0.409733,0.0494252
2.79909,-0.132981,-0.179593
2.80939,-0.5522,-0.166743
2.79025,-0.269654,0.163254
2.79196,-0.408299,0.114957
2.81812,-0.412123,-0.149262
2.7781,-0.268479,0.342697
2.79453,-0.132764,-0.11398
2.80015,-0.56105,-0.0332469
2.7923,-0.142918,0.0162501
2.80063,-0.420056,-0.0164593
2.82727,-0.566484,-0.269166
2.79321,-0.280277,0.0653229
2.80407,-0.561836,0.0332935
2.81504,-0.422218,-0.232377
2.77918,-0.142246,0.080988
2.79234,-0.418812,0.0492856
2.81127,-0.563277,-0.166975
2.79045,-0.418529,0.114957
2.79492,-0.280448,-0.130846
2.80869,-0.421265,-0.148843
2.77709,-0.278659,0.342697
2.77167,-0.415713,0.228797
2.79402,-0.143006,-0.11398
2.80913,-0.281874,-0.0656951
2.83012,-0.434586,-0.572663
2.8021,-0.571621,-0.0332935
2.78379,-0.152227,0.0162036
2.79519,-0.429222,-0.0164361
2.7962,-0.290439,0.0654159
2.79818,-0.570821,0.0332469
2.81355,-0.432042,-0.232377
2.78266,-0.152165,0.0811044
2.80272,-0.430378,0.049495
2.79807,-0.153008,-0.179593
2.80928,-0.573087,-0.166975
2.78031,-0.288788,0.162789
2.77415,-0.425991,0.229122
2.79351,-0.152758,-0.11398
2.80415,-0.291265,-0.0656021
2.80018,-0.58091,-0.0332935
2.81848,-0.44237,-0.363147
2.78727,-0.161689,0.0162269
2.80165,-0.439729,-0.0164826
2.80757,-0.301034,-0.304156
2.82335,-0.585716,-0.269166
2.79124,-0.299283,0.0653229
2.80018,-0.58091,0.0332935
2.81604,-0.441988,-0.232702
2.78613,-0.161623,0.0812208
2.79732,-0.43905,0.0494252
2.79755,-0.162285,-0.179593
2.81128,-0.583211,-0.167208
2.79124,-0.299283,0.163487
2.79148,-0.438133,0.11512
2.81365,-0.441612,-0.149262
2.7806,-0.436424,0.229773
2.79697,-0.162252,-0.114143
2.80317,-0.300562,-0.0656021
2.78696,-0.308668,0
2.80205,-0.591507,-0.0333401
2.78669,-0.171417,0.0162269
2.8001,-0.449506,-0.0164826
2.82518,-0.59639,-0.269538
2.79018,-0.309025,0.0653229
2.79814,-0.590681,0.0332935
2.81842,-0.452447,-0.233028
2.78156,-0.171102,0.0811044
2.80367,-0.450079,0.0495648
2.80095,-0.172295,-0.179849
2.81313,-0.593845,-0.16744
2.79018,-0.309025,0.163487
2.78994,-0.447874,0.11512
2.81209,-0.45143,-0.149262
2.77802,-0.307678,0.343184
2.77512,-0.445496,0.229448
2.79639,-0.172014,-0.114143
2.79987,-0.601773,-0.0333401
2.81524,-0.462527,-0.363147
2.79402,-0.18215,0.0162734
2.80238,-0.460415,-0.0165058
2.8172,-0.322474,-0.305441
2.83077,-0.608415,-0.270281
2.79697,-0.320159,0.065509
2.79987,-0.601773,0.0333401
2.80887,-0.461481,-0.232377
2.78092,-0.181296,0.0811044
2.802,-0.460352,0.0495648
2.79632,-0.1823,-0.179593
2.81094,-0.604152,-0.16744
2.793,-0.319703,0.16372
2.79616,-0.459393,0.115446
2.81436,-0.462382,-0.149472
2.77688,-0.317858,0.343184
2.77347,-0.455664,0.229448
2.79175,-0.182003,-0.11398
2.79705,-0.191174,-0.0489365
2.80187,-0.611419,-0.0333866
2.81769,-0.472024,-0.363652
2.78545,-0.190382,0.0162269
2.80092,-0.469216,-0.0165058
2.81222,-0.330858,-0.305012
2.82884,-0.617305,-0.270281
2.79595,-0.328944,0.065509
2.79796,-0.610566,0.0333401
2.81134,-0.470962,-0.232702
2.78033,-0.190032,0.0811044
2.7966,-0.468492,0.049495
2.79971,-0.191356,-0.179849
2.81293,-0.613831,-0.167673
2.79198,-0.328476,0.16372
2.79471,-0.468175,0.115446
2.80162,-0.32961,-0.131404
2.81683,-0.471881,-0.149681
2.77981,-0.327044,0.343672
2.77595,-0.465034,0.229773
2.79515,-0.191045,-0.114143
2.79813,-0.478796,-0.0826171
2.80362,-0.622062,-0.0334332
2.81993,-0.482526,-0.364158
2.78876,-0.20039,0.0162501
2.79927,-0.47899,-0.0165058
2.81105,-0.340672,-0.305012
2.82667,-0.627175,-0.270281
2.79082,-0.33822,0.0654159
2.79972,-0.621195,0.0333866
2.80458,-0.339888,-0.19755
2.81754,-0.482117,-0.233353
2.78364,-0.200022,0.0812208
2.79495,-0.478251,0.049495
2.80301,-0.201414,-0.180104
2.81077,-0.623646,-0.167673
2.78685,-0.33774,0.163487
2.79699,-0.478601,0.115609
2.80045,-0.339388,-0.131404
2.81516,-0.481711,-0.149681
2.77865,-0.336746,0.343672
2.77431,-0.474721,0.229773
2.79447,-0.2008,-0.114143
2.80273,-0.339664,-0.0656951
2.79032,-0.348541,0
2.80523,-0.633214,-0.0334798
2.82205,-0.493542,-0.364663
2.792,-0.210911,0.0162734
2.79749,-0.489247,-0.0165058
2.80978,-0.350973,-0.305012
2.82435,-0.637531,-0.270281
2.78956,-0.348447,0.0654159
2.79742,-0.631453,0.0333866
2.82361,-0.493814,-0.234004
2.78688,-0.210525,0.0813371
2.80105,-0.48987,0.0496346
2.80225,-0.211686,-0.180104
2.81625,-0.635703,-0.168138
2.7856,-0.347952,0.163487
2.79128,-0.488161,0.115446
2.79919,-0.34965,-0.131404
2.77648,-0.485573,0.230099
2.7977,-0.211342,-0.114306
2.79087,-0.220626,-0.0488667
2.8069,-0.643897,-0.0335263
2.82031,-0.50339,-0.364663
2.79922,-0.221287,0.0163199
2.80364,-0.500415,-0.0165523
2.81643,-0.361793,-0.305869
2.82987,-0.649167,-0.271025
2.79626,-0.359201,0.0656021
2.7952,-0.641214,0.0333866
2.81794,-0.502967,-0.233679
2.79011,-0.220566,0.0814535
2.80326,-0.500347,0.0497045
2.80149,-0.221466,-0.180104
2.81791,-0.646422,-0.168371
2.78436,-0.357673,0.163487
2.78956,-0.497902,0.115446
2.80191,-0.359928,-0.13159
2.81165,-0.501843,-0.149681
2.77617,-0.35662,0.343672
2.77477,-0.495261,0.230099
2.79296,-0.220792,-0.114143
2.80085,-0.652294,-0.0334798
2.82644,-0.51416,-0.365673
2.79847,-0.230568,0.0163199
2.8059,-0.510425,-0.0165756
2.83158,-0.659451,-0.271397
2.79109,-0.367949,0.065509
2.79696,-0.651387,0.0334332
2.80087,-0.369239,-0.19755
2.81234,-0.511595,-0.233353
2.78538,-0.229489,0.0813371
2.80552,-0.510356,0.0497743
2.80075,-0.230755,-0.180104
2.81575,-0.655763,-0.168371
2.78712,-0.367426,0.16372
2.79183,-0.507865,0.115609
2.79674,-0.368695,-0.131404
2.80997,-0.511164,-0.149681
2.77497,-0.365825,0.343672
2.79222,-0.230052,-0.114143
2.80298,-0.369517,-0.0657882
2.78926,-0.240105,-0.0488667
2.80623,-0.664398,-0.0335729
2.81673,-0.523067,-0.364663
2.79362,-0.24048,0.0162966
2.80795,-0.521436,-0.0165988
2.81778,-0.38198,-0.306298
2.78972,-0.378177,0.065509
2.80233,-0.663477,0.0335263
2.8222,-0.524083,-0.23433
2.7885,-0.24004,0.0814535
2.7997,-0.519905,0.0497045
2.82498,-0.668839,-0.169068
2.79367,-0.378712,0.164185
2.79781,-0.519553,0.115934
2.80725,-0.380553,-0.131962
2.77755,-0.376526,0.344159
2.77517,-0.515349,0.230424
2.80954,-0.380863,-0.0659743
2.79711,-0.529531,-0.0828498
2.80389,-0.67419,-0.0335729
2.79276,-0.25023,0.0162966
2.80218,-0.53049,-0.0165756
2.79631,-0.389014,0.0656951
2.80389,-0.67419,0.0335729
2.82036,-0.533931,-0.23433
2.78367,-0.249415,0.0813371
2.79394,-0.528931,0.0496346
2.79902,-0.250791,-0.180104
2.81487,-0.676829,-0.168603
2.78047,-0.386811,0.163487
2.79598,-0.529316,0.115934
2.80195,-0.389799,-0.131776
2.77621,-0.386219,0.344159
2.77335,-0.525033,0.230424
2.79448,-0.250384,-0.114306
2.79631,-0.389014,-0.0656951
2.80541,-0.684922,-0.0336195
2.8208,-0.544222,-0.365673
2.79187,-0.259977,0.0162966
2.80424,-0.541026,-0.0165988
2.81111,-0.401081,-0.305869
2.82827,-0.690504,-0.271768
2.79493,-0.398773,0.0656951
2.79375,-0.682076,0.0334798
2.81848,-0.543773,-0.23433
2.79472,-0.260242,0.0816862
2.796,-0.539438,0.0497045
2.79813,-0.26056,-0.180104
2.81637,-0.687598,-0.168836
2.78701,-0.397642,0.163952
2.79019,-0.538316,0.115772
2.82005,-0.544078,-0.150518
2.77878,-0.396469,0.344647
2.77541,-0.535465,0.23075
2.79359,-0.260137,-0.114306
2.80285,-0.399903,-0.0658812
2.80312,-0.694221,-0.0336195
2.82288,-0.554338,-0.366178
2.80294,-0.270386,0.0163664
2.81028,-0.551864,-0.0166453
2.8137,-0.410975,-0.306298
2.82983,-0.700837,-0.27214
2.78964,-0.407461,0.0656021
2.79535,-0.692298,0.0335263
2.82448,-0.554653,-0.234981
2.78986,-0.269125,0.0815699
2.80597,-0.551019,0.0499139
2.81795,-0.697893,-0.169068
2.78962,-0.407459,0.164185
2.79623,-0.549106,0.116097
2.80714,-0.410017,-0.132148
2.81431,-0.552657,-0.150309
2.77352,-0.405107,0.344159
2.77754,-0.545434,0.231075
2.79669,-0.269783,-0.114469
2.80942,-0.410351,-0.0660673
2.79364,-0.279335,-0.0490064
2.79291,-0.417901,0
2.80068,-0.704001,-0.0336195
2.82092,-0.564188,-0.366178
2.798,-0.279771,0.0163431
2.80049,-0.560102,-0.0165988
2.79611,-0.41838,0.0657882
2.7968,-0.703026,0.0335729
2.81862,-0.563727,-0.234655
2.78493,-0.278464,0.0814535
2.80403,-0.56081,0.0499139
2.80026,-0.279997,-0.18036
2.78818,-0.417194,0.164185
2.79822,-0.559647,0.11626
2.80569,-0.419814,-0.132148
2.8202,-0.564044,-0.150728
2.77602,-0.415374,0.344647
2.77562,-0.555126,0.231075
2.80402,-0.419564,-0.0659743
2.79136,-0.428135,0
2.80195,-0.715251,-0.033666
2.82272,-0.575316,-0.366683
2.80093,-0.290437,0.0163664
2.80234,-0.571161,-0.0166221
2.81461,-0.431702,-0.306726
2.79455,-0.428625,0.0657882
2.80195,-0.715251,0.033666
2.82435,-0.575646,-0.235306
2.78787,-0.289082,0.0815699
2.79412,-0.569486,0.0497743
2.82062,-0.720015,-0.169533
2.78269,-0.426805,0.163952
2.79615,-0.569899,0.11626
2.80413,-0.430094,-0.132148
2.81812,-0.574377,-0.150728
2.7784,-0.426148,0.345134
2.77747,-0.566092,0.231401
2.79468,-0.289789,-0.114469
2.80246,-0.429838,-0.0659743
2.78992,-0.437389,0
2.80344,-0.725541,-0.0337126
2.8208,-0.584673,-0.366683
2.79598,-0.299298,0.0163431
2.80043,-0.580451,-0.0166221
2.79312,-0.43789,0.0657882
2.79957,-0.724539,0.033666
2.82242,-0.585009,-0.235306
2.79087,-0.29875,0.0816862
2.79613,-0.57956,0.0498441
2.81435,-0.728364,-0.169301
2.78915,-0.437268,0.164417
2.79033,-0.578357,0.116097
2.80269,-0.439391,-0.132148
2.82011,-0.584529,-0.150937
2.77697,-0.435359,0.345134
2.77558,-0.575299,0.231401
2.80497,-0.439748,-0.0660673
2.79233,-0.447758,0
2.80089,-0.735322,-0.0337126
2.82651,-0.596154,-0.367693
2.79889,-0.309495,0.0163664
2.79839,-0.590223,-0.0166221
2.78762,-0.447004,0.0656951
2.80089,-0.735322,0.0337126
2.82426,-0.59568,-0.235632
2.79378,-0.30893,0.0818026
2.80192,-0.590968,0.0499837
2.81951,-0.740212,-0.169766
2.7876,-0.447001,0.164417
2.7922,-0.588918,0.11626
2.80114,-0.449171,-0.132148
2.82196,-0.595194,-0.151146
2.77935,-0.445678,0.345621
2.77745,-0.585807,0.231726
2.79662,-0.309244,-0.114632
2.80342,-0.449537,-0.0660673
2.79344,-0.318767,-0.0490762
2.80604,-0.747153,-0.0338057
2.82829,-0.606849,-0.368198
2.7978,-0.319263,0.0163664
2.81195,-0.603344,-0.0167151
2.81787,-0.461949,-0.307583
2.79789,-0.458673,0.0659743
2.79831,-0.745095,0.0337126
2.82606,-0.606372,-0.235957
2.79666,-0.319134,0.0819189
2.79593,-0.599906,0.0499139
2.80005,-0.31952,-0.180616
2.82463,-0.752104,-0.170231
2.78603,-0.456729,0.164417
2.79955,-0.458946,-0.132148
2.81596,-0.604203,-0.150937
2.77386,-0.454735,0.345134
2.77929,-0.596335,0.232052
2.79552,-0.319004,-0.114632
2.80972,-0.460614,-0.0662534
2.79629,-0.328983,-0.049146
2.79702,-0.468563,0
2.79955,-0.755901,-0.0337591
2.82615,-0.616718,-0.368198
2.79666,-0.329027,0.0163664
2.82016,-0.472439,-0.308011
2.79232,-0.467776,0.0658812
2.79955,-0.755901,0.0337591
2.82004,-0.615383,-0.235632
2.77964,-0.327025,0.0814535
2.80163,-0.611367,0.0500535
2.82199,-0.76196,-0.170231
2.78835,-0.467111,0.16465
2.79583,-0.610101,0.116586
2.8137,-0.471357,-0.132893
2.77226,-0.464415,0.345134
2.80416,-0.469758,-0.0661604
2.79518,-0.338254,-0.049146
2.79151,-0.477162,0
2.80474,-0.767291,-0.0338523
2.82797,-0.626945,-0.368703
2.79953,-0.33878,0.0163896
2.81169,-0.623336,-0.0167383
2.82642,-0.483129,-0.308868
2.7947,-0.477707,0.0659743
2.80088,-0.766235,0.0338057
2.80831,-0.480033,-0.199224
2.82576,-0.626457,-0.236282
2.78648,-0.337201,0.0816862
2.79959,-0.620654,0.0500535
2.82715,-0.773421,-0.170696
2.79073,-0.477028,0.164882
2.79379,-0.619369,0.116586
2.80818,-0.480011,-0.132707
2.7707,-0.473605,0.345134
2.80652,-0.479728,-0.0662534
2.79001,-0.347514,-0.0490762
2.78983,-0.486903,0
2.8059,-0.778145,-0.0338988
2.79436,-0.348056,0.0163664
2.80169,-0.631388,-0.0166918
2.81688,-0.491624,-0.308011
2.79301,-0.487459,0.0659743
2.8059,-0.778145,0.0338988
2.80662,-0.489833,-0.199224
2.81967,-0.63544,-0.235957
2.78529,-0.346926,0.0816862
2.79351,-0.629544,0.0499837
2.82059,-0.782218,-0.170464
2.78511,-0.48608,0.16465
2.79162,-0.629118,0.116586
2.81436,-0.491185,-0.133079
2.77295,-0.483957,0.345621
2.80877,-0.490209,-0.0663465
2.7959,-0.498529,0
2.80688,-0.789507,-0.0339454
2.79703,-0.358804,0.0163896
2.82289,-0.503341,-0.308868
2.78727,-0.496991,0.0658812
2.80303,-0.788424,0.0338988
2.80873,-0.500817,-0.199504
2.82898,-0.648443,-0.236933
2.78796,-0.357641,0.0818026
2.80287,-0.642459,0.0501931
2.82539,-0.794713,-0.170929
2.78724,-0.496985,0.164882
2.78929,-0.639345,0.116586
2.80861,-0.500795,-0.132893
2.82282,-0.647031,-0.151774
2.77506,-0.494814,0.346109
2.80696,-0.500501,-0.0663465
2.80795,-0.800397,-0.033992
2.79973,-0.369088,0.0164128
2.80879,-0.654142,-0.0167616
2.82503,-0.513904,-0.309296
2.78945,-0.507433,0.0659743
2.79642,-0.797108,0.0338523
2.79066,-0.367893,0.0819189
2.79672,-0.651332,0.0501233
2.78942,-0.507426,0.165115
2.79093,-0.649984,0.116748
2.80684,-0.510596,-0.132893
2.82054,-0.65688,-0.151774
2.79746,-0.368789,-0.114957
2.80519,-0.510296,-0.0663465
2.79408,-0.378271,-0.0492158
2.79629,-0.518766,0
2.80899,-0.811303,-0.0340385
2.80239,-0.379396,0.0164361
2.80648,-0.663942,-0.0167616
2.81931,-0.523037,-0.308868
2.7916,-0.517896,0.0660673
2.8013,-0.809084,0.0339454
2.80909,-0.521141,-0.199783
2.82438,-0.668177,-0.236933
2.78936,-0.377632,0.0819189
2.80221,-0.662931,0.0502629
2.80065,-0.379161,-0.181128
2.81977,-0.814418,-0.170929
2.78763,-0.51716,0.165115
2.78865,-0.659723,0.116748
2.81683,-0.522577,-0.133451
2.82212,-0.667641,-0.151984
2.79839,-0.529267,0
2.81382,-0.82335,-0.0341317
2.79708,-0.388625,0.0164128
2.80804,-0.674669,-0.0167848
2.82528,-0.534353,-0.309725
2.80156,-0.529867,0.0663465
2.79462,-0.817734,0.0338988
2.82591,-0.678963,-0.237259
2.78803,-0.387367,0.0819189
2.7921,-0.67084,0.0501233
2.78973,-0.52763,0.165347
2.7941,-0.67132,0.117074
2.81499,-0.532406,-0.133451
2.80549,-0.53061,-0.0664395
2.80055,-0.5393,0
2.81874,-0.834948,-0.0342248
2.79578,-0.397898,0.0164128
2.80967,-0.684924,-0.0168081
2.82349,-0.543719,-0.309725
2.79193,-0.537642,0.0661604
2.79956,-0.829269,0.033992
2.80548,-0.54025,-0.199783
2.82752,-0.689274,-0.237584
2.78673,-0.39661,0.0819189
2.79764,-0.68199,0.0502629
2.79189,-0.537633,0.16558
2.79186,-0.680582,0.117074
2.81713,-0.542494,-0.133637
2.80764,-0.540667,-0.0665326
2.79463,-0.54879,0
2.81566,-0.845274,-0.0342248
2.82346,-0.554453,-0.447654
2.7943,-0.408143,0.0164128
2.80326,-0.694256,-0.0167848
2.82148,-0.554064,-0.309725
2.79387,-0.548642,0.0662534
2.81131,-0.552067,-0.200341
2.78921,-0.407399,0.0820353
2.80288,-0.694162,0.0504026
2.7899,-0.547862,0.16558
2.78935,-0.69081,0.117074
2.8112,-0.552046,-0.133451
2.80564,-0.550954,-0.0665326
2.79256,-0.41735,-0.0492856
2.81667,-0.855769,-0.0342714
2.8048,-0.41918,0.0164826
2.80482,-0.704523,-0.0168081
2.82353,-0.564196,-0.310153
2.79204,-0.557904,0.0662534
2.80555,-0.560605,-0.200062
2.7918,-0.417237,0.0821517
2.80056,-0.703453,0.0504026
2.78807,-0.557111,0.16558
2.79479,-0.702003,0.1174
2.81328,-0.562148,-0.133637
2.8038,-0.560254,-0.0665326
2.80121,-0.714019,-0.0841298
2.79475,-0.568597,0
2.80602,-0.863244,-0.0341782
2.79937,-0.428363,0.0164593
2.80622,-0.715297,-0.0168313
2.81764,-0.573256,-0.309725
2.8114,-0.571985,-0.20062
2.82787,-0.720815,-0.238235
2.79428,-0.427585,0.082268
2.80584,-0.7152,0.0505422
2.80157,-0.428701,-0.181639
2.79393,-0.568432,0.166045
2.79233,-0.711755,0.1174
2.80966,-0.571633,-0.0667187
2.79353,-0.437454,-0.0493554
2.80257,-0.724794,-0.0842462
2.80058,-0.579972,0
2.80181,-0.438751,0.0164826
2.80758,-0.72609,-0.0168546
2.82731,-0.585507,-0.31101
2.78807,-0.577382,0.0662534
2.8292,-0.73168,-0.238561
2.79277,-0.437336,0.082268
2.80333,-0.72499,0.0505422
2.79193,-0.578181,0.166045
2.78982,-0.721497,0.1174
2.81319,-0.582585,-0.133824
2.81548,-0.583058,-0.0669048
2.80776,-0.736601,-0.0844789
2.80245,-0.590569,0
2.819,-0.888826,-0.034411
2.79631,-0.447896,0.0164593
2.80503,-0.735886,-0.0168546
2.81746,-0.593733,-0.310153
2.78995,-0.587935,0.0663465
2.81124,-0.592421,-0.200899
2.83048,-0.742563,-0.238886
2.79122,-0.447082,0.082268
2.80078,-0.734771,0.0505422
2.78599,-0.5871,0.165813
2.78729,-0.731231,0.1174
2.81896,-0.594049,-0.134196
2.80169,-0.590409,-0.0666256
2.80037,-0.600348,0
2.80826,-0.896229,-0.0343179
2.79868,-0.458301,0.0164826
2.80631,-0.746701,-0.0168778
2.82315,-0.605231,-0.31101
2.81696,-0.603904,-0.201457
2.79359,-0.457468,0.0823844
2.80206,-0.745572,0.050612
2.79563,-0.599332,0.16651
2.81297,-0.603048,-0.13401
2.81134,-0.6027,-0.0669048
2.80503,-0.468898,0.0165291
