2.45325,0.584448,0.102745
2.4446,0.573375,-0.0730754
2.5099,0.460654,-0.029708
2.46117,0.577262,-0.0146925
2.51096,0.460848,-0.238309
2.40635,0.69001,0.0582509
2.52171,0.46282,0.0298477
2.51368,0.461348,-0.148836
2.45917,0.576793,0.102908
2.45048,0.565737,-0.0731918
2.53118,0.455431,-0.0299409
2.46706,0.569566,-0.0147158
2.51255,0.45208,-0.238309
2.40489,0.680516,0.0581579
2.52331,0.454014,0.0298477
2.52314,0.453984,-0.149301
2.46506,0.569104,0.103071
2.46281,0.568584,0.20634
2.46803,0.560724,-0.0736572
2.41176,0.673376,0
2.52881,0.445899,-0.0298943
2.46514,0.560066,-0.0146925
2.52196,0.44469,-0.239052
2.41496,0.674269,0.058344
2.52881,0.445899,0.0298943
2.4765,0.562648,0.0443291
2.52078,0.444481,-0.149068
2.47093,0.561382,0.103234
2.45827,0.549488,-0.0733081
2.40638,0.662828,0
2.5343,0.437749,-0.0299409
2.46708,0.551457,-0.0146925
2.51565,0.434528,-0.238309
2.40959,0.66371,0.0581579
2.53824,0.43843,0.0299874
2.48235,0.554872,0.0443989
2.53018,0.437038,-0.149534
2.46897,0.551881,0.103071
2.4745,0.553116,0.206991
2.46408,0.541763,-0.0734245
2.41254,0.655473,0
2.53975,0.429567,-0.0299874
2.4768,0.54456,-0.014739
2.52108,0.426409,-0.23868
2.41961,0.657393,0.058344
2.53975,0.429567,0.0299874
2.53563,0.42887,-0.149766
2.47869,0.544976,0.103397
2.47642,0.544476,0.206991
2.47377,0.534849,-0.0736572
2.42254,0.649119,0
2.54518,0.421353,-0.030034
2.4865,0.537602,-0.0147855
2.53434,0.419558,-0.239796
2.42575,0.649978,0.058437
2.54124,0.4207,0.0299874
2.54499,0.421321,-0.150231
2.43387,0.652155,0.146743
2.48448,0.537165,0.103559
2.47953,0.527041,-0.0737736
2.41706,0.638614,0
2.54269,0.411826,-0.0299874
2.48445,0.528087,-0.0147623
2.53972,0.411345,-0.240167
2.428,0.641506,0.058437
2.55059,0.413105,0.0300806
2.55039,0.413073,-0.150464
2.48635,0.528489,0.103559
2.48136,0.518383,-0.0737736
2.42701,0.632191,0
2.55201,0.4042,-0.0300806
2.48628,0.519412,-0.0147623
2.53721,0.401854,-0.239796
2.43797,0.635044,0.0586231
2.55201,0.4042,0.0300806
2.54393,0.402919,-0.149999
2.43837,0.635148,0.146743
2.496,0.521442,0.103885
2.48979,0.520144,0.207642
2.43023,0.633027,-0.058437
2.48297,0.510586,-0.0737736
2.43286,0.625559,0
2.55722,0.396794,-0.0301271
2.49574,0.51321,-0.0148088
2.54633,0.395103,-0.240539
2.43995,0.627382,0.0586231
2.56118,0.397408,0.0301737
2.55307,0.39615,-0.150464
2.44422,0.628479,0.146975
2.49371,0.512793,0.103722
2.49922,0.513926,0.208293
2.42833,0.624394,-0.058344
2.48866,0.502706,-0.07389
2.43503,0.617063,0
2.55859,0.387865,-0.0301271
2.49751,0.504495,-0.0148088
2.53981,0.385018,-0.239796
2.43825,0.617878,0.0585301
2.55859,0.387865,0.0301271
2.3742,0.726773,0.0722609
2.55839,0.387833,-0.150696
2.50724,0.506459,0.104211
2.50491,0.505988,0.208619
2.43825,0.617878,-0.0585301
2.4904,0.494016,-0.07389
2.43329,0.607589,0
2.56389,0.379516,-0.0301737
2.50711,0.49733,-0.0148553
2.55296,0.377899,-0.240911
2.44427,0.610331,0.0586231
2.56784,0.380102,0.0302203
2.3729,0.717324,0.0721445
2.55972,0.3789,-0.150696
2.45242,0.612366,0.147208
2.50115,0.496148,0.103885
2.50275,0.496465,0.208293
2.44427,0.610331,-0.0586231
2.50397,0.487176,-0.074239
2.44327,0.600577,0
2.56922,0.370688,-0.0302203
2.51284,0.488902,-0.0148785
2.55827,0.369109,-0.241283
2.45426,0.603278,0.0588092
2.57714,0.371831,0.0303134
2.51642,0.489599,0.044748
2.569,0.370657,-0.151161
2.51472,0.489268,0.104373
2.50846,0.48805,0.208619
2.44649,0.601369,-0.0586231
2.50164,0.478118,-0.0741227
2.45691,0.595297,0
2.57836,0.363282,-0.0303134
2.51837,0.481316,-0.0149017
2.56737,0.361734,-0.242026
2.46013,0.596077,0.0589023
2.58232,0.36384,0.0303599
2.38935,0.704131,0.0724936
2.56626,0.361578,-0.150929
2.4644,0.597111,0.147673
2.51633,0.480925,0.104373
2.51398,0.480477,0.208944
2.44847,0.593252,-0.0586231
2.5033,0.469385,-0.0741227
2.45508,0.58579,0
2.57565,0.353737,-0.0302668
2.38509,0.693836,0.0144368
2.51611,0.471787,-0.0148785
2.56467,0.35223,-0.241655
2.4622,0.587488,0.0589023
2.58753,0.35537,0.0304065
2.3918,0.695788,0.0724936
2.57146,0.353163,-0.151161
2.46647,0.588506,0.147673
2.52192,0.472877,0.104536
2.45442,0.585632,-0.0587162
2.45711,0.577216,0
2.58479,0.345804,-0.0303599
2.39518,0.687713,0.0144833
2.52561,0.464448,-0.014925
2.57378,0.344331,-0.242398
2.46423,0.578889,0.0589023
2.58876,0.346335,0.0304065
2.39421,0.687434,0.0724936
2.57664,0.344713,-0.151394
2.47239,0.580806,0.147906
2.53142,0.465516,0.104862
2.45445,0.576591,-0.117445
2.5212,0.463637,0.209269
2.46034,0.577974,-0.0588092
2.5143,0.453754,-0.0743554
2.45901,0.569064,0
2.58989,0.337747,-0.0304065
2.3936,0.678675,0.01446
2.53107,0.45678,-0.0149482
2.57886,0.336308,-0.24277
2.46614,0.570713,0.0589023
2.59386,0.338265,0.0304531
2.40032,0.680581,0.07261
2.58173,0.336683,-0.151627
2.47431,0.572603,0.147906
2.52901,0.456409,0.104699
2.52664,0.455981,0.209595
2.46614,0.570713,-0.0589023
2.51989,0.445231,-0.0744718
2.46888,0.561823,0
2.58715,0.327751,-0.0303599
2.40378,0.672052,0.0145065
2.58402,0.327355,-0.243142
2.59508,0.328756,0.0304531
2.5283,0.446718,-0.209595
2.39895,0.670703,0.0724936
2.54026,0.448831,0.0450272
2.59087,0.328222,-0.152092
2.54248,0.449223,0.105188
2.4701,0.562101,-0.118003
2.53222,0.447411,0.20992
2.46821,0.561671,-0.0589023
2.5293,0.437796,-0.0747045
2.47083,0.553201,0
2.60018,0.320184,-0.0304996
2.40225,0.662593,0.0144833
2.53427,0.438656,-0.0149482
2.59701,0.319793,-0.244257
2.60812,0.321161,0.0305928
2.40513,0.663387,0.07261
2.58407,0.3182,-0.151627
2.48613,0.556628,0.148371
2.54403,0.440345,0.105188
2.5377,0.439249,0.210246
2.46626,0.552178,-0.0588092
2.52695,0.427856,-0.0745881
2.48065,0.545861,0
2.60134,0.310652,-0.0304996
2.40853,0.654834,0.0145065
2.53586,0.429365,-0.0149482
2.59025,0.309328,-0.243513
2.47998,0.545713,0.0590884
2.61325,0.312075,0.0306393
2.41912,0.657715,0.0729591
2.59315,0.309674,-0.152092
2.49206,0.54837,0.148603
2.54563,0.431018,0.105188
2.47406,0.544411,-0.118003
2.47608,0.544854,-0.0589953
2.42183,0.650288,-0.0437706
2.47845,0.537218,0
2.6023,0.302478,-0.0304996
2.41057,0.647264,0.0145065
2.54904,0.423363,-0.015018
2.59517,0.301649,-0.243885
2.48559,0.538767,0.0591814
2.61025,0.303402,0.0305928
2.41732,0.649075,0.0728427
2.59411,0.301526,-0.152092
2.49377,0.540539,0.148603
2.54697,0.423019,0.105188
2.47967,0.537483,-0.118189
2.5485,0.423273,0.210897
2.48559,0.538767,-0.0591814
2.42022,0.640806,-0.0437008
2.47639,0.527729,0
2.41668,0.639869,0.0145298
2.5505,0.414462,-0.015018
2.60016,0.293034,-0.244257
2.49528,0.531754,0.0593675
2.61129,0.294288,0.0305928
2.47817,0.528107,-0.177181
2.54602,0.413734,-0.210571
2.4157,0.639609,0.0727263
2.60308,0.293363,-0.152557
2.49954,0.532663,0.148836
2.54843,0.414125,0.105188
2.48544,0.529656,-0.118375
2.42244,0.632354,-0.0437008
2.53905,0.403508,-0.0748209
2.60833,0.284736,-0.0305462
2.53939,0.403562,-0.327287
2.55983,0.406811,-0.0150645
2.61305,0.285252,-0.245372
2.49712,0.52304,0.0593675
2.62025,0.286039,0.0306859
2.60409,0.284274,-0.152557
2.50139,0.523934,0.148836
2.5617,0.407108,0.105676
2.49118,0.521796,-0.118561
2.54439,0.395257,-0.0749372
2.48785,0.512041,0
2.61328,0.276051,-0.0305928
2.42109,0.622982,0.0145298
2.55728,0.39726,-0.0150412
2.61799,0.276548,-0.245744
2.62522,0.277311,0.0307325
2.4857,0.511598,-0.17746
2.55673,0.397173,-0.211222
2.42785,0.624722,0.0729591
2.60904,0.275602,-0.152789
2.50711,0.516005,0.149068
2.57101,0.399391,0.106002
2.4969,0.513903,-0.118747
2.56067,0.397785,0.211548
2.4268,0.615426,-0.0437008
2.54971,0.386972,-0.0750536
2.49747,0.504938,0
2.61821,0.267332,-0.0306393
2.55391,0.38761,-0.328802
2.43101,0.616493,0.0145763
2.55866,0.38833,-0.0150412
2.61894,0.267407,-0.245744
2.50071,0.505594,0.0593675
2.63413,0.268958,0.0308256
2.49529,0.504499,-0.178019
2.43002,0.616242,0.0729591
2.61396,0.266898,-0.153022
2.50498,0.506458,0.148836
2.56843,0.389814,0.105839
2.49868,0.505183,-0.118747
2.51777,0.509042,0.315398
2.50463,0.506386,-0.0594606
2.42893,0.606953,-0.0437008
2.50314,0.496998,0
2.55917,0.379276,-0.329308
2.43702,0.608975,0.0145995
2.56395,0.379984,-0.0150645
2.61986,0.258265,-0.245744
2.5103,0.498421,0.0595536
2.63505,0.259763,0.0308256
2.49313,0.49501,-0.17774
2.44379,0.610666,0.0733081
2.57943,0.382278,0.0455159
2.61885,0.258166,-0.153254
2.51849,0.500046,0.149534
2.56978,0.380848,0.105839
2.49651,0.495681,-0.118561
2.51563,0.499479,0.31491
2.57127,0.381069,0.212199
2.4388,0.600382,-0.0438404
2.50093,0.487491,0
2.56441,0.370908,-0.329813
2.43913,0.600464,0.0145995
2.57714,0.372749,-0.0151342
2.62867,0.249872,-0.246488
2.51595,0.49042,0.0596467
2.63196,0.250184,0.030779
2.49092,0.48554,-0.17746
2.56469,0.370949,-0.211548
2.43814,0.60022,0.0730754
2.63166,0.250156,-0.153952
2.52022,0.491251,0.149534
2.579,0.373019,0.106165
2.50214,0.487728,-0.118747
2.52126,0.491454,0.315398
2.43327,0.599021,-0.102094
2.44477,0.592807,-0.0439103
2.50655,0.479509,0
2.56569,0.361954,-0.329813
2.44122,0.591945,0.0145995
2.58239,0.364309,-0.0151575
2.63349,0.241057,-0.246859
2.52158,0.482385,0.0597397
2.64078,0.241724,0.0308722
2.50044,0.478341,-0.178019
2.62854,0.240603,-0.15372
2.52584,0.4832,0.149766
2.58425,0.364572,0.106327
2.51168,0.480492,-0.11912
2.57889,0.363816,-0.136492
2.52686,0.483395,0.315885
2.447,0.593348,-0.102582
2.45061,0.585628,-0.0439801
2.56669,0.353419,-0.0754027
2.44316,0.583848,0.0145995
2.58358,0.355746,-0.0151575
2.64618,0.233374,-0.247975
2.64555,0.233319,0.0309187
2.50593,0.470785,-0.178298
2.57901,0.355116,-0.212524
2.44995,0.58547,0.0733081
2.58719,0.356243,0.0455857
2.63728,0.232589,-0.154185
2.53135,0.475561,0.149999
2.5894,0.356547,0.10649
2.51719,0.472899,-0.119306
2.58404,0.355809,-0.136702
2.53235,0.475748,0.316373
2.58296,0.35566,0.212849
2.44896,0.585232,-0.102582
2.6002,0.358034,0.478556
2.44885,0.575725,-0.0439103
2.5177,0.463447,0
2.6424,0.223282,-0.0308722
2.57209,0.34456,-0.330318
2.44918,0.575803,0.0146228
2.58487,0.346272,-0.0151575
2.64702,0.223672,-0.247975
2.52882,0.465493,0.0598328
2.65037,0.223955,0.0309653
2.51157,0.462318,-0.178577
2.58029,0.345659,-0.212524
2.45208,0.576484,0.0733081
2.59641,0.347818,0.0457253
2.63811,0.222919,-0.154185
2.53701,0.467001,0.150231
2.59069,0.347052,0.10649
2.51497,0.462945,-0.11912
2.54188,0.467899,0.317348
2.58819,0.346718,0.213175
2.45497,0.577165,-0.102745
2.60539,0.349022,0.479274
2.45474,0.568076,-0.0439801
2.5193,0.454656,0
2.64715,0.21438,-0.0309187
2.45897,0.569055,0.0146693
2.59003,0.337765,-0.0151807
2.65175,0.214753,-0.248347
2.53043,0.456664,0.0598328
2.65513,0.215026,0.0310118
2.51317,0.453549,-0.178577
2.58939,0.337682,-0.213175
2.46187,0.569725,0.0735409
2.60157,0.339271,0.0457951
2.65082,0.214677,-0.154882
2.53862,0.458142,0.150231
2.59981,0.339041,0.106816
2.52051,0.454873,-0.119306
2.53569,0.457613,0.316373
2.59729,0.338713,0.213826
2.45697,0.568593,-0.102745
2.45671,0.559504,-0.0439801
2.52481,0.446557,0
2.46094,0.560468,0.0146693
2.59912,0.329729,-0.0152272
2.50638,0.443296,-0.274168
2.65646,0.205803,-0.248718
2.53594,0.448525,0.0599259
2.65586,0.205757,0.0310118
2.51473,0.444774,-0.178577
2.59055,0.328642,-0.213175
2.46384,0.561128,0.0735409
2.65553,0.205731,-0.155115
2.5402,0.449279,0.150231
2.60891,0.33097,0.107142
2.52601,0.446769,-0.119492
2.59561,0.329283,-0.13712
2.54509,0.450143,0.317348
2.46284,0.560901,-0.102908
2.61167,0.331321,0.479991
2.46645,0.552674,-0.0441197
2.5303,0.438423,0
2.58737,0.319064,-0.331833
2.6082,0.321633,-0.0152737
2.51575,0.435901,-0.275025
2.66113,0.196822,-0.24909
2.54537,0.441035,0.060112
2.5202,0.436674,-0.178856
2.59564,0.320084,-0.2135
2.61182,0.322079,0.0459347
2.66021,0.196754,-0.155347
2.54963,0.441772,0.150696
2.60608,0.321372,0.106979
2.53149,0.43863,-0.119678
2.6007,0.320709,-0.13733
2.55056,0.441933,0.317835
2.46868,0.553174,-0.103071
2.62843,0.324128,0.482861
2.54143,0.440352,-0.0600189
2.46827,0.544492,-0.0441197
2.53568,0.4307,0
2.59235,0.310955,-0.332338
2.46861,0.544566,0.0146925
2.60528,0.312506,-0.0152505
2.66574,0.188278,-0.249462
2.54682,0.432593,0.060112
2.52951,0.429651,-0.179414
2.6046,0.312425,-0.214151
2.47151,0.545206,0.0736572
2.61287,0.313417,0.0459347
2.46359,0.54346,-0.161685
2.65687,0.187651,-0.155115
2.54714,0.432646,0.150464
2.6111,0.313204,0.107142
2.529,0.429565,-0.119492
2.55592,0.434138,0.318323
2.47441,0.545846,-0.103234
2.62558,0.314942,0.482144
2.47016,0.535872,-0.0441197
2.54112,0.422502,0
2.59342,0.301904,-0.332338
2.4744,0.536793,0.0147158
2.6143,0.304335,-0.015297
2.55226,0.424355,0.060205
2.6738,0.179469,0.0311981
2.53493,0.421473,-0.179693
2.60568,0.303331,-0.214151
2.4773,0.537422,0.0737736
2.61792,0.304756,0.0460045
2.47328,0.536549,-0.162196
2.66548,0.17891,-0.15558
2.55257,0.424407,0.150696
2.62012,0.305012,0.107467
2.53836,0.422044,-0.119864
2.55742,0.425213,0.318323
2.6136,0.304253,0.214802
2.4802,0.538052,-0.103397
2.62667,0.305774,0.482144
2.54832,0.423699,-0.060112
2.47984,0.528915,-0.0442593
2.53863,0.412987,0
2.60234,0.29374,-0.333348
2.61932,0.295656,-0.0153202
2.52795,0.411251,-0.275882
2.67494,0.170168,-0.250205
2.55373,0.415444,0.060205
2.6784,0.170389,0.0312447
2.53638,0.412622,-0.179693
2.61068,0.294681,-0.214477
2.48698,0.53044,0.0740063
2.47123,0.52708,-0.161941
2.67405,0.170112,-0.156045
2.55798,0.416136,0.150929
2.6172,0.295416,0.107304
2.53588,0.41254,-0.119678
2.55889,0.416284,0.318323
2.62257,0.296022,0.215453
2.48207,0.529391,-0.103397
2.63554,0.297487,0.483578
2.47775,0.519436,-0.0441895
2.544,0.404752,0
2.6073,0.285086,-0.333853
2.482,0.520327,0.014739
2.62431,0.286947,-0.0153435
2.52937,0.402424,-0.275882
2.68347,0.161309,-0.250949
2.55911,0.407156,0.0602981
2.54175,0.404393,-0.179972
2.61169,0.285567,-0.214477
2.63191,0.287777,0.046214
2.48087,0.52009,-0.162452
2.6826,0.161257,-0.15651
2.56336,0.407832,0.151161
2.62218,0.286714,0.107467
2.54519,0.404942,-0.12005
2.62076,0.286558,-0.138167
2.56033,0.40735,0.318323
2.48781,0.521545,-0.103559
2.64439,0.289141,0.485013
2.48739,0.512397,-0.0443291
2.54935,0.396484,0
2.60433,0.275565,-0.333348
2.4838,0.511659,0.014739
2.62928,0.278205,-0.0153667
2.53469,0.394203,-0.27631
2.68799,0.152165,-0.251321
2.56447,0.398834,0.0603911
2.54314,0.395518,-0.179972
2.61664,0.276867,-0.214802
2.6329,0.278588,0.046214
2.48267,0.511426,-0.162452
2.68315,0.151891,-0.15651
2.56477,0.398881,0.151161
2.63509,0.27882,0.107956
2.55449,0.397282,-0.120423
2.62175,0.277408,-0.138167
2.56566,0.399019,0.31881
2.48962,0.512857,-0.103559
2.64929,0.280322,0.485731
2.48916,0.503712,-0.0443291
2.55468,0.388184,0
2.61712,0.267684,-0.334863
2.63023,0.269025,-0.0153667
2.69646,0.143204,-0.252064
2.5698,0.390482,0.0604842
2.54845,0.387238,-0.180251
2.62156,0.268138,-0.215128
2.50024,0.505954,0.074239
2.62988,0.268989,0.0461442
2.48835,0.503549,-0.162708
2.68765,0.142736,-0.156743
2.56615,0.389927,0.151161
2.63207,0.269214,0.107793
2.55981,0.388964,-0.120609
2.63065,0.269068,-0.138586
2.57489,0.391254,0.319785
2.49531,0.504956,-0.103722
2.65025,0.271073,0.485731
2.56585,0.389881,-0.0603911
2.49491,0.495363,-0.0443989
2.69652,0.133298,-0.0314309
2.61808,0.25809,-0.334863
2.49525,0.495431,0.0147855
2.63518,0.259775,-0.0153899
2.69697,0.133319,-0.252064
2.57121,0.38106,0.0604842
2.70451,0.133692,0.0315241
2.5617,0.379649,-0.181088
2.63046,0.259309,-0.215779
2.50208,0.496787,0.074239
2.63881,0.260132,0.0462838
2.50193,0.496757,-0.163475
2.69613,0.133278,-0.157208
2.57546,0.381689,0.151627
2.63304,0.259564,0.107793
2.55727,0.378993,-0.120423
2.58023,0.382396,0.320273
2.49714,0.495807,-0.103722
2.65123,0.261357,0.485731
2.50439,0.488618,-0.0445385
2.56128,0.370911,0
2.69695,0.124354,-0.0314309
2.62683,0.250158,-0.335873
2.49688,0.487153,0.0147855
2.64399,0.251793,-0.0154364
2.55442,0.369918,-0.278024
2.70535,0.124741,-0.252808
2.58038,0.373677,0.0606703
2.63527,0.250962,-0.216104
2.50764,0.489252,0.0743554
2.64762,0.252138,0.0464234
2.49964,0.487692,-0.16322
2.70055,0.12452,-0.15744
2.57671,0.373145,0.151627
2.64185,0.251588,0.108119
2.56246,0.371082,-0.120609
2.63246,0.250695,-0.138586
2.58148,0.373837,0.320273
2.64321,0.251718,0.216755
2.50662,0.489053,-0.104048
2.66383,0.253682,0.487883
2.50608,0.479875,-0.0445385
2.56652,0.36253,0
2.62768,0.240989,-0.335873
2.51035,0.480692,0.0148553
2.64884,0.242929,-0.0154597
2.70975,0.115469,-0.25318
2.58167,0.364669,0.0606703
2.70536,0.115282,0.0315241
2.56422,0.362205,-0.181088
2.6401,0.242128,-0.21643
2.50933,0.480497,0.0743554
2.65246,0.243261,0.0464932
2.50525,0.479716,-0.163475
2.70496,0.115264,-0.157673
2.58195,0.364709,0.151859
2.65067,0.243097,0.108444
2.57166,0.363255,-0.120981
2.64525,0.2426,-0.139214
2.5867,0.36538,0.32076
2.50438,0.47955,-0.103885
2.66862,0.244744,0.488601
2.51953,0.473339,-0.044748
2.62561,0.231559,-0.527163
2.62851,0.231814,-0.335873
2.50808,0.471187,0.014832
2.65366,0.234032,-0.0154829
2.71014,0.106008,-0.25318
2.58689,0.3562,0.0607633
2.71374,0.106149,0.0316172
2.56547,0.353251,-0.181088
2.6449,0.23326,-0.216755
2.64931,0.233649,0.0464234
2.50691,0.470968,-0.163475
2.70933,0.105977,-0.157906
2.58716,0.356238,0.152092
2.65548,0.234193,0.108607
2.58082,0.355365,-0.121353
2.65006,0.233715,-0.139423
2.58796,0.356348,0.32076
2.5139,0.472281,-0.104211
2.67338,0.235772,0.489318
2.51724,0.463817,-0.0446782
2.63031,0.222724,-0.527948
2.57692,0.345667,0
2.71809,0.0968189,-0.0316637
2.64116,0.223643,-0.337389
2.52151,0.464605,0.0149017
2.65446,0.224768,-0.0154829
2.5621,0.343679,-0.278452
2.71845,0.0968317,-0.253923
2.58811,0.347168,0.0607633
2.72209,0.0969613,0.0317103
2.57855,0.345886,-0.181925
2.64967,0.224363,-0.21708
2.51655,0.463692,0.0744718
2.6541,0.224738,0.0464932
2.51639,0.463661,-0.163987
2.71767,0.0968039,-0.158371
2.58839,0.347206,0.152092
2.66027,0.22526,0.10877
2.58205,0.346355,-0.121353
2.59706,0.348369,0.321735
2.51553,0.463503,-0.104211
2.67027,0.226107,0.488601
2.59208,0.3477,-0.0608564
2.52278,0.455738,-0.044748
2.63889,0.214175,-0.529517
2.58208,0.337187,0
2.72241,0.0874581,-0.0317103
2.56706,0.335226,-0.402766
2.64193,0.214421,-0.337389
2.51918,0.455088,0.0148785
2.65921,0.215824,-0.0155062
2.72673,0.087597,-0.254667
2.59327,0.338649,0.0608564
2.72641,0.0875866,0.0317569
2.57579,0.336365,-0.181646
2.52996,0.457036,0.0748209
2.66682,0.216442,0.0467026
2.52192,0.455584,-0.164243
2.71799,0.0873161,-0.158371
2.59355,0.338685,0.152324
2.66104,0.215972,0.10877
2.57928,0.336822,-0.121167
2.525,0.45614,-0.104536
2.67888,0.217421,0.490036
2.52829,0.447626,-0.0448178
2.64353,0.205265,-0.530301
2.58721,0.328675,0
2.7267,0.0780684,-0.0317569
2.57606,0.327259,-0.403996
2.65057,0.205812,-0.338399
2.52863,0.447686,0.014925
2.66394,0.206849,-0.0155294
2.57233,0.326785,-0.279309
2.72702,0.0780776,-0.254667
2.60237,0.330602,0.0610425
2.7267,0.0780684,0.0317569
2.58486,0.328377,-0.182204
2.6631,0.206784,-0.218057
2.53154,0.448201,0.0748209
2.67155,0.20744,0.0467725
2.52743,0.447473,-0.164499
2.72626,0.0780559,-0.158836
2.60264,0.330635,0.152789
2.66576,0.206991,0.108933
2.59233,0.329326,-0.121725
2.66431,0.206879,-0.140051
2.53051,0.448019,-0.104699
2.68355,0.208372,0.490753
2.60237,0.330602,-0.0610425
2.53772,0.440165,-0.0449574
2.59231,0.320133,0
2.56934,0.317296,-0.402766
2.65919,0.197145,-0.339409
2.53412,0.439541,0.0149482
2.66863,0.197845,-0.0155527
2.58135,0.318779,-0.280166
2.73126,0.0686587,-0.255039
2.60351,0.321517,0.0610425
2.58203,0.318864,-0.181925
2.6638,0.197488,-0.218057
2.53309,0.439362,0.0748209
2.67226,0.198114,0.0467725
2.53291,0.439331,-0.164755
2.74249,0.0689409,-0.159766
2.60774,0.322038,0.153022
2.67444,0.198276,0.109258
2.59347,0.320276,-0.121725
2.669,0.197873,-0.14026
2.53206,0.439184,-0.104699
2.69211,0.199586,0.492188
2.60351,0.321517,-0.0610425
2.53522,0.431077,-0.0448876
2.65269,0.187822,-0.53187
2.6013,0.312489,0
2.73516,0.0596823,-0.03185
2.5743,0.309246,-0.403381
2.64795,0.187486,-0.337894
2.53162,0.430465,0.014925
2.67725,0.18956,-0.0155992
2.58634,0.310692,-0.280594
2.73147,0.0596017,-0.255039
2.61251,0.313836,0.0612286
2.58704,0.310776,-0.182204
2.6724,0.189217,-0.218708
2.53848,0.431631,0.0749372
2.67689,0.189535,0.0468423
2.53042,0.43026,-0.164499
2.7427,0.0598467,-0.159766
2.60879,0.31339,0.153022
2.67109,0.189124,0.109096
2.59451,0.311674,-0.121725
2.67363,0.189304,-0.14047
2.52956,0.430116,-0.104536
2.70453,0.191492,0.494341
2.53671,0.422224,-0.0448876
2.66116,0.179087,-0.533439
2.60237,0.303407,0
2.74735,0.0503535,-0.0319897
2.57929,0.300715,-0.403996
2.65651,0.178774,-0.338904
2.6779,0.180213,-0.0155992
2.58741,0.301661,-0.280594
2.73963,0.050212,-0.255782
2.61358,0.304714,0.0612286
2.59207,0.302205,-0.182483
2.67304,0.179886,-0.218708
2.53997,0.422766,0.0749372
2.68552,0.180726,0.0469819
2.53584,0.422079,-0.164755
2.74688,0.050345,-0.159999
2.61384,0.304743,0.153254
2.67971,0.180335,0.109421
2.60352,0.303541,-0.122098
2.67826,0.180237,-0.140679
2.62241,0.305743,0.324172
2.53894,0.422595,-0.104862
2.61358,0.304714,-0.0612286
2.60744,0.294316,0
2.75152,0.0403429,-0.0320363
2.5843,0.291704,-0.404611
2.66507,0.16954,-0.339914
2.54648,0.414265,0.0149947
2.67854,0.170398,-0.0155992
2.74378,0.0402294,-0.256154
2.61468,0.295133,0.0612286
2.75152,0.0403429,0.0320363
2.60109,0.293599,-0.183041
2.68164,0.170595,-0.219359
2.55334,0.415381,0.0752863
2.69015,0.171136,0.0470517
2.54131,0.413424,-0.16501
2.74306,0.0402189,-0.159766
2.68434,0.170767,0.109584
2.60462,0.293997,-0.122098
2.62351,0.296129,0.324172
2.54441,0.413929,-0.105025
2.70583,0.172134,0.494341
2.61866,0.295581,-0.0613216
2.54749,0.405763,-0.0450272
2.66626,0.16074,-0.534224
2.75964,0.0313083,-0.0321294
2.59311,0.283992,-0.40584
2.66957,0.16094,-0.340419
2.54784,0.405818,0.0149947
2.68708,0.161995,-0.0156457
2.59736,0.284457,-0.281451
2.74788,0.0311749,-0.256526
2.61962,0.286895,0.0613216
2.60205,0.284971,-0.183041
2.5547,0.406911,0.0752863
2.6947,0.162454,0.0471215
2.54661,0.405621,-0.165266
2.75515,0.0312575,-0.160464
2.62384,0.287357,0.15372
2.69287,0.162344,0.10991
2.60955,0.285792,-0.122284
2.62843,0.287859,0.32466
2.55366,0.406745,-0.10535
2.71817,0.16387,0.496493
2.61962,0.286895,-0.0613216
2.55285,0.397482,-0.045097
2.67072,0.151654,-0.535008
2.61336,0.276981,0
2.75973,0.0216745,-0.0321294
2.67804,0.15207,-0.341429
2.5611,0.398767,0.0150645
2.69561,0.153067,-0.0156922
2.6102,0.276645,-0.282736
2.75195,0.0216134,-0.256897
2.63254,0.279013,0.0616008
2.75973,0.0216745,0.0321294
2.61097,0.276727,-0.183599
2.55216,0.397375,0.0751699
2.70323,0.1535,0.0472611
2.5559,0.397957,-0.165778
2.75924,0.0216706,-0.160696
2.62483,0.278196,0.15372
2.68943,0.152716,0.109747
2.61848,0.277523,-0.122656
2.69595,0.153086,-0.141516
2.55112,0.397213,-0.105188
2.71873,0.15438,0.496493
2.62459,0.27817,-0.0614147
2.56213,0.389774,-0.0452366
2.67907,0.142749,-0.536577
2.62227,0.268674,0
2.75979,0.012043,-0.0321294
2.6029,0.266689,-0.40707
2.68252,0.142933,-0.341934
2.55456,0.388623,0.015018
2.69613,0.143659,-0.0156922
2.60719,0.267129,-0.282308
2.75997,0.0120438,-0.257641
2.62952,0.269416,0.0615077
2.76379,0.0120604,0.032176
2.55748,0.389067,0.0752863
2.70375,0.144065,0.0472611
2.55332,0.388434,-0.165522
2.77128,0.0120931,-0.161394
2.63373,0.269847,0.154185
2.70192,0.143967,0.110235
2.62341,0.26879,-0.122842
2.63827,0.270313,0.325635
2.54854,0.387707,-0.105025
2.72318,0.1451,0.49721
2.6335,0.269824,-0.0616008
2.55952,0.380239,-0.0451668
2.62319,0.259518,0
2.77181,0.00241919,-0.0322691
2.60381,0.257601,-0.40707
2.69093,0.133963,-0.342945
2.56382,0.380879,0.0150645
2.70061,0.134445,-0.0157154
2.77195,0.00241931,-0.258756
2.6384,0.261023,0.0616939
2.77981,0.00242617,0.0323622
2.62078,0.259279,-0.184157
2.56278,0.380724,0.0754027
2.71223,0.135023,0.0474007
2.56256,0.380692,-0.166034
2.76731,0.00241526,-0.161161
2.7064,0.134733,0.110398
2.62831,0.260024,-0.123028
2.6471,0.261883,0.32661
2.55778,0.379982,-0.10535
2.7276,0.135788,0.497928
2.63442,0.260629,-0.0616008
2.56874,0.372451,-0.0453064
2.62807,0.25074,0
2.7758,-0.0072661,-0.0323156
2.69534,0.124753,-0.34345
2.56909,0.372501,0.0150877
2.70506,0.125202,-0.0157387
2.61691,0.249676,-0.283165
2.76796,-0.00724557,-0.258385
2.63532,0.251432,0.0616008
2.7798,-0.00727657,0.0323622
2.62564,0.250509,-0.184436
2.572,0.372924,0.0756354
2.71668,0.12574,0.0474705
2.56387,0.371745,-0.166034
2.77928,-0.00727521,-0.161859
2.63952,0.251833,0.154417
2.70685,0.125286,0.110398
2.63317,0.251228,-0.123214
2.65195,0.253019,0.327097
2.57096,0.372772,-0.105839
2.73592,0.126631,0.499363
2.63532,0.251432,-0.0616008
2.56607,0.362921,-0.0452366
2.69609,0.115357,-0.539715
2.78776,-0.0170295,-0.0324553
2.62129,0.240863,-0.40953
2.69973,0.115512,-0.343955
2.57038,0.363531,0.0150877
2.71347,0.116101,-0.0157852
2.62173,0.240903,-0.283593
2.7719,-0.0169326,-0.258756
2.64016,0.242597,0.0616939
2.77976,-0.0169806,0.0323622
2.62649,0.241341,-0.184436
2.58517,0.365623,0.0759845
2.72509,0.116598,0.0476102
2.56516,0.362792,-0.166034
2.77924,-0.0169774,-0.161859
2.64834,0.243348,0.154882
2.71127,0.116006,0.110561
2.63801,0.2424,-0.123401
2.65282,0.24376,0.327097
2.56829,0.363235,-0.105676
2.74028,0.117247,0.50008
2.64414,0.242963,-0.0617869
2.57524,0.355054,-0.0453763
2.70477,0.10627,-0.0787772
2.7004,0.106098,-0.540499
2.64171,0.233442,0
2.78768,-0.0267612,-0.0324553
2.62212,0.231711,-0.40953
2.70408,0.106243,-0.34446
2.58352,0.356194,0.0151575
2.72185,0.106941,-0.0158317
2.63047,0.232449,-0.28445
2.78377,-0.0267236,-0.259872
2.65294,0.234435,0.061973
2.6313,0.232522,-0.184715
2.58643,0.356596,0.0759845
2.73347,0.107398,0.0477498
2.57432,0.354926,-0.166545
2.78715,-0.0267561,-0.162324
2.65315,0.234453,0.155115
2.72364,0.107011,0.111049
2.66156,0.235197,0.328072
2.5735,0.354813,-0.105839
2.74853,0.10799,0.501515
2.65294,0.234435,-0.061973
2.58043,0.346595,-0.0454461
2.70467,0.0968124,-0.541284
2.64649,0.224558,0
2.79557,-0.036596,-0.0325485
2.62291,0.222557,-0.40953
2.71236,0.0970878,-0.34547
2.58474,0.347175,0.0151575
2.72621,0.0975833,-0.0158549
2.64316,0.224275,-0.285735
2.78764,-0.0364922,-0.260243
2.65374,0.225173,0.061973
2.79957,-0.0366484,0.032595
2.64004,0.224011,-0.185273
2.58369,0.347034,0.0758681
2.73383,0.0978563,0.0477498
2.5795,0.34647,-0.166801
2.79103,-0.0365366,-0.162557
2.65793,0.225529,0.155347
2.72399,0.0975041,0.111049
2.65557,0.225328,-0.124145
2.66632,0.226241,0.32856
2.58265,0.346893,-0.106165
2.75676,0.0986769,0.50295
2.65773,0.225512,-0.0620661
2.72143,0.0879022,-0.0792426
2.65523,0.215968,0
2.79943,-0.0464199,-0.032595
2.62761,0.213721,-0.410145
2.70872,0.0874918,-0.344965
2.58594,0.338151,0.0151575
2.73053,0.0881962,-0.0158782
2.63996,0.214726,-0.285307
2.79546,-0.0463541,-0.260987
2.66248,0.216558,0.0621591
2.80342,-0.0464862,0.0326416
2.64479,0.215118,-0.185552
2.58885,0.338532,0.0759845
2.73816,0.0884425,0.0478196
2.58465,0.337982,-0.167057
2.79089,-0.0462783,-0.162557
2.66268,0.216574,0.15558
2.7363,0.0883826,0.111538
2.67105,0.217255,0.329047
2.58384,0.337876,-0.106165
2.75315,0.088927,0.502233
2.6585,0.216233,-0.0620661
2.58267,0.329473,-0.0454461
2.71309,0.0791008,-0.542853
2.6559,0.207624,0
2.80726,-0.0553728,-0.0326882
2.63221,0.205772,-0.41076
2.72088,0.0793278,-0.34648
2.59493,0.331037,0.015204
2.73079,0.0796168,-0.0158782
2.64062,0.20643,-0.285307
2.79928,-0.0552154,-0.261359
2.65917,0.20788,0.0620661
2.81126,-0.0554517,0.0327347
2.64943,0.207119,-0.185831
2.59784,0.331408,0.0762172
2.74641,0.0800722,0.0479592
2.5857,0.329859,-0.167057
2.79472,-0.0551254,-0.162789
2.657,0.207711,-0.124145
2.67172,0.208861,0.329047
2.58885,0.330262,-0.106327
2.75735,0.0803911,0.50295
2.65518,0.207568,-0.061973
2.59175,0.321441,-0.0455857
2.72595,0.0699536,-0.079359
2.7212,0.0698316,-0.544422
2.81105,-0.0652639,-0.0327347
2.64079,0.197172,-0.41199
2.72511,0.069932,-0.346985
2.604,0.322962,0.0152505
2.73905,0.0702899,-0.0159246
2.64529,0.197508,-0.285735
2.79907,-0.0649858,-0.261359
2.66386,0.198895,0.0621591
2.81105,-0.0652639,0.0327347
2.65013,0.19787,-0.185831
2.60295,0.322831,0.0763336
2.59079,0.321323,-0.167313
2.80649,-0.0651579,-0.163487
2.66804,0.199207,0.155813
2.73683,0.0702328,0.111538
2.66967,0.199328,-0.124703
2.6764,0.19983,0.329535
2.58999,0.321224,-0.106327
2.76942,0.0710691,0.505103
2.66386,0.198895,-0.0621591
2.59291,0.311939,-0.0455857
2.73418,0.0601372,-0.0795917
2.72535,0.059943,-0.545206
2.66529,0.18918,0
2.81479,-0.0756747,-0.0327813
2.64544,0.187771,-0.412604
2.61311,0.31437,0.015297
2.74329,0.0603375,-0.0159479
2.6579,0.188655,-0.28702
2.81076,-0.0755663,-0.262474
2.67255,0.189695,0.0623452
2.81879,-0.0757822,0.0328279
2.65482,0.188437,-0.18611
2.60014,0.31281,0.0762172
2.59592,0.312302,-0.167569
2.81022,-0.0755518,-0.16372
2.67672,0.189991,0.156278
2.74905,0.0604643,0.112026
2.68107,0.1903,0.330022
2.59909,0.312683,-0.106653
2.76966,0.0609175,0.505103
2.67654,0.189978,-0.0624383
2.59795,0.303352,-0.0456555
2.66993,0.180147,0
2.81851,-0.0856192,-0.0328279
2.64608,0.178537,-0.412604
2.73347,0.0505779,-0.347995
2.60625,0.304321,0.0152505
2.74748,0.0508372,-0.0159711
2.66251,0.179646,-0.287448
2.81844,-0.0856172,-0.263218
2.68118,0.180905,0.0625313
2.8265,-0.0858621,0.032921
2.66343,0.179708,-0.186668
2.60916,0.304661,0.0764499
2.76311,0.0511262,0.0482385
2.59699,0.30324,-0.167569
2.81393,-0.0854802,-0.163952
2.68135,0.180917,0.15651
2.76124,0.0510916,0.112515
2.68964,0.181476,0.330997
2.60016,0.30361,-0.106653
2.76986,0.0512511,0.505103
2.6732,0.180367,-0.0623452
2.74252,0.0416475,-0.0798244
2.6785,0.171803,0
2.82221,-0.0951008,-0.0328744
2.6506,0.170014,-0.413219
2.74553,0.0416931,-0.34951
2.61122,0.296127,0.0152737
2.75564,0.0418466,-0.0160176
2.66706,0.17107,-0.287877
2.8261,-0.095232,-0.263961
2.68974,0.172524,0.0627174
2.8302,-0.0953702,0.0329675
2.67197,0.171385,-0.187226
2.61016,0.296006,0.0764499
2.76326,0.0419624,0.0482385
2.60195,0.295076,-0.167825
2.82161,-0.0950808,-0.164417
2.76139,0.041934,0.112515
2.69023,0.172556,0.330997
2.60513,0.295436,-0.106816
2.78181,0.0422442,0.507255
2.67777,0.171757,-0.0624383
2.60796,0.286078,-0.0457951
2.6831,0.162225,0
2.6591,0.160774,-0.414449
2.7536,0.0317207,-0.350521
2.62024,0.287426,0.0153202
2.75977,0.0317918,-0.0160409
2.67164,0.161532,-0.288305
2.82573,-0.10559,-0.263961
2.68637,0.162423,0.0626244
2.83383,-0.105893,0.0330141
2.68055,0.162071,-0.187784
2.6152,0.286873,0.0765663
2.77139,0.0319257,0.0483781
2.61095,0.286407,-0.168336
2.82524,-0.105572,-0.16465
2.69052,0.162674,0.156975
2.76153,0.031812,0.112515
2.68817,0.162532,-0.125448
2.70669,0.163652,0.332947
2.61414,0.286757,-0.107142
2.78195,0.0320473,0.507255
2.68637,0.162423,-0.0626244
2.74553,0.0225216,-0.549128
2.68762,0.153555,0
2.75369,0.0225885,-0.350521
2.62515,0.279157,0.0153435
2.76786,0.0227047,-0.0160874
2.67216,0.152671,-0.288305
2.82935,-0.115123,-0.264333
2.69088,0.153741,0.0627174
2.84146,-0.115616,0.0331072
2.68505,0.153408,-0.188063
2.62409,0.279044,0.076799
2.77548,0.0227673,0.0484479
2.61189,0.277746,-0.168336
2.82886,-0.115103,-0.164882
2.69104,0.15375,0.156975
2.76162,0.0226535,0.112515
2.69268,0.153844,-0.125634
2.76411,0.022674,-0.144866
2.61507,0.278085,-0.107142
2.78991,0.0228856,0.50869
2.69487,0.153969,-0.0628105
2.74952,0.0129581,-0.549913
2.69213,0.144388,0
2.62611,0.269994,0.0153435
2.77192,0.0130637,-0.0161106
2.68062,0.143771,-0.289162
2.84087,-0.125524,-0.265448
2.70338,0.144992,0.0629966
2.84503,-0.125708,0.0331538
2.68956,0.14425,-0.188342
2.77075,0.0130582,-0.226193
2.62078,0.269446,-0.168848
2.83243,-0.125151,-0.165115
2.70353,0.144999,0.157673
2.77767,0.0130908,0.113166
2.6972,0.14466,-0.12582
2.62,0.269366,-0.107304
2.79391,0.0131673,0.509408
2.69939,0.144777,-0.0629035
2.76683,0.00289796,-0.0805226
2.75739,0.00288808,-0.551482
2.70063,0.134918,0
2.76172,0.00289261,-0.351531
2.63505,0.261155,0.0153899
2.77595,0.00290752,-0.0161339
2.68907,0.134341,-0.290019
2.84834,-0.136317,-0.266192
2.7039,0.135081,0.0629966
2.84855,-0.136327,0.0332004
2.69804,0.134789,-0.188901
2.63,0.260655,0.0769154
2.79157,0.00292388,0.0487271
2.62175,0.259838,-0.168848
2.84791,-0.136296,-0.166045
2.71601,0.135687,0.158371
2.78569,0.00291772,0.113492
2.71619,0.135696,0.333922
2.62893,0.260549,-0.10763
2.80181,0.0029346,0.510843
2.70789,0.135281,-0.0630896
2.77082,-0.00628571,-0.080639
2.70906,0.126335,0
2.84808,-0.145771,-0.0332004
2.77361,-0.00629204,-0.353046
2.6359,0.252416,0.0153899
2.77995,-0.00630641,-0.0161571
2.6895,0.125423,-0.290019
2.72031,0.12686,0.0633688
2.86006,-0.146385,0.0333401
2.70246,0.126028,-0.18918
2.63881,0.252695,0.0771481
2.63055,0.251904,-0.16936
2.84744,-0.145739,-0.166045
2.71245,0.126494,0.158138
2.78968,-0.00632849,0.113655
2.72059,0.126873,0.33441
2.6258,0.251449,-0.107467
2.80574,-0.00636492,0.51156
2.70832,0.126301,-0.0630896
2.77478,-0.0159814,-0.0807553
2.71348,0.11705,0
2.85554,-0.15615,-0.0332935
2.68122,0.115659,-0.417524
2.64473,0.243948,0.0154364
2.78391,-0.016034,-0.0161804
2.6939,0.116205,-0.290447
2.8553,-0.156137,-0.266935
2.71674,0.117191,0.0632757
2.86752,-0.156805,0.0334332
2.70687,0.116765,-0.189459
2.63967,0.243481,0.0771481
2.79953,-0.0161239,0.0488667
2.63141,0.242719,-0.16936
2.85888,-0.156332,-0.166743
2.72086,0.117368,0.158603
2.78964,-0.016067,0.113655
2.71453,0.117095,-0.126565
2.73292,0.117888,0.335872
2.63064,0.242648,-0.10763
2.8057,-0.0161595,0.51156
2.71274,0.117018,-0.0631827
2.71389,0.107104,0
2.7854,-0.0262516,-0.354561
2.6456,0.234253,0.0154364
2.79183,-0.0263122,-0.0162269
2.70225,0.106645,-0.291304
2.86664,-0.167296,-0.268051
2.71715,0.107233,0.0632757
2.86693,-0.167313,0.0334332
2.71126,0.107001,-0.189738
2.64453,0.234158,0.0772645
2.80345,-0.0264217,0.0489365
2.63228,0.233073,-0.16936
2.86626,-0.167274,-0.167208
2.73324,0.107868,0.159301
2.79356,-0.0263285,0.113818
2.72293,0.107461,-0.126937
2.72936,0.107715,0.335384
2.63948,0.233711,-0.107956
2.81349,-0.0265163,0.512995
2.71715,0.107233,-0.0632757
2.72224,0.0979173,0
2.78926,-0.0360263,-0.355066
2.65039,0.225355,0.0154597
2.79972,-0.0361614,-0.0162734
2.69863,0.0970682,-0.290876
2.87399,-0.177794,-0.268794
2.7255,0.0980345,0.0634618
2.87032,-0.177567,0.0334798
2.71561,0.0976787,-0.190017
2.64931,0.225264,0.0773808
2.80734,-0.0362598,0.0490064
2.64899,0.225236,-0.170383
2.86964,-0.177526,-0.16744
2.7336,0.0983258,0.159301
2.80144,-0.0361836,0.114143
2.72328,0.0979548,-0.126937
2.64426,0.224834,-0.108119
2.7255,0.0980345,-0.0634618
2.72253,0.0893651,0
2.7931,-0.044852,-0.355571
2.65109,0.217028,0.0154597
2.80359,-0.0450205,-0.0162966
2.71482,0.0891121,-0.292589
2.72579,0.0894721,0.0634618
2.72787,0.0895401,-0.190854
2.65798,0.217592,0.0776135
2.81121,-0.0451428,0.0490762
2.6457,0.216587,-0.170127
2.87704,-0.187058,-0.167906
2.74188,0.09,0.159766
2.80531,-0.0450481,0.114306
2.73157,0.0896616,-0.127309
2.73795,0.0898712,0.336359
2.64495,0.216526,-0.108119
2.82506,-0.0453652,0.515147
2.73379,0.0897345,-0.0636479
2.79428,-0.0546287,-0.0813371
2.73083,0.080095,0
2.87706,-0.197147,-0.0335729
2.65582,0.208084,0.0154829
2.81142,-0.0549637,-0.0163431
2.71512,0.0796343,-0.292589
2.73808,0.0803078,0.063741
2.88105,-0.197421,0.0336195
2.72816,0.0800168,-0.190854
2.65872,0.208312,0.0776135
2.81503,-0.0550344,0.049146
2.65042,0.207662,-0.170383
2.88434,-0.197646,-0.168371
2.74217,0.0804278,0.159766
2.81313,-0.0549971,0.114632
2.74619,0.0805455,0.337334
2.65366,0.207916,-0.108444
2.73009,0.0800733,-0.0635549
2.74311,0.0699139,0
2.88426,-0.208771,-0.033666
2.70655,0.0689821,-0.421213
2.8046,-0.0656049,-0.357087
2.66457,0.198479,0.0155294
2.81518,-0.0658525,-0.0163664
2.71541,0.0692078,-0.292589
2.89183,-0.209319,-0.270653
2.74237,0.0698949,0.0638341
2.88825,-0.20906,0.0337126
2.73643,0.0697436,-0.191412
2.66748,0.198695,0.0778463
2.65916,0.198076,-0.170895
2.88754,-0.209008,-0.168603
2.75045,0.0701008,0.160231
2.82089,-0.065986,0.114957
2.73614,0.0697363,-0.127495
2.75441,0.070202,0.338309
2.66241,0.198318,-0.10877
2.73837,0.0697931,-0.063741
2.66489,0.189152,-0.0466328
2.73534,0.0601629,0
2.89548,-0.219745,-0.0338057
2.71468,0.0597085,-0.422443
2.81228,-0.075607,-0.358097
2.66525,0.189177,0.0155294
2.81893,-0.0757858,-0.0163896
2.71961,0.0598169,-0.293018
2.74659,0.0604105,0.0639271
2.73665,0.0601919,-0.191412
2.67214,0.189667,0.0779626
2.83055,-0.0760979,0.0494252
2.66382,0.189076,-0.17115
2.89476,-0.21969,-0.169068
2.75866,0.0606758,0.160696
2.82064,-0.0758316,0.114957
2.74436,0.0603614,-0.127868
2.8231,-0.0758979,-0.148006
2.66309,0.189024,-0.10877
2.7386,0.0602346,-0.063741
2.66553,0.179848,-0.0466328
2.74353,0.0507625,0
2.89469,-0.229851,-0.0338057
2.812,-0.0854233,-0.358097
2.67787,0.18068,0.0155992
2.83065,-0.0859896,-0.0164593
2.73173,0.0505441,-0.294303
2.90221,-0.230448,-0.271768
2.75478,0.0509706,0.0641132
2.74084,0.0507126,-0.191691
2.82529,-0.085827,-0.23075
2.83826,-0.0862208,0.0495648
2.67243,0.180314,-0.171662
2.90591,-0.230742,-0.169766
2.75885,0.0510459,0.160696
2.83234,-0.0860411,0.115446
2.74855,0.0508553,-0.128054
2.75881,0.0510451,0.338797
2.67569,0.180534,-0.109258
2.84772,-0.0865082,0.519452
2.75078,0.0508967,-0.0640202
2.67008,0.17173,-0.0467026
2.81722,-0.0944414,-0.0820353
2.74768,0.0422046,0
2.81569,-0.0943899,-0.358602
2.67443,0.17201,0.0155759
2.83036,-0.0948819,-0.0164593
2.73187,0.0419619,-0.294303
2.76692,0.0425003,0.0643924
2.90591,-0.239931,0.0339454
2.74896,0.0422244,-0.192249
2.82899,-0.094836,-0.231075
2.68132,0.172454,0.0781954
2.83797,-0.095137,0.0495648
2.67697,0.172173,-0.171918
2.91313,-0.240527,-0.170231
2.77497,0.0426238,0.161626
2.83605,-0.0950726,0.115609
2.75269,0.0422816,-0.12824
2.83452,-0.0950211,-0.148634
2.76689,0.0424998,0.339772
2.67226,0.17187,-0.109096
2.76293,0.0424388,-0.0642993
2.68266,0.162669,-0.0469121
2.75981,0.0322739,0
2.91299,-0.251267,-0.0340385
2.72701,0.0318903,-0.424288
2.81929,-0.104857,-0.359107
2.67903,0.162449,0.0155992
2.83799,-0.105552,-0.0165058
2.77106,0.0324054,0.0644854
2.91299,-0.251267,0.0340385
2.75309,0.0321953,-0.192528
2.68992,0.163109,0.0784281
2.8456,-0.105835,0.0497045
2.68156,0.162602,-0.172174
2.92019,-0.251889,-0.170696
2.77111,0.0324061,0.161394
2.84767,-0.105912,0.116097
2.76082,0.0322857,-0.128612
2.77497,0.0324512,0.340747
2.68484,0.162801,-0.109584
2.76306,0.0323119,-0.0642993
2.76391,0.0221906,0
2.92798,-0.263376,-0.0342248
2.73501,0.0219585,-0.425518
2.83078,-0.115675,-0.360622
2.68361,0.152856,0.0156224
2.83758,-0.115953,-0.0165058
2.77516,0.0222809,0.0645785
2.75718,0.0221365,-0.192807
2.69449,0.153476,0.0785444
2.85318,-0.116591,0.0498441
2.68613,0.153,-0.17243
2.92322,-0.262948,-0.170929
2.77521,0.0222813,0.161626
2.84327,-0.116186,0.115934
2.75692,0.0221345,-0.128426
2.77904,0.022312,0.341234
2.68542,0.152959,-0.109584
2.77116,0.0222488,-0.0644854
2.93102,-0.273967,-0.0342714
2.74693,0.0124652,-0.427362
2.83036,-0.125556,-0.360622
2.84915,-0.12639,-0.0165756
2.77522,0.0125936,0.0645785
2.76123,0.0125301,-0.193086
2.69501,0.14407,0.0785444
2.86075,-0.126904,0.0499837
2.93024,-0.273894,-0.171394
2.78326,0.0126301,0.162092
2.85083,-0.126464,0.11626
2.77296,0.0125834,-0.12917
2.84928,-0.126395,-0.149472
2.78307,0.0126293,0.341722
2.8517,-0.126503,0.233028
2.69791,0.144224,-0.110073
2.77922,0.0126118,-0.0646715
2.70017,0.13584,-0.0471913
2.768,0.00386486,0
2.93413,-0.283558,-0.0343179
2.74695,0.00383548,-0.427362
2.84184,-0.135012,-0.362137
2.69654,0.135657,0.0156922
2.86072,-0.135909,-0.0166453
2.78324,0.00388615,0.0647646
2.93015,-0.283174,0.0342714
2.76524,0.00386102,-0.193365
2.84731,-0.135272,-0.232702
2.85634,-0.135701,0.0499139
2.69506,0.135583,-0.172941
2.93732,-0.283866,-0.171859
2.78727,0.00389178,0.162324
2.8584,-0.135799,0.116586
2.77299,0.00387183,-0.12917
2.85685,-0.135725,-0.14989
2.69835,0.135748,-0.110073
2.78324,0.00388615,-0.0647646
2.70065,0.125942,-0.0471913
2.77599,-0.00629853,0
2.93705,-0.29471,-0.0343645
2.7509,-0.0062416,-0.427977
2.84133,-0.145427,-0.362137
2.70102,0.125959,0.0157154
2.86021,-0.146393,-0.0166453
2.78724,-0.00632405,0.0648576
2.93705,-0.29471,0.0343645
2.77322,-0.00629224,-0.193923
2.70392,0.126095,0.0787772
2.86781,-0.146782,0.0501233
2.69952,0.12589,-0.173197
2.9442,-0.295427,-0.172324
2.79126,-0.00633318,0.162557
2.86587,-0.146683,0.116911
2.78098,-0.00630984,-0.129543
2.86431,-0.146604,-0.150309
2.79103,-0.00633266,0.342697
2.70282,0.126043,-0.110235
2.70907,0.116859,-0.0473309
2.78395,-0.0160346,0
2.94794,-0.3062,-0.0345042
2.75877,-0.0158895,-0.429207
2.84873,-0.155777,-0.363147
2.86767,-0.156813,-0.0166918
2.7912,-0.0160763,0.0649507
2.94396,-0.305787,0.0344576
2.78116,-0.0160185,-0.194481
2.70833,0.116828,0.0788935
2.87127,-0.15701,0.0501931
2.70393,0.116638,-0.173453
2.94315,-0.305703,-0.172324
2.79122,-0.0160765,0.162557
2.86534,-0.156686,0.116911
2.77295,-0.0159712,-0.12917
2.86777,-0.156819,-0.150518
2.71123,0.116952,-0.110561
2.7952,-0.0160994,-0.0650437
2.70544,0.107716,-0.0472611
2.78389,-0.0252664,0
2.95486,-0.316827,-0.0345973
2.76265,-0.0250737,-0.429822
2.86008,-0.165913,-0.364663
2.70981,0.10789,0.0157619
2.87512,-0.166785,-0.0167383
2.76787,-0.0251211,-0.298158
2.79913,-0.0254048,0.0651368
2.95884,-0.317253,0.0346439
2.78508,-0.0252773,-0.19476
2.7167,0.108164,0.0791263
2.87473,-0.166763,0.0502629
2.71627,0.108147,-0.17422
2.95403,-0.316738,-0.173022
2.80313,-0.0254411,0.163254
2.87278,-0.16665,0.117237
2.78487,-0.0252753,-0.129729
2.71559,0.10812,-0.110724
2.79513,-0.0253685,-0.0650437
2.71381,0.0980882,-0.0474007
2.96163,-0.328537,-0.0346904
2.77044,-0.0352999,-0.431052
2.71418,0.0981015,0.0157852
2.88247,-0.177814,-0.0167848
2.77572,-0.0353671,-0.299015
2.80301,-0.0357149,0.0652298
2.95766,-0.328096,0.0346439
2.78098,-0.0354342,-0.194481
2.72507,0.0984949,0.079359
2.87809,-0.177544,0.0503327
2.71665,0.0981907,-0.17422
2.96079,-0.328444,-0.173487
2.80702,-0.0357658,0.163487
2.88412,-0.177916,0.117725
2.79275,-0.035584,-0.130101
2.87857,-0.177574,-0.151146
2.71997,0.0983106,-0.110887
2.80301,-0.0357149,-0.0652298
2.7261,0.0899578,-0.0476102
2.79565,-0.0444056,0
2.96456,-0.338293,-0.034737
2.77032,-0.0440033,-0.431052
2.72647,0.08997,0.0158549
2.8819,-0.186869,-0.0167848
2.77957,-0.0441502,-0.299443
2.80689,-0.0445841,0.0653229
2.96058,-0.337839,0.0346904
2.78884,-0.0442974,-0.195039
2.8855,-0.187103,0.0504724
2.72891,0.0900506,-0.174988
2.95974,-0.337744,-0.173487
2.80689,-0.0445841,0.163487
2.87956,-0.186717,0.117563
2.79661,-0.0444209,-0.130287
2.88597,-0.187133,-0.151565
2.72426,0.0898969,-0.111049
2.7304,0.0805593,-0.04768
2.87607,-0.196575,-0.0838971
2.79947,-0.0542414,0
2.97528,-0.350041,-0.0348767
2.77805,-0.0538264,-0.432282
2.8932,-0.197746,-0.0168546
2.78735,-0.0540065,-0.3003
2.81471,-0.0545366,0.065509
2.98322,-0.350976,0.0349698
2.80063,-0.0542639,-0.195876
2.73365,0.0806554,0.0795917
2.88882,-0.197446,0.0505422
2.72921,0.0805243,-0.174988
2.82269,-0.0546912,0.164417
2.89484,-0.197858,0.118214
2.80843,-0.0544149,-0.130846
2.72855,0.0805048,-0.111212
2.81471,-0.0545366,-0.065509
2.72666,0.0709239,-0.0476102
2.88733,-0.207473,-0.0842462
2.80727,-0.064196,0
2.98198,-0.361387,-0.0349698
2.79365,-0.0638847,-0.434741
2.8885,-0.207557,-0.0168313
2.7951,-0.0639177,-0.301157
2.8185,-0.0644529,0.0656021
2.97801,-0.360906,0.0349233
2.80841,-0.0642221,-0.196434
2.74191,0.0713206,0.0798244
2.90008,-0.208389,0.0507516
2.73347,0.0711009,-0.175244
2.81849,-0.0644526,0.164185
2.89812,-0.208248,0.118377
2.73281,0.0710838,-0.111375
2.8185,-0.0644529,-0.0656021
2.81101,-0.0745908,0
2.9846,-0.37281,-0.0350164
2.7934,-0.0741235,-0.434741
2.89969,-0.219047,-0.016901
2.79882,-0.0742673,-0.301585
2.82224,-0.0748888,0.0656951
2.98857,-0.373306,0.0350629
2.81214,-0.0746208,-0.196713
2.74215,0.0612705,0.0798244
2.90328,-0.219318,0.0508214
2.74169,0.0612601,-0.175755
2.82622,-0.0749943,0.16465
2.90132,-0.21917,0.11854
2.81595,-0.074722,-0.131218
2.74504,0.0613349,-0.111864
2.74709,0.0517876,-0.0479592
2.99122,-0.384245,-0.0351095
2.80498,-0.0842298,-0.436586
2.74347,0.0517193,0.0159479
2.90688,-0.229798,-0.0169475
2.80649,-0.0842753,-0.302442
2.82596,-0.0848599,0.0657882
2.99518,-0.384755,0.0351561
2.81585,-0.0845563,-0.196992
2.75434,0.0519243,0.0801735
2.91446,-0.230397,0.0510308
2.74987,0.05184,-0.176267
2.82993,-0.084979,0.164882
2.90452,-0.229611,0.118702
2.81967,-0.084671,-0.131404
2.90693,-0.229801,-0.152821
2.74923,0.0518279,-0.112026
2.82996,-0.0849799,-0.0658812
2.75925,0.042864,-0.0481686
2.89695,-0.238682,-0.0845953
2.99389,-0.394685,-0.0351561
2.80863,-0.0936627,-0.437201
2.75162,0.0427455,0.0159944
2.91408,-0.240093,-0.016994
2.81812,-0.0939792,-0.303727
2.82966,-0.094364,0.0658812
3.00182,-0.39573,0.0352492
2.81556,-0.0938936,-0.196992
2.7545,0.0427903,0.0801735
2.92564,-0.241045,0.0512403
2.83362,-0.094496,0.165115
2.91171,-0.239898,0.119028
2.83135,-0.0944204,-0.131962
2.75338,0.0427729,-0.112189
2.83765,-0.0946305,-0.0660673
2.75538,0.033184,-0.0480988
2.90805,-0.249819,-0.0849444
2.82608,-0.104122,0
2.9925,-0.405133,-0.0351561
2.80434,-0.103321,-0.436586
2.91721,-0.250606,-0.0170173
2.81778,-0.103816,-0.303727
2.83731,-0.104535,0.0660673
3.00835,-0.40728,0.0353423
2.82717,-0.104162,-0.197829
2.75863,0.0332232,0.0802899
2.9208,-0.250914,0.0511705
2.75814,0.0332173,-0.176779
2.83726,-0.104534,0.165347
2.91484,-0.250402,0.119191
2.835,-0.10445,-0.132148
2.75751,0.0332097,-0.112352
2.83731,-0.104535,-0.0660673
2.75948,0.0231183,-0.0481686
2.9111,-0.260833,-0.0850607
3.00288,-0.417752,-0.0352958
2.92424,-0.26201,-0.0170638
2.82135,-0.114304,-0.304156
2.8449,-0.115258,0.0662534
3.0108,-0.418854,0.0353889
2.83076,-0.114685,-0.198108
2.77073,0.0232125,0.080639
2.92782,-0.262331,0.0513101
2.76224,0.0231414,-0.177034
2.92186,-0.261797,0.119517
2.8346,-0.11484,-0.132148
2.76561,0.0231696,-0.112678
2.8449,-0.115258,-0.0662534
2.76354,0.0139877,-0.0482385
2.91818,-0.271225,-0.0852934
2.84527,-0.124725,0
3.00939,-0.428836,-0.0353889
2.92733,-0.272076,-0.017087
2.82493,-0.123833,-0.304584
2.8445,-0.124691,0.0662534
3.02127,-0.430529,0.0355286
2.84232,-0.124596,-0.198945
2.77479,0.0140446,0.0807553
2.9349,-0.272779,0.0514497
2.76629,0.0140016,-0.17729
2.84843,-0.124863,0.166045
2.92894,-0.272225,0.119842
2.85017,-0.124939,-0.132893
2.76567,0.0139985,-0.112678
2.85249,-0.125041,-0.0664395
2.77557,0.00387543,-0.0484479
2.92513,-0.282688,-0.0855262
3.01572,-0.441021,-0.035482
2.77195,0.00387037,0.0161106
2.93826,-0.283958,-0.0171568
2.84432,-0.13513,-0.306726
2.85201,-0.135495,0.0664395
3.01967,-0.441599,0.0355286
2.84185,-0.135012,-0.198945
2.78682,0.00389113,0.0811044
2.94582,-0.284689,0.0516591
2.77431,0.00387366,-0.177802
2.85593,-0.135682,0.16651
2.93588,-0.283727,0.120168
2.84969,-0.135385,-0.132893
2.86721,-0.136217,0.352446
2.7737,0.00387281,-0.113003
2.856,-0.135685,-0.0665326
2.77957,-0.00533639,-0.0485177
2.93213,-0.293182,-0.0857589
2.78395,-0.0053448,0.0161804
2.94128,-0.294098,-0.01718
2.8518,-0.144965,-0.307583
2.85554,-0.145155,0.0665326
3.03006,-0.453386,0.0356683
2.85334,-0.145043,-0.199783
2.78282,-0.00534262,0.080988
2.95282,-0.295252,0.0517987
2.7783,-0.00533394,-0.178058
2.86345,-0.145557,0.166975
2.94287,-0.294256,0.120494
2.8612,-0.145443,-0.133451
2.7697,-0.00531744,-0.112841
2.86353,-0.145561,-0.0667187
2.77954,-0.0150389,-0.0485177
2.93904,-0.304239,-0.0859916
2.85978,-0.155381,0
2.78391,-0.0150626,0.0161804
2.95218,-0.305598,-0.0172498
2.85525,-0.155134,-0.308011
2.86699,-0.155773,0.0668117
3.03241,-0.464566,0.0357148
2.86477,-0.155652,-0.20062
2.79478,-0.0151213,0.0813371
2.95575,-0.305969,0.0518686
2.78225,-0.0150536,-0.178314
2.86691,-0.155768,0.167208
2.95375,-0.305762,0.120982
2.77766,-0.0150287,-0.113166
2.86699,-0.155773,-0.0668117
2.78747,-0.0248124,-0.0486573
2.94592,-0.315348,-0.0862243
2.79184,-0.0248513,0.0162269
2.95109,-0.315902,-0.0172498
2.85469,-0.1651,-0.308011
2.87442,-0.166241,0.0669978
2.86819,-0.165881,-0.200899
2.79471,-0.0248768,0.0813371
2.96262,-0.317136,0.0520082
2.78617,-0.0248009,-0.178569
2.87033,-0.166005,0.16744
2.95664,-0.316496,0.121145
2.87208,-0.166106,-0.13401
2.78158,-0.02476,-0.113329
2.86244,-0.165549,-0.0667187
2.79136,-0.0345918,-0.0487271
2.94877,-0.326068,-0.0863407
2.8746,-0.176321,0
2.79174,-0.0345965,0.0162269
2.95792,-0.32708,-0.0172963
2.85806,-0.175307,-0.30844
2.87382,-0.176274,0.0669978
2.8026,-0.0347311,0.0815699
2.96945,-0.328354,0.0521478
2.79405,-0.0346252,-0.179081
2.88169,-0.176757,0.168138
2.95949,-0.327254,0.121308
2.87946,-0.17662,-0.134382
2.78947,-0.0345684,-0.113655
2.87382,-0.176274,-0.0669978
2.79122,-0.0443353,-0.0487271
2.95556,-0.337266,-0.0865734
2.7956,-0.0444048,0.0162501
