1.8745,0.071684,-0.0218387
1.96857,0.171882,-0.251526
1.97246,0.172222,-0.0115076
1.88243,0.0719873,-0.17585
1.8745,0.071684,0.0218387
1.96198,0.171307,-0.160776
1.96423,0.171503,0.0344161
1.88742,0.072178,-0.109999
1.95387,0.170599,-0.102788
1.95236,0.163258,-0.0570174
1.85876,0.0642598,-0.0216524
1.96128,0.164003,-0.250516
1.97308,0.164991,-0.0115076
1.87871,0.0649492,-0.175478
1.85477,0.0641216,0.0216059
1.95465,0.16345,-0.160125
1.96086,0.163968,0.0343463
1.87171,0.0647074,-0.109069
1.95051,0.163103,-0.102578
1.93695,0.155503,-0.056552
1.86696,0.0583458,-0.0217455
1.96181,0.157499,-0.250516
1.96564,0.157807,-0.0114611
1.86299,0.0582216,-0.173991
1.85497,0.057971,0.0216059
1.95121,0.156648,-0.1598
1.96139,0.157466,0.0343463
1.86393,0.0582511,-0.108604
1.94705,0.156315,-0.102369
1.93349,0.148434,-0.0564356
1.85516,0.0514951,-0.0216059
1.95048,0.149738,-0.249001
1.9582,0.150332,-0.0114146
1.8592,0.0516072,-0.17362
1.85116,0.0513842,0.0215593
2.03486,0.256702,-0.143419
1.94777,0.149531,-0.159474
1.94996,0.149699,0.0341369
1.86013,0.0516331,-0.108371
2.03762,0.25705,-0.095668
1.93962,0.148905,-0.10195
1.93798,0.141977,-0.056552
1.84333,0.0447284,-0.0214662
1.95099,0.14293,-0.249001
1.95074,0.142911,-0.0113681
1.85937,0.0451175,-0.17362
1.84733,0.0448254,0.0215127
2.02387,0.248141,-0.142582
1.94033,0.142149,-0.158823
1.9425,0.142308,0.0339973
1.85631,0.0450433,-0.108139
2.03454,0.24945,-0.0954819
1.93615,0.141842,-0.101741
1.93049,0.134655,-0.0563193
1.83948,0.038211,-0.0214196
1.94356,0.135567,-0.247991
1.93926,0.135267,-0.0112984
1.85155,0.0384618,-0.172876
1.83548,0.038128,0.021373
2.02076,0.240604,-0.142303
1.93286,0.13482,-0.158173
1.935,0.13497,0.0338577
1.85246,0.0384807,-0.107906
1.92173,0.134044,0.0784836
2.02747,0.241402,-0.0951096
1.93663,0.135083,-0.101741
1.92297,0.127387,-0.0560866
1.8396,0.0317893,-0.0214196
1.9361,0.128256,-0.246981
1.92774,0.127703,-0.0112286
1.85565,0.0320667,-0.173248
1.8356,0.0317202,0.021373
2.01762,0.23309,-0.142024
1.93332,0.128072,-0.158173
1.92748,0.127685,0.033718
1.83661,0.0317377,-0.106976
1.91421,0.126806,0.078158
2.02433,0.233865,-0.0949235
1.92912,0.127794,-0.101322
1.91143,0.119923,-0.0557375
1.8237,0.0251475,-0.0212333
1.92862,0.121001,-0.245971
1.92818,0.120973,-0.0112286
1.83584,0.0253149,-0.171389
1.8277,0.0252027,0.0212799
2.01446,0.225602,-0.141745
1.92579,0.120824,-0.157522
1.92392,0.120706,0.0336482
1.83272,0.0252719,-0.106743
1.89869,0.119123,0.0775067
2.00528,0.224574,-0.0939929
1.92955,0.12106,-0.101322
1.99499,0.223421,-0.0467124
1.90785,0.113013,-0.0556211
1.82378,0.018781,-0.0212333
1.92507,0.114033,-0.245465
1.92859,0.114241,-0.0112286
1.98877,0.215698,-0.215479
1.83592,0.018906,-0.171389
1.81978,0.0187398,0.0211868
1.9954,0.216417,-0.14035
1.92222,0.113865,-0.157196
1.91635,0.113516,0.0335086
1.8328,0.0188738,-0.106743
1.89111,0.112022,0.077181
1.99413,0.21628,-0.0934345
1.918,0.113614,-0.100694
1.99973,0.216887,-0.0468054
1.90422,0.106463,-0.0555047
1.93069,0.107943,-0.386743
1.81983,0.0127055,-0.0211868
1.91751,0.107206,-0.244455
1.91697,0.107176,-0.0111589
1.83199,0.0127903,-0.171017
1.81183,0.0126496,0.0210936
1.98817,0.208965,-0.139792
1.90667,0.1066,-0.155894
1.91671,0.107161,0.0335086
1.81688,0.0126848,-0.105813
1.89147,0.10575,0.077181
1.99484,0.209666,-0.0934345
1.91837,0.107254,-0.100694
1.98453,0.208583,-0.0464332
1.89661,0.0990661,-0.055272
1.80787,0.00599595,-0.0210471
1.90204,0.0993496,-0.242435
1.90537,0.0995236,-0.0110891
1.99022,0.201809,-0.215479
1.82804,0.00606286,-0.170645
1.81187,0.00600921,0.0210936
1.98495,0.201275,-0.139513
1.91103,0.0998192,-0.15622
1.90511,0.0995102,0.0332992
1.81292,0.0060127,-0.10558
1.88387,0.0984004,0.0768554
1.99559,0.202354,-0.0934345
1.90678,0.0995973,-0.100066
1.98528,0.201308,-0.0464332
1.89693,0.0927756,-0.055272
1.98249,0.194385,0
1.80788,3.23274e-07,-0.0210471
1.90236,0.0930412,-0.242435
1.8977,0.0928133,-0.0110426
1.97901,0.194044,-0.214194
1.82009,3.25457e-07,-0.169902
1.81588,3.24704e-07,0.0211402
1.97766,0.193912,-0.138955
1.90339,0.0930914,-0.155569
1.88945,0.09241,0.03302
1.80893,3.23463e-07,-0.105348
1.88019,0.091957,0.0766925
1.9883,0.194955,-0.0930622
1.89912,0.0928828,-0.0996477
1.97798,0.193943,-0.0462471
1.87727,0.0852462,-0.0546902
1.89645,0.0861171,-0.379683
1.9752,0.186711,0
1.79987,-0.00628292,-0.020954
1.89078,0.0858596,-0.24092
1.89002,0.0858251,-0.0109961
1.97175,0.186385,-0.213337
1.81211,-0.00632566,-0.169158
1.81187,-0.0063248,0.0210936
1.97038,0.186256,-0.138397
1.89573,0.0860846,-0.154918
1.89376,0.085995,0.0330898
1.80493,-0.00630059,-0.105115
1.86054,0.0844864,0.0758784
1.96908,0.186132,-0.0921316
1.89145,0.0858902,-0.099229
1.97466,0.18666,-0.0461541
1.86957,0.0783583,-0.0544575
1.88498,0.0790044,-0.37733
1.95592,0.178003,0
1.80383,-0.0125931,-0.0210005
1.89503,0.0794256,-0.241425
1.88631,0.0790601,-0.0109729
1.96843,0.179142,-0.212909
1.80411,-0.0125951,-0.168415
1.99521,0.181579,0.0466193
1.79583,-0.0125373,0.0209074
1.96307,0.178654,-0.137839
1.89204,0.0793002,-0.154593
1.87806,0.0787145,0.0328105
1.79292,-0.0125169,-0.104418
1.86082,0.0779917,0.0758784
1.96574,0.178896,-0.0919455
1.87578,0.0786186,-0.0983916
1.85221,0.0776307,0.151338
1.96734,0.179042,-0.045968
1.87382,0.0719857,-0.0545738
1.88525,0.0724245,-0.37733
1.94457,0.170129,0
1.79578,-0.0188055,-0.0209074
1.89133,0.0726583,-0.24092
1.87059,0.0718614,-0.0108799
1.95716,0.17123,-0.211624
1.80406,-0.0188921,-0.168415
1.79578,-0.0188055,0.0209074
1.95971,0.171453,-0.13756
1.87637,0.0720835,-0.153291
1.87433,0.0720052,0.0327407
1.80085,-0.0188586,-0.104883
1.85709,0.0713428,0.0757155
1.95839,0.171337,-0.0915733
1.88003,0.0722241,-0.0986009
1.8445,0.0708591,0.150687
1.96396,0.171825,-0.0458749
1.85808,0.0648857,-0.0541084
1.88157,0.0657059,-0.376545
1.94117,0.163005,0
1.78371,-0.0249067,-0.0207677
1.87571,0.0655015,-0.238899
1.87083,0.0653309,-0.0108799
1.95378,0.164064,-0.211195
1.79203,-0.025023,-0.167299
1.7877,-0.0249626,0.0208143
1.95234,0.163943,-0.137002
1.86864,0.0652545,-0.15264
1.86258,0.0650429,0.0325313
1.79678,-0.0250893,-0.10465
1.85333,0.0647199,0.0755527
1.95897,0.1645,-0.0915733
1.87229,0.0653818,-0.0981823
1.84075,0.0642806,0.150362
1.96057,0.164634,-0.0457819
1.8583,0.0583998,-0.0541084
1.87394,0.0588916,-0.374976
1.94173,0.156228,0
1.77961,-0.0310627,-0.0207211
1.96986,0.158492,-0.307455
1.86403,0.0585801,-0.237384
1.85905,0.0584235,-0.0108102
1.94641,0.156605,-0.210339
1.79194,-0.0312779,-0.167299
1.95714,0.157469,0.0456888
1.78361,-0.0311325,0.0207677
1.94893,0.156808,-0.136723
1.86487,0.0586065,-0.152314
1.8588,0.0584156,0.0324615
1.77672,-0.0310123,-0.103487
1.84556,0.0579995,0.0752271
1.94759,0.1567,-0.0910149
1.86452,0.0585954,-0.0977636
1.84096,0.0578551,0.150362
2.0253,0.263041,-0.0832057
1.84073,0.0578478,0.335779
1.94519,0.156506,-0.0454097
1.85049,0.051689,-0.0538757
1.87022,0.0522399,-0.374192
1.93827,0.149142,0
1.77549,-0.0371912,-0.0206746
1.86423,0.0520726,-0.237384
1.84725,0.0515983,-0.0107404
1.93902,0.149199,-0.209482
1.77589,-0.0371995,-0.165812
1.94971,0.150022,0.0455027
1.77149,-0.0371074,0.020628
1.94151,0.149391,-0.136165
1.86108,0.0519847,-0.151989
1.847,0.0515913,0.032252
2.01977,0.255156,-0.130473
1.78059,-0.0372981,-0.10372
1.83776,0.0513332,0.0749014
1.93617,0.14898,-0.0904565
1.86072,0.0519746,-0.0975542
1.83717,0.0513168,0.150036
2.01827,0.254967,-0.08288
1.80945,0.0505426,0.330039
1.94173,0.149408,-0.0453166
1.83468,0.0448389,-0.0534102
1.85863,0.0454242,-0.371838
1.9308,0.14179,0
1.77135,-0.0432905,-0.020628
1.94333,0.142709,-0.303151
1.86043,0.0454683,-0.236879
1.84342,0.0450526,-0.0107172
1.93953,0.14243,-0.209482
1.76778,-0.0432033,-0.165069
1.94623,0.142923,0.0454097
1.77535,-0.0433882,0.0206746
1.93804,0.142321,-0.135886
1.86125,0.0454884,-0.151989
1.84717,0.0451442,0.032252
2.01669,0.247618,-0.130218
1.76847,-0.0432202,-0.103022
1.83393,0.0448207,0.0747386
1.93668,0.142221,-0.0904565
1.84492,0.0450892,-0.0967169
1.82538,0.0446117,0.14906
2.01122,0.246947,-0.0825544
1.94224,0.14263,-0.0453166
2.00151,0.238666,-0.0351841
1.83482,0.0384339,-0.0534102
1.85093,0.0387714,-0.370269
1.9233,0.13449,0
1.76719,-0.0493622,-0.0205814
1.93198,0.135097,-0.301306
1.84868,0.0387241,-0.235364
1.83957,0.0385333,-0.0106939
1.91621,0.133994,-0.206912
1.76762,-0.0493743,-0.165069
1.94273,0.135849,0.0453166
1.76319,-0.0492505,0.0205349
1.91862,0.134163,-0.13449
1.83748,0.0384897,-0.150036
1.84331,0.0386118,0.0321822
2.00961,0.239632,-0.129706
1.7723,-0.049505,-0.103255
1.82608,0.0382509,0.0744129
1.92919,0.134902,-0.0900843
1.84107,0.0385648,-0.0965075
1.82154,0.0381557,0.148734
2.00016,0.238504,-0.0820659
1.93475,0.135291,-0.0451305
1.83494,0.0320285,-0.0534102
1.84713,0.0322412,-0.369485
1.91977,0.12751,0
1.775,-0.0557823,-0.0206746
1.9285,0.12809,-0.300691
1.8369,0.0320626,-0.233849
1.83569,0.0320415,-0.0106707
1.9127,0.127041,-0.206483
1.7555,-0.0551693,-0.163953
1.92723,0.128006,0.0449444
1.75901,-0.0552798,0.0204883
1.91908,0.127464,-0.13449
1.83761,0.032075,-0.150036
1.83544,0.0320372,0.0320426
1.99457,0.230779,-0.128683
1.76414,-0.0554409,-0.10279
1.82621,0.031876,0.0744129
1.92168,0.127637,-0.089712
1.8372,0.0320678,-0.0962982
1.81369,0.0316575,0.148083
1.99701,0.231061,-0.0819031
1.77841,0.0310416,0.324299
1.92723,0.128006,-0.0449444
1.99113,0.224045,-0.0349746
1.82304,0.0260924,-0.0530611
1.83938,0.0263262,-0.367916
1.91218,0.120974,0
1.76283,-0.0609434,-0.0205349
1.91706,0.121283,-0.298846
1.83302,0.0262352,-0.233344
1.82778,0.0261602,-0.0106242
1.90912,0.12078,-0.206055
1.7593,-0.0608213,-0.164325
1.93161,0.122204,0.0450374
1.75084,-0.0605288,0.0203952
1.91548,0.121183,-0.134211
1.82973,0.026188,-0.149385
1.83153,0.0262139,0.0319728
1.99529,0.224513,-0.128683
1.75198,-0.0605685,-0.102092
1.92488,0.121778,0.112325
1.81431,0.0259674,0.0739244
1.91409,0.121095,-0.0893398
1.8293,0.026182,-0.0958795
1.80979,0.0259028,0.147758
1.99375,0.22434,-0.0817402
1.77063,0.0253422,0.322864
1.91166,0.120941,-0.0445722
1.98796,0.216313,-0.0349048
1.80713,0.0192406,-0.0525957
1.8277,0.0194595,-0.365563
1.91261,0.113965,0
1.76259,-0.0674037,-0.0205349
1.91355,0.114021,-0.298231
1.83707,0.0195593,-0.233849
1.82787,0.0194613,-0.0106242
1.90161,0.11331,-0.205198
1.7511,-0.0669643,-0.163582
1.92007,0.11441,0.0447583
1.7466,-0.0667923,0.0203486
1.91592,0.114162,-0.134211
1.82981,0.019482,-0.149385
1.81962,0.0193735,0.0317634
1.98419,0.215903,-0.127915
1.75175,-0.0669891,-0.102092
1.90937,0.113772,0.111394
1.8104,0.0192753,0.0737616
1.91452,0.114079,-0.0893398
1.83338,0.01952,-0.0960888
1.80988,0.0192698,0.147758
1.99059,0.216599,-0.0815774
1.76677,0.0188108,0.322146
1.91209,0.113934,-0.0445722
1.98071,0.208881,-0.0347652
1.81918,0.0133361,-0.0529448
1.82383,0.0133701,-0.364778
1.90499,0.107173,0
1.75437,-0.0729158,-0.0204417
1.90207,0.107009,-0.296387
1.82919,0.0134095,-0.232839
1.98894,0.209748,0.0116238
1.82392,0.0133708,-0.0106009
1.898,0.10678,-0.20477
1.73893,-0.0722743,-0.162466
1.91645,0.107818,0.0446652
1.73838,-0.0722514,0.0202555
1.90433,0.107136,-0.133374
1.82189,0.0133559,-0.148734
1.81567,0.0133104,0.0316936
1.98093,0.208904,-0.127659
1.74753,-0.0726315,-0.10186
1.90177,0.106992,0.110929
1.80645,0.0132428,0.0735988
1.89893,0.106832,-0.0885953
1.80947,0.0132649,-0.0948328
1.80196,0.0132098,0.147107
1.97937,0.20874,-0.0810889
1.76682,0.0129523,0.322146
1.90447,0.107144,-0.0443861
1.98143,0.201965,-0.0347652
1.80722,0.00693932,-0.0525957
1.81994,0.00698817,-0.363994
1.89736,0.100101,0
1.73812,-0.0783195,-0.0202555
1.82526,0.00700858,-0.232334
1.81996,0.00698821,-0.0105777
1.90233,0.100363,-0.205198
1.74265,-0.0785236,-0.162838
1.90883,0.100706,0.0444791
1.73812,-0.0783195,0.0202555
1.89672,0.100067,-0.132816
1.80598,0.00693455,-0.147432
1.81571,0.00697191,0.0316936
1.96973,0.200773,-0.126892
1.74726,-0.0787316,-0.10186
1.89814,0.100142,0.110697
1.80249,0.00692115,0.0734359
1.90728,0.100624,-0.0889675
1.8095,0.00694808,-0.0948328
1.79402,0.00688862,0.146456
1.76686,0.00678433,0.322146
1.90483,0.100495,-0.0443861
1.9742,0.19392,-0.0346256
1.80324,0.000315175,-0.0524793
1.81604,0.000317412,-0.363209
1.89372,0.0929502,0
1.74181,-0.0848838,-0.020302
1.88305,0.0924266,-0.293312
1.81337,0.000316946,-0.230818
1.81197,0.000316702,-0.0105312
1.89872,0.0931954,-0.20477
1.73837,-0.0847159,-0.162466
1.9012,0.0933171,0.044293
1.72583,-0.084105,0.0201158
1.89309,0.0929194,-0.132537
1.80998,0.000316354,-0.147758
1.80772,0.00031596,0.031554
1.96251,0.192772,-0.12638
1.74696,-0.0851347,-0.10186
1.89052,0.0927929,0.110232
1.79451,0.00031365,0.0731103
1.89566,0.0930454,-0.0884091
1.79753,0.000314179,-0.0942047
1.78606,0.000312173,0.145805
1.96093,0.192617,-0.0802748
1.77081,0.000309507,0.322864
1.89321,0.092925,-0.0441069
1.96288,0.186238,-0.0344161
1.80323,-0.00566508,-0.0524793
1.80818,-0.00568064,-0.36164
1.89402,0.0866693,0
1.73353,-0.090244,-0.0202089
1.8794,0.0860004,-0.292697
1.80542,-0.00567198,-0.229808
1.95917,0.185886,0.0114378
1.80396,-0.00566738,-0.0104847
1.87518,0.0858073,-0.202199
1.7341,-0.0902736,-0.162094
1.88951,0.0864631,0.0440139
1.72155,-0.0896202,0.0200692
1.89339,0.0866406,-0.132537
1.80598,-0.00567374,-0.147432
1.79972,-0.00565405,0.0314143
1.95916,0.185885,-0.126124
1.73072,-0.0900975,-0.100929
1.87486,0.0857926,0.109301
1.79051,-0.00562511,0.0729474
1.89596,0.0867581,-0.0884091
1.80551,-0.00567226,-0.0946234
1.78206,-0.00559859,0.14548
1.9536,0.185357,-0.0799491
1.75506,-0.00551375,0.319994
1.88152,0.0860975,-0.0438278
1.95954,0.179022,-0.0343463
1.7872,-0.011853,-0.0520139
1.80423,-0.0119659,-0.360856
1.88232,0.0795511,0
1.72922,-0.0960724,-0.0201624
1.87574,0.0792731,-0.292082
1.80143,-0.0119474,-0.229303
1.95981,0.179046,0.0114378
1.79593,-0.0119109,-0.0104382
1.87944,0.0794295,-0.202628
1.71787,-0.0954421,-0.160607
1.87782,0.0793608,0.0437347
1.72123,-0.0956286,0.0200692
1.88172,0.0795259,-0.1317
1.80197,-0.0119509,-0.147107
1.79969,-0.0119358,0.0314143
1.95583,0.178683,-0.125868
1.73039,-0.0961379,-0.100929
1.87116,0.0790793,0.109069
1.78648,-0.0118482,0.0727846
1.88028,0.079465,-0.0876646
1.80149,-0.0119478,-0.0944141
1.77805,-0.0117923,0.145154
1.95025,0.178174,-0.0797863
1.74716,-0.0115874,0.318559
1.86982,0.0790231,-0.0435486
1.95617,0.17183,-0.0342765
1.77916,-0.018011,-0.0517812
1.79633,-0.0181849,-0.359287
1.87459,0.0726697,0
1.71689,-0.101401,-0.0200227
1.87206,0.0725715,-0.291467
1.79344,-0.0181556,-0.228293
1.95245,0.171504,0.0113914
1.79188,-0.0181398,-0.0104149
1.87971,0.072868,-0.202628
1.71753,-0.101438,-0.160607
1.88208,0.0729599,0.0438278
1.70092,-0.100458,0.0198364
1.878,0.0728019,-0.131421
1.79394,-0.0181607,-0.146456
1.79563,-0.0181778,0.0313445
1.94848,0.171156,-0.125357
1.73005,-0.102178,-0.100929
1.86344,0.0722374,0.108604
1.77843,-0.0180037,0.072459
1.87655,0.0727458,-0.0874785
1.78546,-0.0180748,-0.0935767
1.77799,-0.0179992,0.145154
1.94688,0.171015,-0.0796234
1.76285,-0.0178459,0.321429
1.87009,0.0724952,-0.0435486
1.94876,0.16467,-0.0341369
1.77909,-0.0239104,-0.0517812
1.7845,-0.0239831,-0.356934
1.87083,0.0663116,0
1.71655,-0.107093,-0.0200227
1.86044,0.0659434,-0.289623
1.79337,-0.0241024,-0.228293
1.94504,0.164355,0.0113449
1.79581,-0.0241352,-0.0104382
1.87199,0.0663529,-0.201771
1.72116,-0.107381,-0.160979
1.87432,0.0664354,0.0436417
1.70058,-0.106097,0.0198364
1.87424,0.0664328,-0.131142
1.78191,-0.0239484,-0.14548
1.78757,-0.0240244,0.0312049
1.94506,0.164357,-0.125101
1.71774,-0.107168,-0.100232
1.86367,0.066058,0.108604
1.77037,-0.0237933,0.0721333
1.87279,0.0663814,-0.0872924
1.7774,-0.0238878,-0.093158
1.76198,-0.0236805,0.143852
1.93549,0.163549,-0.079135
1.75491,-0.0235855,0.319994
1.86233,0.0660104,-0.0433625
1.94536,0.157204,-0.0340671
1.77499,-0.0303622,-0.0516648
1.78047,-0.030456,-0.356149
1.87106,0.0594547,0
1.70417,-0.112593,-0.019883
1.84881,0.058748,-0.287778
1.78136,-0.0304712,-0.226778
1.93366,0.156259,0.0112751
1.78371,-0.0305113,-0.0103685
1.86824,0.0593654,-0.201342
1.71678,-0.113426,-0.160607
1.86655,0.0593116,0.0434555
1.69619,-0.112065,0.0197898
1.87049,0.0594366,-0.130863
1.77782,-0.0304107,-0.145154
1.93686,0.156517,0.056552
1.77547,-0.0303704,0.0309955
1.93372,0.156263,-0.124333
1.71734,-0.113463,-0.100232
1.85193,0.0588468,0.107906
1.77027,-0.0302815,0.0721333
1.86504,0.0592634,-0.0869201
1.78529,-0.0305384,-0.0935767
1.75789,-0.0300698,0.143527
1.93209,0.156132,-0.0789721
1.75481,-0.030017,0.319994
1.86655,0.0593116,-0.0434555
1.92995,0.149179,-0.0337879
1.76688,-0.0363937,-0.0514321
1.77644,-0.0365905,-0.355365
1.85926,0.0525834,0
1.69978,-0.118264,-0.0198364
1.84901,0.0522936,-0.287778
1.77728,-0.0366079,-0.226273
1.92223,0.148583,0.0112054
1.77159,-0.0364908,-0.0102987
1.85254,0.0523934,-0.199629
1.70842,-0.118865,-0.159864
1.85875,0.0525692,0.0432694
1.69978,-0.118264,0.0198364
1.8627,0.0526809,-0.130305
1.76974,-0.0364525,-0.144503
1.92943,0.149139,0.0563193
1.77535,-0.0365682,0.0309955
1.93027,0.149204,-0.124078
1.70897,-0.118903,-0.0997666
1.84015,0.0520429,0.107208
1.76216,-0.0362966,0.0718077
1.86523,0.0527523,-0.0869201
1.77718,-0.0366059,-0.093158
1.74981,-0.036042,0.142876
1.92864,0.149078,-0.0788093
1.84676,0.05223,-0.0429903
1.93046,0.142442,-0.0337879
1.75875,-0.042368,-0.0511993
1.77238,-0.0426964,-0.35458
1.85543,0.0459943,0
1.69536,-0.123904,-0.0197898
1.84523,0.0457414,-0.287163
1.77317,-0.0427156,-0.225768
1.92274,0.141873,0.0112054
1.77546,-0.0427706,-0.010322
1.85271,0.0459269,-0.199629
1.70006,-0.124247,-0.15912
1.85493,0.0459819,0.0431764
1.69536,-0.123904,0.0197898
1.8549,0.0459812,-0.129747
1.77358,-0.0427255,-0.144829
1.92196,0.141815,0.0560866
1.77122,-0.0426685,0.0309257
1.9268,0.142172,-0.123822
1.70058,-0.124285,-0.0993015
1.84032,0.0456196,0.107208
1.75803,-0.0423508,0.0716448
1.85342,0.0459445,-0.0863618
1.76906,-0.0426165,-0.0927393
1.75366,-0.0422454,0.143201
1.92517,0.142051,-0.0786465
1.84693,0.0457837,-0.0429903
1.92296,0.135141,-0.0336482
1.75859,-0.0485074,-0.0511993
1.76045,-0.0485589,-0.352227
1.83558,0.039091,0
1.69093,-0.129516,-0.0197433
1.84143,0.0392154,-0.286548
1.76508,-0.0486866,-0.224757
1.91125,0.134318,0.0111356
1.7713,-0.048858,-0.0102987
1.85286,0.0394589,-0.199629
1.69961,-0.130181,-0.15912
1.83909,0.0391656,0.0428042
1.68694,-0.129211,0.0196967
1.84308,0.0392507,-0.12891
1.76545,-0.0486968,-0.144178
1.92244,0.135105,0.0560866
1.76706,-0.0487411,0.0308559
1.9233,0.135165,-0.123566
1.70013,-0.130221,-0.0993015
1.82849,0.0389399,0.106511
1.75388,-0.0483775,0.071482
1.85357,0.0394741,-0.0863618
1.76091,-0.0485716,-0.0923206
1.79809,0.0382925,0.220827
1.74154,-0.0480373,0.142225
1.91768,0.13477,-0.0783208
1.83909,0.0391656,-0.0428042
1.9234,0.128764,-0.0336482
1.74643,-0.0539684,-0.0508503
1.75636,-0.0542754,-0.351442
1.8437,0.0331476,0
1.67853,-0.134167,-0.0196036
1.82969,0.0328957,-0.284703
1.76888,-0.0546621,-0.225263
1.91568,0.128247,0.0111589
1.76713,-0.054608,-0.0102755
1.83707,0.0330284,-0.197915
1.70314,-0.136134,-0.159492
1.83521,0.0329949,0.0427111
1.67853,-0.134167,0.0196036
1.83522,0.0329951,-0.128352
1.7613,-0.0544279,-0.143852
1.90293,0.127393,0.0555047
1.75889,-0.0543536,0.0307162
1.91577,0.128253,-0.123054
1.69571,-0.13554,-0.0990689
1.82861,0.0328762,0.106511
1.74572,-0.0539464,0.0711563
1.84171,0.0331117,-0.0858034
1.75675,-0.0542873,-0.0921113
1.83393,0.0329719,0.225215
1.72942,-0.0534428,0.141249
1.91014,0.127876,-0.0779952
1.83521,0.0329949,-0.0427111
1.91586,0.121543,-0.0335086
1.75022,-0.0602016,-0.0509666
1.75616,-0.0604059,-0.351442
1.83581,0.0265958,0
1.67805,-0.140025,-0.0196036
1.82979,0.0265087,-0.284703
1.76471,-0.0606999,-0.224757
1.89616,0.120293,0.0110426
1.77092,-0.0609136,-0.0102987
1.8332,0.0265581,-0.197487
1.69472,-0.141416,-0.158748
1.83131,0.0265307,0.0426181
1.6661,-0.139028,0.0194639
1.82735,0.0264732,-0.127794
1.74914,-0.0601645,-0.142876
1.8914,0.119991,0.0551557
1.75469,-0.0603554,0.0306464
1.90027,0.120554,-0.122031
1.68727,-0.140794,-0.0986038
1.82472,0.0264351,0.106278
1.74152,-0.0599024,0.0709935
1.82982,0.0265091,-0.085245
1.75655,-0.0604192,-0.0921113
1.81021,0.026225,0.22229
1.73321,-0.0596163,0.141574
1.90259,0.120701,-0.0776695
1.83131,0.0265307,-0.0426181
1.90429,0.114136,-0.0332992
1.74601,-0.0661593,-0.0508503
1.75594,-0.0665357,-0.351442
1.82789,0.0200995,0
1.67357,-0.145535,-0.019557
1.82197,0.0200344,-0.283473
1.75656,-0.066559,-0.223747
1.88858,0.113195,0.0109961
1.75471,-0.0664891,-0.0102057
1.81738,0.0199839,-0.195773
1.69025,-0.146986,-0.158377
1.82739,0.0200941,0.042525
1.67357,-0.145535,0.019557
1.83142,0.0201383,-0.128073
1.75291,-0.0664207,-0.143201
1.88781,0.113149,0.0550393
1.74648,-0.0661772,0.0305068
1.90068,0.11392,-0.122031
1.67881,-0.145991,-0.0981387
1.80883,0.0198899,0.105348
1.7413,-0.0659811,0.0709935
1.82991,0.0201217,-0.085245
1.74435,-0.0660966,-0.0914833
1.80632,0.0198624,0.221802
1.72104,-0.0652131,0.140598
1.89502,0.113581,-0.0773438
1.8234,0.0200501,-0.042432
1.89673,0.106376,-0.0331596
1.73775,-0.0725295,-0.0506175
1.74783,-0.0729504,-0.349873
1.82795,0.0130808,0
1.673,-0.15196,-0.019557
1.82203,0.0130384,-0.283473
1.75629,-0.0733032,-0.223747
1.88501,0.105718,0.0109729
1.75444,-0.0732262,-0.0102057
1.81346,0.0129771,-0.195345
1.66984,-0.151673,-0.156518
1.81946,0.01302,0.0423389
1.66503,-0.151237,0.0194639
1.8235,0.0130489,-0.127515
1.75264,-0.0731509,-0.143201
1.89222,0.106123,0.0551557
1.74621,-0.0728827,0.0305068
1.89712,0.106398,-0.121775
1.67426,-0.152075,-0.0979061
1.80889,0.0129444,0.105348
1.72507,-0.0720001,0.0703422
1.82198,0.013038,-0.0848728
1.7361,-0.0724608,-0.0910646
1.79845,0.0128696,0.220827
1.72077,-0.0718209,0.140598
1.89146,0.10608,-0.077181
1.81546,0.0129914,-0.0422459
1.89306,0.100205,-0.0330898
1.73352,-0.0778092,-0.0505012
1.73976,-0.0780892,-0.348304
1.81199,0.00727381,0
1.66455,-0.156467,-0.0194639
1.81416,0.00728255,-0.282244
1.74812,-0.0784645,-0.222737
1.88932,0.100007,0.0109961
1.74222,-0.0781995,-0.010136
1.81349,0.00727987,-0.195345
1.67728,-0.157664,-0.157261
1.81549,0.0072879,0.0422459
1.66455,-0.156467,0.0194639
1.80757,0.0072561,-0.126399
1.74443,-0.0782991,-0.142551
1.87658,0.0993325,0.0546902
1.73399,-0.0778303,0.0302974
1.89346,0.100226,-0.121519
1.6698,-0.15696,-0.0976736
1.80493,0.00724548,0.105115
1.71685,-0.0770607,0.0700165
1.81801,0.00729801,-0.0846866
1.73587,-0.0779145,-0.0910646
1.78657,0.00717178,0.219365
1.71656,-0.0770477,0.140272
1.8838,0.0997148,-0.0768554
1.81549,0.0072879,-0.0422459
1.90139,0.0939914,-0.0332294
1.73324,-0.0838598,-0.0505012
1.73948,-0.0841616,-0.348304
1.812,0.000948761,0
1.66001,-0.161888,-0.0194173
1.80627,0.000945762,-0.281014
1.74387,-0.0843744,-0.222232
1.87368,0.0926217,0.0109032
1.74193,-0.0842805,-0.010136
1.82146,0.000953716,-0.196202
1.67276,-0.163131,-0.15689
1.80751,0.000946411,0.0420598
1.65205,-0.161112,0.0193242
1.79562,0.000940182,-0.125562
1.7322,-0.0838098,-0.141574
1.86893,0.0923866,0.0544575
1.7377,-0.0840758,0.0303672
1.88582,0.093222,-0.121008
1.66526,-0.1624,-0.097441
1.79695,0.000940884,0.10465
1.71657,-0.0830532,0.0700165
1.81403,0.000949826,-0.0845005
1.73559,-0.0839734,-0.0910646
1.79055,0.000937532,0.219852
1.70433,-0.0824612,0.139296
1.88014,0.0929411,-0.0766925
1.80751,0.000946411,-0.0420598
1.88572,0.0866197,-0.0329501
1.73293,-0.0899094,-0.0505012
1.73917,-0.090233,-0.348304
1.80399,-0.00535257,0
1.65944,-0.167682,-0.0194173
1.80626,-0.0053593,-0.281014
1.73168,-0.0898443,-0.220717
1.86201,0.0855301,0.0108334
1.72964,-0.0897387,-0.0100662
1.80952,-0.00536898,-0.194917
1.66822,-0.168569,-0.156518
1.8115,-0.00537485,0.0421528
1.64352,-0.166073,0.0192311
1.7996,-0.00533953,-0.125841
1.72792,-0.0896493,-0.141249
1.85326,0.0851284,0.053992
1.7334,-0.0899338,0.0302974
1.87417,0.0860891,-0.12024
1.65674,-0.167409,-0.0969759
1.78896,-0.00530797,0.104185
1.71627,-0.0890446,0.0700165
1.80603,-0.00535862,-0.0841283
1.73528,-0.0900312,-0.0910646
1.77864,-0.00527733,0.21839
1.70403,-0.0884099,0.139296
1.87646,0.0861943,-0.0765297
1.79551,-0.00532739,-0.0417806
1.87403,0.079528,-0.0327407
1.72463,-0.0955158,-0.0502684
1.73101,-0.0958695,-0.346735
1.79596,-0.011598,0
1.65089,-0.172641,-0.0193242
1.79833,-0.0116133,-0.279784
1.73136,-0.0958885,-0.220717
1.8583,0.0788604,0.0108102
1.72533,-0.0955546,-0.010043
1.78563,-0.0115313,-0.192346
1.65969,-0.173562,-0.155774
1.79948,-0.0116207,0.0418737
1.64293,-0.171809,0.0192311
1.79159,-0.0115697,-0.125283
1.73158,-0.0959007,-0.141574
1.85754,0.0788284,0.0541084
1.7211,-0.0953205,0.0300879
1.86649,0.079208,-0.119729
1.6482,-0.172361,-0.0965108
1.78095,-0.011501,0.10372
1.70796,-0.0945929,0.0696909
1.79402,-0.0115854,-0.0835699
1.73097,-0.095867,-0.0908552
1.77861,-0.0114859,0.21839
1.69575,-0.0939166,0.138645
1.86877,0.0793047,-0.076204
1.78748,-0.0115432,-0.0415945
1.8663,0.0726747,-0.0326011
1.70832,-0.100595,-0.049803
1.73067,-0.101911,-0.346735
1.78391,-0.0177476,0
1.65027,-0.178403,-0.0193242
1.79828,-0.0178905,-0.279784
1.72705,-0.101698,-0.220212
1.85456,0.0722176,0.0107869
1.72099,-0.101341,-0.0100197
1.78161,-0.0177247,-0.191918
1.65116,-0.178499,-0.155031
1.79143,-0.0178224,0.0416875
1.63437,-0.176683,0.0191379
1.78755,-0.0177838,-0.125004
1.72725,-0.10171,-0.141249
1.85381,0.0721883,0.053992
1.72076,-0.101328,0.0300879
1.86675,0.0726923,-0.119729
1.63965,-0.177255,-0.0960457
1.78489,-0.0177573,0.103953
1.69565,-0.0998494,0.0692024
1.78198,-0.0177284,-0.0830115
1.73062,-0.101909,-0.0908552
1.77061,-0.0176153,0.217415
1.69143,-0.0996009,0.13832
1.85705,0.0723145,-0.0757155
1.78743,-0.0177826,-0.0415945
1.85855,0.0658763,-0.0324615
1.71594,-0.107056,-0.0500357
1.71464,-0.106975,-0.343598
1.77984,-0.0239208,0
1.64169,-0.183275,-0.0192311
1.79425,-0.0241145,-0.279169
1.72272,-0.107479,-0.219707
1.84281,0.0653185,0.0107172
1.71663,-0.107099,-0.00999649
1.78551,-0.023997,-0.192346
1.64657,-0.183819,-0.154659
1.78735,-0.0240218,0.0415945
1.62976,-0.181943,0.0190914
1.7755,-0.0238625,-0.124167
1.72689,-0.107739,-0.141249
1.84606,0.0654336,0.0537593
1.71241,-0.106836,0.0299483
1.85503,0.0657515,-0.118961
1.63902,-0.182977,-0.0960457
1.77683,-0.0238803,0.103487
1.69131,-0.105519,0.0690396
1.78191,-0.0239485,-0.0830115
1.7183,-0.107203,-0.0902272
1.77054,-0.0237958,0.217415
1.68312,-0.105008,0.137669
1.8533,0.0656902,-0.0755527
1.78735,-0.0240218,-0.0415945
1.84678,0.0590052,-0.032252
1.70757,-0.112519,-0.049803
1.71426,-0.112959,-0.343598
1.77974,-0.0301334,0
1.64104,-0.189004,-0.0192311
1.7823,-0.0301767,-0.277324
1.71442,-0.11297,-0.218697
1.84703,0.0590132,0.0107404
1.71226,-0.112828,-0.00997324
1.77349,-0.0300274,-0.191061
1.64196,-0.18911,-0.154287
1.78726,-0.0302607,0.0415945
1.63309,-0.188089,0.0191379
1.77541,-0.03006,-0.124167
1.71059,-0.112718,-0.139947
1.83429,0.0586062,0.0534102
1.71203,-0.112812,0.0299483
1.84727,0.0590209,-0.118449
1.63838,-0.188697,-0.0960457
1.77673,-0.0300824,0.103487
1.69492,-0.111685,0.0692024
1.77782,-0.0301008,-0.0828254
1.71393,-0.112938,-0.0900178
1.76648,-0.0299088,0.216927
1.67478,-0.110358,0.137018
1.84553,0.0589653,-0.0752271
1.78326,-0.030193,-0.0415014
1.84297,0.0524446,-0.0321822
1.70717,-0.118479,-0.049803
1.71385,-0.118943,-0.343598
1.77563,-0.036264,0
1.6364,-0.19426,-0.0191845
1.77428,-0.0362365,-0.276094
1.7061,-0.118404,-0.217686
1.83922,0.052338,0.0106939
1.70786,-0.118527,-0.00995
1.76144,-0.0359742,-0.189776
1.64129,-0.19484,-0.154287
1.78714,-0.0364992,0.0415945
1.62448,-0.192845,0.0190448
1.7713,-0.0361757,-0.123888
1.71416,-0.118964,-0.140272
1.82649,0.0519755,0.0531775
1.69167,-0.117403,0.0295993
1.84347,0.0524588,-0.118194
1.62184,-0.192532,-0.0951154
1.77263,-0.0362027,0.103255
1.68654,-0.117047,0.0688767
1.7777,-0.0363063,-0.0828254
1.70157,-0.11809,-0.0893898
1.75446,-0.0358316,0.215465
1.67439,-0.116204,0.137018
1.84173,0.0524092,-0.0750642
1.77915,-0.0363359,-0.0414084
1.83915,0.0459113,-0.0321124
1.69877,-0.123856,-0.0495703
1.70952,-0.124639,-0.342813
1.7635,-0.042175,0
1.6238,-0.198515,-0.0190448
1.77019,-0.0423352,-0.27548
1.70567,-0.124359,-0.217686
1.8354,0.0458177,0.0106707
1.69547,-0.123615,-0.00988025
1.76926,-0.0423128,-0.190633
1.65246,-0.202018,-0.155402
1.78301,-0.0426416,0.0415014
1.62777,-0.199,0.0190914
1.76319,-0.0421677,-0.123329
1.70578,-0.124367,-0.139621
1.83465,0.0457991,0.0534102
1.68726,-0.123017,0.0295295
1.83965,0.0459239,-0.117938
1.61324,-0.197223,-0.0946503
1.76051,-0.0421037,0.102557
1.67815,-0.122352,0.0685511
1.76558,-0.0422249,-0.082267
1.70114,-0.124029,-0.0893898
1.75035,-0.0418606,0.214978
1.66602,-0.121468,0.136367
1.8419,0.04598,-0.0750642
1.65466,-0.202288,-0.0582124
1.77501,-0.0424504,-0.0413153
1.82729,0.0395526,-0.031903
1.68639,-0.128576,-0.0492212
1.70518,-0.130009,-0.342029
1.75935,-0.0479138,0
1.62313,-0.203898,-0.0190448
1.76609,-0.0480975,-0.274865
1.7013,-0.129713,-0.217181
1.83154,0.0396445,0.0106474
1.69904,-0.129541,-0.0099035
1.76513,-0.0480713,-0.190204
1.63202,-0.205015,-0.153544
1.77086,-0.0482275,0.0412223
1.6152,-0.202901,0.0189517
1.75905,-0.0479058,-0.12305
1.70536,-0.130023,-0.139621
1.8188,0.0393688,0.0529448
1.68286,-0.128307,0.0294597
1.83181,0.0396504,-0.117426
1.61257,-0.202572,-0.0946503
1.75238,-0.0477241,0.102092
1.66976,-0.127309,0.0682254
1.75744,-0.0478619,-0.0818948
1.69276,-0.129062,-0.0889711
1.75417,-0.0477729,0.215465
1.66163,-0.126689,0.136041
1.82606,0.0395258,-0.0744129
1.76687,-0.0481186,-0.0411292
1.82742,0.0331739,-0.031903
1.67796,-0.133826,-0.0489885
1.6969,-0.135337,-0.34046
1.75117,-0.0538091,0
1.62241,-0.209563,-0.0190448
1.75801,-0.0540192,-0.273635
1.69292,-0.13502,-0.216171
1.82367,0.0331058,0.0106009
1.69459,-0.135153,-0.00988025
1.76495,-0.0542325,-0.190204
1.61945,-0.20918,-0.152428
1.76269,-0.054163,0.0410362
1.61051,-0.208026,0.0189051
1.74691,-0.053678,-0.122213
1.69695,-0.135341,-0.138971
1.81093,0.0328747,0.052712
1.67841,-0.133863,0.0293899
1.82396,0.0331111,-0.116914
1.60394,-0.207176,-0.0941852
1.75619,-0.0539634,0.102325
1.66134,-0.132501,0.0678997
1.74928,-0.0537508,-0.0815225
1.6923,-0.13497,-0.0889711
1.74209,-0.05353,0.214003
1.66118,-0.132488,0.136041
1.82618,0.0331515,-0.0744129
1.75869,-0.0540402,-0.0409431
1.82353,0.0267362,-0.0318332
1.68147,-0.140015,-0.0491048
1.69251,-0.140934,-0.339675
1.74298,-0.0596479,0
1.60581,-0.21312,-0.0188586
1.74991,-0.0598852,-0.272405
1.69244,-0.140928,-0.216171
1.82377,0.0267398,0.0106009
1.68614,-0.140403,-0.00983376
1.75283,-0.0599849,-0.188919
1.62266,-0.215356,-0.1528
1.76249,-0.0603156,0.0410362
1.60581,-0.21312,0.0188586
1.74671,-0.0597756,-0.122213
1.68455,-0.140271,-0.137994
1.80704,0.0264945,0.0525957
1.68192,-0.140053,0.0294597
1.82007,0.0266855,-0.116659
1.61508,-0.21435,-0.0948829
1.752,-0.0599567,0.102092
1.66884,-0.138963,0.0682254
1.74509,-0.05972,-0.0813364
1.68783,-0.140545,-0.0887618
1.74189,-0.0596107,0.214003
1.65276,-0.137624,0.13539
1.80631,0.0264837,-0.0735988
1.76249,-0.0603156,-0.0410362
1.81561,0.0202814,-0.0316936
1.68097,-0.145883,-0.0491048
1.6881,-0.146502,-0.338891
1.74676,-0.0658824,0
1.60506,-0.218724,-0.0188586
1.74574,-0.0658442,-0.27179
1.67613,-0.145463,-0.214151
1.81186,0.0202395,0.0105312
1.68564,-0.146288,-0.00983376
1.75261,-0.0661031,-0.188919
1.61795,-0.220481,-0.152428
1.75428,-0.0661661,0.0408501
1.60902,-0.219264,0.0189051
1.74649,-0.0658724,-0.122213
1.68008,-0.145806,-0.137669
1.80312,0.0201419,0.0524793
1.66947,-0.144885,0.0292502
1.81217,0.020243,-0.116147
1.61432,-0.219986,-0.0948829
1.75178,-0.066072,0.102092
1.65241,-0.143405,0.0675741
1.74087,-0.0656605,-0.0811503
1.67937,-0.145745,-0.0883431
1.72977,-0.0652417,0.21254
1.65227,-0.143393,0.13539
1.80639,0.0201784,-0.0735988
1.75428,-0.0661661,-0.0408501
1.80367,0.0138515,-0.0314841
1.6685,-0.150671,-0.0487557
1.74344,-0.0718525,-0.488471
1.69148,-0.152746,-0.339675
1.74652,-0.0719794,0
1.60824,-0.224879,-0.0189051
1.74155,-0.0717748,-0.271175
1.67561,-0.151313,-0.214151
1.81192,0.0139148,0.0105312
1.66918,-0.150732,-0.00974077
1.74045,-0.0717291,-0.187634
1.61322,-0.225575,-0.152057
1.75803,-0.0724539,0.0409431
1.60428,-0.224325,0.0188586
1.74226,-0.071804,-0.121934
1.68353,-0.152028,-0.137994
1.79919,0.013817,0.052363
1.66497,-0.150352,0.0291804
1.80425,0.0138559,-0.115635
1.59377,-0.222855,-0.0937201
1.73159,-0.0713643,0.100929
1.65588,-0.149532,0.0677369
1.74463,-0.0719014,-0.0813364
1.68283,-0.151965,-0.0885524
1.72953,-0.0712794,0.21254
1.64382,-0.148442,0.13474
1.80245,0.0138421,-0.0734359
1.74604,-0.0719599,-0.040664
1.80371,0.00755543,-0.0314841
1.66,-0.155747,-0.048523
1.68703,-0.158283,-0.338891
1.73427,-0.0775394,0
1.59953,-0.229356,-0.018812
1.7334,-0.0775004,-0.269945
1.67507,-0.157161,-0.214151
1.79995,0.0075397,0.0104614
1.6567,-0.155437,-0.00967102
1.72827,-0.0772711,-0.186349
1.59666,-0.228944,-0.150569
1.74179,-0.0778757,0.0405709
1.59557,-0.228788,0.0187654
1.73802,-0.077707,-0.121655
1.67902,-0.157531,-0.137669
1.80322,0.00755338,0.0524793
1.66444,-0.156163,0.0291804
1.80428,0.00755783,-0.115635
1.59693,-0.228984,-0.0939527
1.73532,-0.0775866,0.101162
1.64341,-0.154191,0.0672484
1.73638,-0.0776339,-0.0809642
1.67036,-0.156719,-0.0879244
1.72134,-0.0769614,0.211565
1.64329,-0.154179,0.13474
1.79849,0.00753357,-0.0732731
1.73779,-0.077697,-0.0404779
1.79973,0.00125646,-0.0314143
1.65547,-0.161154,-0.0484066
1.67086,-0.162651,-0.335753
1.73399,-0.0835927,0
1.59476,-0.234357,-0.0187654
1.73706,-0.0837409,-0.27056
1.67451,-0.163007,-0.214151
1.80397,0.00125943,0.0104847
1.66012,-0.161607,-0.00969427
1.73593,-0.0836864,-0.187206
1.59585,-0.234516,-0.150569
1.73751,-0.0837626,0.0404779
1.59081,-0.233775,0.0187189
1.73773,-0.0837733,-0.121655
1.67449,-0.163005,-0.137343
1.79124,0.00125054,0.0521302
1.6599,-0.161585,0.0291106
1.79232,0.0012513,-0.114868
1.58822,-0.233395,-0.0934876
1.73105,-0.0834513,0.100929
1.63889,-0.159539,0.0670856
1.73211,-0.0835021,-0.080778
1.65788,-0.161388,-0.0872964
1.71313,-0.0825872,0.21059
1.63481,-0.159142,0.134089
1.78652,0.00124724,-0.0727846
1.73352,-0.08357,-0.0403848
1.78772,-0.00499228,-0.0312049
1.6549,-0.166931,-0.0484066
1.67028,-0.168483,-0.335753
1.7217,-0.0890252,0
1.58207,-0.238136,-0.0186257
1.72492,-0.0891916,-0.268716
1.66209,-0.167656,-0.212636
1.79596,-0.0050153,0.0104382
1.65557,-0.166999,-0.00967102
1.73166,-0.08954,-0.186777
1.59502,-0.240085,-0.150569
1.73321,-0.0896206,0.0403848
1.58998,-0.239327,0.0187189
1.73345,-0.0896326,-0.121376
1.66201,-0.167649,-0.136367
1.78324,-0.00497977,0.0518975
1.65535,-0.166976,0.0290408
1.79232,-0.00500512,-0.114868
1.5874,-0.238938,-0.0934876
1.72278,-0.0890809,0.100464
1.63434,-0.164858,0.0669228
1.72383,-0.0891351,-0.0804058
1.64936,-0.166372,-0.0868777
1.70887,-0.0883617,0.210103
1.77852,-0.00496658,-0.072459
1.73721,-0.0898271,-0.0404779
1.78369,-0.0112074,-0.0311351
1.65033,-0.172292,-0.0482903
1.66578,-0.173905,-0.334968
1.72537,-0.0952551,0
1.58123,-0.243657,-0.0186257
1.7246,-0.0952122,-0.268716
1.64965,-0.172221,-0.21112
1.78393,-0.0112089,0.0103685
1.651,-0.172362,-0.00964778
1.72339,-0.0951457,-0.18592
1.59417,-0.245651,-0.150569
1.73289,-0.0956701,0.0403848
1.58518,-0.244266,0.0186723
1.72515,-0.095243,-0.120818
1.66141,-0.173449,-0.136367
1.77921,-0.0111793,0.0517812
1.64282,-0.171508,0.0288314
1.78031,-0.0111862,-0.1141
1.58261,-0.243869,-0.093255
1.71847,-0.0948738,0.100232
1.63376,-0.170562,0.0669228
1.71951,-0.0949316,-0.0802197
1.66068,-0.173373,-0.0875057
1.70855,-0.0943262,0.210103
1.77449,-0.0111496,-0.0722961
1.72491,-0.0952293,-0.0401987
1.77564,-0.0173554,-0.0309955
1.64972,-0.178051,-0.0482903
1.66516,-0.179718,-0.334968
1.71704,-0.100808,0
1.58037,-0.249175,-0.0186257
1.71636,-0.100768,-0.267486
1.64904,-0.177978,-0.21112
1.77988,-0.0173969,0.0103452
1.64243,-0.177265,-0.00960128
1.71511,-0.100695,-0.185064
1.5933,-0.251215,-0.150569
1.72456,-0.10125,0.0401987
1.58037,-0.249175,0.0186257
1.72481,-0.101264,-0.120818
1.64891,-0.177964,-0.13539
1.77916,-0.0173898,0.0517812
1.65016,-0.1781,0.028971
1.77627,-0.0173615,-0.113844
1.57386,-0.248148,-0.0927899
1.70617,-0.10017,0.099534
1.62918,-0.175835,0.06676
1.71917,-0.100933,-0.0802197
1.65213,-0.178311,-0.087087
1.70424,-0.100057,0.209615
1.77844,-0.0173827,-0.072459
1.71259,-0.100547,-0.0399195
1.77157,-0.0235004,-0.0309257
1.62922,-0.181594,-0.0477085
1.65673,-0.184661,-0.333399
1.72067,-0.10705,0
1.57554,-0.254053,-0.0185792
1.71205,-0.106513,-0.266871
1.64052,-0.182854,-0.21011
1.77581,-0.0235567,0.010322
1.63783,-0.182554,-0.00957804
1.70681,-0.106187,-0.184207
1.56883,-0.252971,-0.148339
1.71223,-0.106524,0.0399195
1.57554,-0.254053,0.0185792
1.71648,-0.106789,-0.12026
1.64431,-0.183277,-0.135065
1.7671,-0.023441,0.0514321
1.63363,-0.182087,0.0286918
1.7762,-0.0235618,-0.113844
1.5651,-0.252369,-0.0923248
1.70182,-0.105877,0.0993015
1.62061,-0.180635,0.0664343
1.70286,-0.105941,-0.0794752
1.64355,-0.183192,-0.0866684
1.69992,-0.105759,0.209128
1.77437,-0.0235376,-0.0722961
1.70823,-0.106276,-0.0398265
1.77148,-0.0296842,-0.0309257
1.62063,-0.186367,-0.0474758
1.65218,-0.189994,-0.332615
1.70832,-0.112268,0
1.57464,-0.259551,-0.0185792
1.71167,-0.112489,-0.266871
1.64382,-0.189033,-0.210615
1.77172,-0.0296883,0.0102987
1.63718,-0.18827,-0.00957804
1.71436,-0.112666,-0.185064
1.57186,-0.259093,-0.148711
1.71583,-0.112762,0.0400126
1.7161,-0.11278,-0.12026
1.64366,-0.189016,-0.135065
1.767,-0.0296092,0.0514321
1.62901,-0.187331,0.0286219
1.76812,-0.029628,-0.113333
1.56027,-0.257182,-0.0920922
1.70144,-0.111817,0.0993015
1.61997,-0.186291,0.0664343
1.70646,-0.112147,-0.0796613
1.631,-0.187559,-0.0860403
1.75829,-0.0294633,-0.0716448
1.70785,-0.112238,-0.0398265
1.75937,-0.0356248,-0.0307162
1.62791,-0.192964,-0.0477085
1.63982,-0.194375,-0.330262
1.69993,-0.117678,0
1.56978,-0.264382,-0.0185326
1.68761,-0.116825,-0.263181
1.64315,-0.19477,-0.210615
1.76361,-0.0357106,0.0102522
1.62857,-0.193042,-0.00953154
1.70206,-0.117825,-0.183779
1.56702,-0.263917,-0.148339
1.70745,-0.118199,0.0398265
1.70375,-0.117943,-0.119423
1.63508,-0.193813,-0.134414
1.76289,-0.0356961,0.0513157
1.62438,-0.192545,0.0285521
1.76003,-0.0356381,-0.112821
1.55936,-0.262626,-0.0920922
1.70104,-0.117755,0.0993015
1.61137,-0.191004,0.0661086
1.69809,-0.117551,-0.079289
1.62637,-0.192781,-0.085831
1.75019,-0.0354388,-0.0713192
1.70346,-0.117923,-0.0397334
1.75924,-0.0417659,-0.0307162
1.62723,-0.198645,-0.0477085
1.63913,-0.200098,-0.330262
1.7035,-0.123902,0
1.56491,-0.269182,-0.018486
1.69508,-0.123289,-0.264411
1.63064,-0.199062,-0.2091
1.75548,-0.0416766,0.0102057
1.63583,-0.199695,-0.00957804
1.7056,-0.124054,-0.184207
1.57002,-0.27006,-0.148711
1.69905,-0.123578,0.0396404
1.69537,-0.12331,-0.118865
1.63043,-0.199037,-0.134089
1.75876,-0.0417546,0.0511993
1.61973,-0.19773,0.0284823
1.75191,-0.041592,-0.112309
1.5663,-0.269422,-0.0925573
1.68469,-0.122533,0.0983712
1.6107,-0.196627,0.0661086
1.69767,-0.123478,-0.079289
1.61775,-0.197489,-0.0854123
1.75005,-0.0415479,-0.0713192
1.70304,-0.123868,-0.0397334
1.75109,-0.0473832,-0.0305766
1.61466,-0.202547,-0.0473594
1.63067,-0.204556,-0.328693
1.6951,-0.128943,0
1.56401,-0.27437,-0.018486
1.68678,-0.12831,-0.263181
1.62603,-0.203974,-0.208595
1.75133,-0.0473896,0.0101825
1.61531,-0.20263,-0.0094618
1.69328,-0.128805,-0.182922
1.55734,-0.273201,-0.147595
1.69863,-0.129212,0.0396404
1.687,-0.128326,-0.118307
1.62185,-0.20345,-0.133438
1.75062,-0.0473703,0.0509666
1.61509,-0.202602,0.0284125
1.75176,-0.0474013,-0.112309
1.54967,-0.271854,-0.0916271
1.67631,-0.127514,0.0979061
1.61004,-0.201968,0.0661086
1.69725,-0.129107,-0.079289
1.61709,-0.202852,-0.0854123
1.74991,-0.0473511,-0.0713192
1.69066,-0.128605,-0.0394543
1.74692,-0.0533732,-0.0305068
1.60204,-0.206648,-0.0470103
1.62995,-0.210247,-0.328693
1.69066,-0.134542,0
1.67844,-0.13357,-0.261952
1.62531,-0.209649,-0.208595
1.74716,-0.0533804,0.0101592
1.6146,-0.208267,-0.0094618
1.68886,-0.134399,-0.182493
1.55246,-0.277933,-0.147223
1.68621,-0.134188,0.0393612
1.68654,-0.134214,-0.118307
1.61718,-0.2086,-0.133112
1.75444,-0.0536029,0.051083
1.61041,-0.207727,0.0283427
1.7476,-0.0533939,-0.112054
1.54871,-0.277262,-0.0916271
1.67585,-0.133364,0.0979061
1.60139,-0.206564,0.065783
1.68484,-0.134079,-0.0787307
1.61241,-0.207985,-0.0852029
1.74574,-0.0533371,-0.0711563
1.68621,-0.134188,-0.0393612
1.74672,-0.0594708,-0.0305068
1.60131,-0.212239,-0.0470103
1.62143,-0.214905,-0.327124
1.68619,-0.140111,0
1.67796,-0.139428,-0.261952
1.6167,-0.214278,-0.207585
1.74296,-0.0593427,0.010136
1.60989,-0.213376,-0.00943855
1.68442,-0.139964,-0.182065
1.54365,-0.28192,-0.14648
1.68175,-0.139742,0.0392682
1.68606,-0.140101,-0.118307
1.61644,-0.214244,-0.133112
1.74225,-0.0593186,0.0507339
1.60571,-0.212822,0.0282729
1.74341,-0.059358,-0.111798
1.53988,-0.281232,-0.091162
1.6714,-0.138882,0.0976736
1.5967,-0.211627,0.0656201
1.68038,-0.139629,-0.0785445
1.60375,-0.212562,-0.0847843
1.73755,-0.0591585,-0.0708307
1.67776,-0.139411,-0.0391751
1.73851,-0.0652675,-0.0303672
1.5966,-0.217288,-0.0468939
1.67772,-0.145306,0
1.66959,-0.144602,-0.260722
1.60808,-0.21885,-0.206575
1.73075,-0.0649762,0.0100662
1.60518,-0.218455,-0.0094153
1.68392,-0.145843,-0.182065
1.54265,-0.287306,-0.14648
1.68125,-0.145612,0.0392682
1.67363,-0.144952,-0.11747
1.60383,-0.218272,-0.132136
1.72605,-0.0647998,0.0502684
1.601,-0.217886,0.0282031
1.73123,-0.064994,-0.11103
1.53889,-0.286605,-0.091162
1.65499,-0.143338,0.0967433
1.6759,-0.145149,-0.0783584
1.59905,-0.21762,-0.0845749
1.73334,-0.0650734,-0.0706678
1.67328,-0.144922,-0.0390821
1.73827,-0.0713357,-0.0303672
1.59583,-0.22286,-0.0468939
1.6772,-0.151162,0
1.66908,-0.150429,-0.260722
1.59945,-0.223365,-0.205565
1.71852,-0.0705253,0.00999649
1.60836,-0.22461,-0.00943855
1.67944,-0.151363,-0.181637
1.5299,-0.290461,-0.145365
1.66878,-0.150403,0.038989
1.67312,-0.150793,-0.11747
1.59911,-0.223318,-0.13181
1.72981,-0.0709884,0.0503848
1.58834,-0.221814,0.0279937
1.727,-0.0708731,-0.110774
1.53788,-0.291975,-0.091162
1.65846,-0.149472,0.0969759
1.67539,-0.150998,-0.0783584
1.59432,-0.222648,-0.0843656
1.72911,-0.0709596,-0.070505
1.66878,-0.150403,-0.038989
1.72603,-0.0768691,-0.0301578
1.59504,-0.228429,-0.0468939
1.6687,-0.156269,0
1.66067,-0.155517,-0.259492
1.59473,-0.228384,-0.20506
1.72226,-0.0767016,0.0100197
1.59965,-0.229089,-0.00939205
1.6591,-0.155371,-0.179495
1.53279,-0.296556,-0.145736
1.67223,-0.1566,0.0390821
1.67655,-0.157005,-0.117749
1.59438,-0.228333,-0.131485
1.71358,-0.0763146,0.0499194
1.59152,-0.227924,0.0280635
1.73073,-0.0770786,-0.11103
1.52509,-0.295066,-0.0904643
1.64997,-0.154516,0.0965108
1.67087,-0.156473,-0.0781723
1.59749,-0.228779,-0.0845749
1.72486,-0.0768171,-0.0703422
1.6563,-0.155109,-0.0387099
1.72175,-0.0827017,-0.0300879
1.57841,-0.231672,-0.0464285
1.66814,-0.162093,0
1.66405,-0.161696,-0.260107
1.60178,-0.235102,-0.20607
1.72199,-0.0827129,0.0100197
1.59489,-0.23409,-0.00936881
1.66251,-0.161546,-0.179923
1.52393,-0.300364,-0.144993
1.65973,-0.161276,0.0388029
1.65614,-0.160927,-0.116354
1.59751,-0.234476,-0.13181
1.71729,-0.0824875,0.0500357
1.59071,-0.233478,0.0280635
1.72646,-0.082928,-0.110774
1.52405,-0.300388,-0.0904643
1.6534,-0.16066,0.0967433
1.67031,-0.162304,-0.0781723
1.59668,-0.234353,-0.0845749
1.72059,-0.0826457,-0.0701794
1.65575,-0.160889,-0.0387099
1.72145,-0.0887112,-0.0300879
1.58946,-0.238964,-0.0467776
1.65165,-0.166312,0
1.65168,-0.166315,-0.258262
1.58917,-0.238922,-0.204555
1.71769,-0.0885174,0.00999649
1.5901,-0.239061,-0.00934556
1.66985,-0.168145,-0.18078
1.52287,-0.305682,-0.144993
1.65518,-0.166668,0.0387099
1.65954,-0.167106,-0.116633
1.5888,-0.238865,-0.13116
1.70901,-0.0880699,0.049803
1.58593,-0.238434,0.0279937
1.72616,-0.088954,-0.110774
1.5269,-0.306492,-0.0906969
1.64488,-0.165631,0.0962782
1.65781,-0.166933,-0.0776139
1.5761,-0.236956,-0.0835282
1.72428,-0.0888569,-0.0703422
1.64722,-0.165867,-0.0385238
1.71315,-0.0942802,-0.0299483
1.57676,-0.242686,-0.0464285
1.65106,-0.172076,0
1.65109,-0.17208,-0.258262
1.58441,-0.243864,-0.204049
1.70539,-0.0938533,0.00992675
1.58135,-0.243393,-0.00929906
1.66529,-0.17356,-0.180351
1.50619,-0.307806,-0.143506
1.65061,-0.17203,0.0386168
1.66291,-0.173312,-0.116912
1.57219,-0.241984,-0.129858
1.7047,-0.0938152,0.0496866
1.593,-0.245186,0.0281333
1.71389,-0.0943208,-0.110007
1.518,-0.31022,-0.0902318
1.63238,-0.17013,0.0955806
1.66119,-0.173133,-0.0778
1.57526,-0.242456,-0.0835282
1.708,-0.0939967,-0.0696909
1.64266,-0.171201,-0.0384307
1.70881,-0.100026,-0.0298785
1.57985,-0.248811,-0.0465449
1.64249,-0.176982,0
1.64655,-0.177419,-0.257647
1.57571,-0.248158,-0.203039
1.69307,-0.0991044,0.00985701
1.58444,-0.249534,-0.00932231
1.66072,-0.178946,-0.179923
1.5207,-0.316306,-0.144993
1.65,-0.177791,0.0386168
1.64246,-0.176978,-0.115517
1.57528,-0.248091,-0.130183
1.70436,-0.0997651,0.0496866
1.70558,-0.0998363,-0.109495
1.52473,-0.317144,-0.0906969
1.6278,-0.175399,0.095348
1.6566,-0.178502,-0.0776139
1.57441,-0.247953,-0.0835282
1.70367,-0.0997246,-0.069528
1.64602,-0.177362,-0.0385238
1.69648,-0.105247,-0.0296691
1.56318,-0.251781,-0.0460794
1.64186,-0.182714,0
1.64592,-0.183165,-0.257647
1.567,-0.252395,-0.202029
1.68872,-0.104766,0.00983376
1.57961,-0.254427,-0.00929906
1.65614,-0.184302,-0.179495
1.51569,-0.320788,-0.144621
1.64539,-0.183107,0.0385238
1.6458,-0.183152,-0.115796
1.57047,-0.252954,-0.129858
1.69203,-0.104971,0.0493375
1.70522,-0.105789,-0.109495
1.5158,-0.32081,-0.0902318
1.62321,-0.180638,0.0951154
1.64406,-0.182958,-0.0770555
1.56959,-0.252812,-0.0833189
1.71129,-0.106166,-0.0698537
1.6295,-0.181338,-0.0381516
1.70009,-0.11143,-0.0297389
1.55835,-0.256586,-0.045963
1.63327,-0.187531,0
1.63349,-0.187557,-0.255802
1.57002,-0.258508,-0.202534
1.69234,-0.110922,0.00985701
1.57477,-0.25929,-0.00927581
1.65153,-0.189628,-0.179066
1.49899,-0.322723,-0.143134
1.62488,-0.186568,0.0380585
1.64118,-0.18844,-0.115517
1.57351,-0.259082,-0.130183
1.68766,-0.110615,0.0492212
1.69687,-0.111219,-0.108984
1.51076,-0.325259,-0.0899992
1.62257,-0.186303,0.0951154
1.6315,-0.187328,-0.0764972
1.56081,-0.256992,-0.0829002
1.69894,-0.111355,-0.0693652
1.63283,-0.187481,-0.0382446
1.69574,-0.116496,-0.0296691
1.54965,-0.260156,-0.0457303
1.62473,-0.191724,0
1.63289,-0.192687,-0.255802
1.56529,-0.262782,-0.202029
1.68001,-0.115415,0.00978726
1.57395,-0.264236,-0.00927581
1.64698,-0.19435,-0.178638
1.50575,-0.329132,-0.143877
1.62826,-0.192141,0.0381516
1.62869,-0.192192,-0.11468
1.57269,-0.264024,-0.130183
1.67933,-0.115369,0.0489885
1.69253,-0.116275,-0.108728
1.61405,-0.190464,0.0946503
1.6309,-0.192453,-0.0764972
1.55606,-0.261233,-0.0826908
1.69061,-0.116144,-0.0690396
1.62032,-0.191204,-0.0379654
1.68336,-0.121551,-0.0294597
1.54873,-0.265564,-0.0457303
1.62405,-0.197394,0
1.63221,-0.198386,-0.255802
1.56436,-0.268244,-0.202029
1.68758,-0.121855,0.00983376
1.56119,-0.2677,-0.00920607
1.63445,-0.198658,-0.177353
1.5007,-0.333522,-0.143506
1.62361,-0.197341,0.0380585
1.62405,-0.197395,-0.114401
1.55604,-0.266817,-0.128881
1.66695,-0.120366,0.0486394
1.68813,-0.121895,-0.108472
1.63022,-0.198145,-0.0764972
1.55514,-0.266663,-0.0826908
1.69019,-0.122044,-0.0690396
1.62361,-0.197341,-0.0380585
1.67892,-0.127417,-0.0293899
1.54775,-0.271239,-0.0457303
1.62331,-0.203345,0
1.6197,-0.202893,-0.253958
1.55164,-0.271921,-0.200514
1.67117,-0.126829,0.00974077
1.6416,-0.205636,-0.178209
1.4917,-0.337264,-0.142762
1.62287,-0.20329,0.0380585
1.62332,-0.203346,-0.114401
1.55505,-0.272518,-0.128881
1.67049,-0.126777,0.0487557
1.67573,-0.127176,-0.107705
1.62948,-0.204118,-0.0764972
1.55415,-0.272361,-0.0826908
1.68176,-0.127633,-0.0687139
1.61494,-0.202296,-0.0378724
1.67051,-0.132352,-0.0292502
1.54684,-0.27637,-0.0457303
1.6147,-0.207707,0
1.6151,-0.207759,-0.253343
1.55073,-0.277065,-0.200514
1.66276,-0.131738,0.00969427
1.62513,-0.209049,-0.176496
1.49445,-0.3431,-0.143134
1.61822,-0.208161,0.0379654
1.61868,-0.208219,-0.114122
1.54629,-0.276271,-0.12823
1.66209,-0.131685,0.048523
1.67928,-0.133047,-0.10796
1.62484,-0.209011,-0.076311
1.54537,-0.276108,-0.0822721
1.67336,-0.132578,-0.0683882
1.60236,-0.20612,-0.0375932
1.65808,-0.137193,-0.0290408
1.538,-0.280334,-0.0454976
1.61396,-0.213342,0
1.61829,-0.213914,-0.253958
1.54976,-0.282477,-0.200514
1.66229,-0.137541,0.00969427
1.62045,-0.214199,-0.176068
1.60956,-0.21276,0.0377793
