2.77477,0.543886,0.0493554
2.78073,0.545056,0.115446
2.75243,0.529038,-0.0815699
2.75943,0.671657,0
2.77202,0.393528,-0.032595
2.77423,0.675258,0.0664395
2.76889,0.532201,0.0492158
2.76751,0.392889,-0.162789
2.75787,0.66109,0
2.77337,0.383852,-0.032595
2.77503,0.523346,-0.0164128
2.75761,0.38167,-0.259872
2.7649,0.662775,0.0661604
2.77073,0.522534,0.0492158
2.76887,0.383229,-0.162789
2.77671,0.523662,0.11512
2.75616,0.65102,0
2.77282,0.513412,-0.0163896
2.76709,0.653602,0.0661604
2.77463,0.374652,0.032595
2.77245,0.513343,0.0492158
2.77843,0.51445,0.11512
2.76709,0.653602,-0.0661604
2.75782,0.500187,-0.0815699
2.75463,0.640008,0
2.77202,0.363959,-0.0325485
2.76946,0.643455,0.0661604
2.77995,0.365,0.0326416
2.77431,0.503177,0.0492158
2.76752,0.363368,-0.162557
2.78109,0.646155,0.166278
2.7803,0.504263,0.11512
2.76854,0.633064,0
2.77327,0.354281,-0.0325485
2.76146,0.352771,-0.259872
2.77169,0.633784,0.0661604
2.78121,0.355295,0.0326416
2.76334,0.491231,-0.229122
2.77605,0.49349,0.0492158
2.75903,0.620762,0
2.77449,0.344598,-0.0325485
2.77389,0.624105,0.0661604
2.77775,0.483796,0.0492158
2.76602,0.343546,-0.162324
2.78375,0.48484,0.11512
2.76999,0.623227,-0.0660673
2.75717,0.610745,0
2.77562,0.335396,-0.0325485
2.76379,0.333966,-0.259872
2.76813,0.613174,0.0659743
2.77959,0.335875,0.032595
2.76269,0.471739,-0.228797
2.77146,0.473237,0.0490762
2.7681,0.613166,0.165115
2.7814,0.474934,0.114957
2.76813,0.613174,-0.0659743
2.75548,0.599785,0
2.76104,0.323372,-0.2595
2.77036,0.603025,0.0659743
2.77683,0.325221,0.0325485
2.7644,0.461611,-0.228797
2.77712,0.463735,0.049146
2.77813,0.604715,0.16558
2.78312,0.464737,0.114957
2.77795,0.315525,-0.0325485
2.76018,0.733396,0.0165988
2.77245,0.59335,0.0659743
2.77795,0.315525,0.0325485
2.77632,0.594178,0.165347
2.78079,0.454375,0.114795
2.7595,0.581015,0
2.77103,0.305436,-0.0324553
2.75873,0.723225,0.0165756
2.77049,0.583329,0.0658812
2.77898,0.306312,0.0325485
2.75961,0.441524,-0.228146
2.77626,0.444189,0.0490762
2.77827,0.584969,0.165347
2.75651,0.580386,-0.131218
2.75759,0.570568,0
2.77208,0.29576,-0.0324553
2.76124,0.71359,0.0165756
2.77251,0.573654,0.0658812
2.78003,0.296609,0.0325485
2.76507,0.432504,-0.228471
2.7778,0.434494,0.0490762
2.77155,0.295704,-0.162324
2.76857,0.572839,0.16465
2.78381,0.435436,0.114795
2.75852,0.570759,-0.131218
2.75475,0.421537,-0.0811044
2.77702,0.286978,-0.0325019
2.75971,0.703442,0.0165523
2.77564,0.424734,-0.0163199
2.76519,0.285755,-0.2595
2.77048,0.56366,0.0657882
2.781,0.287389,0.0325485
2.76255,0.42273,-0.228146
2.75859,0.703156,0.0828498
2.77922,0.425281,0.0490762
2.77437,0.564452,0.164882
2.78129,0.425598,0.114632
2.75256,0.560016,-0.130846
2.77801,0.277282,-0.0325019
2.76603,0.694778,0.0165756
2.76221,0.275705,-0.259128
2.76851,0.553202,0.0656951
2.78199,0.277679,0.0325485
2.76401,0.413083,-0.228146
2.76103,0.693522,0.0828498
2.78069,0.415576,0.0490762
2.76952,0.276435,-0.162092
2.77632,0.554763,0.164882
2.77881,0.415295,0.114469
2.75058,0.549621,-0.130659
2.77502,0.266716,-0.0324553
2.76467,0.683676,0.0165523
2.7632,0.265579,-0.259128
2.76659,0.542283,0.0656021
2.77104,0.266333,0.0324088
2.7655,0.40295,-0.228146
2.75967,0.682438,0.0827335
2.77442,0.543816,0.16465
2.78427,0.405685,0.114632
2.76042,0.541073,-0.131032
2.76667,0.67393,-0.0497045
2.75513,0.391623,-0.080988
2.76136,0.531255,0
2.77594,0.257028,-0.0324553
2.76316,0.673075,0.0165291
2.77239,0.533378,0.0656951
2.759,0.392173,-0.227495
2.77963,0.395106,0.0490064
2.77238,0.533374,0.164417
2.78567,0.395964,0.114632
2.76622,0.53219,-0.131218
2.75333,0.661018,-0.0494252
2.77677,0.247822,-0.0324553
2.76148,0.662975,0.0165058
2.75246,0.520083,-0.195876
2.76425,0.663639,0.0827335
2.78093,0.385887,0.0490064
2.7702,0.523437,0.164185
2.76797,0.523014,-0.131218
2.75184,0.650001,-0.0493554
2.77766,0.237641,-0.0324553
2.76,0.651928,0.0164826
2.76583,0.236628,-0.259128
2.77212,0.513281,0.0656021
2.78165,0.237982,0.0325019
2.75827,0.510716,-0.196155
2.76562,0.373434,-0.227821
2.76277,0.652582,0.0826171
2.76917,0.236915,-0.161859
2.7721,0.513278,0.164185
2.7844,0.37597,0.114469
2.75808,0.510681,-0.130659
2.7541,0.640393,-0.0493554
2.77848,0.227945,-0.0324553
2.76616,0.643197,0.0165058
2.76664,0.226974,-0.259128
2.77389,0.503603,0.0656021
2.75218,0.499661,-0.195597
2.76114,0.642031,0.0825008
2.77965,0.365456,0.0489365
2.77781,0.504314,0.164417
2.78173,0.36573,0.114306
2.75984,0.501052,-0.130659
2.75231,0.630363,-0.0492856
2.7563,0.353091,-0.0808717
2.77523,0.218416,-0.0324088
2.77217,0.634913,0.0165291
2.77948,0.495102,0.0656951
2.77922,0.21873,0.0324553
2.74989,0.489831,-0.195318
2.76414,0.354095,-0.227495
2.75936,0.631977,0.0823844
2.78085,0.356235,0.0489365
2.77553,0.494399,0.164185
2.76936,0.493298,-0.131032
2.75449,0.620751,-0.0492856
2.75831,0.481401,0
2.77598,0.208726,-0.0324088
2.75877,0.621714,0.0164361
2.77726,0.484709,0.0656021
2.78395,0.209326,0.0325019
2.74766,0.479543,-0.195039
2.76545,0.62322,0.0825008
2.78208,0.346526,0.0489365
2.77331,0.48402,0.163952
2.76713,0.482941,-0.130846
2.75664,0.611133,-0.0492856
2.75997,0.471771,0
2.78068,0.199322,-0.0324553
2.76092,0.612081,0.0164361
2.77893,0.475012,0.0656021
2.78467,0.199608,0.0325019
2.74931,0.469949,-0.195039
2.76655,0.334789,-0.227495
2.7637,0.612698,0.0823844
2.77498,0.474337,0.163952
2.76092,0.471933,-0.130473
2.75477,0.610719,-0.114957
2.75485,0.600654,-0.0492158
2.75588,0.323741,-0.0807553
2.7616,0.462133,0
2.76695,0.603292,0.0164593
2.78057,0.465308,0.0656021
2.75487,0.461007,-0.195318
2.76973,0.603898,0.0825008
2.77285,0.189034,-0.161859
2.77268,0.463988,0.16372
2.78651,0.32734,0.114306
2.76255,0.462292,-0.130473
2.76079,0.60195,-0.11512
2.75693,0.591035,-0.0492158
2.76904,0.59363,0.0164593
2.7622,0.178624,-0.258385
2.77429,0.454307,0.0654159
2.75253,0.450744,-0.195039
2.76791,0.593389,0.0823844
2.78158,0.316921,0.0488667
2.77429,0.454307,0.16372
2.78367,0.317159,0.114143
2.75626,0.451355,-0.130101
2.75897,0.591472,-0.114957
2.75807,0.304494,-0.0807553
2.77862,0.169948,-0.0324088
2.77109,0.583961,0.0164593
2.74886,0.440297,-0.299872
2.76678,0.169224,-0.258756
2.7798,0.445254,0.065509
2.78261,0.170193,0.0324553
2.75408,0.441134,-0.195039
2.76594,0.305363,-0.22717
2.77585,0.444621,0.16372
2.78476,0.307441,0.114143
2.75782,0.441732,-0.130101
2.74929,0.579366,-0.114469
2.75707,0.570962,-0.049146
2.75911,0.294864,-0.0807553
2.76629,0.433189,0
2.76528,0.572662,0.0164128
2.77739,0.434928,0.0654159
2.7792,0.160248,0.0324088
2.74772,0.430282,-0.194481
2.76699,0.295706,-0.22717
2.76807,0.57324,0.082268
2.77739,0.434928,0.16372
2.78581,0.297718,0.114143
2.75934,0.432102,-0.130101
2.79666,0.437945,0.347571
2.75521,0.570576,-0.114632
2.76008,0.285712,-0.0807553
2.76376,0.423407,0
2.75932,0.561892,0.0163664
2.75965,0.422779,-0.300729
2.75991,0.149954,-0.258013
2.77882,0.425715,0.0654159
2.77971,0.15103,0.0324088
2.75702,0.422376,-0.195039
2.76795,0.286528,-0.22717
2.76604,0.563259,0.0821517
2.77121,0.150568,-0.161626
2.77487,0.42511,0.163487
2.78678,0.288477,0.114143
2.76471,0.423553,-0.130287
2.77847,0.425662,0.345134
2.75317,0.560638,-0.114469
2.75708,0.27568,-0.080639
2.76522,0.413759,0
2.75986,0.275958,-0.353046
2.76519,0.553043,0.0163896
2.75718,0.412556,-0.3003
2.7644,0.140523,-0.258385
2.77633,0.415422,0.0653229
2.78422,0.141531,0.0324553
2.75453,0.412161,-0.19476
2.76799,0.553602,0.0821517
2.75566,0.551137,-0.180104
2.77172,0.140896,-0.161626
2.77239,0.414832,0.163254
2.7838,0.278352,0.11398
2.75432,0.412128,-0.129729
2.78387,0.41655,0.345621
2.75511,0.551026,-0.114469
2.75897,0.541289,-0.0490762
2.7672,0.542902,0.0163896
2.75474,0.401872,-0.299872
2.76489,0.130388,-0.258385
2.77784,0.405242,0.0653229
2.77273,0.130758,0.0323156
2.75208,0.401484,-0.194481
2.76596,0.266331,-0.226844
2.77,0.543451,0.0821517
2.77222,0.130734,-0.161626
2.78179,0.405819,0.16372
2.7848,0.268145,0.11398
2.75976,0.402605,-0.129915
2.76103,0.541692,-0.114632
2.79283,0.268918,0.51156
2.75692,0.5309,-0.0490064
2.78116,0.121429,-0.0324088
2.76515,0.532485,0.0163664
2.75612,0.392256,-0.299872
2.76533,0.120738,-0.258385
2.77923,0.395545,0.0653229
2.77317,0.12108,0.0323156
2.76688,0.256676,-0.226844
2.76403,0.532269,0.0819189
2.75169,0.529894,-0.179593
2.77924,0.395545,0.163487
2.78174,0.258055,0.113818
2.76115,0.392971,-0.129915
2.75113,0.529785,-0.114143
2.79375,0.25917,0.51156
2.75876,0.521273,-0.0490064
2.75986,0.246311,-0.080639
2.76154,0.383196,0
2.77358,0.111399,-0.0323156
2.76306,0.522086,0.0163431
2.75354,0.382085,-0.299443
2.76574,0.111084,-0.258385
2.78157,0.11172,0.0324088
2.75877,0.382811,-0.19476
2.76776,0.247016,-0.226844
2.76194,0.521874,0.0818026
2.78052,0.248155,0.0487271
2.74961,0.519544,-0.179337
2.7806,0.385841,0.163487
2.7866,0.248698,0.11398
2.75855,0.382781,-0.129729
2.79464,0.249415,0.51156
2.75663,0.510912,-0.0489365
2.7607,0.236676,-0.080639
2.77794,0.101864,-0.0323622
2.75485,0.372472,-0.299443
2.78193,0.376132,0.0653229
2.77794,0.101864,0.0323622
2.76009,0.373179,-0.19476
2.7686,0.237354,-0.226844
2.76374,0.51223,0.0818026
2.78137,0.238449,0.0487271
2.7514,0.509943,-0.179337
2.76944,0.101552,-0.161394
2.78193,0.376133,0.163487
2.76383,0.373685,-0.129915
2.78555,0.376621,0.345134
2.75476,0.510566,-0.114143
2.79157,0.239323,0.510843
2.75437,0.501051,-0.0488667
2.77202,0.365435,0
2.78226,0.0927836,-0.0324088
2.77049,0.503982,0.0163664
2.75607,0.363333,-0.299443
2.7792,0.366382,0.0652298
2.77827,0.0926503,0.0323622
2.7534,0.362981,-0.194202
2.76543,0.503062,0.0818026
2.7792,0.366383,0.163254
2.78027,0.229068,0.113655
2.75713,0.363473,-0.129543
2.78284,0.366863,0.344647
2.75644,0.501427,-0.114143
2.79235,0.230064,0.510843
2.77523,0.365859,-0.0651368
2.76004,0.492136,-0.0489365
2.76225,0.217879,-0.080639
2.76137,0.354231,0
2.77857,0.0829523,-0.0323622
2.77223,0.494309,0.0163664
2.75338,0.353205,-0.299015
2.76673,0.0825988,-0.258385
2.78046,0.356679,0.0652298
2.77857,0.0829523,0.0323622
2.75465,0.353368,-0.194202
2.76618,0.218189,-0.226519
2.7711,0.494108,0.0819189
2.75088,0.490502,-0.179081
2.77406,0.0828176,-0.161626
2.77651,0.356172,0.163022
2.78105,0.219362,0.113655
2.76234,0.354355,-0.129729
2.75424,0.491101,-0.11398
2.79314,0.220316,0.510843
2.76174,0.482499,-0.0489365
2.77885,0.0732534,-0.0323622
2.77,0.483941,0.0163431
2.7546,0.343593,-0.299015
2.76701,0.0729412,-0.258385
2.78169,0.346972,0.0652298
2.77885,0.0732534,0.0323622
2.75586,0.343751,-0.194202
2.75897,0.207934,-0.225868
2.76887,0.483745,0.0818026
2.75257,0.480898,-0.179081
2.78169,0.346973,0.163254
2.78578,0.209954,0.113818
2.76356,0.344711,-0.129729
2.75987,0.482173,-0.114143
2.80174,0.211157,0.512277
2.75947,0.472181,-0.0488667
2.77909,0.0635522,-0.0323622
2.76253,0.198506,-0.352541
2.76378,0.472919,0.0162966
2.76724,0.0632814,-0.258385
2.77891,0.336778,0.0651368
2.78308,0.0636436,0.0324088
2.76101,0.334608,-0.194481
2.75968,0.198301,-0.225868
2.7844,0.200077,0.0487271
2.7503,0.470612,-0.178825
2.78289,0.33726,0.163254
2.7865,0.200228,0.113818
2.76078,0.334581,-0.129543
2.76154,0.472535,-0.114143
2.79853,0.201093,0.51156
2.75715,0.461884,-0.0487969
2.76438,0.188941,-0.080639
2.76096,0.324826,0
2.77929,0.0538502,-0.0323622
2.76147,0.462607,0.0162734
2.75693,0.324352,-0.299015
2.76346,0.0535436,-0.258013
2.78007,0.327075,0.0651368
2.78729,0.0540052,0.0324553
2.7582,0.324501,-0.194202
2.78508,0.190356,0.0487271
2.75193,0.461009,-0.178825
2.77478,0.0537628,-0.161626
2.77612,0.32661,0.162789
2.78718,0.190499,0.113818
2.76194,0.324941,-0.129543
2.75923,0.462232,-0.11398
2.75875,0.452257,-0.0487969
2.76103,0.179032,-0.0805226
2.78346,0.0442125,-0.0324088
2.77096,0.45426,0.0163199
2.75804,0.314727,-0.299015
2.76762,0.0439609,-0.258385
2.78119,0.317369,0.0651368
2.78346,0.0442125,0.0324088
2.75535,0.31442,-0.193923
2.76984,0.454075,0.0816862
2.75352,0.4514,-0.178825
2.77495,0.0440773,-0.161626
2.77724,0.316918,0.162789
2.78384,0.180511,0.113655
2.75908,0.314846,-0.129357
2.78093,0.317339,0.343672
2.76083,0.452598,-0.11398
2.76426,0.443257,-0.0488667
2.76316,0.305543,0
2.76463,0.443317,0.0162734
2.75912,0.305097,-0.299015
2.76775,0.034299,-0.258385
2.78228,0.307658,0.0651368
2.7836,0.0344954,0.0324088
2.75246,0.304361,-0.193644
2.77141,0.444403,0.0816862
2.75902,0.442417,-0.179081
2.77833,0.307221,0.162789
2.78445,0.170792,0.113655
2.76414,0.305652,-0.129543
2.78202,0.307629,0.343672
2.77752,0.170367,0.22717
2.76239,0.442957,-0.11398
2.79655,0.171534,0.510843
2.75774,0.43333,-0.0487271
2.7641,0.296862,0
2.77569,0.0256768,-0.0323156
2.76601,0.43463,0.0162734
2.76007,0.296428,-0.299015
2.76785,0.0256042,-0.258385
2.78324,0.298916,0.0651368
2.77969,0.0257138,0.0323622
2.75737,0.296139,-0.193923
2.76489,0.434454,0.0814535
2.7604,0.433748,-0.179081
2.78325,0.298918,0.163022
2.78897,0.162276,0.113818
2.76111,0.29654,-0.129357
2.75587,0.433037,-0.113655
2.79315,0.16252,0.510125
2.76333,0.423344,-0.0487969
2.76125,0.285835,0
2.77577,0.0150194,-0.0323156
2.75201,0.284879,-0.430437
2.76766,0.424007,0.0162734
2.78377,0.0150627,0.0324088
2.75849,0.28555,-0.193923
2.76654,0.423835,0.0814535
2.78347,0.151235,0.0486573
2.75415,0.421937,-0.178569
2.78438,0.28823,0.163022
2.78957,0.151567,0.113818
2.75825,0.285525,-0.12917
2.75751,0.422452,-0.113655
2.80161,0.152221,0.51156
2.76084,0.413103,-0.0487271
2.76223,0.276194,0
2.77981,0.00533701,-0.0323622
2.75299,0.27527,-0.430437
2.76121,0.413159,0.0162269
2.75425,0.275397,-0.298158
2.78381,0.00534469,0.0324088
2.75947,0.275918,-0.193923
2.768,0.414174,0.0814535
2.77742,0.277713,0.162557
2.79008,0.141828,0.113818
2.76321,0.276292,-0.129357
2.78509,0.27848,0.343672
2.75897,0.412823,-0.113655
2.79427,0.142041,0.510125
2.77342,0.277313,-0.0648576
2.75831,0.402886,-0.0486573
2.78381,-0.00437206,-0.0324088
2.76264,0.403519,0.0162269
2.7552,0.265782,-0.298158
2.76796,-0.00434717,-0.258385
2.78233,0.268399,0.0650437
2.78381,-0.00437206,0.0324088
2.76439,0.266668,-0.194202
2.77339,0.405088,0.0815699
2.75308,0.402122,-0.178314
2.78235,0.268401,0.162789
2.79056,0.132088,0.113818
2.76018,0.266262,-0.12917
2.78605,0.268757,0.343672
2.76435,0.403769,-0.113818
2.7597,0.393254,-0.0486573
2.76018,0.120995,-0.0804062
2.77978,-0.0140698,-0.0323622
2.75484,0.256044,-0.430437
2.77195,0.395001,0.0162734
2.75215,0.255794,-0.29773
2.76793,-0.0140099,-0.258385
2.78325,0.258684,0.0650437
2.78378,-0.0140901,0.0324088
2.75735,0.256277,-0.193644
2.76687,0.394276,0.0813371
2.75842,0.393072,-0.178569
2.77929,0.258316,0.162557
2.76507,0.256995,-0.129357
2.78697,0.25903,0.343672
2.76179,0.393552,-0.113655
2.79519,0.122529,0.510125
2.76105,0.38362,-0.0486573
2.76059,0.11136,-0.0804062
2.76497,0.247254,0
2.77971,-0.0237724,-0.0323622
2.74785,0.245723,-0.429207
2.77331,0.385323,0.0162734
2.75699,0.24654,-0.298158
2.77185,-0.0237051,-0.258756
2.78413,0.248968,0.0650437
2.78371,-0.0238066,0.0324088
2.75823,0.246651,-0.193644
2.76823,0.384616,0.0813371
2.75582,0.382892,-0.178314
2.78415,0.24897,0.162789
2.78742,0.112442,0.113655
2.76314,0.38391,-0.113655
2.7956,0.112772,0.510125
2.76621,0.375481,-0.0487271
2.76092,0.102686,-0.0804062
2.76573,0.238565,0
2.77962,-0.0325058,-0.0323622
2.74861,0.237088,-0.429207
2.76377,0.102792,-0.352036
2.77055,0.37607,0.0162501
2.75379,0.237535,-0.29773
2.77176,-0.0324138,-0.258756
2.7849,0.240219,0.0650437
2.77962,-0.0325058,0.0323622
2.75502,0.237641,-0.193365
2.76546,0.375379,0.0812208
2.78565,0.103605,0.0486573
2.75701,0.374232,-0.178314
2.78094,0.239878,0.162557
2.76273,0.238307,-0.12917
2.76038,0.374689,-0.113492
2.80381,0.104281,0.51156
2.76927,0.0928343,-0.080639
2.78348,-0.0427542,-0.0324088
2.74946,0.227013,-0.429207
2.76397,0.364866,0.0162036
2.75464,0.227441,-0.29773
2.76764,-0.0425108,-0.258385
2.78576,0.230011,0.0650437
2.78748,-0.0428156,0.0324553
2.75587,0.227543,-0.193365
2.77078,0.365764,0.0813371
2.78201,0.0932615,0.0485875
2.75045,0.36308,-0.177802
2.78578,0.230013,0.162789
2.78812,0.0934662,0.113655
2.76359,0.22818,-0.12917
2.77463,0.093014,-0.145494
2.76569,0.365093,-0.113655
2.7963,0.0937406,0.510125
2.76159,0.0829265,-0.0804062
2.76737,0.218768,0
2.7692,0.355725,0.0162269
2.75145,0.21751,-0.297301
2.76747,-0.0521722,-0.258385
2.78256,0.219969,0.0649507
2.75665,0.217921,-0.193365
2.76807,0.35558,0.0812208
2.78232,0.0835491,0.0485875
2.75962,0.354494,-0.178314
2.77861,0.219657,0.162324
2.78843,0.0837325,0.113655
2.76437,0.218531,-0.12917
2.78632,0.220266,0.343184
2.76695,0.355436,-0.113655
2.79662,0.0839783,0.510125
2.76205,0.345502,-0.0485875
2.76185,0.0737701,-0.0804062
2.78313,-0.0616985,-0.0324088
2.75488,0.208593,-0.429822
2.76639,0.346045,0.0162036
2.75612,0.208687,-0.29773
2.78328,0.210743,0.0649507
2.78713,-0.0617871,0.0324553
2.75338,0.208479,-0.193086
2.7732,0.346897,0.0813371
2.76078,0.345343,-0.178314
2.7833,0.210745,0.162557
2.78869,0.0744872,0.113655
2.76109,0.209063,-0.128984
2.76721,0.0739135,-0.145075
2.76811,0.34626,-0.113655
2.79688,0.0747059,0.510125
2.75927,0.335375,-0.0485177
2.7749,-0.0712086,-0.0323156
2.75165,0.19869,-0.429207
2.76759,0.336386,0.0162036
2.75683,0.199064,-0.29773
2.77104,-0.0711095,-0.258756
2.78689,-0.0715164,0.0324553
2.75807,0.199153,-0.193365
2.76646,0.336249,0.0811044
2.76593,0.336184,-0.178569
2.78402,0.201027,0.162557
2.76181,0.199423,-0.128984
2.77544,0.0644384,-0.145494
2.76137,0.33563,-0.113329
2.80106,0.0650331,0.510843
2.76842,0.326196,-0.0486573
2.7623,0.0540049,-0.0804062
2.76551,0.189505,0
2.77862,-0.0814952,-0.0323622
2.74447,0.188063,-0.427977
2.76483,0.325772,0.0161804
2.74961,0.188415,-0.296873
2.78661,-0.0817298,0.0324553
2.7548,0.188771,-0.193086
2.78304,0.0544104,0.0485875
2.75128,0.324177,-0.177546
2.78474,0.190823,0.162557
2.76651,0.189573,-0.12917
2.77566,0.0542661,-0.145494
2.78451,0.190807,0.342697
2.75861,0.32504,-0.113166
2.80128,0.0547669,0.510843
2.76149,0.316584,-0.0485177
2.76646,0.0453901,-0.0805226
2.77835,-0.0902262,-0.0323622
2.75294,0.179954,-0.429207
2.76981,0.317538,0.0162036
2.75019,0.179774,-0.296873
2.75936,0.180374,-0.193365
2.7832,0.0456649,0.0485875
2.75625,0.315984,-0.177802
2.78134,0.181811,0.162324
2.78132,0.045634,0.113329
2.76709,0.180879,-0.12917
2.77582,0.0455437,-0.145494
2.76756,0.31728,-0.113492
2.77732,0.181548,-0.0647646
2.76263,0.306461,-0.0485177
2.7666,0.0352509,-0.0805226
2.778,-0.100408,-0.0323622
2.75752,0.170107,-0.429822
2.76546,0.0352363,-0.352036
2.76698,0.306944,0.0161804
2.75083,0.169694,-0.296873
2.77014,-0.100124,-0.258756
2.78595,0.17186,0.0649507
2.78999,-0.100842,0.0325019
2.76,0.170259,-0.193365
2.76983,0.30726,0.0811044
2.77935,0.0354133,0.0485177
2.75739,0.305881,-0.177802
2.77748,-0.100389,-0.161859
2.78199,0.171616,0.162324
2.77747,0.0353893,0.113166
2.75976,0.170244,-0.128798
2.77596,0.0353701,-0.145494
2.76871,0.307135,-0.113492
2.75976,0.295908,-0.0484479
2.7856,-0.110907,-0.0324553
2.75418,0.15977,-0.429207
2.76809,0.296801,0.0161804
2.7554,0.159841,-0.297301
2.77373,-0.110434,-0.259128
2.78656,0.161649,0.0649507
2.78161,-0.110748,0.0324088
2.75662,0.159912,-0.193086
2.77491,0.297533,0.0812208
2.78746,0.0252994,0.0486573
2.76247,0.296198,-0.178058
2.78659,0.16165,0.162557
2.78158,0.025246,0.113329
2.76435,0.16036,-0.128984
2.76809,0.0251236,-0.145075
2.76187,0.296134,-0.113166
2.79776,0.0253929,0.510125
2.76863,0.288065,-0.0485875
2.76678,0.0164196,-0.0805226
2.76384,0.151621,0
2.78125,-0.119485,-0.0324088
2.75072,0.150901,-0.428592
2.76901,0.288104,0.0161804
2.75589,0.151184,-0.297301
2.77337,-0.119147,-0.259128
2.78705,0.152894,0.0649507
2.78524,-0.119657,0.0324553
2.75313,0.151033,-0.192807
2.77186,0.288401,0.0811044
2.78753,0.0165428,0.0486573
2.75941,0.287106,-0.177802
2.78708,0.152895,0.162557
2.77765,0.0164841,0.113166
2.76085,0.151457,-0.128798
2.77614,0.0164752,-0.145494
2.76278,0.287456,-0.113166
2.80176,0.0166272,0.510843
2.76564,0.277998,-0.0485177
2.76682,0.00676094,-0.0805226
2.78481,-0.129379,-0.0324553
2.74334,0.140892,-0.427362
2.76037,0.141767,-0.29773
2.76896,-0.128643,-0.258756
2.78757,0.143164,0.0649507
2.78481,-0.129379,0.0324553
2.75364,0.141421,-0.192807
2.78357,0.00680187,0.0485875
2.7604,0.277471,-0.177802
2.7876,0.143165,0.162557
2.78568,0.00680703,0.113492
2.76136,0.141818,-0.128798
2.77618,0.00678382,-0.145494
2.76377,0.27781,-0.113166
2.8018,0.00684642,0.510843
2.76266,0.267475,-0.0484479
2.76683,-0.0033794,-0.0805226
2.77285,0.13222,0
2.78032,-0.139385,-0.0324088
2.75173,0.131213,-0.428592
2.76303,0.267511,0.0161339
2.75293,0.13127,-0.296873
2.78431,-0.139585,0.0324553
2.75414,0.131328,-0.192807
2.76987,0.268173,0.080988
2.78757,-0.00340474,0.0486573
2.7614,0.267352,-0.177802
2.77979,-0.139358,-0.162092
2.78013,0.132567,0.162092
2.78968,-0.00340732,0.113655
2.76586,0.131887,-0.128984
2.77619,-0.00339083,-0.145494
2.76477,0.267679,-0.113166
2.79787,-0.00341732,0.510125
2.78009,0.132565,-0.0647646
2.76751,0.258683,-0.0485177
2.76928,0.122846,0
2.78384,-0.148818,-0.0324553
2.75215,0.122087,-0.428592
2.76789,0.258718,0.0161571
2.75335,0.12214,-0.296873
2.77197,-0.148184,-0.259128
2.78783,-0.149031,0.0325019
2.75854,0.12237,-0.193086
2.77074,0.258985,0.080988
2.78355,-0.0126313,0.0485875
2.75829,0.257822,-0.177546
2.78454,0.123523,0.162324
2.78566,-0.0126409,0.113492
2.77426,0.123068,-0.129357
2.77616,-0.0125978,-0.145494
2.76166,0.258136,-0.113003
2.78051,0.123345,-0.0647646
2.76446,0.248181,-0.0484479
2.76274,-0.0226626,-0.0804062
2.78327,-0.15902,-0.0324553
2.74863,0.111839,-0.427977
2.7728,0.24893,0.0161804
2.75775,0.11221,-0.297301
2.78095,0.113154,0.0647646
2.77928,-0.158791,0.0324088
2.77167,0.248829,0.080988
2.78748,-0.0228656,0.0486573
2.75922,0.247711,-0.177546
2.78497,0.113317,0.162324
2.7776,-0.0227845,0.113166
2.77469,0.112899,-0.129357
2.7761,-0.0227722,-0.145494
2.76657,0.248371,-0.113166
2.76132,0.238186,-0.0483781
2.77871,-0.168493,-0.0324088
2.74901,0.102243,-0.427977
2.76967,0.238905,0.0161571
2.76608,0.102878,-0.298158
2.7827,-0.168735,0.0324553
2.75536,0.102479,-0.192807
2.77253,0.239152,0.080988
2.78738,-0.0325963,0.0486573
2.75609,0.237734,-0.17729
2.78535,0.103595,0.162324
2.7815,-0.0325275,0.113329
2.76309,0.102767,-0.128798
2.776,-0.0324632,-0.145494
2.76742,0.238711,-0.113166
2.76612,0.228874,-0.0484479
2.76651,-0.0420116,-0.0805226
2.7781,-0.178192,-0.0324088
2.74935,0.0926457,-0.427977
2.7665,0.228905,0.0161339
2.76244,0.093087,-0.29773
2.77421,-0.177942,-0.2595
2.78566,0.0938695,0.0648576
2.78609,-0.178704,0.0325019
2.77445,-0.0421322,-0.226519
2.76936,0.229142,0.0808717
2.78725,-0.0423267,0.0486573
2.7569,0.228111,-0.17729
2.77758,-0.178158,-0.162092
2.7857,0.0938706,0.162324
2.78137,-0.0422373,0.113329
2.76343,0.0931204,-0.128798
2.76425,0.228719,-0.113003
2.79755,-0.042483,0.510125
2.76288,0.219384,-0.0483781
2.76672,0.0840476,0
2.7775,-0.187403,-0.0324088
2.74569,0.0834086,-0.427362
2.76724,0.219731,0.0161339
2.76671,0.0840472,-0.298158
2.78196,0.0845105,0.0647646
2.78149,-0.187672,0.0324553
2.77429,-0.0513318,-0.226519
2.7701,0.219958,0.0808717
2.7831,-0.0514947,0.0485875
2.75367,0.218652,-0.177034
2.78599,0.0846329,0.162324
2.78521,-0.0515338,0.113492
2.76772,0.0840779,-0.128984
2.78578,0.0846266,0.342209
2.765,0.219552,-0.113003
2.7974,-0.0517593,0.510125
2.76762,0.210042,-0.0484479
2.78082,-0.19738,-0.0324553
2.75386,0.0740368,-0.428592
2.77198,0.210373,0.0161571
2.75506,0.074069,-0.296873
2.77294,-0.196821,-0.2595
2.78224,0.0747997,0.0647646
2.75627,0.0741015,-0.192807
2.7741,-0.061015,-0.226519
2.77086,0.210288,0.0808717
2.7829,-0.0612087,0.0485875
2.75839,0.209342,-0.17729
2.78228,0.0748007,0.162092
2.78502,-0.0612551,0.113492
2.764,0.0743094,-0.128798
2.76575,0.2099,-0.113003
2.7972,-0.0615231,0.510125
2.76833,0.200379,-0.0484479
2.77612,-0.206789,-0.0324088
2.75806,0.0645156,-0.429207
2.7727,0.200695,0.0161571
2.75928,0.0645442,-0.297301
2.78648,0.0651805,0.0648576
2.7841,-0.207383,0.0325019
2.77556,0.200902,0.080988
2.78267,-0.0709229,0.0485875
2.75911,0.199711,-0.17729
2.78651,0.0651813,0.162324
2.78079,-0.0708749,0.113329
2.76646,0.200244,-0.113003
2.76902,0.190715,-0.0484479
2.76567,-0.0801506,-0.0805226
2.78336,-0.2171,-0.0325019
2.76939,0.190741,0.0161339
2.75949,0.0549121,-0.297301
2.77547,-0.216484,-0.259872
2.7827,0.0553739,0.0647646
2.78336,-0.2171,0.0325019
2.77226,0.190938,0.0808717
2.7904,-0.0808675,0.0487271
2.75979,0.190079,-0.17729
2.78673,0.0554541,0.162324
2.78852,-0.0808128,0.113655
2.76445,0.0550109,-0.128798
2.76714,0.190586,-0.113003
2.76571,0.180304,-0.0483781
2.77856,-0.226974,-0.0324553
2.74659,0.0445854,-0.427362
2.76818,-0.0903789,-0.352541
2.76608,0.180329,0.0161106
2.76365,0.0448623,-0.29773
2.78653,-0.227626,0.0325485
2.77294,0.180776,0.0808717
2.78609,-0.0909638,0.0486573
2.76046,0.179963,-0.17729
2.7909,0.0453047,0.162557
2.78421,-0.0909022,0.113492
2.76464,0.0448783,-0.128798
2.76384,0.180182,-0.112841
2.76504,-0.0994565,-0.0805226
2.78177,-0.236526,-0.0325019
2.75463,0.0355792,-0.428592
2.77066,0.171402,0.0161339
2.7598,0.0356461,-0.297301
2.78576,-0.236865,0.0325485
2.76953,0.171333,0.0807553
2.78178,-0.100059,0.0485875
2.75706,0.170561,-0.177034
2.77906,0.0358948,0.161859
2.78389,-0.100134,0.113492
2.76877,0.0357618,-0.128984
2.76043,0.170769,-0.112678
2.76687,0.161475,-0.0483781
2.78491,-0.246587,-0.0325485
2.75474,0.0259636,-0.428592
2.77124,0.16173,0.0161339
2.75991,0.0260123,-0.297301
2.78712,0.0262688,0.0648576
2.78491,-0.246587,0.0325485
2.76113,0.0260239,-0.193086
2.77011,0.161664,0.0807553
2.78541,-0.109926,0.0486573
2.75764,0.160936,-0.177034
2.78316,0.0262314,0.162092
2.77953,-0.109694,0.113329
2.76488,0.0260591,-0.128798
2.77298,0.161831,-0.113166
2.76342,0.151597,-0.0483083
2.78404,-0.256307,-0.0325485
2.75481,0.0163476,-0.428592
2.77179,0.152055,0.0161339
2.75999,0.0163783,-0.297301
2.77614,-0.25558,-0.260243
2.7872,0.0165398,0.0648576
2.78005,-0.25594,0.0325019
2.77066,0.151994,0.0807553
2.789,-0.11982,0.0487271
2.76217,0.151528,-0.17729
2.78324,0.0165163,0.162092
2.77913,-0.119396,0.113329
2.76096,0.0163841,-0.128612
2.76554,0.151713,-0.112841
2.77516,-0.265262,-0.0324553
2.74695,0.00671207,-0.427362
2.7683,0.142174,0.0161106
2.764,0.00675375,-0.29773
2.78724,0.00681052,0.0648576
2.78313,-0.266024,0.0325485
2.77576,-0.12896,-0.226844
2.76268,0.141885,-0.17729
2.78328,0.00680084,0.162092
2.78269,-0.129281,0.113492
2.76499,0.00675617,-0.128798
2.76207,0.141853,-0.112678
2.79879,-0.130029,0.510843
2.76441,0.132301,-0.0483083
2.77422,-0.274948,-0.0324553
2.75881,-0.00288902,-0.429207
2.76003,-0.0028903,-0.297301
2.78724,-0.0029188,0.0648576
2.78616,-0.276131,0.032595
2.77165,0.132647,0.0807553
2.7841,-0.139088,0.0486573
2.75917,0.13205,-0.177034
2.78728,-0.00291883,0.162324
2.78621,-0.139193,0.113655
2.77299,-0.00290387,-0.12917
2.76254,0.132211,-0.112678
2.80225,-0.139995,0.51156
2.76688,-0.147911,-0.080639
2.78518,-0.285855,-0.032595
2.75483,-0.0125011,-0.428592
2.76523,0.122667,0.0160874
2.78797,-0.149039,-0.0162269
2.76001,-0.0125246,-0.297301
2.78518,-0.285855,0.032595
2.76522,-0.0125483,-0.193365
2.77609,0.123149,0.0808717
2.78759,-0.149019,0.0487271
2.75962,0.122418,-0.177034
2.78326,-0.0126301,0.162092
2.78571,-0.148918,0.113655
2.76897,-0.0125653,-0.128984
2.76698,0.122744,-0.112841
2.76527,0.112998,-0.0483083
2.78019,-0.295153,-0.0325485
2.75082,-0.0220855,-0.427977
2.76565,0.113014,0.0160874
2.76392,-0.0221907,-0.29773
2.78716,-0.0223772,0.0648576
2.78019,-0.295153,0.0325485
2.75718,-0.0221365,-0.192807
2.79105,-0.158976,0.0487969
2.76003,0.112784,-0.177034
2.78319,-0.0223454,0.162092
2.77719,-0.158187,0.113329
2.76491,-0.0221986,-0.128798
2.78698,-0.0223758,0.342209
2.7634,0.112922,-0.112678
2.78316,-0.0223451,-0.0647646
2.76581,-0.166741,-0.080639
2.78317,-0.304807,-0.032595
2.75468,-0.0312522,-0.428592
2.766,0.103842,0.0160874
2.7829,-0.167772,-0.0162036
2.75986,-0.0313109,-0.297301
2.78307,-0.0315743,0.0647646
2.78715,-0.305242,0.0326416
2.76108,-0.0313248,-0.193086
2.77687,0.10425,0.0808717
2.79051,-0.168231,0.0487969
2.76039,0.103631,-0.177034
2.78262,-0.304746,-0.163022
2.78311,-0.0315747,0.162092
2.77665,-0.167395,0.113329
2.76882,-0.0314126,-0.128984
2.76376,0.103758,-0.112678
2.78307,-0.0315743,-0.0647646
2.76598,0.0941733,-0.0483083
2.77319,-0.176904,-0.0808717
2.78606,-0.314969,-0.0326416
2.75456,-0.0408677,-0.428592
2.76635,0.0941861,0.0160874
2.79094,-0.0414074,0.0649507
2.78606,-0.314969,0.0326416
2.76494,-0.0410218,-0.193365
2.78591,-0.177716,0.0487271
2.75674,0.093859,-0.176779
2.78298,-0.0412893,0.162092
2.78403,-0.177595,0.113655
2.76869,-0.0410774,-0.128984
2.7641,0.0941096,-0.112678
2.76629,0.0845177,-0.0483083
2.76856,-0.186315,-0.0807553
2.78495,-0.324692,-0.0326416
2.74649,-0.0503378,-0.427362
2.76666,0.0845292,0.0160874
2.76355,-0.0506503,-0.29773
2.78678,-0.0510761,0.0648576
2.78892,-0.325156,0.0326882
2.76079,-0.0505999,-0.193086
2.78528,-0.187439,0.0487271
2.76503,0.0844795,-0.17729
2.7908,-0.0511498,0.162557
2.78738,-0.187581,0.113818
2.77253,-0.0508149,-0.12917
2.76042,0.0843385,-0.112515
2.76257,0.0747529,-0.0482385
2.7679,-0.195978,-0.0807553
2.7838,-0.334412,-0.0326416
2.7542,-0.0600969,-0.428592
2.78897,-0.19747,-0.0162501
2.75938,-0.0602098,-0.297301
2.79058,-0.0608907,0.0649507
2.7838,-0.334412,0.0326416
2.76459,-0.0603236,-0.193365
2.77381,0.0750571,0.0807553
2.78859,-0.197443,0.0487969
2.76132,0.0747192,-0.177034
2.78262,-0.060717,0.162092
2.78272,-0.197027,0.113655
2.77633,-0.0605797,-0.129357
2.76469,0.0748104,-0.112678
2.7672,-0.205638,-0.0807553
2.77111,-0.0701443,0
2.77467,-0.343145,-0.0325485
2.75003,-0.0696105,-0.427977
2.77518,0.0654008,0.0161339
2.78428,-0.206907,-0.0162269
2.7512,-0.0696402,-0.296445
2.78635,-0.0705301,0.0648576
2.79452,-0.3456,0.0327813
2.76436,-0.0699734,-0.193365
2.77805,0.0654684,0.0808717
2.79188,-0.207472,0.0488667
2.76157,0.0650799,-0.177034
2.78206,-0.344058,-0.163254
2.78239,-0.0704298,0.162092
2.78201,-0.206739,0.113655
2.7761,-0.0702705,-0.129357
2.76302,0.0554649,-0.0482385
2.76646,-0.215296,-0.0807553
2.78139,-0.353838,-0.0326416
2.75372,-0.0793233,-0.428592
2.7674,0.0555527,0.0160874
2.78752,-0.216935,-0.0162501
2.76287,-0.0795868,-0.29773
2.78609,-0.0802558,0.0648576
2.7933,-0.355352,0.0327813
2.76011,-0.0795075,-0.193086
2.77826,0.0557708,0.0808717
2.78715,-0.216906,0.0487969
2.76178,0.0554399,-0.177034
2.78612,-0.0802567,0.162324
2.78128,-0.216449,0.113655
2.77184,-0.0798454,-0.12917
2.76115,0.0554273,-0.112515
2.7632,0.0458198,-0.0482385
2.76968,-0.225276,-0.0808717
2.77618,-0.363026,-0.032595
2.74947,-0.0888075,-0.427977
2.77157,0.0459586,0.0161106
2.76655,-0.0893589,-0.298158
2.78579,-0.0899806,0.0648576
2.78807,-0.364582,0.0327347
2.76381,-0.0892704,-0.193365
2.77444,0.0460063,0.0807553
2.79036,-0.226958,0.0488667
2.75796,0.045733,-0.176779
2.78355,-0.36399,-0.163487
2.78582,-0.0899816,0.162324
2.7805,-0.226156,0.113655
2.77554,-0.0896495,-0.129357
2.76133,0.0457888,-0.112515
2.76334,0.0361742,-0.0482385
2.77684,-0.235618,-0.0811044
2.77886,-0.373247,-0.0326416
2.7531,-0.0985458,-0.428592
2.76622,-0.0990154,-0.298158
2.78946,-0.0998473,0.0649507
2.78678,-0.374312,0.0327347
2.75949,-0.0987746,-0.193086
2.77459,0.0363214,0.0807553
2.78556,-0.236359,0.0487969
2.7621,0.0361578,-0.177034
2.78549,-0.0997054,0.162324
2.78766,-0.236537,0.11398
2.77521,-0.0993374,-0.129357
2.76147,0.0361497,-0.112515
2.77202,-0.244958,-0.080988
2.77386,-0.108985,0
2.78546,-0.384037,-0.0327347
2.75274,-0.108155,-0.428592
2.76783,0.02657,0.0160874
2.7851,-0.246114,-0.0162501
2.76188,-0.108515,-0.29773
2.78546,-0.384037,0.0327347
2.7671,-0.10872,-0.193644
2.7747,0.026636,0.0807553
2.78472,-0.246081,0.0487969
2.76221,0.0265161,-0.177034
2.78513,-0.109428,0.162324
2.78682,-0.246266,0.11398
2.77884,-0.109181,-0.129543
2.76158,0.0265101,-0.112515
2.76717,-0.254267,-0.0808717
2.76947,-0.118496,0
2.78806,-0.394318,-0.0327813
2.75234,-0.117763,-0.428592
2.7679,0.0169083,0.0160874
2.78422,-0.255834,-0.0162501
2.76546,-0.118325,-0.298158
2.77618,-0.392638,-0.261731
2.7847,-0.119148,0.0648576
2.79202,-0.394878,0.0328279
2.76671,-0.118378,-0.193644
2.77477,0.0169503,0.0807553
2.79181,-0.256532,0.0489365
2.76228,0.016874,-0.177034
2.78354,-0.393678,-0.16372
2.78074,-0.118979,0.162092
2.78594,-0.255992,0.11398
2.77046,-0.118539,-0.12917
2.76565,0.0168946,-0.112678
2.7847,-0.119148,-0.0648576
2.76757,0.00772852,-0.0483083
2.78674,-0.403562,-0.0327813
2.75588,-0.127072,-0.429207
2.76794,0.00772957,0.0160874
2.76505,-0.127495,-0.298158
2.78828,-0.128566,0.0649507
2.78278,-0.402988,0.0327347
2.75833,-0.127185,-0.193086
2.77481,0.00774876,0.0807553
2.78298,-0.26503,0.0487969
2.75833,0.00770273,-0.176779
2.78432,-0.128383,0.162324
2.7811,-0.26485,0.113818
2.77404,-0.127909,-0.129357
2.76569,0.0077233,-0.112678
2.76758,-0.0014491,-0.0483083
2.78539,-0.4128,-0.0327813
2.7515,-0.136015,-0.428592
2.76461,-0.136663,-0.298158
2.78784,-0.137811,0.0649507
2.77747,-0.411628,0.0326882
2.76188,-0.136528,-0.193365
2.77483,-0.00145289,0.0807553
2.79403,-0.275434,0.0490064
2.76632,-0.00144844,-0.17729
2.78388,-0.137616,0.162324
2.78418,-0.274464,0.11398
2.76961,-0.13691,-0.12917
2.76571,-0.00144812,-0.112678
2.78385,-0.137614,-0.0648576
2.76755,-0.0115928,-0.0483083
2.77236,-0.283561,-0.0811044
2.78385,-0.423007,-0.0327813
2.75493,-0.146308,-0.429207
2.77204,-0.147217,-0.299015
2.78781,-0.423607,0.0328279
2.76136,-0.14665,-0.193365
2.7748,-0.0116231,0.0807553
2.78902,-0.285266,0.0489365
2.76231,-0.0115708,-0.177034
2.79532,-0.148453,0.163022
2.79111,-0.285479,0.114306
2.77707,-0.147484,-0.129543
2.76168,-0.0115682,-0.112515
2.7675,-0.0212533,-0.0483083
2.77156,-0.156895,0
2.78631,-0.433336,-0.0328279
2.75835,-0.156147,-0.429822
2.77587,-0.0213176,0.0161339
2.78839,-0.29504,-0.0162966
2.76753,-0.156667,-0.298587
2.79078,-0.157983,0.0650437
2.79027,-0.433951,0.0328744
2.7688,-0.156739,-0.193923
2.77474,-0.0213089,0.0807553
2.78403,-0.294579,0.0488667
2.76225,-0.021213,-0.177034
2.78282,-0.157533,0.162324
2.7901,-0.295221,0.114306
2.77654,-0.157177,-0.129543
2.76962,-0.0212696,-0.112841
2.77036,-0.302425,-0.0811044
2.77103,-0.166085,0
2.78486,-0.442574,-0.0328279
2.76176,-0.16553,-0.430437
2.79137,-0.304719,-0.0163199
2.767,-0.165844,-0.298587
2.78624,-0.166997,0.0649507
2.78881,-0.443201,0.0328744
2.76428,-0.165681,-0.193644
2.77866,-0.0305541,0.0808717
2.78304,-0.303809,0.0488667
2.76217,-0.0303728,-0.177034
2.78428,-0.442482,-0.164185
2.78627,-0.166999,0.162557
2.78116,-0.303604,0.11398
2.77201,-0.166145,-0.129357
2.79,-0.167223,0.343184
2.76954,-0.0304538,-0.112841
2.77129,-0.0401483,-0.0483781
2.76929,-0.312094,-0.0811044
2.78725,-0.452933,-0.0328744
2.76117,-0.175169,-0.430437
2.77166,-0.0401537,0.0161106
2.7664,-0.175502,-0.298587
2.78564,-0.176722,0.0649507
2.78725,-0.452933,0.0328744
2.76766,-0.175582,-0.193923
2.77453,-0.0401953,0.0807553
2.79389,-0.314866,0.0490762
2.77003,-0.04013,-0.177546
2.78272,-0.452198,-0.164185
2.78567,-0.176724,0.162557
2.78008,-0.31331,0.11398
2.77541,-0.176073,-0.129543
2.77341,-0.040179,-0.113003
2.78564,-0.176722,-0.0649507
2.76712,-0.0502327,-0.0483083
2.76813,-0.322242,-0.0811044
2.77376,-0.186178,0
2.78162,-0.46249,-0.0328279
2.75262,-0.184759,-0.429207
2.7755,-0.0503847,0.0161339
2.76971,-0.185906,-0.299015
2.79296,-0.187467,0.0651368
2.78557,-0.463146,0.0328744
2.767,-0.185724,-0.193923
2.78874,-0.324641,0.0490064
2.76587,-0.05021,-0.17729
2.78498,-0.463049,-0.164417
2.78899,-0.1872,0.162789
2.78685,-0.324422,0.114306
2.77873,-0.186511,-0.129729
2.77324,-0.0503438,-0.113003
2.76694,-0.0594086,-0.0483083
2.77101,-0.331895,-0.0812208
2.78402,-0.472381,-0.0328744
2.75593,-0.194164,-0.429822
2.77131,-0.0595025,0.0161106
2.792,-0.334408,-0.0163431
2.76511,-0.19481,-0.298587
2.79585,-0.474388,0.0330141
2.76637,-0.194899,-0.193923
2.77419,-0.0595641,0.0807553
2.78368,-0.333412,0.0489365
2.7617,-0.059296,-0.177034
2.78343,-0.472282,-0.164417
2.79234,-0.196728,0.163022
2.78973,-0.334137,0.114469
2.77411,-0.195444,-0.129543
2.76507,-0.0593684,-0.112678
2.76672,-0.0690666,-0.0483083
2.77381,-0.342055,-0.0813371
2.77243,-0.205054,0
2.78629,-0.482779,-0.032921
2.76312,-0.204366,-0.431052
2.77509,-0.0692756,0.0161339
2.78287,-0.343173,-0.0162966
2.76441,-0.204461,-0.298587
2.79417,-0.484145,0.0330141
2.76567,-0.204554,-0.193923
2.78196,-0.069447,0.080988
2.79044,-0.344106,0.0490762
2.76546,-0.0690353,-0.17729
2.78765,-0.20618,0.162789
2.78855,-0.343873,0.114469
2.77341,-0.205126,-0.129543
2.76884,-0.0691196,-0.112841
2.77044,-0.0793211,-0.0483781
2.77253,-0.352219,-0.0813371
2.77963,-0.215833,0
2.78057,-0.49229,-0.0328744
2.75841,-0.214186,-0.430437
2.77082,-0.0793319,0.0161106
2.78953,-0.354379,-0.0163431
2.76365,-0.214592,-0.298587
2.79084,-0.216704,0.0651368
2.79238,-0.494382,0.0330141
2.76888,-0.214999,-0.194202
2.77769,-0.0795285,0.0808717
2.78916,-0.354331,0.0490762
2.76519,-0.0791708,-0.17729
2.78688,-0.216396,0.162789
2.78727,-0.354091,0.114469
2.77264,-0.21529,-0.129543
2.77256,-0.0793818,-0.113003
2.78686,-0.216394,-0.0650437
2.76618,-0.0878973,-0.0483083
2.77141,-0.360928,-0.0813371
2.77097,-0.22392,0
2.77901,-0.501024,-0.0328744
2.76561,-0.223487,-0.431667
2.77455,-0.0881633,0.0161339
2.79237,-0.363657,-0.0163664
2.77089,-0.223914,-0.299443
2.79015,-0.22547,0.0651368
2.79081,-0.503153,0.0330141
2.76422,-0.223375,-0.193923
2.78142,-0.0883815,0.080988
2.78803,-0.363091,0.0490762
2.76493,-0.0878575,-0.17729
2.79016,-0.225471,0.163022
2.78614,-0.362846,0.114469
2.77195,-0.224,-0.129543
2.77629,-0.0882187,-0.113166
2.76986,-0.0976935,-0.0483781
2.77014,-0.370599,-0.0813371
2.77415,-0.233927,0
2.78117,-0.511444,-0.032921
2.77423,-0.0978477,0.0161339
2.79109,-0.373402,-0.0163664
2.78934,-0.235208,0.0651368
2.79297,-0.513615,0.0330607
2.77137,-0.233693,-0.194481
2.77793,-0.371642,-0.228797
2.7771,-0.0979489,0.0808717
2.78674,-0.372821,0.0490762
2.77258,-0.0977898,-0.177802
2.79334,-0.235545,0.163254
2.78882,-0.373099,0.114632
2.77911,-0.234346,-0.129915
2.76798,-0.0976274,-0.112841
2.78536,-0.234872,-0.0650437
2.77346,-0.108485,-0.0484479
2.77265,-0.381779,-0.0814535
2.78312,-0.522858,-0.0329675
2.77383,-0.108499,0.0161339
2.78963,-0.384116,-0.0163664
2.77313,-0.244569,-0.299872
2.78842,-0.245917,0.0651368
2.79098,-0.524335,0.0330607
2.77443,-0.244683,-0.19476
2.78043,-0.382849,-0.229122
2.79322,-0.38461,0.0492158
2.76022,-0.107967,-0.177034
2.78843,-0.245918,0.163022
2.78737,-0.383804,0.114632
2.77421,-0.244664,-0.129729
2.77557,-0.108567,-0.113166
2.76911,-0.117028,-0.0483781
2.77144,-0.390487,-0.0814535
2.78539,-0.53235,-0.0330141
2.79237,-0.393436,-0.0163896
2.76839,-0.252918,-0.299443
2.79162,-0.255039,0.0652298
2.79325,-0.533851,0.0331072
2.7657,-0.252672,-0.194202
2.78803,-0.392825,0.049146
2.75987,-0.116638,-0.177034
2.78765,-0.254677,0.163022
2.7901,-0.393117,0.114795
2.77343,-0.253378,-0.129729
2.77123,-0.117118,-0.113003
2.78763,-0.254676,-0.0651368
2.76866,-0.127177,-0.0483781
2.78342,-0.542555,-0.0330141
2.77702,-0.127561,0.0161571
2.78695,-0.403096,-0.0163664
2.7714,-0.263439,-0.299872
2.79066,-0.26527,0.0652298
2.79127,-0.544086,0.0331072
2.7727,-0.263562,-0.19476
2.79053,-0.403614,0.0492158
2.7674,-0.127119,-0.177546
2.78272,-0.264515,0.162789
2.78864,-0.40334,0.114795
2.77646,-0.26392,-0.129915
2.77477,-0.127457,-0.113166
2.78668,-0.264891,-0.0651368
2.77219,-0.137038,-0.0484479
2.78543,-0.553047,-0.0330607
2.78553,-0.412821,-0.0163664
2.77047,-0.273111,-0.299872
2.78574,-0.274617,0.0651368
2.78543,-0.553047,0.0330607
2.76779,-0.272848,-0.194481
2.77943,-0.137396,0.080988
2.78911,-0.413352,0.0492158
2.76295,-0.136581,-0.17729
2.78575,-0.274618,0.163022
2.78722,-0.413072,0.114795
2.77155,-0.273218,-0.129729
2.7783,-0.13734,-0.113329
2.7717,-0.146714,-0.0484479
2.77108,-0.420571,-0.0815699
2.78349,-0.562766,-0.0330607
2.77607,-0.146945,0.0161571
2.77345,-0.283184,-0.3003
2.78874,-0.284745,0.0652298
2.78741,-0.563559,0.0331072
2.76682,-0.282507,-0.194481
2.77494,-0.146885,0.0808717
2.7916,-0.423685,0.0492856
2.76644,-0.146436,-0.177546
2.78478,-0.284341,0.163022
2.78576,-0.422799,0.114795
2.77853,-0.283702,-0.130101
2.76982,-0.146614,-0.113003
2.77519,-0.156129,-0.0485177
2.77362,-0.430371,-0.0816862
2.77263,-0.292393,0
2.78161,-0.571994,-0.0330607
2.77556,-0.15615,0.0161571
2.7725,-0.29238,-0.3003
2.79176,-0.294411,0.0653229
2.78944,-0.573605,0.0331538
2.76984,-0.292099,-0.19476
2.77444,-0.156087,0.0808717
2.79018,-0.43294,0.0492856
2.76594,-0.155609,-0.177546
2.79176,-0.294411,0.163487
2.79224,-0.43326,0.11512
2.77757,-0.292915,-0.130101
2.77331,-0.156023,-0.113166
2.77061,-0.16606,-0.0484479
2.77203,-0.440534,-0.0816862
2.78341,-0.583005,-0.0331072
2.77497,-0.166322,0.0161571
2.7929,-0.443852,-0.0164361
2.77141,-0.30254,-0.3003
2.79066,-0.304641,0.0653229
2.79123,-0.584645,0.0332004
2.77272,-0.302682,-0.195039
2.78858,-0.443164,0.0492856
2.76535,-0.165745,-0.177546
2.78273,-0.303775,0.163022
2.79458,-0.444118,0.115283
2.78045,-0.303527,-0.130287
2.77671,-0.166426,-0.113329
2.77001,-0.17573,-0.0484479
2.78526,-0.593551,-0.0331538
2.78739,-0.452956,-0.0164128
2.76638,-0.311766,-0.299872
2.78561,-0.313933,0.0652298
2.79309,-0.595218,0.0332469
2.77561,-0.312806,-0.195318
2.77724,-0.176189,0.080988
2.79096,-0.453537,0.0493554
2.76476,-0.175397,-0.177546
2.79302,-0.453871,0.115283
2.7754,-0.312783,-0.130101
2.77212,-0.175864,-0.113166
2.77739,-0.185448,-0.0485875
2.78328,-0.602784,-0.0331538
2.77378,-0.185207,0.0161571
2.78982,-0.462852,-0.0164361
2.78455,-0.323169,0.0652298
2.78328,-0.602784,0.0331538
2.76663,-0.321089,-0.19476
2.77664,-0.185398,0.080988
2.79339,-0.463444,0.0494252
2.76814,-0.18483,-0.177802
2.78456,-0.32317,0.163254
2.79544,-0.463784,0.115446
2.77832,-0.322445,-0.130287
2.77152,-0.185056,-0.113166
2.78852,-0.32363,-0.0653229
2.77669,-0.195626,-0.0485875
2.77514,-0.470875,-0.0819189
2.78496,-0.613842,-0.0332004
2.77707,-0.195653,0.0161804
2.79129,-0.334323,0.0654159
2.78496,-0.613842,0.0332004
2.76543,-0.331227,-0.19476
2.77993,-0.195854,0.0811044
2.78772,-0.47301,0.0493554
2.76745,-0.194975,-0.177802
2.78336,-0.333373,0.163254
2.79372,-0.474027,0.115446
2.77712,-0.332626,-0.130287
2.77481,-0.195494,-0.113329
2.78732,-0.333848,-0.0653229
2.77599,-0.205318,-0.0485875
2.77742,-0.481242,-0.0820353
2.7867,-0.624434,-0.0332469
2.78036,-0.20564,0.0162036
2.79432,-0.484169,-0.0164826
2.7901,-0.344065,0.0654159
2.79451,-0.626183,0.0333401
2.76822,-0.341366,-0.195039
2.79394,-0.484104,0.049495
2.76675,-0.204634,-0.177802
2.78614,-0.343576,0.163487
2.79205,-0.483776,0.115446
2.77991,-0.342807,-0.130473
2.7781,-0.205473,-0.113492
2.77135,-0.21373,-0.0485177
2.7759,-0.489965,-0.0820353
2.77389,-0.350916,0
2.7797,-0.214374,0.0162036
2.79278,-0.492945,-0.0164826
2.77372,-0.350894,-0.301157
2.79298,-0.35333,0.065509
2.78863,-0.634072,0.0332935
2.77109,-0.350562,-0.195318
2.78256,-0.214595,0.0812208
2.7924,-0.492879,0.049495
2.76609,-0.213325,-0.177802
2.78505,-0.352327,0.163487
2.79051,-0.492545,0.115446
2.78278,-0.35204,-0.130659
2.78143,-0.214507,-0.113655
2.78901,-0.352828,-0.0654159
2.77058,-0.223403,-0.0485177
2.77662,-0.361112,0
2.77893,-0.224076,0.0162036
2.79104,-0.502691,-0.0164826
2.78776,-0.362562,0.0654159
2.79029,-0.644703,0.0333401
2.76985,-0.360233,-0.195318
2.7778,-0.223985,0.0811044
2.78673,-0.501914,0.0494252
2.76931,-0.2233,-0.178058
2.7838,-0.362046,0.163487
2.78484,-0.501574,0.115283
2.77757,-0.361236,-0.130473
2.77668,-0.223894,-0.113492
2.78776,-0.362562,-0.0654159
2.76975,-0.233556,-0.0485177
2.78208,-0.234596,0.0162269
2.79038,-0.373307,0.065509
2.78791,-0.654926,0.0333401
2.77247,-0.370911,-0.195597
2.78095,-0.2345,0.0812208
2.78881,-0.512848,0.049495
2.76847,-0.233449,-0.178058
2.78641,-0.372777,0.16372
2.78692,-0.512501,0.115446
2.78415,-0.372474,-0.130846
2.77982,-0.234405,-0.113655
2.77693,-0.243438,-0.0486573
2.77454,-0.519743,-0.0821517
2.78527,-0.24417,0.0162501
2.7914,-0.5229,-0.0165058
2.79309,-0.383102,0.0656021
2.78962,-0.665095,0.0333866
2.76727,-0.379561,-0.195318
2.77617,-0.243372,0.0811044
2.79102,-0.522829,0.0495648
2.76769,-0.242628,-0.178058
2.78912,-0.382557,0.163952
2.78913,-0.522476,0.115609
2.77894,-0.381162,-0.130659
2.77903,-0.243622,-0.113655
2.77208,-0.252766,-0.0485875
2.77664,-0.530175,-0.082268
2.78042,-0.253527,0.0162269
2.79173,-0.392849,0.0656021
2.77383,-0.39033,-0.195876
2.77929,-0.253424,0.0812208
2.78918,-0.532569,0.0495648
2.76682,-0.252287,-0.178058
2.78776,-0.392291,0.163952
2.79122,-0.532958,0.115772
2.78214,-0.253684,-0.113818
2.77477,-0.539864,-0.082268
2.77952,-0.263231,0.0162269
2.79034,-0.402592,0.0656021
2.77245,-0.40001,-0.195876
2.77839,-0.263124,0.0812208
2.7873,-0.542302,0.0495648
2.76592,-0.261944,-0.178058
2.79326,-0.543461,0.115934
2.77328,-0.262641,-0.113492
2.78639,-0.402021,-0.065509
2.7702,-0.272596,-0.0485875
2.77278,-0.55003,-0.082268
2.77853,-0.273417,0.0162269
2.78567,-0.552589,-0.0165058
2.78885,-0.412816,0.0656021
2.77097,-0.410169,-0.195876
2.78138,-0.273697,0.0813371
2.78922,-0.553292,0.0496346
2.77289,-0.272862,-0.178569
2.79125,-0.553695,0.115934
2.77628,-0.273195,-0.113655
2.78885,-0.412816,-0.0656021
2.77723,-0.282591,-0.0487271
2.77635,-0.42038,0
2.78159,-0.283034,0.0162501
2.79167,-0.563406,-0.0165523
2.79142,-0.422661,0.0656951
2.76959,-0.419356,-0.195876
2.78046,-0.282919,0.0813371
2.78737,-0.562538,0.0496346
2.77197,-0.282055,-0.178569
2.78548,-0.562158,0.115772
2.77933,-0.282804,-0.113818
2.77225,-0.291865,-0.0486573
2.78456,-0.293161,0.0162734
2.7936,-0.573952,-0.0165756
2.78993,-0.432402,0.0656951
2.776,-0.430243,-0.196434
2.78931,-0.57307,0.0497045
2.77494,-0.292148,-0.178825
2.78596,-0.431787,0.164185
2.78371,-0.431439,-0.131218
2.77435,-0.292086,-0.113655
2.77912,-0.30289,-0.0487969
2.77469,-0.580674,-0.0825008
2.77949,-0.302931,0.0162501
2.79539,-0.585007,-0.0165988
2.78832,-0.442625,0.0656951
2.77046,-0.439789,-0.196155
2.77836,-0.302808,0.0813371
2.78327,-0.58247,0.0496346
2.76988,-0.301884,-0.178569
2.7883,-0.442622,0.164417
2.78606,-0.442265,-0.131404
2.78518,-0.303551,-0.114143
2.77015,-0.311212,-0.0486573
2.7797,-0.450711,0
2.78245,-0.312593,0.0162734
2.79344,-0.594273,-0.0165988
2.79473,-0.453149,0.0658812
2.76899,-0.448974,-0.196155
2.78132,-0.312466,0.0814535
2.78915,-0.593361,0.0497743
2.77283,-0.311513,-0.178825
2.78682,-0.451866,0.164417
2.77622,-0.311893,-0.113818
2.78684,-0.451869,-0.0656951
2.786,-0.461719,0
2.78134,-0.322304,0.0162734
2.79526,-0.604867,-0.0166221
2.78525,-0.461594,0.0656951
2.78315,-0.461246,-0.197271
2.78021,-0.322173,0.0814535
2.79488,-0.604785,0.0499139
2.77569,-0.32165,-0.179081
2.78523,-0.461591,0.164417
2.78692,-0.461872,-0.13159
2.78305,-0.322502,-0.114143
2.78417,-0.332485,0.0162966
2.79313,-0.61462,-0.0166221
2.78756,-0.471981,0.0657882
2.77907,-0.331876,0.0814535
2.78884,-0.613678,0.0498441
2.77059,-0.330863,-0.178825
2.77742,-0.470263,-0.131218
2.78191,-0.332215,-0.114143
2.77865,-0.341667,-0.0488667
2.77902,-0.341713,0.0162734
2.79097,-0.624366,-0.0166221
2.78984,-0.48239,0.0658812
2.77789,-0.341575,0.0814535
2.79059,-0.624282,0.0499139
2.7813,-0.341994,-0.179593
2.77969,-0.480636,-0.131404
2.78073,-0.341924,-0.114143
2.78984,-0.48239,-0.0658812
2.78147,-0.351381,-0.0489365
2.77716,-0.489688,0
2.77787,-0.350927,0.0162734
2.79278,-0.634504,-0.0166453
2.78822,-0.491639,0.0658812
2.78071,-0.351286,0.0815699
2.7846,-0.632646,0.0498441
2.77619,-0.350715,-0.179337
2.77958,-0.351143,-0.114143
2.79216,-0.492333,-0.0659743
2.77229,-0.360058,-0.0487969
2.7806,-0.361137,0.0162966
2.78665,-0.643349,-0.0166221
2.78649,-0.501368,0.0658812
2.78343,-0.361505,0.0816862
2.78238,-0.642362,0.0498441
2.77495,-0.360403,-0.179337
2.78816,-0.501668,-0.131962
2.77834,-0.360844,-0.114143
2.77102,-0.369733,-0.0487969
2.77761,-0.509786,0
2.78329,-0.37137,0.0163199
2.78865,-0.511814,0.0659743
2.78216,-0.371219,0.0816862
2.77368,-0.370088,-0.179337
2.78639,-0.511398,-0.131962
2.78103,-0.371068,-0.114306
2.78865,-0.511814,-0.0659743
2.77763,-0.380489,-0.0489365
2.78197,-0.381083,0.0163199
2.78685,-0.521545,0.0659743
2.78877,-0.382013,0.0819189
2.77632,-0.380309,-0.179593
2.78459,-0.521121,-0.131962
2.77971,-0.380773,-0.114306
2.79078,-0.522281,-0.0660673
2.77622,-0.390666,-0.0489365
2.77782,-0.530399,0
2.78452,-0.391834,0.0163431
2.78885,-0.532506,0.0660673
2.78339,-0.391675,0.0818026
2.77886,-0.391038,-0.179849
2.7783,-0.390959,-0.114306
2.79278,-0.533256,-0.0661604
2.77491,-0.399871,-0.0489365
2.7832,-0.401066,0.0163431
2.78707,-0.541751,0.0660673
