2.4,-0.0980724,0.0978603
2.42929,0.019504,-0.113164
2.41866,-0.0988347,-0.126862
2.40982,0.0193477,0.295899
2.39056,-0.0976866,0.436225
2.38146,-0.222598,-0.0278455
2.42206,-0.107443,-0.3086
2.43648,0.130249,0.0141811
2.41758,-0.107245,-0.0140648
2.42732,0.0110149,0.0564829
2.38544,-0.22297,0.027892
2.43004,0.0110273,-0.169927
2.42156,-0.107421,-0.197878
2.43549,0.130196,0.0709809
2.40926,-0.106876,0.0420952
2.39747,-0.224095,-0.140231
2.42387,0.0109992,0.141162
2.40364,-0.106627,0.0980231
2.43334,0.0110422,-0.11335
2.4183,-0.107277,-0.126862
2.40194,0.0108997,0.294924
2.39021,-0.106031,0.436225
2.416,0.00337338,0
2.38075,-0.230079,-0.0278455
2.42567,-0.11524,-0.309105
2.44087,0.122795,0.0142043
2.40628,-0.232546,-0.225668
2.43134,0.0033948,0.056576
2.38473,-0.230463,0.027892
2.43006,0.00339302,-0.169927
2.42519,-0.115217,-0.198204
2.43189,0.122343,0.0708645
2.40492,-0.114255,0.0420254
2.42389,0.0033844,0.141162
2.3993,-0.113988,0.0978603
2.42936,0.00339204,-0.113164
2.41795,-0.114874,-0.126862
2.40593,0.00335932,0.295411
2.44288,0.122896,-0.0996514
2.38593,-0.113352,0.435508
2.42477,-0.123682,-0.485586
2.41599,-0.00506005,0
2.38391,-0.238786,-0.027892
2.42525,-0.123707,-0.309105
2.44129,0.114274,0.0142043
2.41282,-0.123073,-0.0140416
2.40149,-0.240547,-0.225296
2.42334,-0.00507543,0.0563898
2.38391,-0.238786,0.027892
2.43006,-0.00508951,-0.169927
2.42079,-0.123479,-0.197878
2.4363,0.114041,0.0709809
2.4085,-0.122852,0.0420952
2.38798,-0.239194,-0.139766
2.41989,-0.00506822,0.140929
2.3949,-0.122158,0.0976975
2.41754,-0.123313,-0.126862
2.4099,-0.00504728,0.295899
2.38945,-0.121881,0.436225
2.42036,-0.132777,-0.484802
2.38297,-0.247938,-0.027892
2.42476,-0.133018,-0.309105
2.44171,0.104899,0.0142043
2.40451,-0.250179,-0.225668
2.4273,-0.0144041,0.0564829
2.38695,-0.248352,0.0279386
2.41632,-0.132555,-0.197553
2.42873,0.104342,0.0707482
2.40801,-0.132099,0.0420952
2.38308,-0.247949,-0.139534
2.41586,-0.0143362,0.140696
2.39441,-0.131353,0.0976975
2.42533,-0.0143924,-0.112978
2.41306,-0.132376,-0.126653
2.40192,-0.0142534,0.294924
2.43972,0.104814,-0.0994886
2.38504,-0.130839,0.435508
2.42433,-0.140635,-0.309105
2.44202,0.097228,0.0142043
2.4119,-0.139914,-0.0140416
2.39975,-0.257307,-0.225296
2.42324,-0.0219933,0.0563898
2.38616,-0.255849,0.0279386
2.42199,-0.0219818,-0.169369
2.41589,-0.140145,-0.197553
2.40759,-0.139664,0.0420952
2.38626,-0.25586,-0.139766
2.4198,-0.021962,0.140929
2.39798,-0.139106,0.0978603
2.42527,-0.0220117,-0.112978
2.41263,-0.139956,-0.126653
2.39789,-0.0217632,0.294436
2.43605,0.0969901,-0.0993258
2.38069,-0.138103,0.43479
2.41942,-0.148826,-0.484802
2.41181,-0.0303093,0
2.3773,-0.263297,-0.0278455
2.43057,-0.030545,-0.37817
2.4159,-0.14861,-0.308094
2.43435,0.0884128,0.0141578
2.42715,-0.0305021,0.0564829
2.38128,-0.263737,0.027892
2.41538,-0.148578,-0.197553
2.43336,0.0883769,0.0708645
2.40309,-0.147821,0.0420254
2.38932,-0.264627,-0.139999
2.41971,-0.0304086,0.140929
2.39748,-0.147476,0.0978603
2.42518,-0.0304773,-0.112978
2.40814,-0.148132,-0.126444
2.40177,-0.0301831,0.294924
2.43637,0.0884861,-0.0993258
2.38412,-0.146654,0.435508
2.41497,-0.157016,-0.484018
2.37637,-0.271593,-0.0278455
2.41141,-0.156784,-0.307589
2.43065,0.0797836,0.0141346
2.40688,-0.156489,-0.0140183
2.42303,-0.03891,0.0563898
2.38034,-0.272047,0.027892
2.42177,-0.0388898,-0.169369
2.41883,-0.157267,-0.197878
2.42966,0.0797512,0.0707482
2.39458,-0.15569,0.0418858
2.38044,-0.272059,-0.139534
2.4156,-0.0387906,0.140696
2.39695,-0.155844,0.0978603
2.42506,-0.0389426,-0.112978
2.41159,-0.156796,-0.126653
2.40165,-0.0385667,0.294924
2.37574,-0.154465,0.434073
2.43103,-0.0390384,-0.056576
2.42224,-0.165981,-0.485586
2.40754,-0.0470678,0
2.38335,-0.280823,-0.0279386
2.41085,-0.165201,-0.307589
2.42692,0.0711813,0.0141113
2.40233,-0.164617,-0.0139951
2.40088,-0.282888,-0.225668
2.42288,-0.0473678,0.0563898
2.38335,-0.280823,0.0279386
2.42561,-0.0474212,-0.169648
2.41827,-0.165709,-0.197878
2.42593,0.0711524,0.0706318
2.40599,-0.164868,0.0420952
2.38345,-0.280834,-0.139766
2.40746,-0.0470663,0.140231
2.38841,-0.163663,0.0975347
2.41103,-0.165213,-0.126653
2.40547,-0.0470274,0.295411
2.43293,0.0713578,-0.0991629
2.37518,-0.162757,0.434073
2.37838,-0.288659,-0.027892
2.41817,-0.174185,-0.3086
2.43115,0.0628126,0.0141346
2.40573,-0.173289,-0.0140183
2.39197,-0.290308,-0.224925
2.4187,-0.0557328,0.0562968
2.37441,-0.288177,0.0278455
2.42144,-0.0557959,-0.169369
2.42616,0.0626838,0.0706318
2.40141,-0.172978,0.0420254
2.38245,-0.289152,-0.139766
2.41127,-0.0555616,0.140464
2.38783,-0.171999,0.0975347
2.41674,-0.0556875,-0.112605
2.40645,-0.173341,-0.126444
2.39339,-0.0551494,0.293949
2.43317,0.0628648,-0.0991629
2.37852,-0.171329,0.43479
2.38128,-0.29787,-0.0279386
2.41752,-0.183047,-0.3086
2.43136,0.0539016,0.0141346
2.40508,-0.182105,-0.0140183
2.39089,-0.299073,-0.224925
2.41449,-0.0644906,0.0562037
2.37731,-0.297374,0.027892
2.41304,-0.182708,-0.197553
2.40076,-0.181778,0.0420254
2.38138,-0.297882,-0.139766
2.41505,-0.0645056,0.140696
2.39117,-0.181052,0.0976975
2.41652,-0.0645449,-0.112605
2.40979,-0.182462,-0.126653
2.39714,-0.0640272,0.294436
2.37788,-0.180046,0.43479
2.41251,-0.19114,-0.484018
2.36832,-0.30465,-0.0277989
2.40895,-0.190858,-0.307589
2.42354,0.0452649,0.0140881
2.40442,-0.190499,-0.0140183
2.38983,-0.307417,-0.224925
2.41824,-0.0730391,0.0562968
2.36832,-0.30465,0.0277989
2.41239,-0.19113,-0.197553
2.39214,-0.189526,0.0418858
2.38032,-0.306193,-0.139766
2.41481,-0.0729353,0.140696
2.39052,-0.189397,0.0976975
2.41228,-0.0728591,-0.112419
2.40913,-0.190872,-0.126653
2.39293,-0.0722746,0.293949
2.37724,-0.188345,0.43479
2.40265,-0.0805437,0
2.37127,-0.313025,-0.0278455
2.40435,-0.198519,-0.307084
2.40378,-0.198471,-0.0140183
2.39275,-0.315861,-0.225296
2.37127,-0.313025,0.0278455
2.41174,-0.199129,-0.197553
2.41869,0.0371513,0.0703991
2.39548,-0.197786,0.0419556
2.37533,-0.313562,-0.139534
2.41056,-0.0808089,0.140464
2.38988,-0.197324,0.0976975
2.40803,-0.0807243,-0.112233
2.40451,-0.198531,-0.126444
2.39665,-0.0803424,0.294436
2.4297,0.0373204,-0.0990001
2.37268,-0.195904,0.434073
2.41116,-0.207557,-0.484018
2.37016,-0.321301,-0.0278455
2.4076,-0.207251,-0.307589
2.42779,0.0288149,0.0141113
2.3951,-0.206175,-0.0139718
2.38769,-0.323676,-0.224925
2.4097,-0.0892019,0.0561107
2.3662,-0.320763,0.0277989
2.40706,-0.207204,-0.197227
2.41881,0.0287083,0.0703991
2.39079,-0.205804,0.0418858
2.37422,-0.321852,-0.139534
2.40627,-0.0890751,0.140231
2.38519,-0.205322,0.0975347
2.40778,-0.207266,-0.126653
2.39238,-0.0885609,0.293949
2.42582,0.0287915,-0.0988373
2.37198,-0.204185,0.434073
2.36902,-0.329572,-0.0278455
2.42787,0.0203402,0.0141113
2.38654,-0.332009,-0.224925
2.41337,-0.0977746,0.0562037
2.36902,-0.329572,0.0278455
2.41213,-0.0977244,-0.168811
2.40632,-0.215605,-0.197227
2.41889,0.0202649,0.0703991
2.39006,-0.214148,0.0418858
2.381,-0.331238,-0.139999
2.40994,-0.0976357,0.140464
2.38844,-0.214003,0.0976975
2.40741,-0.0975334,-0.112233
2.39908,-0.214957,-0.126234
2.39206,-0.0969114,0.293949
2.4259,0.0203237,-0.0988373
2.36733,-0.212112,0.433355
2.4057,-0.224441,-0.483233
2.41,-0.224842,-0.308094
2.38531,-0.340754,-0.224925
2.409,-0.106443,0.0561107
2.35988,-0.337121,0.0277523
2.41175,-0.106565,-0.168811
2.40155,-0.224053,-0.196902
2.42699,0.011437,-0.155545
2.37581,-0.339398,-0.139766
2.40557,-0.106292,0.140231
2.38366,-0.222385,0.0975347
2.40226,-0.224119,-0.126444
2.38772,-0.105503,0.293461
2.37046,-0.221153,0.434073
2.40499,-0.231998,-0.483233
2.36277,-0.345112,-0.0277989
2.40139,-0.23165,-0.307084
2.41996,0.00380127,0.0140648
2.39683,-0.231211,-0.0139951
2.38817,-0.348822,-0.225296
2.40865,-0.11401,0.0561107
2.36277,-0.345112,0.0277989
2.40742,-0.113952,-0.168532
2.40083,-0.231597,-0.196902
2.39253,-0.230796,0.0419556
2.37078,-0.346283,-0.139534
2.40922,-0.114037,0.140464
2.38295,-0.229872,0.0975347
2.40669,-0.113918,-0.112233
2.39757,-0.231282,-0.126234
2.39134,-0.113191,0.293949
2.42199,0.00380446,-0.0986745
2.36584,-0.228221,0.433355
2.40412,-0.240811,-0.483233
2.39688,-0.12226,0
2.36149,-0.353769,-0.0277989
2.40052,-0.24045,-0.307084
2.39199,-0.239596,-0.0139718
2.38293,-0.356982,-0.224925
2.41221,-0.123041,0.0562037
2.36544,-0.354362,0.0278455
2.41097,-0.122978,-0.168811
2.40393,-0.240792,-0.197227
2.41497,-0.00505792,0.0702827
2.38769,-0.239165,0.0418858
2.42302,-0.00507478,-0.155289
2.37345,-0.355561,-0.139766
2.40479,-0.122663,0.140231
2.38209,-0.238604,0.0975347
2.40227,-0.122534,-0.112047
2.40068,-0.240466,-0.126444
2.38695,-0.121753,0.293461
2.36107,-0.236498,0.432638
2.4196,-0.0130914,-0.0422348
2.40331,-0.248782,-0.483233
2.3603,-0.361598,-0.0277989
2.41534,-0.131233,-0.376325
2.39576,-0.248001,-0.306579
2.41592,-0.0130715,0.0140416
2.39118,-0.247526,-0.0139718
2.38567,-0.365485,-0.225296
2.3603,-0.361598,0.0277989
2.40657,-0.130756,-0.168532
2.39916,-0.248352,-0.196902
2.41094,-0.0130446,0.0701664
2.38688,-0.247081,0.0418858
2.42299,-0.0131098,-0.155289
2.36436,-0.362221,-0.139301
2.40437,-0.130637,0.140231
2.37731,-0.246091,0.0973718
2.40185,-0.1305,-0.112047
2.39987,-0.248425,-0.126444
2.39446,-0.130098,0.294436
2.36418,-0.244732,0.433355
2.41554,-0.0215017,-0.042165
2.36298,-0.370455,-0.0278455
2.39883,-0.256784,-0.307084
2.41586,-0.0215046,0.0140416
2.39428,-0.256297,-0.0139951
2.37651,-0.372577,-0.224553
2.40333,-0.138996,0.0560176
2.35902,-0.369835,0.0277989
2.40224,-0.257149,-0.197227
2.41488,-0.0214959,0.0702827
2.386,-0.255411,0.0418858
2.37097,-0.371708,-0.139766
2.4039,-0.139029,0.140231
2.38439,-0.255239,0.0976975
2.39501,-0.256376,-0.126234
2.39003,-0.138227,0.293949
2.4179,-0.0215227,-0.0985116
2.3594,-0.252564,0.432638
2.41944,-0.0304052,-0.0422348
2.3616,-0.379113,-0.0278455
2.40182,-0.266012,-0.307589
2.41577,-0.030359,0.0140416
2.37906,-0.381916,-0.224925
2.4068,-0.148049,0.0561107
2.3537,-0.377845,0.0277523
2.40557,-0.147974,-0.168532
2.40128,-0.265952,-0.197227
2.41079,-0.0302965,0.0701664
2.38505,-0.264155,0.0418858
2.42284,-0.0304479,-0.155289
2.36959,-0.380396,-0.139766
2.40338,-0.147839,0.140231
2.39803,-0.265592,-0.126444
2.38554,-0.146742,0.293461
2.4178,-0.0303846,-0.0985116
2.36628,-0.262076,0.434073
2.41532,-0.0387862,-0.042165
2.42928,-0.157946,-0.681487
2.40442,-0.274799,-0.484018
2.36026,-0.387354,-0.0278455
2.40087,-0.274394,-0.307589
2.41165,-0.0387272,0.0140183
2.38165,-0.390863,-0.225296
2.36026,-0.387354,0.0278455
2.40504,-0.15637,-0.168532
2.39638,-0.27388,-0.196902
2.38014,-0.272024,0.041816
2.36825,-0.388665,-0.139766
2.36662,-0.270479,0.0970462
2.39634,-0.155804,-0.111861
2.39708,-0.273961,-0.126444
2.38898,-0.155326,0.293949
2.36535,-0.270335,0.434073
2.37461,-0.279373,-0.0695846
2.4249,-0.165738,-0.680408
2.4035,-0.282771,-0.484018
2.35502,-0.394518,-0.0277989
2.39995,-0.282354,-0.307589
2.41151,-0.0467243,0.0140183
2.38352,-0.280421,-0.0139486
2.38034,-0.398759,-0.225296
2.36291,-0.39584,0.027892
2.40849,-0.164616,-0.168811
2.39941,-0.282291,-0.197227
2.37525,-0.279448,0.0417462
2.36301,-0.395857,-0.139534
2.39036,-0.163378,0.139534
2.37365,-0.279259,0.0973718
2.39979,-0.164022,-0.112047
2.3922,-0.281442,-0.126234
2.38845,-0.163247,0.293949
2.41754,-0.0468412,-0.0985116
2.3745,-0.162294,0.63773
2.35663,-0.277257,0.432638
2.41099,-0.0555551,-0.0420952
2.39855,-0.291106,-0.483233
2.35356,-0.403147,-0.0277989
2.40871,-0.173503,-0.37571
2.39496,-0.29067,-0.307084
2.41132,-0.0555626,0.0140183
2.38645,-0.289637,-0.0139718
2.37493,-0.406808,-0.224925
2.35356,-0.403147,0.0277989
2.39593,-0.172583,-0.167974
2.41034,-0.0555401,0.0701664
2.38215,-0.289116,0.0418858
2.4144,-0.0556337,-0.154777
2.36155,-0.404515,-0.139534
2.39115,-0.290208,-0.126234
2.38783,-0.172,0.293949
2.41735,-0.0557017,-0.0985116
2.37004,-0.170718,0.636695
2.35169,-0.285419,0.43192
2.39363,-0.29899,-0.482449
2.35214,-0.41136,-0.0277989
2.40181,-0.300012,-0.308094
2.41511,-0.0640855,0.0140416
2.38542,-0.297966,-0.0139718
2.37742,-0.415782,-0.225296
2.3482,-0.410671,0.0277523
2.39531,-0.180945,-0.167974
2.40214,-0.0637412,0.0699336
2.37716,-0.296934,0.041816
2.36012,-0.412756,-0.139534
2.36366,-0.295247,0.0970462
2.38616,-0.298057,-0.126025
2.38326,-0.180035,0.293461
2.36239,-0.295089,0.434073
2.41056,-0.0719648,-0.0420952
2.39651,-0.307425,-0.483233
2.35076,-0.419158,-0.0277989
2.39293,-0.306965,-0.307084
2.40689,-0.0718552,0.0139951
2.38442,-0.305874,-0.0139718
2.37603,-0.423664,-0.225296
2.35076,-0.419158,0.0277989
2.39867,-0.189201,-0.168253
2.40591,-0.071826,0.07005
2.38013,-0.305324,0.0418858
2.3666,-0.421982,-0.139999
2.39648,-0.189028,0.139999
2.38516,-0.305969,-0.126025
2.38265,-0.187937,0.293461
2.40893,-0.0719161,-0.098186
2.3575,-0.302421,0.433355
2.41429,-0.0805121,-0.042165
2.42235,-0.199579,-0.680408
2.39154,-0.315276,-0.482449
2.39184,-0.315316,-0.307084
2.40662,-0.0802564,0.0139951
2.37454,-0.431955,-0.225296
2.35322,-0.428077,0.0278455
2.398,-0.197573,-0.168253
2.39129,-0.315243,-0.196902
2.40165,-0.0800905,0.0699336
2.37509,-0.313108,0.041816
2.36118,-0.429525,-0.139766
2.39183,-0.197064,0.139766
2.36555,-0.311851,0.097209
2.39727,-0.197513,-0.112047
2.38803,-0.314815,-0.126234
2.38594,-0.196579,0.293949
2.41665,-0.0805908,-0.0985116
2.36815,-0.195114,0.636695
2.35253,-0.310134,0.432638
2.40602,-0.0882246,-0.0420254
2.39436,-0.323731,-0.483233
2.35965,-0.437336,-0.0279386
2.38685,-0.322715,-0.306579
2.40634,-0.0882365,0.0139951
2.37832,-0.321561,-0.0139486
2.35572,-0.436607,0.027892
2.40131,-0.205865,-0.168532
2.39023,-0.323172,-0.196902
2.40137,-0.0880542,0.0699336
2.36611,-0.31991,0.0416763
2.41342,-0.0884962,-0.154777
2.35582,-0.436625,-0.139534
2.38321,-0.204313,0.139301
2.36847,-0.320229,0.0973718
2.38302,-0.322197,-0.126025
2.38132,-0.204151,0.293461
2.40838,-0.0883114,-0.098186
2.34759,-0.317406,0.43192
2.40569,-0.0966227,-0.0420254
2.39322,-0.332087,-0.483233
2.35811,-0.44557,-0.0279386
2.40145,-0.214324,-0.375095
2.38964,-0.33159,-0.307084
2.40202,-0.0964752,0.0139718
2.38114,-0.330411,-0.0139718
2.36372,-0.446629,-0.224553
2.34632,-0.443342,0.0277989
2.40057,-0.214245,-0.168532
2.38514,-0.330965,-0.196577
2.39705,-0.0962755,0.0698173
2.3729,-0.329267,0.041816
2.40911,-0.0967599,-0.154521
2.35428,-0.444846,-0.139534
2.36338,-0.327946,0.097209
2.38059,-0.212462,0.293461
2.40806,-0.0967177,-0.098186
2.36292,-0.210885,0.63566
2.34257,-0.325058,0.431203
2.40932,-0.105614,-0.0420952
2.34861,-0.452696,-0.0278455
2.38448,-0.339786,-0.306579
2.39766,-0.105103,0.0139486
2.37992,-0.339136,-0.0139718
2.36597,-0.456043,-0.224925
2.39304,-0.222416,0.0559246
2.34468,-0.451939,0.0277989
2.38785,-0.340267,-0.196902
2.39668,-0.105061,0.0698173
2.37564,-0.338526,0.0418858
2.41672,-0.105939,-0.155033
2.35264,-0.453472,-0.139534
2.38963,-0.2221,0.139766
2.36216,-0.336606,0.097209
2.3767,-0.338677,-0.125816
2.37584,-0.220818,0.292974
2.40769,-0.105543,-0.098186
2.36213,-0.219544,0.63566
2.34915,-0.334752,0.432638
2.40896,-0.113603,-0.0420952
2.34317,-0.459711,-0.0277989
2.39119,-0.348837,-0.307589
2.40529,-0.11343,0.0139951
2.37482,-0.346449,-0.0139486
2.36836,-0.464653,-0.225296
2.34709,-0.460481,0.0278455
2.3871,-0.229852,-0.167695
2.37882,-0.347033,-0.196251
2.39632,-0.113008,0.0698173
2.3745,-0.346402,0.0418858
2.40838,-0.113576,-0.154521
2.35504,-0.46204,-0.139766
2.38491,-0.229641,0.139534
2.36103,-0.344437,0.097209
2.38636,-0.229781,-0.111675
2.37951,-0.347133,-0.126025
2.3751,-0.228696,0.292974
2.40733,-0.113527,-0.098186
2.3537,-0.226636,0.633589
2.35582,-0.343676,0.434073
2.40455,-0.121809,-0.0420254
2.41471,-0.24102,-0.67933
2.38573,-0.35655,-0.482449
2.34547,-0.468671,-0.0278455
2.39908,-0.23946,-0.375095
2.38603,-0.356595,-0.307084
2.39689,-0.121421,0.0139486
2.37755,-0.355328,-0.0139718
2.34939,-0.469455,0.027892
2.38629,-0.238183,-0.167695
2.39991,-0.121574,0.0699336
2.36537,-0.353506,0.0417462
2.40398,-0.12178,-0.154266
2.35341,-0.470258,-0.139766
2.36377,-0.353267,0.0973718
2.38952,-0.238506,-0.111861
2.37829,-0.355437,-0.126025
2.37428,-0.236985,0.292974
2.40292,-0.121727,-0.0980231
2.36058,-0.235618,0.63566
2.35071,-0.351316,0.433355
2.40012,-0.129986,-0.0419556
2.38835,-0.365469,-0.483233
2.3399,-0.476058,-0.0277989
2.38478,-0.364922,-0.307084
2.40044,-0.130003,0.0139718
2.36839,-0.362415,-0.0139253
2.36896,-0.48197,-0.225668
2.34382,-0.476856,0.0278455
2.38544,-0.246511,-0.167695
2.39547,-0.129734,0.0698173
2.36412,-0.361761,0.0417462
2.40354,-0.130171,-0.154266
2.34784,-0.477674,-0.139534
2.37928,-0.245874,0.139301
2.36252,-0.361516,0.0973718
2.3847,-0.246435,-0.111675
2.38098,-0.364341,-0.126234
2.37739,-0.245679,0.293461
2.40647,-0.13033,-0.098186
2.35975,-0.243856,0.63566
2.34947,-0.359519,0.433355
2.39965,-0.138363,-0.0419556
2.38318,-0.373197,-0.482449
2.37448,-0.253759,0
2.34998,-0.486657,-0.0279386
2.38349,-0.373244,-0.307084
2.39997,-0.138382,0.0139718
2.36711,-0.37068,-0.0139253
2.36336,-0.489429,-0.225296
2.38577,-0.254965,0.0558315
2.34606,-0.485845,0.027892
2.38853,-0.255261,-0.167974
2.399,-0.138325,0.0699336
2.36679,-0.37063,0.041816
2.40307,-0.13856,-0.154266
2.35007,-0.486676,-0.139766
2.38237,-0.254602,0.139534
2.35729,-0.369142,0.097209
2.38383,-0.254758,-0.111675
2.37969,-0.37265,-0.126234
2.37652,-0.253977,0.293461
2.40999,-0.138959,-0.0983488
2.35888,-0.252092,0.63566
2.34431,-0.36711,0.432638
2.39915,-0.146738,-0.0419556
2.38187,-0.381513,-0.482449
2.34044,-0.493207,-0.0278455
2.39251,-0.264135,-0.37448
2.38217,-0.381562,-0.307084
2.39948,-0.146758,0.0139718
2.3737,-0.380206,-0.0139718
2.36164,-0.497675,-0.225296
2.33652,-0.492382,0.0277989
2.38366,-0.263159,-0.167695
2.38162,-0.381474,-0.196902
2.39451,-0.146454,0.0698173
2.36548,-0.378889,0.041816
2.34445,-0.494053,-0.139534
2.38544,-0.263355,0.139766
2.35994,-0.378001,0.0973718
2.37895,-0.262639,-0.111489
2.37049,-0.379691,-0.125816
2.36773,-0.261399,0.292486
2.40551,-0.147127,-0.098186
2.33913,-0.374668,0.43192
2.39862,-0.155112,-0.0419556
2.41111,-0.274711,-0.67933
2.38439,-0.390459,-0.483233
2.3387,-0.501374,-0.0278455
2.38474,-0.390516,-0.307589
2.39097,-0.154617,0.0139253
2.37236,-0.388489,-0.0139718
2.35989,-0.505916,-0.225296
2.33479,-0.500535,0.0277989
2.3724,-0.388496,-0.196251
2.36809,-0.38779,0.0418858
2.40204,-0.155333,-0.154266
2.35052,-0.503908,-0.139999
2.35466,-0.38559,0.097209
2.38199,-0.271393,-0.111675
2.36915,-0.387963,-0.125816
2.3668,-0.269663,0.292486
2.397,-0.155007,-0.0978603
2.34169,-0.383467,0.432638
2.40206,-0.163756,-0.0420254
2.40631,-0.282676,-0.678252
2.38688,-0.399427,-0.484018
2.33693,-0.509534,-0.0278455
2.37553,-0.397528,-0.306579
2.37099,-0.396768,-0.0139718
2.362,-0.514999,-0.225668
2.33303,-0.508682,0.0277989
2.38944,-0.162896,0.0697009
2.35489,-0.394074,0.0416763
2.34875,-0.512109,-0.139999
2.35724,-0.394467,0.0973718
2.37706,-0.27924,-0.111489
2.37566,-0.397549,-0.126234
2.36979,-0.278386,0.292974
2.40043,-0.163645,-0.0980231
2.33646,-0.390989,0.43192
2.39349,-0.171568,-0.0418858
2.40531,-0.291074,-0.678252
2.38547,-0.407757,-0.484018
2.33905,-0.518554,-0.027892
2.39353,-0.289649,-0.375095
2.37804,-0.406486,-0.307084
2.38983,-0.171305,0.0139253
2.36565,-0.404368,-0.0139486
2.34295,-0.51942,0.0279386
2.37749,-0.406392,-0.196902
2.38487,-0.17095,0.0695846
2.35744,-0.402965,0.0417462
2.33915,-0.518576,-0.139534
2.37462,-0.287361,0.139301
2.35191,-0.402019,0.097209
2.37607,-0.287536,-0.111489
2.37426,-0.405839,-0.126234
2.3688,-0.286656,0.292974
2.39586,-0.171737,-0.0978603
2.33896,-0.399805,0.432638
2.39687,-0.180221,-0.0419556
2.4081,-0.299945,-0.67933
2.38017,-0.415407,-0.483233
2.34112,-0.527595,-0.0279386
2.39251,-0.298003,-0.375095
2.38052,-0.415467,-0.307589
2.3932,-0.179946,0.0139486
2.36816,-0.413311,-0.0139718
2.35446,-0.5306,-0.225296
2.33722,-0.526716,0.027892
2.37976,-0.296414,-0.167695
2.39223,-0.179873,0.0698173
2.35996,-0.411879,0.041816
2.40029,-0.180478,-0.154266
2.34122,-0.527616,-0.139766
2.37361,-0.295648,0.139301
2.35049,-0.410226,0.097209
2.36778,-0.294923,0.292974
2.39923,-0.180399,-0.0980231
2.33367,-0.407291,0.43192
2.39622,-0.188587,-0.0419556
2.33147,-0.533978,-0.0278455
2.37905,-0.423774,-0.307589
2.38459,-0.187671,0.0139021
2.36671,-0.421574,-0.0139718
2.35648,-0.539705,-0.225668
2.3799,-0.304873,0.0558315
2.33147,-0.533978,0.0278455
2.38362,-0.187595,0.0695846
2.35851,-0.420115,0.041816
2.39566,-0.188543,-0.15401
2.34325,-0.536677,-0.139999
2.37652,-0.304439,0.139534
2.34511,-0.417728,0.0970462
2.36743,-0.421704,-0.126025
2.36674,-0.303186,0.292974
2.39859,-0.188773,-0.0980231
2.33224,-0.415434,0.43192
2.39559,-0.196532,-0.0419556
2.37729,-0.431598,-0.483233
2.37764,-0.431661,-0.307589
2.38794,-0.195905,0.0139253
2.36136,-0.428706,-0.0139486
2.35467,-0.547516,-0.225668
2.37888,-0.312763,0.0558315
2.33358,-0.542612,0.027892
2.37318,-0.430853,-0.196902
2.3571,-0.427934,0.041816
2.34535,-0.545349,-0.140231
2.34764,-0.426216,0.097209
2.37298,-0.311988,-0.111489
2.36602,-0.429553,-0.126025
2.36179,-0.310516,0.292486
2.39795,-0.196726,-0.0980231
2.33472,-0.423869,0.432638
2.3909,-0.204552,-0.0418858
2.37191,-0.43918,-0.482449
2.33557,-0.551674,-0.0279386
2.37221,-0.439236,-0.307084
2.38325,-0.203898,0.0139021
2.36378,-0.437674,-0.0139718
2.35275,-0.555732,-0.225668
2.37777,-0.321065,0.0558315
2.33557,-0.551674,0.0279386
2.37658,-0.320903,-0.167695
2.36774,-0.438408,-0.196577
2.38627,-0.204156,0.0697009
2.35166,-0.435431,0.0417462
2.39035,-0.204505,-0.153754
2.33566,-0.551696,-0.139766
2.37044,-0.320074,0.139301
2.35007,-0.435136,0.0973718
2.37188,-0.320269,-0.111489
2.36451,-0.437809,-0.126025
2.36069,-0.318758,0.292486
2.39326,-0.204754,-0.0978603
2.33322,-0.432016,0.432638
2.39017,-0.212897,-0.0418858
2.37422,-0.448184,-0.483233
2.33752,-0.560757,-0.0279852
2.38426,-0.330419,-0.37448
2.37456,-0.448249,-0.307589
2.38253,-0.212216,0.0139021
2.35831,-0.445181,-0.0139486
2.35079,-0.563942,-0.225668
2.37664,-0.329363,0.0558315
2.32585,-0.557958,0.0278455
2.37544,-0.329197,-0.167695
2.37012,-0.44741,-0.196902
2.35406,-0.444379,0.041816
2.38962,-0.212847,-0.153754
2.33372,-0.559846,-0.139766
2.3693,-0.328347,0.139301
2.34068,-0.441854,0.0970462
2.37075,-0.328547,-0.111489
2.36349,-0.327541,0.292974
2.39652,-0.213462,-0.0980231
2.32397,-0.438698,0.431203
2.37649,-0.45721,-0.484018
2.32777,-0.567019,-0.027892
2.37299,-0.456535,-0.307589
2.35281,-0.452654,-0.0139253
2.35268,-0.573086,-0.22604
2.37547,-0.337657,0.0558315
2.33555,-0.568913,0.0279852
2.37428,-0.337487,-0.167695
2.38479,-0.22081,0.0697009
2.35249,-0.452593,0.041816
2.38886,-0.221187,-0.153754
2.33563,-0.568934,-0.139999
2.3721,-0.337177,0.139534
2.33913,-0.450022,0.0970462
2.36959,-0.33682,-0.111489
2.39576,-0.221826,-0.0980231
2.32242,-0.446808,0.431203
2.38339,-0.338782,-0.0560176
2.38465,-0.229195,-0.041816
2.40897,-0.351002,-0.681487
2.36718,-0.463994,-0.482449
2.33355,-0.577062,-0.0279852
2.38189,-0.347056,-0.37448
2.36748,-0.464053,-0.307084
2.35514,-0.461634,-0.0139486
2.37032,-0.34537,0.0557385
2.3219,-0.574181,0.0278455
2.384,-0.229133,0.0697009
2.3509,-0.460802,0.041816
2.38807,-0.229525,-0.153754
2.33363,-0.577083,-0.139999
2.37091,-0.345455,0.139534
2.36372,-0.463314,-0.126234
2.35722,-0.343461,0.292486
2.39099,-0.229805,-0.0978603
2.32471,-0.455669,0.43192
2.38781,-0.237914,-0.0418858
2.37709,-0.474558,-0.484802
2.32376,-0.583256,-0.027892
2.37363,-0.473868,-0.308094
2.38017,-0.237153,0.0139021
2.35744,-0.470635,-0.0139718
2.34476,-0.588528,-0.225668
2.37306,-0.354232,0.0558315
2.32764,-0.58423,0.0279386
2.36792,-0.353465,-0.167416
2.39123,-0.238255,-0.15401
2.33548,-0.586198,-0.140231
2.36574,-0.353139,0.139301
2.36208,-0.471562,-0.126234
2.35208,-0.351101,0.291999
2.39017,-0.23815,-0.0978603
2.38303,-0.245422,-0.041816
2.37166,-0.481657,-0.484018
2.32956,-0.592932,-0.0279852
2.36427,-0.480157,-0.307084
2.37937,-0.245045,0.0139021
2.35587,-0.47845,-0.0139718
2.34279,-0.5963,-0.225668
2.37187,-0.3621,0.0558315
2.32569,-0.591946,0.0279386
2.36673,-0.361316,-0.167416
2.36372,-0.480046,-0.196902
2.34771,-0.476793,0.041816
2.33739,-0.594924,-0.140464
2.36455,-0.360983,0.139301
2.33437,-0.474084,0.0970462
2.35659,-0.478598,-0.126025
2.35483,-0.359498,0.292486
2.38937,-0.246074,-0.0978603
2.34139,-0.484453,-0.0695846
2.36988,-0.490346,-0.484018
2.3235,-0.600466,-0.0279386
2.36249,-0.488819,-0.307084
2.34626,-0.485461,-0.0139253
2.34445,-0.605879,-0.22604
2.31963,-0.599465,0.027892
2.36195,-0.488706,-0.196902
2.34595,-0.485395,0.041816
2.38554,-0.254519,-0.153754
2.32746,-0.601489,-0.139999
2.36321,-0.369647,0.139301
2.33262,-0.482637,0.0970462
2.35873,-0.488041,-0.126234
2.35349,-0.368127,0.292486
2.38448,-0.254406,-0.0976975
2.38121,-0.262468,-0.041816
2.36815,-0.498616,-0.484018
2.32913,-0.610601,-0.0280317
2.37358,-0.261627,0.0138789
2.34455,-0.493648,-0.0139253
2.34232,-0.614059,-0.22604
2.36527,-0.378431,0.0557385
2.32913,-0.610601,0.0280317
2.36409,-0.378242,-0.167416
2.34815,-0.494405,0.0418858
2.3886,-0.263282,-0.15401
2.32921,-0.610622,-0.140231
2.36585,-0.378524,0.139534
2.33092,-0.490777,0.0970462
2.36092,-0.497094,-0.126444
2.3522,-0.37634,0.292486
2.39152,-0.263604,-0.0980231
2.37636,-0.269911,-0.0417462
2.36648,-0.506466,-0.484018
2.32709,-0.618322,-0.0280317
2.37554,-0.388158,-0.37448
2.36299,-0.505719,-0.307589
2.37668,-0.269948,0.0139021
2.34682,-0.502257,-0.0139486
2.36795,-0.386918,0.0558315
2.32323,-0.617294,0.0279852
2.36282,-0.38608,-0.167416
2.3465,-0.502189,0.0418858
2.38375,-0.270751,-0.153754
2.33103,-0.619368,-0.140464
2.36064,-0.385724,0.139301
2.33319,-0.49934,0.097209
2.36208,-0.385959,-0.111489
2.35926,-0.504921,-0.126444
2.34702,-0.383497,0.291999
2.39063,-0.271533,-0.0980231
2.3754,-0.278205,-0.0417462
2.36853,-0.515558,-0.484802
2.3172,-0.62436,-0.0279386
2.36509,-0.514808,-0.308094
2.34896,-0.511297,-0.0139718
2.34193,-0.631025,-0.226412
2.36658,-0.395181,0.0558315
2.32106,-0.6254,0.0279852
2.36069,-0.51385,-0.197227
2.36681,-0.277199,0.0693518
2.34082,-0.509526,0.041816
2.38279,-0.27907,-0.153754
2.33271,-0.62854,-0.140696
2.36322,-0.394619,0.139534
2.33143,-0.507481,0.097209
2.36072,-0.394202,-0.111489
2.35358,-0.512304,-0.126234
2.34566,-0.391688,0.291999
2.38173,-0.278946,-0.0976975
2.37436,-0.286909,-0.0417462
2.35897,-0.522539,-0.483233
2.31875,-0.633903,-0.0279852
2.3727,-0.405147,-0.37448
2.35931,-0.522615,-0.307589
2.34707,-0.519902,-0.0139718
2.31489,-0.632848,0.0279386
2.36,-0.402978,-0.167416
2.35489,-0.521636,-0.196902
2.33503,-0.517237,0.0417462
2.38175,-0.287802,-0.153754
2.32654,-0.636033,-0.140464
2.35782,-0.402606,0.139301
2.34812,-0.400951,0.292486
2.38069,-0.287674,-0.0976975
2.35713,-0.53077,-0.483233
2.32038,-0.643061,-0.0280317
2.34134,-0.527213,-0.0139486
2.34119,-0.64883,-0.226784
2.36369,-0.412106,0.0558315
2.31652,-0.641993,0.0279852
2.35695,-0.530729,-0.197227
2.36477,-0.294129,0.0693518
2.34102,-0.527142,0.0418858
2.37677,-0.295621,-0.153498
2.32046,-0.643084,-0.140231
2.35247,-0.410148,0.139069
2.32774,-0.524151,0.097209
2.35784,-0.411084,-0.111489
2.35062,-0.409826,0.292974
2.37967,-0.295982,-0.0976975
2.37627,-0.303986,-0.041816
2.32197,-0.652239,-0.0280783
2.35947,-0.539958,-0.308094
2.34338,-0.536275,-0.0139718
2.33891,-0.656999,-0.226784
2.3583,-0.419653,0.0557385
2.31812,-0.651157,0.0280317
2.35713,-0.419444,-0.167416
2.36373,-0.302381,0.0693518
2.33916,-0.53531,0.0418858
2.38365,-0.304929,-0.15401
2.32589,-0.653339,-0.140696
2.35495,-0.419057,0.139301
2.32589,-0.532273,0.097209
2.35189,-0.538223,-0.126444
2.34527,-0.417334,0.292486
2.37466,-0.30378,-0.0975347
2.37519,-0.312279,-0.041816
2.32353,-0.661435,-0.0281249
2.36833,-0.429971,-0.37448
2.36144,-0.54909,-0.3086
2.34149,-0.544452,-0.0139718
2.35289,-0.427169,0.0556454
2.31583,-0.659245,0.0280317
2.34118,-0.544378,0.0419556
2.37861,-0.312727,-0.153754
2.31591,-0.659268,-0.140231
2.34955,-0.426561,0.139069
2.32402,-0.540389,0.097209
2.34611,-0.545524,-0.126234
2.3438,-0.425518,0.292486
2.37755,-0.312588,-0.0976975
2.3742,-0.319739,-0.041816
2.31375,-0.666517,-0.0280317
2.35584,-0.555595,-0.308094
2.34367,-0.552723,-0.0139951
2.33451,-0.672496,-0.226784
2.31375,-0.666517,0.0280317
2.35145,-0.554561,-0.197227
2.32778,-0.548976,0.0417462
2.37761,-0.320198,-0.153754
2.3215,-0.668751,-0.140696
2.35605,-0.435392,0.139534
2.32231,-0.547688,0.097209
2.34827,-0.553809,-0.126444
2.34245,-0.432879,0.292486
2.3726,-0.319523,-0.0975347
2.37296,-0.328853,-0.041816
2.31117,-0.675396,-0.0280317
2.36527,-0.446495,-0.37448
2.35369,-0.564637,-0.308094
2.33764,-0.560785,-0.0139718
2.35771,-0.445068,0.0558315
2.31117,-0.675396,0.0280317
2.35319,-0.564515,-0.197553
2.36439,-0.327666,0.0694682
2.32954,-0.558843,0.041816
2.37637,-0.329325,-0.153754
2.31892,-0.67766,-0.140696
2.35436,-0.444435,0.139534
2.32019,-0.556601,0.097209
2.34612,-0.562822,-0.126444
2.34467,-0.442606,0.292974
2.37927,-0.329728,-0.0978603
2.36388,-0.336008,-0.0416763
2.32695,-0.566818,-0.0697009
2.31264,-0.684595,-0.0280783
2.35171,-0.572849,-0.308094
2.33566,-0.568942,-0.0139718
2.35222,-0.45254,0.0557385
2.3088,-0.68346,0.0280317
2.35104,-0.452313,-0.167416
2.3512,-0.572726,-0.197553
2.36323,-0.335917,0.0694682
2.32369,-0.566025,0.0417462
2.3752,-0.337619,-0.153754
2.31654,-0.68575,-0.140696
2.34887,-0.451896,0.139301
2.32212,-0.565642,0.0973718
2.3503,-0.452172,-0.111489
2.34311,-0.450788,0.292974
2.37019,-0.336906,-0.0975347
2.36007,-0.454051,-0.0559246
2.36281,-0.343433,-0.0416763
2.31431,-0.693004,-0.0281249
2.36226,-0.462172,-0.37448
2.34989,-0.580235,-0.308094
2.35917,-0.342904,0.0138556
2.33387,-0.576277,-0.0139718
2.32734,-0.696906,-0.226784
2.35078,-0.459927,0.0557385
2.31047,-0.691857,0.0280783
2.35352,-0.460463,-0.167695
2.37008,-0.34449,0.0697009
2.32578,-0.574281,0.041816
2.37413,-0.345079,-0.153754
2.3182,-0.69417,-0.140929
2.34352,-0.458507,0.139069
2.34622,-0.579327,-0.126653
2.34168,-0.458147,0.292974
2.37703,-0.3455,-0.0978603
2.36256,-0.462231,-0.0560176
2.36543,-0.353093,-0.0417462
2.31928,-0.70421,-0.028218
2.36047,-0.471239,-0.37448
2.3515,-0.590219,-0.3086
2.35784,-0.35196,0.0138556
2.33939,-0.587181,-0.0140183
2.349,-0.46895,0.0557385
2.30397,-0.699561,0.0280317
2.32744,-0.584181,0.0418858
2.37279,-0.354192,-0.153754
2.31934,-0.704226,-0.141162
2.34709,-0.468569,-0.111489
2.3401,-0.587359,-0.126444
2.33991,-0.467135,0.292974
2.37569,-0.354625,-0.0978603
2.36418,-0.361348,-0.0417462
2.30534,-0.708775,-0.0280783
2.36055,-0.360793,0.0138789
2.33345,-0.594356,-0.0139951
2.35127,-0.477943,0.0558315
2.30916,-0.70995,0.0281249
2.32926,-0.593289,0.0419556
2.37154,-0.362473,-0.153754
2.3245,-0.714665,-0.141627
2.34792,-0.477264,0.139534
2.31607,-0.589928,0.0973718
2.34544,-0.476759,-0.111489
2.33437,-0.474509,0.292486
2.36653,-0.361708,-0.0975347
2.36303,-0.368774,-0.0417462
2.30692,-0.717201,-0.0281249
2.35137,-0.606793,-0.309105
2.33545,-0.602684,-0.0140183
2.34975,-0.485328,0.0558315
2.3031,-0.716014,0.0280783
2.34857,-0.485083,-0.167695
2.34705,-0.605676,-0.197878
2.32351,-0.599604,0.0418858
2.37039,-0.369921,-0.153754
2.31462,-0.719593,-0.141162
2.3425,-0.48383,0.139301
2.3142,-0.597201,0.0973718
2.34002,-0.603864,-0.126653
2.33287,-0.48184,0.292486
2.36538,-0.36914,-0.0975347
2.36167,-0.377432,-0.0417462
2.32067,-0.607951,-0.0698173
2.30809,-0.726853,-0.0281714
2.35549,-0.49552,-0.37448
2.34913,-0.615407,-0.309105
2.35409,-0.376221,0.0138556
2.32936,-0.610226,-0.0139951
2.35187,-0.49476,0.0559246
2.30809,-0.726853,0.0281714
2.34095,-0.613264,-0.197553
2.31743,-0.607103,0.041816
2.37296,-0.379237,-0.15401
2.30815,-0.726872,-0.140929
2.34071,-0.492412,0.139301
2.31586,-0.606692,0.0975347
2.33779,-0.612437,-0.126653
2.33497,-0.491205,0.292974
2.36796,-0.378438,-0.0976975
2.3604,-0.385262,-0.0417462
2.30948,-0.735717,-0.028218
2.3577,-0.504155,-0.375095
2.34708,-0.623194,-0.309105
2.35677,-0.384669,0.0138789
2.32732,-0.617947,-0.0139951
2.3262,-0.741044,-0.227899
2.3424,-0.500884,0.0557385
2.30186,-0.733289,0.0281249
2.34903,-0.502302,-0.167974
2.34276,-0.622047,-0.197878
2.32314,-0.616837,0.0419556
2.36381,-0.385817,-0.153498
2.31334,-0.736947,-0.141394
2.33516,-0.499337,0.139069
2.33575,-0.620186,-0.126653
2.33333,-0.498945,0.292974
2.37064,-0.386932,-0.0978603
2.35897,-0.39391,-0.0417462
2.31058,-0.745405,-0.0282646
2.34478,-0.631792,-0.309105
2.3514,-0.392646,0.0138556
2.3289,-0.627513,-0.0140183
2.34445,-0.510316,0.0558315
2.29535,-0.740493,0.0280783
2.35045,-0.392487,0.0693518
2.32086,-0.625347,0.0419556
2.36631,-0.395136,-0.153754
2.31062,-0.74542,-0.141394
2.33722,-0.508742,0.139301
2.33864,-0.509052,-0.111489
2.3296,-0.627703,-0.126444
2.32761,-0.506649,0.292486
2.3692,-0.395619,-0.0978603
2.35758,-0.402142,-0.0417462
2.30035,-0.750983,-0.0281714
2.35002,-0.400852,0.0138556
2.33055,-0.636693,-0.0140416
2.34266,-0.518497,0.0558315
2.30035,-0.750983,0.0281714
2.34538,-0.519098,-0.167974
2.3344,-0.637745,-0.197553
2.34906,-0.400689,0.0693518
2.31866,-0.633445,0.0419556
2.36886,-0.404065,-0.15401
2.3156,-0.75596,-0.141859
2.33543,-0.516897,0.139301
2.31324,-0.631963,0.0976975
2.34075,-0.518075,-0.111675
2.3297,-0.515629,0.292974
2.36387,-0.403214,-0.0976975
2.36011,-0.411056,-0.041816
2.30152,-0.760263,-0.028218
2.34031,-0.648147,-0.309105
2.32446,-0.643757,-0.0140183
2.34473,-0.527549,0.0559246
2.33966,-0.526406,-0.167695
2.336,-0.646954,-0.197878
2.31258,-0.640467,0.0418858
2.36743,-0.412331,-0.15401
2.30915,-0.762786,-0.141627
2.32971,-0.524169,0.139069
2.31872,-0.642167,0.0980231
2.32902,-0.645018,-0.126653
2.32014,-0.522015,0.291999
2.35851,-0.410777,-0.0975347
2.35472,-0.418591,-0.0417462
2.31356,-0.649441,-0.0699336
2.30644,-0.770828,-0.0283111
2.35033,-0.537435,-0.375095
2.34186,-0.657384,-0.30961
2.3511,-0.417948,0.0138789
2.3222,-0.651867,-0.0140183
2.33898,-0.534839,0.0558315
2.29885,-0.768292,0.028218
2.31804,-0.650698,0.0420254
2.36205,-0.419894,-0.153754
2.2989,-0.76831,-0.141162
2.32398,-0.531408,0.138836
2.30877,-0.648097,0.0976975
2.33708,-0.534404,-0.111675
2.33444,-0.655303,-0.127072
2.32992,-0.532766,0.293461
2.35706,-0.419008,-0.0975347
2.34678,-0.536622,-0.0560176
2.35332,-0.426398,-0.0417462
2.30008,-0.777191,-0.0282646
2.35239,-0.54612,-0.37571
2.33585,-0.664061,-0.309105
2.34577,-0.425029,0.0138556
2.32387,-0.660658,-0.0140416
2.33719,-0.542592,0.0558315
2.29629,-0.775911,0.028218
2.33602,-0.542319,-0.167695
2.33538,-0.663929,-0.198204
2.31202,-0.657287,0.0419556
2.35671,-0.427013,-0.153498
2.30769,-0.779764,-0.141859
2.32998,-0.540918,0.139301
2.32841,-0.661948,-0.126862
2.32427,-0.539591,0.292974
2.35959,-0.427534,-0.0976975
2.34888,-0.545305,-0.0561107
2.35182,-0.43461,-0.0417462
2.29735,-0.785215,-0.0282646
2.34662,-0.55342,-0.375095
2.34114,-0.674408,-0.310115
2.3482,-0.433942,0.0138789
2.32155,-0.668765,-0.0140416
2.33529,-0.550747,0.0558315
2.29735,-0.785215,0.0282646
2.32124,-0.668675,0.042165
2.35913,-0.435962,-0.153754
2.30496,-0.787815,-0.141859
2.32808,-0.549048,0.139301
2.30815,-0.664903,0.0978603
2.33339,-0.5503,-0.111675
2.32609,-0.670072,-0.126862
2.31464,-0.545879,0.291999
2.36201,-0.436494,-0.0978603
2.35429,-0.443146,-0.041816
2.29473,-0.792829,-0.0282646
2.34477,-0.561199,-0.375095
2.34675,-0.441726,0.0138789
2.33734,-0.559419,0.0559246
2.28717,-0.790217,0.0281714
2.33081,-0.67981,-0.198204
2.31517,-0.675249,0.0420952
2.3616,-0.444521,-0.15401
2.30988,-0.798062,-0.142324
2.33013,-0.557695,0.139534
2.30977,-0.673673,0.0980231
2.33155,-0.558034,-0.111675
2.32002,-0.676663,-0.126653
2.31668,-0.554476,0.292486
2.35663,-0.443585,-0.0976975
2.35658,-0.452526,-0.0418858
2.30822,-0.682411,-0.07005
2.29181,-0.801235,-0.0282646
2.3427,-0.569789,-0.375095
2.32876,-0.688486,-0.309105
2.33527,-0.567982,0.0559246
2.29181,-0.801235,0.0282646
2.33409,-0.567695,-0.167974
2.33212,-0.689479,-0.198529
2.31268,-0.68373,0.0420952
2.35211,-0.451668,-0.153498
2.30694,-0.806523,-0.142324
2.32031,-0.564344,0.139069
2.31111,-0.683267,0.098186
2.33337,-0.567521,-0.111861
2.32901,-0.688559,-0.127281
2.31849,-0.563901,0.292974
2.35891,-0.452974,-0.0978603
2.34714,-0.459213,-0.0417462
2.29277,-0.810563,-0.0283111
2.34837,-0.579858,-0.376325
2.31442,-0.69304,-0.0140416
2.32939,-0.575172,0.0558315
2.289,-0.80923,0.0282646
2.33597,-0.576796,-0.168253
2.33865,-0.457554,0.0693518
2.31028,-0.691798,0.0420952
2.35444,-0.460642,-0.153754
2.29658,-0.811909,-0.141859
2.31833,-0.57244,0.139069
2.30489,-0.690184,0.0980231
2.31894,-0.694393,-0.126862
2.32036,-0.572942,0.293461
2.35731,-0.461205,-0.0978603
2.3456,-0.466994,-0.0417462
2.29384,-0.819507,-0.0283577
2.34644,-0.587643,-0.376325
2.31211,-0.700711,-0.0140416
2.32747,-0.582893,0.0558315
2.29384,-0.819507,0.0283577
2.33404,-0.584539,-0.168253
2.32738,-0.705337,-0.198529
2.30797,-0.699456,0.0420952
2.3529,-0.468448,-0.153754
2.3014,-0.822207,-0.142324
2.32029,-0.581095,0.139301
2.30259,-0.697823,0.0980231
2.32945,-0.58339,-0.111861
2.31663,-0.702079,-0.126862
2.31845,-0.580634,0.293461
2.35577,-0.46902,-0.0978603
2.34299,-0.586779,-0.0562037
2.34779,-0.476384,-0.041816
2.29458,-0.829268,-0.0284042
2.3481,-0.597213,-0.37694
2.31335,-0.710354,-0.0140648
2.32144,-0.590434,0.0557385
2.28706,-0.82655,0.0283111
2.32478,-0.713862,-0.198529
2.3354,-0.473869,0.0693518
2.31304,-0.710258,0.0422348
2.35117,-0.477068,-0.153754
2.29837,-0.830636,-0.142324
2.32975,-0.592548,0.139999
2.29619,-0.705085,0.0978603
2.31404,-0.710565,-0.126862
2.31246,-0.588149,0.292974
2.35404,-0.477651,-0.0978603
2.34611,-0.484576,-0.041816
2.34643,-0.484642,0.0139253
2.3185,-0.7208,-0.0141113
2.32324,-0.599533,0.0558315
2.28792,-0.8359,0.0283577
2.32608,-0.723157,-0.198855
2.30291,-0.715953,0.0420952
2.3534,-0.48608,-0.15401
2.31994,-0.598681,0.139534
2.32522,-0.600044,-0.111861
2.31917,-0.72101,-0.127281
2.31424,-0.597209,0.293461
2.34844,-0.485056,-0.0976975
2.34449,-0.492353,-0.041816
2.28888,-0.844868,-0.0284042
2.34015,-0.612182,-0.376325
2.31228,-0.727285,-0.0140881
2.32898,-0.609258,0.0560176
2.28513,-0.843483,0.0283577
2.32779,-0.608948,-0.168253
2.32367,-0.730866,-0.198855
2.30052,-0.723586,0.0420952
2.34396,-0.492241,-0.153498
2.31408,-0.60536,0.139301
2.30278,-0.724296,0.0983488
2.32322,-0.607752,-0.111861
2.31677,-0.728697,-0.127281
2.3084,-0.603876,0.292974
2.35073,-0.493663,-0.0978603
2.34276,-0.500534,-0.041816
2.28967,-0.854251,-0.0284508
2.34564,-0.622374,-0.377555
2.30973,-0.735351,-0.0140881
2.32684,-0.617384,0.0560176
2.28967,-0.854251,0.0284508
2.32565,-0.61707,-0.168253
2.3249,-0.740182,-0.19918
2.33431,-0.498728,0.0694682
2.3056,-0.734039,0.0422348
2.34613,-0.501254,-0.153754
2.31195,-0.613434,0.139301
2.29643,-0.731117,0.098186
2.31421,-0.73678,-0.127281
2.34899,-0.501866,-0.0978603
2.33718,-0.507452,-0.0417462
2.28682,-0.861839,-0.0284508
2.29966,-0.740555,-0.0140416
2.32478,-0.625097,0.0560176
2.28308,-0.860428,0.0284042
2.32359,-0.624779,-0.168253
2.33264,-0.506466,0.0694682
2.29935,-0.740454,0.042165
2.34445,-0.509031,-0.153754
2.3099,-0.621097,0.139301
2.31176,-0.74445,-0.127281
2.35122,-0.5105,-0.0980231
2.33636,-0.628212,-0.0562968
2.33921,-0.516877,-0.041816
2.27991,-0.86879,-0.0284042
2.33562,-0.516084,0.0139021
2.31214,-0.753938,-0.0141346
2.31861,-0.632561,0.0559246
2.28365,-0.870215,0.0284508
2.32129,-0.633291,-0.168253
2.31589,-0.755159,-0.198855
2.30042,-0.750117,0.0422348
2.34257,-0.51762,-0.153754
2.32302,-0.633764,0.140231
2.30521,-0.751679,-0.127072
2.34543,-0.518252,-0.0978603
2.34129,-0.525916,-0.0418858
2.2806,-0.878181,-0.0284508
2.3057,-0.760751,-0.0141113
2.32024,-0.641716,0.0560176
2.28433,-0.879618,0.0284974
2.31702,-0.764488,-0.19918
2.29779,-0.758142,0.0422348
2.34465,-0.526669,-0.15401
2.31695,-0.640804,0.139999
2.29623,-0.757629,0.0985116
2.30637,-0.760973,-0.127281
2.34751,-0.527312,-0.0980231
2.33954,-0.533677,-0.0418858
2.31103,-0.647425,0
2.27767,-0.885738,-0.0284508
2.33595,-0.53286,0.0139253
2.30696,-0.769659,-0.0141346
2.3181,-0.649407,0.0560176
2.31826,-0.773429,-0.199506
2.29906,-0.767023,0.0423046
2.33899,-0.533554,-0.153754
2.31865,-0.649561,0.140231
2.29371,-0.765239,0.0985116
2.32007,-0.649957,-0.112233
2.30762,-0.769881,-0.12749
2.34575,-0.535094,-0.0980231
2.33376,-0.540937,-0.041816
2.27457,-0.893684,-0.0284508
2.29668,-0.775149,-0.0140881
2.31582,-0.657495,0.0560176
2.31848,-0.65825,-0.168532
2.31554,-0.781516,-0.199506
2.32534,-0.538985,0.0694682
2.29258,-0.773765,0.0422348
2.33712,-0.541715,-0.153754
2.31637,-0.657651,0.140231
2.28724,-0.771963,0.0983488
2.32163,-0.659143,-0.112419
2.30871,-0.779209,-0.1277
2.33997,-0.542376,-0.0978603
2.32736,-0.660771,-0.0562968
2.27515,-0.903094,-0.0284974
2.32828,-0.548238,0.0139021
2.30531,-0.787038,-0.0141578
2.30967,-0.664469,0.0559246
2.31617,-0.666339,-0.168532
2.32734,-0.548015,0.0695846
2.29743,-0.784347,0.0423744
2.34298,-0.5517,-0.154266
2.31022,-0.664628,0.139999
2.29209,-0.782525,0.0986745
2.30219,-0.785973,-0.12749
2.34195,-0.551457,-0.0980231
2.33372,-0.558554,-0.0418858
2.27554,-0.912916,-0.0285439
2.33404,-0.55863,0.0139486
2.30619,-0.796788,-0.0141811
2.32129,-0.677035,-0.26046
2.3149,-0.675169,0.0561107
2.29454,-0.792762,0.0423744
2.33706,-0.559354,-0.15401
2.31161,-0.674209,0.140231
2.28921,-0.790921,0.0986745
2.31301,-0.67462,-0.112233
2.30307,-0.79571,-0.1277
2.33992,-0.560037,-0.0980231
2.33565,-0.567642,-0.0419556
2.27604,-0.922355,-0.0285905
2.32819,-0.565829,0.0139253
2.3034,-0.804834,-0.0141811
2.32655,-0.687388,-0.261317
2.30869,-0.682112,0.0560176
2.29554,-0.802086,0.0424443
2.3351,-0.567509,-0.15401
2.30924,-0.682274,0.140231
2.28644,-0.798907,0.0986745
2.31065,-0.68269,-0.112233
2.30782,-0.806379,-0.128118
2.33406,-0.567258,-0.0978603
2.32403,-0.686645,-0.0563898
2.32987,-0.574426,-0.0418858
2.27668,-0.931412,-0.0286371
2.3263,-0.573547,0.0139253
2.30072,-0.812468,-0.0141811
2.32044,-0.69396,-0.260888
2.31408,-0.692056,0.0562037
2.31289,-0.6917,-0.168811
2.29286,-0.809694,0.0424443
2.3332,-0.575249,-0.15401
2.31079,-0.691072,0.140464
2.31603,-0.692638,-0.112605
2.2976,-0.811368,-0.1277
2.33993,-0.576908,-0.098186
2.32557,-0.695493,-0.0564829
2.32785,-0.582556,-0.0418858
2.32428,-0.581664,0.0139253
2.29787,-0.820494,-0.0141811
2.30782,-0.69897,0.0561107
2.31428,-0.700926,-0.16909
2.28249,-0.815003,0.0423046
2.30836,-0.699134,0.140464
2.31359,-0.700719,-0.112605
2.30228,-0.82207,-0.128118
2.33403,-0.584102,-0.0980231
2.3193,-0.702448,-0.0563898
2.3258,-0.590678,-0.0418858
2.32224,-0.589773,0.0139253
2.29499,-0.82851,-0.0141811
2.30537,-0.707022,0.0561107
2.31182,-0.709,-0.16909
2.28715,-0.825681,0.0424443
2.32913,-0.591524,-0.15401
2.30591,-0.707188,0.140464
2.30731,-0.707619,-0.112419
2.2994,-0.830101,-0.128118
2.33972,-0.594213,-0.0983488
2.32066,-0.711712,-0.0564829
2.3276,-0.599791,-0.0419556
2.33566,-0.601868,0.0140183
2.29208,-0.836516,-0.0141811
2.31305,-0.718221,-0.260888
2.29907,-0.713879,0.0560176
2.28426,-0.83366,0.0424443
2.33478,-0.601642,-0.154521
2.30724,-0.716417,0.140696
2.30865,-0.716853,-0.112605
2.29648,-0.838122,-0.128118
2.33376,-0.60138,-0.098186
2.31816,-0.719808,-0.0564829
2.32549,-0.607912,-0.0419556
2.3258,-0.607994,0.0139718
2.28915,-0.844511,-0.0141811
2.3257,-0.731061,-0.262602
2.30037,-0.723099,0.0561107
2.31062,-0.726319,-0.169369
2.28133,-0.841629,0.0424443
2.32881,-0.608779,-0.154266
2.30092,-0.723269,0.140464
2.30613,-0.724908,-0.112605
2.29729,-0.847516,-0.128328
2.32778,-0.608512,-0.0980231
2.31945,-0.729095,-0.056576
2.31959,-0.614596,-0.0418858
2.31991,-0.614679,0.0139486
2.29008,-0.853495,-0.0142043
2.30559,-0.733147,0.0562968
2.3082,-0.733977,-0.169369
2.30231,-0.732105,0.140696
2.30752,-0.733762,-0.112791
2.30196,-0.857919,-0.128746
2.33734,-0.619298,-0.0985116
2.32141,-0.623322,-0.0419556
2.32172,-0.623406,0.0139718
2.2835,-0.859675,-0.0141811
2.30314,-0.740788,0.0562968
2.31335,-0.744071,-0.169927
2.31692,-0.622116,0.0698173
2.28319,-0.859558,0.0425839
2.32472,-0.624211,-0.154266
2.29227,-0.73729,0.140231
2.30888,-0.742633,-0.112978
2.29536,-0.864141,-0.128537
2.33142,-0.626009,-0.0983488
2.31076,-0.743237,-0.0564829
2.31922,-0.631421,-0.0419556
2.31953,-0.631507,0.0139718
2.28796,-0.870485,-0.0142276
2.29674,-0.747586,0.0562037
2.31453,-0.753377,-0.170206
2.31087,-0.629149,0.0697009
2.32252,-0.632322,-0.154266
2.29727,-0.747759,0.140696
2.30247,-0.749452,-0.112791
2.32922,-0.634144,-0.0983488
2.31575,-0.753774,-0.056669
2.31689,-0.639917,-0.0419556
2.3172,-0.640004,0.0139718
2.28102,-0.877429,-0.0142043
2.29778,-0.75725,0.0562968
2.30417,-0.759357,-0.169648
2.30855,-0.637615,0.0697009
2.33173,-0.644018,-0.155033
2.29072,-0.754924,0.140464
2.3035,-0.759136,-0.112978
2.33073,-0.64374,-0.0985116
2.29195,-0.764208,0
2.32266,-0.650245,0.0140183
2.28167,-0.886835,-0.0142276
2.3053,-0.768658,-0.169927
2.31016,-0.646747,0.0698173
2.32563,-0.651077,-0.154777
2.30084,-0.767172,-0.112978
2.32462,-0.650795,-0.0983488
2.3103,-0.770326,-0.056669
2.31632,-0.656764,-0.0420254
2.31279,-0.655762,0.0139718
2.27872,-0.894397,-0.0142276
2.29257,-0.772873,0.0562968
2.30273,-0.776298,-0.169927
2.31962,-0.657697,-0.154521
2.31343,-0.779904,-0.113722
2.32629,-0.65959,-0.0985116
2.31152,-0.779261,-0.0567621
2.31433,-0.664935,0.0139951
2.27186,-0.900871,-0.0142043
2.29365,-0.782162,0.0563898
2.30001,-0.784331,-0.169927
2.30571,-0.662457,0.0698173
2.31731,-0.66579,-0.154521
2.32398,-0.667706,-0.0985116
2.305,-0.786034,-0.056669
2.30816,-0.671892,0.0139718
2.29468,-0.791467,0.0564829
2.30103,-0.793656,-0.170206
2.30338,-0.670501,0.0698173
2.3188,-0.67499,-0.154777
2.32163,-0.675815,-0.0985116
2.30224,-0.794075,-0.056669
2.31316,-0.682115,-0.0420952
2.31731,-0.683339,0.0140416
2.28813,-0.798155,0.0563898
2.30869,-0.680799,0.07005
2.31643,-0.68308,-0.154777
2.30514,-0.804087,-0.113722
2.31926,-0.683914,-0.0985116
2.30323,-0.803424,-0.0567621
2.30681,-0.689444,-0.0420254
2.31479,-0.691828,0.0140416
2.29905,-0.81143,-0.170485
2.31391,-0.691566,-0.154777
2.29464,-0.80987,-0.11335
2.31674,-0.69241,-0.0985116
2.2965,-0.810529,-0.056669
2.30822,-0.69865,-0.0420952
2.31236,-0.699903,0.0140416
2.28236,-0.814508,0.0563898
2.29994,-0.696144,0.0699336
2.30309,-0.821904,-0.113908
2.3143,-0.700493,-0.0985116
2.30971,-0.707472,-0.042165
2.31002,-0.707568,0.0140416
2.28341,-0.823429,0.0564829
2.29762,-0.703767,0.0699336
2.30915,-0.7073,-0.154777
2.30035,-0.829537,-0.113908
2.31197,-0.708164,-0.0985116
2.29846,-0.828855,-0.0568551
2.30723,-0.71553,-0.042165
2.31136,-0.716812,0.0140648
2.30278,-0.714152,0.0701664
2.31048,-0.716539,-0.155033
2.30119,-0.83893,-0.114094
2.3133,-0.717413,-0.0986745
2.30077,-0.722783,-0.0420952
2.30872,-0.725278,0.0140648
2.27746,-0.839747,0.0564829
2.30015,-0.722587,0.0701664
2.30784,-0.725002,-0.155033
2.2906,-0.844594,-0.113722
2.31447,-0.727085,-0.0988373
2.29247,-0.845281,-0.0568551
2.30611,-0.732429,-0.0422348
2.31024,-0.733739,0.0140881
2.29406,-0.728599,0.07005
2.30935,-0.733457,-0.155289
2.29168,-0.85318,-0.113908
2.30455,-0.731933,-0.0985116
2.29355,-0.853874,-0.0569482
2.30329,-0.741278,-0.0422348
2.29979,-0.740153,0.0140416
2.29505,-0.738628,0.0701664
2.30652,-0.742319,-0.155289
2.31314,-0.74445,-0.0990001
2.30068,-0.749314,-0.0422348
2.3048,-0.750654,0.0140881
2.29626,-0.747872,0.0702827
2.30391,-0.750366,-0.155289
2.30673,-0.751282,-0.0988373
2.28723,-0.870664,-0.0569482
2.30243,-0.757891,0.0140881
2.2901,-0.753832,0.0701664
2.30815,-0.759775,-0.0990001
2.28821,-0.879279,-0.0570412
2.29946,-0.765819,-0.0423046
2.30356,-0.767187,0.0141113
2.29504,-0.764348,0.0703991
2.30267,-0.766891,-0.155545
2.30549,-0.767827,-0.0990001
2.28513,-0.887261,-0.0570412
2.29677,-0.773841,-0.0423046
2.30087,-0.775223,0.0141113
2.29998,-0.774924,-0.155545
2.299,-0.774594,-0.0988373
2.28574,-0.896693,-0.0571343
2.29378,-0.782655,-0.0423046
2.27175,-0.901283,0
2.29788,-0.784052,0.0141113
2.28938,-0.781151,0.0703991
2.29699,-0.783749,-0.155545
2.30358,-0.785997,-0.0991629
2.28228,-0.905463,-0.0571343
2.29131,-0.789857,-0.0423046
2.29162,-0.789964,0.0140881
2.28691,-0.78834,0.0703991
2.29829,-0.792263,-0.155801
2.3011,-0.79323,-0.0991629
2.27571,-0.911142,-0.0570412
2.28854,-0.79785,-0.0423046
2.29641,-0.800592,0.0141346
2.28415,-0.796318,0.0703991
2.29928,-0.801594,-0.156056
2.30586,-0.803889,-0.0994886
2.28364,-0.923578,-0.0573204
2.29723,-0.810334,0.0141578
2.28498,-0.806014,0.0705155
2.29633,-0.810016,-0.156056
2.29913,-0.811005,-0.0993258
2.29031,-0.816893,-0.0424443
2.29815,-0.819691,0.0141811
2.29349,-0.818027,-0.156056
