1.22497,0.0813619,0.0285671
1.22731,-0.0385702,0.0142953
1.19445,0.0793346,-0.0837078
1.22773,0.0214297,-0.100241
1.21537,0.140623,0.0356068
1.22363,0.0213581,0.0213617
1.19754,0.138559,-0.0772607
1.22931,-0.038633,-0.0716273
1.22721,0.081511,0.0716273
1.2188,0.0212739,0.0496629
1.20803,0.0802366,-0.0563957
1.23412,0.0215412,-0.0646873
1.23597,0.0820929,0.152093
1.21577,0.021221,0.0992647
1.20297,0.139188,-0.0493372
1.21699,0.0808319,-0.028381
1.19631,0.134189,-0.0210127
1.20337,0.0168038,-0.035025
1.21188,0.0169226,-0.242401
1.20961,0.0761026,0
1.21917,-0.0425741,-0.0142021
1.19917,0.0754461,-0.186933
1.22202,0.0170642,-0.155562
1.21238,0.13599,0.00709054
1.23586,0.0172574,-0.00718353
1.22647,0.0771632,-0.132372
1.22194,-0.0426706,-0.114135
1.22924,0.0773374,0.0286602
1.23117,-0.0429928,0.0143418
1.20268,0.0756666,-0.0842658
1.2278,0.0171448,-0.100241
1.21188,0.135935,0.0354904
1.23169,0.0171992,0.0215014
1.19801,0.134379,-0.0772607
1.22119,-0.0426443,-0.0711622
1.22749,0.0772275,0.0716273
1.21887,0.0170202,0.0496629
1.19634,0.0752675,-0.0558373
1.23019,0.0171783,-0.0644779
1.21185,0.0169222,0.0989392
1.20742,0.135434,-0.0495001
1.22525,0.0770863,-0.0285671
1.20071,0.130863,-0.0210825
1.20342,0.0130234,-0.035025
1.20016,0.0129882,-0.240048
1.20186,0.0718251,0
1.21903,-0.0464037,-0.0142021
1.19941,0.0716787,-0.186933
1.2181,0.0131823,-0.155057
1.20882,0.131748,0.00706729
1.23991,0.0134183,-0.00720677
1.20288,0.0718865,-0.129802
1.2218,-0.046509,-0.114135
1.22548,0.073237,0.0285671
1.23102,-0.0468602,0.0143418
1.19893,0.0716501,-0.0839868
1.22784,0.0132878,-0.100241
1.20833,0.131694,0.0353741
1.22774,0.0132866,0.0214316
1.19843,0.130615,-0.0772607
1.22504,-0.0466322,-0.0713947
1.22773,0.0733711,0.0716273
1.21892,0.0131912,0.0496629
1.20853,0.072224,-0.0563957
1.23024,0.0133137,-0.0644779
1.22064,0.0729476,0.150143
1.20791,0.013072,0.0986137
1.20784,0.131641,-0.0495001
1.22548,0.073237,-0.0285671
1.20518,0.12667,-0.0211523
1.21146,0.00845809,-0.0352577
1.20412,0.00840688,-0.240832
1.21011,0.067656,0
1.21885,-0.0510844,-0.0142021
1.19573,0.0668518,-0.186318
1.21814,0.00850475,-0.155057
1.20932,0.127105,0.00706729
1.23195,0.00860116,-0.00716028
1.20315,0.0672669,-0.129802
1.21763,-0.0510335,-0.113764
1.22975,0.0687539,0.0286602
1.23084,-0.0515869,0.0143418
1.19919,0.0670458,-0.0839868
1.2239,0.00854495,-0.0999156
1.20485,0.126635,0.0352577
1.23578,0.00862791,0.0215712
1.20289,0.126429,-0.0775165
1.22884,-0.0515032,-0.0716273
1.22401,0.0684332,0.0713947
1.22296,0.00853837,0.0498257
1.21678,0.0680289,-0.056768
1.23028,0.00858951,-0.0644779
1.20795,0.00843361,0.0986137
1.20039,0.126166,-0.0491744
1.23374,0.0689771,-0.0287532
1.19765,0.121653,-0.0210127
1.20348,0.00420102,-0.035025
1.20807,0.00421703,-0.241617
1.21034,0.0634312,0
1.22665,-0.0557019,-0.0142953
1.1999,0.0628841,-0.186933
1.21023,0.00422457,-0.154047
1.2018,0.122074,0.00702079
1.23597,0.00431443,-0.00718353
1.19941,0.0628583,-0.129373
1.21745,-0.0552839,-0.113764
1.22599,0.0642512,0.0285671
1.22665,-0.0557019,0.0142953
1.19942,0.0628591,-0.0839868
1.22392,0.00427237,-0.0999156
1.20926,0.122833,0.0353741
1.2318,0.00429989,0.0215014
1.19538,0.121423,-0.0770049
1.24062,-0.056336,-0.0723249
1.22823,0.0643689,0.0716273
1.22697,0.00428303,0.0499885
1.20504,0.0631534,-0.0562096
1.22631,0.0042807,-0.0642686
1.22114,0.0639974,0.150143
1.20797,0.0042167,0.0986137
1.2048,0.122379,-0.0493372
1.218,0.0638327,-0.028381
1.19007,0.117107,-0.0208731
1.20749,0.00042178,-0.0351414
1.20808,0.000421985,-0.241617
1.21453,0.0598256,0
1.22647,-0.059555,-0.0142953
1.20009,0.0591144,-0.186933
1.21817,0.000425512,-0.155057
1.20615,0.11869,0.00704404
1.22798,0.000428938,-0.00713703
1.21549,0.0598728,-0.131087
1.22522,-0.0594944,-0.114507
1.23417,0.0607931,0.0287532
1.23446,-0.059943,0.0143884
1.19961,0.0590909,-0.0839868
1.22393,0.000427523,-0.0999156
1.20964,0.119033,0.0353741
1.23181,0.000430277,0.0215014
1.19973,0.118058,-0.0772607
1.22448,-0.0594583,-0.0713947
1.22843,0.0605102,0.0716273
1.22698,0.000428589,0.0499885
1.20523,0.0593676,-0.0562096
1.23031,0.000429752,-0.0644779
1.22927,0.0605516,0.151118
1.20798,0.000421952,0.0986137
1.20517,0.118593,-0.0493372
1.22618,0.0603996,-0.0285671
1.19049,0.112745,-0.0208731
1.19949,-0.00397711,-0.0349086
1.20807,-0.00400557,-0.241617
1.20675,0.0550097,0
1.22225,-0.063841,-0.0142487
1.2003,0.0547158,-0.186933
1.2142,-0.00402589,-0.154552
1.21056,0.114646,0.00706729
1.23197,-0.00408483,-0.00716028
1.20378,0.0548744,-0.129802
1.225,-0.0639844,-0.114507
1.23039,0.0560874,0.0286602
1.23823,-0.0646755,0.0144349
1.20381,0.0548757,-0.0842658
1.22392,-0.00405813,-0.0999156
1.21007,0.114599,0.0353741
1.2398,-0.00411079,0.021641
1.19618,0.113284,-0.0770049
1.22824,-0.0641539,-0.0716273
1.22864,0.0560077,0.0716273
1.22298,-0.00405501,0.0498257
1.20145,0.0547681,-0.0560235
1.2303,-0.0040793,-0.0644779
1.22551,0.0558652,0.150631
1.21994,-0.00404491,0.0995901
1.21356,0.114929,-0.0496629
1.22775,-0.00407084,0.223852
1.2224,0.0557232,-0.0284741
1.19484,0.10916,-0.0209429
1.20746,-0.00800809,-0.0351414
1.20413,-0.00798597,-0.240832
1.21092,0.0511762,0
1.22203,-0.0678941,-0.0142487
1.19653,0.0505679,-0.186318
1.21814,-0.00807894,-0.155057
1.21492,0.110994,0.00709054
1.22795,-0.00814398,-0.00713703
1.20793,0.0510498,-0.13023
1.21683,-0.0676048,-0.113764
1.22657,0.0518378,0.0285671
1.23401,-0.0685597,0.0143884
1.2,0.0507146,-0.0839868
1.22789,-0.00814356,-0.100241
1.21443,0.110949,0.0354904
1.23578,-0.00819593,0.0215712
1.2045,0.110042,-0.0775165
1.236,-0.0686699,-0.0720924
1.21685,0.0514269,0.0709296
1.22296,-0.00811087,0.0498257
1.20961,0.0511208,-0.0563957
1.23028,-0.00815945,-0.0644779
1.22569,0.0518006,0.150631
1.21593,-0.00806424,0.0992647
1.20597,0.110177,-0.0493372
1.22657,0.0518378,-0.0285671
1.20318,0.105688,-0.0210825
1.20343,-0.0121827,-0.035025
1.20801,-0.0122291,-0.241617
1.2031,0.0466388,0
1.2178,-0.0719239,-0.0142021
1.20064,0.0465437,-0.186933
1.21811,-0.0123313,-0.155057
1.21132,0.106402,0.00706729
1.23592,-0.0125116,-0.00718353
1.20412,0.0466787,-0.129802
1.22453,-0.0723218,-0.114507
1.23873,0.0480203,0.0288463
1.23377,-0.0728671,0.0143884
1.20415,0.0466798,-0.0842658
1.23184,-0.0124703,-0.100566
1.21082,0.106359,0.0353741
1.23575,-0.0125099,0.0215712
1.2009,0.105488,-0.0772607
1.23176,-0.0727488,-0.0718598
1.22899,0.0476427,0.0716273
1.22292,-0.0123801,0.0498257
1.20179,0.0465883,-0.0560235
1.23025,-0.0124542,-0.0644779
1.22587,0.0475215,0.150631
1.20792,-0.0122282,0.0986137
1.20635,0.105966,-0.0493372
1.24344,-0.0125877,0.226722
1.22675,0.0475556,-0.0285671
1.20354,0.101488,-0.0210825
1.20738,-0.0164376,-0.0351414
1.20404,-0.0163922,-0.240832
1.19925,0.0422982,0
1.22552,-0.0766736,-0.0142953
1.2008,0.0423527,-0.186933
1.21806,-0.016583,-0.155057
1.21168,0.102174,0.00706729
1.23986,-0.0168799,-0.00720677
1.22018,0.0430362,-0.131515
1.22427,-0.0765956,-0.114507
1.2349,0.0435553,0.0287532
1.24149,-0.0776726,0.0144815
1.2083,0.0426171,-0.0845448
1.22382,-0.0166614,-0.0999156
1.21119,0.102132,0.0353741
1.2357,-0.0168231,0.0215712
1.20126,0.101295,-0.0772607
1.22752,-0.0767984,-0.0716273
1.22915,0.0433527,0.0716273
1.23087,-0.0167573,0.0501514
1.20993,0.0426749,-0.0563957
1.23419,-0.0168026,-0.0646873
1.22999,0.0433823,0.151118
1.20273,0.101419,-0.0491744
1.2269,0.0432734,-0.0285671
1.19193,0.0963198,-0.0208731
1.20331,-0.0205834,-0.035025
1.21574,-0.0207959,-0.243185
1.21139,0.0384931,0
1.22125,-0.0806871,-0.0142487
1.19699,0.0380355,-0.186318
1.21799,-0.0208344,-0.155057
1.20405,0.0972994,0.00702079
1.2358,-0.021139,-0.00718353
1.2084,0.038398,-0.13023
1.224,-0.0808684,-0.114507
1.21905,0.0387367,0.028381
1.23323,-0.0814781,0.0143884
1.20445,0.0382726,-0.0842658
1.23969,-0.0212057,-0.101217
1.21154,0.0979039,0.0353741
1.23163,-0.0210678,0.0215014
1.20161,0.0971018,-0.0772607
1.22326,-0.0808193,-0.0713947
1.2293,0.0390621,0.0716273
1.2308,-0.0210535,0.0501514
1.20608,0.0383245,-0.0562096
1.23413,-0.0211104,-0.0646873
1.22617,0.0389627,0.150631
1.2078,-0.0206602,0.0986137
1.20706,0.0975423,-0.0493372
1.23938,-0.0212004,0.226005
1.22705,0.0389907,-0.0285671
1.19625,0.0924665,-0.0209429
1.19924,-0.0247016,-0.0349086
1.19998,-0.0247168,-0.240048
1.20752,0.0341509,0
1.21698,-0.0846722,-0.0142021
1.19316,0.033745,-0.185703
1.21791,-0.0250862,-0.155057
1.21635,0.0940203,0.00709054
1.23572,-0.025453,-0.00718353
1.20455,0.0340669,-0.129802
1.21974,-0.0848643,-0.114135
1.22718,0.034707,0.0285671
1.23693,-0.0860603,0.0144349
1.20059,0.0339549,-0.0839868
1.22765,-0.0252869,-0.100241
1.21187,0.093674,0.0353741
1.22355,-0.0252024,0.0213617
1.20194,0.0929065,-0.0772607
1.23093,-0.0856434,-0.0718598
1.22942,0.0347705,0.0716273
1.22273,-0.0251854,0.0498257
1.20222,0.034001,-0.0560235
1.22606,-0.025254,-0.0642686
1.23027,0.0347943,0.151118
1.21171,-0.0249585,0.0989392
1.20341,0.0930199,-0.0491744
1.23537,-0.0254458,0.225287
1.21519,0.0343678,-0.028288
1.20454,0.0888791,-0.0210825
1.20314,-0.0289836,-0.035025
1.20772,-0.029094,-0.241617
1.21163,0.0300351,0
1.22864,-0.0897941,-0.0143418
1.19723,0.0296781,-0.186318
1.22178,-0.0294327,-0.155562
1.21268,0.0894798,0.00706729
1.22762,-0.0295733,-0.00713703
1.20466,0.0298623,-0.129802
1.2234,-0.0894115,-0.114507
1.22729,0.0304233,0.0285671
1.22465,-0.0895026,0.0142953
1.20868,0.0299619,-0.0845448
1.23154,-0.0296678,-0.100566
1.21219,0.0894434,0.0353741
1.23945,-0.0298583,0.021641
1.20226,0.0887106,-0.0772607
1.22664,-0.0896483,-0.0716273
1.22555,0.0303801,0.0713947
1.22663,-0.0295493,0.0499885
1.20233,0.0298045,-0.0560235
1.22596,-0.0295333,-0.0642686
1.22641,0.0304015,0.150631
1.21959,-0.0293798,0.0995901
1.20771,0.089113,-0.0493372
1.24314,-0.0299471,0.226722
1.22729,0.0304233,-0.0285671
1.19288,0.0838324,-0.0208731
1.20303,-0.0331835,-0.035025
1.20762,-0.0333099,-0.241617
1.20773,0.02572,0
1.22433,-0.0937772,-0.0142953
1.19732,0.0254984,-0.186318
1.22167,-0.0336977,-0.155562
1.22097,0.0858067,0.00711378
1.23951,-0.0341896,-0.00720677
1.20476,0.0256568,-0.129802
1.23103,-0.0942901,-0.115251
1.23539,0.0263091,0.0287532
1.22832,-0.0940827,0.0143418
1.20478,0.0256574,-0.0842658
1.23143,-0.0339669,-0.100566
1.20851,0.0849309,0.0352577
1.22735,-0.0338541,0.0214316
1.19858,0.0842332,-0.0770049
1.23031,-0.0942349,-0.0718598
1.22964,0.0261866,0.0716273
1.22652,-0.0338312,0.0499885
1.20642,0.0256922,-0.0562096
1.22186,-0.0337027,-0.0640592
1.22651,0.02612,0.150631
1.22346,-0.033747,0.0999156
1.20403,0.0846163,-0.0491744
1.24696,-0.0343952,0.22744
1.23139,0.0262239,-0.0286602
1.20114,0.0802009,-0.0210127
1.2109,-0.037631,-0.0352577
1.21141,-0.0376469,-0.242401
1.20781,0.0215041,0
1.21602,-0.0974116,-0.0142021
1.20136,0.0213892,-0.186933
1.21758,-0.0378387,-0.155057
1.21727,0.0812777,0.00709054
1.23538,-0.0383918,-0.00718353
1.22074,0.0217344,-0.131515
1.21878,-0.0976325,-0.114135
1.23547,0.0219966,0.0287532
1.23197,-0.0986891,0.0143884
1.20487,0.0214517,-0.0842658
1.22732,-0.0381413,-0.100241
1.21278,0.0809783,0.0353741
1.23122,-0.0382624,0.0215014
1.19887,0.0800489,-0.0770049
1.22599,-0.09821,-0.0716273
1.23371,0.0219653,0.0718598
1.23438,-0.0383606,0.0503142
1.2105,0.021552,-0.0563957
1.23371,-0.0383398,-0.0646873
1.22659,0.0218386,0.150631
1.21537,-0.0377698,0.0992647
1.2083,0.0806792,-0.0493372
1.2429,-0.0386254,0.226722
1.23547,0.0219966,-0.0287532
1.19343,0.0755026,-0.0208731
1.20677,-0.0417195,-0.0351414
1.21127,-0.0418753,-0.242401
1.20788,0.0172879,0
1.22365,-0.102322,-0.0142953
1.20537,0.0172521,-0.187547
1.21744,-0.0420886,-0.155057
1.20956,0.076523,0.00704404
1.23524,-0.0427039,-0.00718353
1.19695,0.0171316,-0.128945
1.22637,-0.10255,-0.114879
1.23154,0.0176266,0.0286602
1.23162,-0.102989,0.0143884
1.20892,0.0173029,-0.0845448
1.22718,-0.0424253,-0.100241
1.21705,0.0769968,0.0354904
1.23108,-0.0425599,0.0215014
1.20312,0.0761156,-0.0772607
1.22564,-0.102489,-0.0716273
1.2258,0.0175444,0.0713947
1.23424,-0.0426692,0.0503142
1.20657,0.0172692,-0.0562096
1.22958,-0.0425081,-0.0644779
1.22666,0.0175568,0.150631
1.21921,-0.0421498,0.0995901
1.21656,0.0769656,-0.0496629
1.24276,-0.0429637,0.226722
1.22754,0.0175694,-0.0285671
1.19768,0.0715749,-0.0209429
1.19862,-0.0456275,-0.0349086
1.21504,-0.0462524,-0.243185
1.20793,0.0130716,0
1.23125,-0.107287,-0.0143884
1.20543,0.0130445,-0.187547
1.21729,-0.046338,-0.155057
1.21781,0.0727777,0.00709054
1.23908,-0.0471676,-0.00720677
1.20496,0.0130394,-0.129802
1.21807,-0.106139,-0.114135
1.23159,0.0133277,0.0286602
1.23922,-0.107982,0.0144815
1.21297,0.0131261,-0.0848239
1.23499,-0.047012,-0.100892
1.20534,0.0720325,0.0351414
1.23492,-0.047009,0.0215712
1.20338,0.0719155,-0.0772607
1.22925,-0.107113,-0.0718598
1.22585,0.0132655,0.0713947
1.21811,-0.0463691,0.0496629
1.20662,0.0130574,-0.0562096
1.22543,-0.0466479,-0.0642686
1.22275,0.0132319,0.150143
1.21507,-0.0462537,0.0992647
1.20884,0.0722417,-0.0493372
1.24653,-0.0474512,0.22744
1.2236,0.0132411,-0.0284741
1.19792,0.0673938,-0.0209429
1.20245,-0.0499772,-0.035025
1.20703,-0.0501676,-0.241617
1.20797,0.00885503,0
1.23485,-0.111946,-0.0144349
1.20547,0.00883669,-0.187547
1.22109,-0.0507516,-0.155562
1.21805,0.0685263,0.00709054
1.23491,-0.0513264,-0.00718353
1.21295,0.00889155,-0.130658
1.22166,-0.11075,-0.114507
1.23163,0.00902851,0.0286602
1.22689,-0.111224,0.0143418
1.21301,0.00889196,-0.0848239
1.23482,-0.0513226,-0.100892
1.21756,0.0684984,0.0354904
1.23874,-0.0514855,0.021641
1.20362,0.0677145,-0.0772607
1.22887,-0.111403,-0.0718598
1.23787,0.00907422,0.0720924
1.22592,-0.0509528,0.0499885
1.20666,0.00884543,-0.0562096
1.22925,-0.051091,-0.0644779
1.21484,0.00890543,0.149168
1.22287,-0.0508259,0.0999156
1.21307,0.0682461,-0.0495001
1.24243,-0.0516387,0.226722
1.23163,0.00902851,-0.0286602
1.20216,0.0632127,-0.0210127
1.20626,-0.0545648,-0.0351414
1.21076,-0.0547685,-0.242401
1.21599,0.00445686,0
1.22249,-0.115344,-0.0142953
1.20154,0.00440389,-0.186933
1.21693,-0.0550475,-0.155057
1.2143,0.0638514,0.00706729
1.2467,-0.0563945,-0.00725327
1.22093,0.00447496,-0.131515
1.22521,-0.115601,-0.114879
1.23566,0.00452894,0.0287532
1.23443,-0.116471,0.0144349
1.20904,0.00443138,-0.0845448
1.23064,-0.055668,-0.100566
1.2178,0.0640354,0.0354904
1.24654,-0.0563868,0.0217806
1.20785,0.0635121,-0.0775165
1.23243,-0.116282,-0.0720924
1.22991,0.00450787,0.0716273
1.22573,-0.0554457,0.0499885
1.21467,0.00445204,-0.0565818
1.22905,-0.0555961,-0.0644779
1.23075,0.00451095,0.151118
1.2187,-0.0551275,0.0995901
1.20533,0.0633798,-0.0491744
1.24616,-0.0563699,0.22744
1.23566,0.00452894,-0.0287532
1.20235,0.0594357,-0.0210127
1.21007,-0.0585473,-0.0352577
1.19024,0.00062321,-0.333195
1.21058,-0.0585719,-0.242401
1.208,0.000632507,0
1.23008,-0.11996,-0.0143884
1.19759,0.000627058,-0.186318
1.21675,-0.0588703,-0.155057
1.2145,0.0600362,0.00706729
1.24652,-0.0603108,-0.00725327
1.22889,0.000643446,-0.132372
1.22484,-0.119449,-0.114879
1.23567,0.000646993,0.0287532
1.23406,-0.120348,0.0144349
1.21304,0.000635145,-0.0848239
1.2225,-0.0591485,-0.0999156
1.22199,0.0604067,0.0356068
1.23437,-0.0597228,0.0215712
1.20007,0.0593231,-0.0770049
1.23206,-0.120153,-0.0720924
1.2379,0.000648164,0.0720924
1.23353,-0.0596824,0.0503142
1.21069,0.000633914,-0.0563957
1.23685,-0.0598431,-0.0648966
1.22679,0.000642344,0.150631
1.21055,-0.0585705,0.0989392
1.21351,0.0599875,-0.0495001
1.24205,-0.0600944,0.226722
1.23167,0.000644899,-0.0286602
1.19456,0.0548714,-0.0208731
1.21385,-0.062978,-0.0353741
1.21429,-0.0630005,-0.243185
1.21599,-0.00360794,0
1.22568,-0.123851,-0.0143418
1.20154,-0.00356505,-0.186933
1.2205,-0.0633228,-0.155562
1.2147,0.0557965,0.00706729
1.2463,-0.0646616,-0.00725327
1.21298,-0.00359899,-0.130658
1.22838,-0.124124,-0.115251
1.24366,-0.00369002,0.0289393
1.24159,-0.12546,0.0145281
1.20904,-0.00358731,-0.0845448
1.23423,-0.0640352,-0.100892
1.20622,0.0554069,0.0351414
1.23016,-0.063824,0.0215014
1.20426,0.0553169,-0.0772607
1.22766,-0.124052,-0.0718598
1.22592,-0.00363738,0.0713947
1.22933,-0.0637808,0.0501514
1.21867,-0.00361589,-0.056768
1.22866,-0.0637462,-0.0644779
1.23075,-0.00365172,0.151118
1.2183,-0.0632089,0.0995901
1.20972,0.0555678,-0.0493372
1.24183,-0.0644296,0.226722
1.23166,-0.00365442,-0.0286602
1.19474,0.0507012,-0.0208731
1.20564,-0.0667726,-0.0351414
1.19792,-0.00773595,-0.335352
1.21406,-0.0672388,-0.243185
1.21597,-0.00785253,0
1.22921,-0.128545,-0.0143884
1.20152,-0.00775919,-0.186933
1.22027,-0.0675827,-0.155562
1.21888,0.0517256,0.00709054
1.24208,-0.0687904,-0.00723002
1.20103,-0.007756,-0.129373
1.22794,-0.128411,-0.115251
1.23164,-0.0079537,0.0286602
1.23717,-0.129377,0.0144815
1.20104,-0.0077561,-0.0839868
1.23002,-0.0681226,-0.100566
1.22238,0.0518742,0.0356068
1.23791,-0.06856,0.021641
1.20843,0.0512821,-0.0775165
1.22722,-0.128336,-0.0718598
1.22989,-0.0079424,0.0716273
1.22111,-0.0676295,0.0498257
1.20667,-0.00779242,-0.0562096
1.23641,-0.0684764,-0.0648966
1.23073,-0.00794783,0.151118
1.22604,-0.0679021,0.100241
1.2139,0.0515142,-0.0495001
1.2416,-0.068764,0.226722
1.23164,-0.0079537,-0.0286602
1.20291,0.0468417,-0.0210127
1.2054,-0.0709807,-0.0351414
1.19404,-0.0118791,-0.334273
1.20599,-0.0710151,-0.241617
1.20794,-0.0120174,0
1.23273,-0.133265,-0.0144349
1.20544,-0.0119926,-0.187547
1.22399,-0.0720751,-0.156068
1.21106,0.0471594,0.00704404
1.23384,-0.0726554,-0.00718353
1.20497,-0.0119879,-0.129802
1.22352,-0.132269,-0.114879
1.22761,-0.0122131,0.0285671
1.22876,-0.132835,0.0143884
1.20899,-0.0120279,-0.0845448
1.24171,-0.0731188,-0.101543
1.21456,0.0472958,0.0353741
1.22968,-0.0724105,0.0215014
1.2086,0.0470636,-0.0775165
1.22676,-0.132619,-0.0718598
1.22986,-0.0122355,0.0716273
1.22486,-0.0721265,0.0499885
1.20663,-0.0120044,-0.0562096
1.23217,-0.0725571,-0.0646873
1.22276,-0.0121648,0.150143
1.21783,-0.0717127,0.0995901
1.21407,0.0472766,-0.0495001
1.23742,-0.0728662,0.226005
1.23161,-0.0122529,-0.0286602
1.19507,0.0423592,-0.0208731
1.21712,-0.0759347,-0.0354904
1.19784,-0.0160988,-0.335352
1.20573,-0.0752244,-0.241617
1.21189,-0.0162876,0
1.22431,-0.136679,-0.0143418
1.19749,-0.016094,-0.186318
1.22373,-0.0763472,-0.156068
1.21921,0.0432151,0.00709054
1.24556,-0.0777091,-0.00725327
1.19697,-0.016087,-0.128945
1.22701,-0.136981,-0.115251
1.23555,-0.0166056,0.0287532
1.23226,-0.137567,0.0144349
1.21293,-0.0163016,-0.0848239
1.22951,-0.076708,-0.100566
1.21472,0.0430559,0.0353741
1.2414,-0.0774495,0.0217108
1.20078,0.0425617,-0.0770049
1.23423,-0.137787,-0.0723249
1.2338,-0.016582,0.0718598
1.2246,-0.0764017,0.0499885
1.21457,-0.0163237,-0.0565818
1.23191,-0.0768577,-0.0646873
1.23065,-0.0165397,0.151118
1.2136,-0.075715,0.0992647
1.20624,0.0427552,-0.0491744
1.25287,-0.0781653,0.228875
1.23955,-0.0166594,-0.0288463
1.2112,0.0386982,-0.0211523
1.20488,-0.0793941,-0.0351414
1.19392,-0.0202147,-0.334273
1.22112,-0.0804643,-0.244754
1.21183,-0.0205178,0
1.2278,-0.14141,-0.0143884
1.20137,-0.0203408,-0.186933
1.22345,-0.0806183,-0.156068
1.21136,0.0387035,0.00704404
1.24129,-0.0817934,-0.00723002
1.20486,-0.0203998,-0.129802
1.23444,-0.142174,-0.115994
1.23549,-0.0209184,0.0287532
1.23575,-0.142325,0.0144815
1.21685,-0.0206029,-0.0851029
1.22924,-0.0809993,-0.100566
1.21087,0.0386877,0.0352577
1.24112,-0.0817823,0.0217108
1.20092,0.0383699,-0.0770049
1.23771,-0.142551,-0.0725575
1.23373,-0.0208887,0.0718598
1.2323,-0.0812014,0.0503142
1.2225,-0.0206985,-0.0569541
1.23562,-0.0814201,-0.0648966
1.23058,-0.0208353,0.151118
1.2173,-0.0802129,0.0995901
1.21437,0.0387997,-0.0495001
1.24866,-0.0822794,0.228157
1.23949,-0.0209861,-0.0288463
1.19533,0.0340151,-0.0208731
1.21257,-0.0841531,-0.0353741
1.19385,-0.0243821,-0.334273
1.21692,-0.0844547,-0.24397
1.20775,-0.0246661,0
1.23127,-0.146166,-0.0144349
1.20525,-0.024615,-0.187547
1.22317,-0.0848885,-0.156068
1.21149,0.0344748,0.00704404
1.24099,-0.0861258,-0.00723002
1.22466,-0.0250114,-0.131944
1.23393,-0.146482,-0.115994
1.23941,-0.0253126,0.0288463
1.23524,-0.146638,0.0144815
1.2088,-0.0246875,-0.0845448
1.24088,-0.0861177,-0.101543
1.21899,0.0346882,0.0354904
1.24083,-0.0861142,0.0217108
1.20504,0.0342912,-0.0772607
1.22531,-0.145458,-0.0718598
1.22167,-0.0249505,0.0711622
1.236,-0.0857792,0.050477
1.21043,-0.0247209,-0.0563957
1.23533,-0.0857327,-0.0648966
1.22653,-0.0250497,0.150631
1.22099,-0.0847376,0.0999156
1.2145,0.0345605,-0.0495001
1.24837,-0.0866376,0.228157
1.23941,-0.0253126,-0.0288463
1.20828,-0.0880945,-0.0352577
1.1899,-0.0284572,-0.333195
1.2127,-0.0884168,-0.243185
1.21965,-0.0291687,0
1.23075,-0.150463,-0.0144349
1.20515,-0.0288219,-0.187547
1.22682,-0.0894461,-0.156573
1.2116,0.0302457,0.00704404
1.24069,-0.0904572,-0.00723002
1.22059,-0.0291911,-0.131515
1.22156,-0.149339,-0.114879
1.23531,-0.0295432,0.0287532
1.23869,-0.151434,0.0145281
1.21668,-0.0290976,-0.0851029
1.23659,-0.0901588,-0.101217
1.2231,0.0305327,0.0356068
1.2485,-0.0910266,0.0218504
1.20914,0.0301843,-0.0775165
1.23272,-0.150704,-0.0723249
1.23356,-0.0295012,0.0718598
1.22772,-0.0895119,0.0501514
1.21034,-0.028946,-0.0563957
1.23104,-0.0897538,-0.0646873
1.23041,-0.0294258,0.151118
1.22466,-0.0892891,0.100241
1.2266,0.0306201,-0.0499885
1.24806,-0.0909947,0.228157
1.22732,-0.029352,-0.0285671
1.20354,0.025631,-0.0210127
1.20795,-0.0925225,-0.0352577
1.19364,-0.0329244,-0.334273
1.20455,-0.0922619,-0.241617
1.21554,-0.0335284,0
1.23019,-0.154973,-0.0144349
1.20899,-0.0333478,-0.188162
1.21857,-0.093336,-0.155562
1.2197,0.0259751,0.00709054
1.24433,-0.0953094,-0.00725327
1.20855,-0.0333356,-0.13023
1.22495,-0.154313,-0.115251
1.23919,-0.0341809,0.0288463
1.23813,-0.155973,0.0145281
1.22055,-0.0336668,-0.0853819
1.23625,-0.0946905,-0.101217
1.2232,0.0260497,0.0356068
1.23619,-0.0946856,0.021641
1.20126,0.0255824,-0.0770049
1.23612,-0.15572,-0.0725575
1.22546,-0.033802,0.0713947
1.22738,-0.0940111,0.0501514
1.21422,-0.0334921,-0.0565818
1.23867,-0.0948753,-0.0651059
1.23029,-0.0339353,0.151118
1.22035,-0.0934726,0.0999156
1.21871,0.025954,-0.0496629
1.25164,-0.0958689,0.228875
1.2352,-0.0340706,-0.0287532
1.20362,0.0216397,-0.0210127
1.21162,-0.0968462,-0.0353741
1.18967,-0.0367635,-0.333195
1.21205,-0.0968808,-0.243185
1.21142,-0.0374355,0
1.22967,-0.159052,-0.0144349
1.19702,-0.0369906,-0.186318
1.22221,-0.0976925,-0.156068
1.21578,0.0218584,0.00706729
1.24401,-0.0994352,-0.00725327
1.20843,-0.0373431,-0.13023
1.22838,-0.158885,-0.115622
1.23907,-0.03829,0.0288463
1.23761,-0.160078,0.0145281
1.21246,-0.0374676,-0.0848239
1.23196,-0.0984719,-0.100892
1.21529,0.0218495,0.0353741
1.23986,-0.0991031,0.0217108
1.20533,0.0216705,-0.0772607
1.23164,-0.159306,-0.0723249
1.22933,-0.0379889,0.0716273
1.23105,-0.0983991,0.0503142
1.22608,-0.0378887,-0.0571402
1.23436,-0.0986641,-0.0648966
1.22223,-0.0377696,0.150143
1.22004,-0.097519,0.0999156
1.21879,0.0219125,-0.0496629
1.24739,-0.0997055,0.228157
1.22708,-0.0379195,-0.0285671
1.20369,0.0174382,-0.0210127
1.21128,-0.101075,-0.0353741
1.20109,-0.0413133,-0.33643
1.21171,-0.101111,-0.243185
1.21928,-0.041939,0
1.22118,-0.162289,-0.0143418
1.20479,-0.0414405,-0.187547
1.22186,-0.101958,-0.156068
1.21585,0.0176143,0.00706729
1.24764,-0.10411,-0.00727652
1.22022,-0.0419712,-0.131515
1.23177,-0.163697,-0.115994
1.23893,-0.042615,0.0288463
1.241,-0.164924,0.0145746
1.20833,-0.0415625,-0.0845448
1.23161,-0.102772,-0.100892
1.21936,0.0176651,0.0354904
1.23552,-0.103098,0.021641
1.20141,0.0174051,-0.0770049
1.24295,-0.165182,-0.0730226
1.23717,-0.0425544,0.0720924
1.2307,-0.102696,0.0503142
1.21796,-0.0418936,-0.056768
1.23799,-0.103304,-0.0651059
1.22606,-0.0421723,0.150631
1.21969,-0.101777,0.0999156
1.21087,0.0175421,-0.0493372
1.24312,-0.103732,0.22744
1.23893,-0.042615,-0.0288463
1.19974,0.0131924,-0.0209429
1.2149,-0.105649,-0.0354904
1.20479,-0.0456515,-0.337508
1.21526,-0.10568,-0.24397
1.22312,-0.0463463,0
1.22457,-0.167092,-0.0143884
1.21648,-0.0460947,-0.189392
1.21754,-0.105879,-0.155562
1.21191,0.0133261,0.00704404
1.2393,-0.107771,-0.00723002
1.21211,-0.0459291,-0.130658
1.22724,-0.167457,-0.115622
1.23478,-0.046788,0.0287532
1.23249,-0.168173,0.0144815
1.21217,-0.0459312,-0.0848239
1.23521,-0.107416,-0.101217
1.22341,0.0134526,0.0356068
1.24312,-0.108103,0.0217806
1.20146,0.0132113,-0.0770049
1.24236,-0.16952,-0.0730226
1.23701,-0.0468727,0.0720924
1.22635,-0.106645,0.0501514
1.22579,-0.0464474,-0.0571402
1.22967,-0.106933,-0.0646873
1.23384,-0.0467525,0.151605
1.21933,-0.106034,0.0999156
1.21492,0.0133593,-0.0495001
1.25059,-0.108752,0.228875
1.23878,-0.0469394,-0.0288463
1.20378,0.00903446,-0.0210127
1.18922,-0.0492195,-0.333195
1.20316,-0.108861,-0.241617
1.21096,-0.0501192,0
1.2319,-0.172475,-0.0144815
1.20842,-0.0500138,-0.188162
1.22902,-0.111201,-0.157078
1.21994,0.00915575,0.00709054
1.23892,-0.112096,-0.00723002
1.20797,-0.0499955,-0.13023
1.22665,-0.17174,-0.115622
1.23461,-0.0510979,0.0287532
1.23586,-0.173029,0.0145281
1.212,-0.0501622,-0.0848239
1.23483,-0.111727,-0.101217
1.22345,0.00918204,0.0356068
1.23477,-0.111721,0.021641
1.2015,0.00901733,-0.0770049
1.23385,-0.172748,-0.0725575
1.22886,-0.0508601,0.0716273
1.22995,-0.111285,0.0503142
1.21764,-0.0503954,-0.056768
1.23326,-0.111585,-0.0648966
1.22574,-0.0507307,0.150631
1.21895,-0.11029,0.0999156
1.21496,0.00911833,-0.0495001
1.2502,-0.113117,0.228875
1.21863,-0.0504364,-0.028381
1.20781,0.00505929,-0.0210825
1.20619,-0.113169,-0.0352577
1.19675,-0.0535069,-0.335352
1.2106,-0.113583,-0.243185
1.21079,-0.0541347,0
1.23528,-0.177126,-0.0145281
1.20824,-0.0540208,-0.188162
1.2247,-0.114905,-0.156573
1.21597,0.00509348,0.00706729
1.24252,-0.116578,-0.00725327
1.21575,-0.0543562,-0.131087
1.22607,-0.175806,-0.115622
1.23443,-0.0551917,0.0287532
1.2432,-0.178262,0.0146212
1.21581,-0.0543592,-0.0851029
1.23842,-0.116193,-0.101543
1.21947,0.00510816,0.0354904
1.23837,-0.116188,0.0217108
1.20552,0.0050497,-0.0772607
1.23723,-0.177406,-0.0727901
1.2247,-0.0547565,0.0713947
1.22958,-0.115363,0.0503142
1.20948,-0.054076,-0.0563957
1.23686,-0.116047,-0.0651059
1.22953,-0.0549725,0.151118
1.21461,-0.113959,0.0995901
1.21098,0.00507261,-0.0493372
1.25373,-0.11763,0.229592
1.23443,-0.0551917,-0.0287532
1.21182,0.000846019,-0.0211523
1.20579,-0.117379,-0.0352577
1.19271,-0.0574986,-0.334273
1.2102,-0.117808,-0.243185
1.21059,-0.0583608,0
1.22278,-0.179693,-0.0143884
1.20015,-0.0578574,-0.186933
1.22429,-0.11918,-0.156573
1.22798,0.000857304,0.00713703
1.24609,-0.121302,-0.00727652
1.20363,-0.0580251,-0.129802
1.22939,-0.180664,-0.115994
1.23423,-0.0595003,0.0287532
1.23466,-0.181437,0.0145281
1.21163,-0.0584108,-0.0848239
1.23007,-0.119743,-0.100892
1.21948,0.000851372,0.0354904
1.24194,-0.120898,0.0217806
1.21351,0.000847202,-0.0777724
1.23265,-0.181143,-0.0725575
1.23647,-0.059608,0.0720924
1.23712,-0.120429,0.0506399
1.21726,-0.0586824,-0.056768
1.23645,-0.120364,-0.0651059
1.2214,-0.0588816,0.150143
1.21817,-0.118584,0.0999156
1.21499,0.000848237,-0.0495001
1.24548,-0.121243,0.228157
1.23823,-0.0596929,-0.0288463
1.19981,-0.00335053,-0.0209429
1.20935,-0.121988,-0.0353741
1.20789,-0.0624572,-0.338587
1.20978,-0.122032,-0.243185
1.21038,-0.0625862,0
1.23006,-0.185151,-0.0144815
1.21178,-0.0626586,-0.188777
1.21992,-0.123054,-0.156068
1.20797,-0.00337332,0.00702079
1.24566,-0.125651,-0.00727652
1.22328,-0.0632531,-0.131944
1.23269,-0.185547,-0.116366
1.242,-0.0642212,0.0289393
1.24192,-0.186937,0.0146212
1.2154,-0.0628458,-0.0851029
1.23362,-0.124436,-0.101217
1.21948,-0.00340544,0.0354904
1.23355,-0.12443,0.021641
1.20552,-0.00336647,-0.0772607
1.23596,-0.186039,-0.0727901
1.24024,-0.06413,0.0723249
1.23669,-0.124747,0.0506399
1.21705,-0.0629311,-0.056768
1.23602,-0.124679,-0.0651059
1.22912,-0.0635548,0.151118
1.21378,-0.122435,0.0995901
1.21499,-0.0033929,-0.0495001
1.24505,-0.12559,0.228157
1.23801,-0.0640147,-0.0288463
1.20779,-0.00758888,-0.0210825
1.22085,-0.127454,-0.0357232
1.19612,-0.0660361,-0.335352
1.22105,-0.127476,-0.245539
1.21815,-0.0672518,0
1.22941,-0.189443,-0.0144815
1.20761,-0.0666703,-0.188162
1.22343,-0.127724,-0.156573
1.22396,-0.00769044,0.00711378
1.24123,-0.129583,-0.00725327
1.22305,-0.0675227,-0.131944
1.23598,-0.190456,-0.116738
1.23778,-0.0683358,0.0288463
1.23731,-0.190662,0.0145746
1.21916,-0.067308,-0.0853819
1.22921,-0.128327,-0.100892
1.21546,-0.00763707,0.0353741
1.23709,-0.12915,0.0217108
1.20949,-0.00759958,-0.0775165
1.23136,-0.189744,-0.0725575
1.24001,-0.0684588,0.0723249
1.23228,-0.128648,0.050477
1.21284,-0.0669587,-0.0565818
1.23558,-0.128993,-0.0651059
1.22492,-0.067626,0.150631
1.22524,-0.127913,0.100566
1.21497,-0.00763397,-0.0495001
1.24461,-0.129935,0.228157
1.22979,-0.067895,-0.0286602
1.20776,-0.0118048,-0.0210825
1.21244,-0.130857,-0.0354904
1.19204,-0.0699852,-0.334273
1.2167,-0.131316,-0.244754
1.2179,-0.0715035,0
1.22874,-0.193734,-0.0144815
1.21132,-0.0711169,-0.188777
1.22297,-0.131994,-0.156573
1.21992,-0.0119237,0.00709054
1.24077,-0.133915,-0.00725327
1.22281,-0.0717916,-0.131944
1.2353,-0.194769,-0.116738
1.23753,-0.0726561,0.0288463
1.23664,-0.194979,0.0145746
1.21892,-0.0715632,-0.0853819
1.23272,-0.133045,-0.101217
1.22742,-0.011997,0.0357232
1.23663,-0.133467,0.0217108
1.20946,-0.0118215,-0.0775165
1.23463,-0.194663,-0.0727901
1.23577,-0.0725528,0.0720924
1.23182,-0.132948,0.050477
1.21259,-0.0711919,-0.0565818
1.23909,-0.133733,-0.0653153
1.22468,-0.0719013,0.150631
1.22479,-0.13219,0.100566
1.22293,-0.0119531,-0.0498257
1.24806,-0.134701,0.228875
1.23753,-0.0726561,-0.0288463
1.21171,-0.0160737,-0.0211523
1.21198,-0.135088,-0.0354904
1.19948,-0.0746242,-0.33643
1.20844,-0.134694,-0.243185
1.21365,-0.075506,0
1.22805,-0.198021,-0.0144815
1.20712,-0.0750993,-0.188162
1.23039,-0.137141,-0.157583
1.22787,-0.0162881,0.00713703
1.2403,-0.138245,-0.00725327
1.21858,-0.0758126,-0.131515
1.23462,-0.19908,-0.116738
1.24126,-0.0772237,0.0289393
1.232,-0.198658,0.0145281
1.2107,-0.0753221,-0.0848239
1.24017,-0.138231,-0.101868
1.22737,-0.0162814,0.0357232
1.23218,-0.13734,0.021641
1.2134,-0.0160961,-0.0777724
1.23789,-0.199607,-0.0730226
1.23551,-0.076866,0.0720924
1.22737,-0.136805,0.0503142
1.2243,-0.0761685,-0.0571402
1.23862,-0.138058,-0.0653153
1.23234,-0.0766689,0.151605
1.22432,-0.136464,0.100566
1.22288,-0.0162218,-0.0498257
1.25149,-0.139493,0.229592
1.23727,-0.0769754,-0.0288463
1.21165,-0.0203032,-0.0211523
1.21547,-0.139775,-0.0356068
1.19152,-0.0783055,-0.334273
1.21575,-0.139807,-0.244754
1.21338,-0.079742,0
1.21946,-0.201006,-0.0143884
1.2029,-0.0790533,-0.187547
1.22596,-0.140982,-0.157078
1.21981,-0.02044,0.00709054
1.24776,-0.143488,-0.00729976
1.22625,-0.0805874,-0.132372
1.23391,-0.203388,-0.116738
1.23301,-0.0810316,0.0287532
1.23525,-0.203608,0.0145746
1.21441,-0.0798094,-0.0851029
1.23176,-0.141648,-0.101217
1.21531,-0.0203647,0.0353741
1.23964,-0.142554,0.0217806
1.20935,-0.0202647,-0.0775165
1.24112,-0.204576,-0.0732552
1.23922,-0.0814402,0.0723249
1.23086,-0.141545,0.050477
1.22403,-0.0804417,-0.0571402
1.23813,-0.142381,-0.0653153
1.22811,-0.0807097,0.151118
1.22384,-0.140737,0.100566
1.21482,-0.0203564,-0.0495001
1.25491,-0.14431,0.23031
1.237,-0.0812938,-0.0288463
1.20757,-0.0244515,-0.0210825
1.21498,-0.144017,-0.0356068
1.19509,-0.0827302,-0.335352
1.21526,-0.14405,-0.244754
1.21709,-0.0842532,0
1.22664,-0.20659,-0.0144815
1.21051,-0.0837976,-0.188777
1.22152,-0.144793,-0.156573
1.22373,-0.0247788,0.00711378
1.25122,-0.148313,-0.00732301
1.22199,-0.0845926,-0.131944
1.23712,-0.208355,-0.11711
1.2367,-0.0856112,0.0288463
1.23847,-0.208583,0.0146212
1.21412,-0.084048,-0.0851029
1.23126,-0.145947,-0.101217
1.21923,-0.0246878,0.0354904
1.23914,-0.146881,0.0217806
1.20927,-0.024486,-0.0775165
1.2404,-0.208907,-0.0732552
1.23893,-0.0857653,0.0723249
1.23433,-0.146311,0.0506399
1.21976,-0.0844379,-0.0569541
1.23763,-0.146702,-0.0653153
1.23178,-0.0852703,0.151605
1.21542,-0.14407,0.0999156
1.21874,-0.0246777,-0.0496629
1.24658,-0.147763,0.228875
1.2367,-0.0856112,-0.0288463
1.21547,-0.0288565,-0.0212221
1.21844,-0.148742,-0.0357232
1.20247,-0.0874602,-0.337508
1.21475,-0.148291,-0.244754
1.2128,-0.088211,0
1.2338,-0.212227,-0.0145746
1.21415,-0.0883093,-0.189392
1.22101,-0.149056,-0.156573
1.21964,-0.0289553,0.00709054
1.24672,-0.152195,-0.00729976
1.22565,-0.0891461,-0.132372
1.22854,-0.211322,-0.116366
1.2364,-0.0899276,0.0288463
1.23774,-0.212905,0.0146212
1.22178,-0.0888645,-0.0856609
1.23865,-0.15121,-0.101868
1.22713,-0.0291333,0.0357232
1.24258,-0.15169,0.0218504
1.20918,-0.028707,-0.0775165
1.2436,-0.213913,-0.0734877
1.23862,-0.0900895,0.0723249
1.23778,-0.151103,0.0508027
1.21547,-0.0884053,-0.056768
1.23711,-0.151021,-0.0653153
1.23543,-0.0898575,0.152093
1.22282,-0.149277,0.100566
1.21065,-0.0287421,-0.0493372
1.24606,-0.152113,0.228875
1.2364,-0.0899276,-0.0288463
1.20337,-0.0327724,-0.0210127
1.20997,-0.151997,-0.0354904
1.19832,-0.0913642,-0.33643
1.21811,-0.15302,-0.245539
1.22046,-0.0930521,0
1.22911,-0.21584,-0.0145281
1.21777,-0.0928474,-0.190007
1.22442,-0.153812,-0.157078
1.22353,-0.0333213,0.00711378
1.24618,-0.156546,-0.00729976
1.2174,-0.0928192,-0.131515
1.23172,-0.216298,-0.116738
1.23209,-0.0939389,0.0287532
1.24093,-0.217916,0.0146678
1.22146,-0.0931288,-0.0856609
1.23812,-0.155533,-0.101868
1.22703,-0.0334166,0.0357232
1.23808,-0.155528,0.0217806
1.20508,-0.032819,-0.0772607
1.23498,-0.216871,-0.0730226
1.23432,-0.094109,0.0720924
1.22931,-0.154426,0.050477
1.22312,-0.093255,-0.0571402
1.24053,-0.155836,-0.0655246
1.23115,-0.0938676,0.151605
1.22625,-0.154042,0.100892
1.21454,-0.0330767,-0.0495001
1.24942,-0.156953,0.229592
1.23608,-0.0942429,-0.0288463
1.20325,-0.0369728,-0.0210127
1.20944,-0.15622,-0.0354904
1.19031,-0.0949341,-0.334273
1.21368,-0.156768,-0.244754
1.22013,-0.0973117,0
1.22835,-0.220129,-0.0145281
1.21744,-0.0970977,-0.190007
1.21994,-0.157577,-0.156573
1.2234,-0.037592,0.00711378
1.24166,-0.160383,-0.00727652
1.21311,-0.096752,-0.131087
1.23879,-0.222001,-0.117481
1.23574,-0.0985571,0.0288463
1.23228,-0.220835,0.0145746
1.21318,-0.0967574,-0.0851029
1.24548,-0.160875,-0.102519
1.2269,-0.0376996,0.0357232
1.2415,-0.160361,0.0218504
1.20895,-0.0371479,-0.0775165
1.24207,-0.222589,-0.0734877
1.23796,-0.0987345,0.0723249
1.23273,-0.159228,0.0506399
1.21482,-0.0968886,-0.056768
1.23998,-0.160165,-0.0655246
1.23478,-0.0984802,0.152093
1.22175,-0.157811,0.100566
1.22241,-0.0375615,-0.0498257
1.25277,-0.161817,0.23031
1.23574,-0.0985571,-0.0288463
1.20711,-0.0413095,-0.0210825
1.21285,-0.160967,-0.0356068
1.18998,-0.0990885,-0.334273
1.20535,-0.159972,-0.243185
1.21181,-0.100906,0
1.22364,-0.223696,-0.0144815
1.2171,-0.101347,-0.190007
1.22332,-0.162356,-0.157078
1.22326,-0.0418623,0.00711378
1.25299,-0.166295,-0.00734626
1.22862,-0.102306,-0.1328
1.23801,-0.226324,-0.117481
1.24336,-0.103534,0.0290324
1.23937,-0.226574,0.0146678
1.21283,-0.100992,-0.0851029
1.237,-0.164172,-0.101868
1.21877,-0.0417085,0.0354904
1.24093,-0.164694,0.0218504
1.2128,-0.0415042,-0.0777724
1.24129,-0.226924,-0.0734877
1.23761,-0.103055,0.0723249
1.23216,-0.16353,0.0506399
1.21846,-0.10146,-0.0569541
1.23942,-0.164493,-0.0655246
1.23047,-0.10246,0.151605
1.22119,-0.162074,0.100566
1.21428,-0.0415549,-0.0495001
1.2522,-0.166189,0.23031
1.23539,-0.10287,-0.0288463
1.21096,-0.0454622,-0.0211523
1.20834,-0.164449,-0.0354904
1.20115,-0.104031,-0.337508
1.2087,-0.164497,-0.24397
1.22342,-0.10596,0
1.23075,-0.229218,-0.0145746
1.21675,-0.105382,-0.190007
1.22277,-0.166412,-0.157078
1.21512,-0.0456184,0.00706729
1.24451,-0.16937,-0.00729976
1.22431,-0.106037,-0.132372
1.23725,-0.230428,-0.117481
1.23903,-0.107311,0.0289393
1.23862,-0.230682,0.0146678
1.22044,-0.105702,-0.0856609
1.2325,-0.167736,-0.101543
1.22262,-0.0458999,0.0356068
1.23641,-0.168268,0.0217806
1.20867,-0.045376,-0.0775165
1.24446,-0.23177,-0.0737203
1.24124,-0.107503,0.0725575
1.23558,-0.168154,0.0508027
1.22608,-0.10619,-0.0573263
1.23886,-0.168602,-0.0655246
1.23408,-0.106883,0.152093
1.22065,-0.166123,0.100566
1.22612,-0.0460312,-0.0499885
1.24774,-0.16981,0.229592
1.23504,-0.106966,-0.0288463
1.2028,-0.049361,-0.0210127
1.21964,-0.170324,-0.0358395
1.20462,-0.108569,-0.338587
1.21977,-0.170342,-0.246323
1.22703,-0.110589,0
1.22994,-0.233512,-0.0145746
1.20457,-0.108564,-0.188162
1.22611,-0.171228,-0.157583
1.22695,-0.0503517,0.00713703
1.24391,-0.173713,-0.00729976
1.21601,-0.109596,-0.131515
1.24035,-0.235489,-0.117853
1.23864,-0.111636,0.0289393
1.24173,-0.23575,0.0147143
1.22801,-0.110677,-0.086219
1.2398,-0.17314,-0.102194
1.22245,-0.0501673,0.0356068
1.23186,-0.17203,0.0217108
1.2085,-0.0495948,-0.0775165
1.23579,-0.234623,-0.0732552
1.23688,-0.111477,0.0723249
1.23894,-0.173019,0.0509655
1.21774,-0.109751,-0.0569541
1.23431,-0.172373,-0.0653153
1.24161,-0.111903,0.153068
1.21611,-0.169832,0.100241
1.21796,-0.0499831,-0.0496629
1.24714,-0.174164,0.229592
1.23466,-0.111277,-0.0288463
1.21461,-0.0540931,-0.0212221
1.21113,-0.173447,-0.0356068
1.2004,-0.112414,-0.337508
1.21917,-0.174599,-0.246323
1.21867,-0.114125,0
1.2252,-0.237044,-0.0145281
1.21599,-0.113874,-0.190007
1.22551,-0.175507,-0.157583
1.22676,-0.0546343,0.00713703
1.24725,-0.178621,-0.00732301
1.2275,-0.114952,-0.1328
1.2317,-0.238304,-0.11711
1.23825,-0.115959,0.0289393
1.2409,-0.240083,0.0147143
1.22762,-0.114963,-0.086219
1.24709,-0.178597,-0.102845
1.22227,-0.0544342,0.0356068
1.24313,-0.17803,0.0219202
1.21231,-0.0539906,-0.0777724
1.23497,-0.238935,-0.0732552
1.23251,-0.115421,0.0720924
1.23437,-0.176776,0.0508027
1.21735,-0.114002,-0.0569541
1.24161,-0.177813,-0.065734
1.2333,-0.115496,0.152093
1.22735,-0.175771,0.101217
1.21778,-0.0542343,-0.0496629
1.25821,-0.18019,0.231745
1.24223,-0.116331,-0.0290324
1.21441,-0.0583325,-0.0212221
1.21051,-0.177674,-0.0356068
1.19233,-0.115859,-0.335352
1.21079,-0.177715,-0.244754
1.21428,-0.117992,0
1.23221,-0.242867,-0.0146212
1.21558,-0.118118,-0.190007
1.22489,-0.179784,-0.157583
1.23056,-0.0591081,0.00716028
1.24662,-0.182974,-0.00732301
1.21521,-0.118082,-0.131515
1.23477,-0.243372,-0.117481
1.23783,-0.12028,0.0289393
1.24006,-0.244413,0.0147143
1.21529,-0.11809,-0.0853819
1.24645,-0.182949,-0.102845
1.22607,-0.0588922,0.0357232
1.23854,-0.181787,0.0218504
1.21211,-0.058222,-0.0777724
1.24196,-0.244789,-0.0737203
1.22813,-0.119337,0.0718598
1.23375,-0.181084,0.0508027
1.21694,-0.11825,-0.0569541
1.23308,-0.180986,-0.0653153
1.23289,-0.1198,0.152093
1.22673,-0.180054,0.101217
1.22158,-0.0586766,-0.0498257
1.24589,-0.182867,0.229592
1.23385,-0.119893,-0.0288463
1.21021,-0.0623654,-0.0211523
1.21779,-0.183087,-0.0358395
1.19958,-0.120792,-0.337508
1.20629,-0.181357,-0.24397
1.21784,-0.12263,0
1.22743,-0.246379,-0.0145746
1.21123,-0.121964,-0.189392
1.22425,-0.184058,-0.157583
1.22635,-0.0631973,0.00713703
1.24598,-0.187324,-0.00732301
1.22271,-0.12312,-0.132372
1.23392,-0.247681,-0.117481
1.23343,-0.1242,0.0288463
1.2392,-0.248741,0.0147143
1.21885,-0.122731,-0.0856609
1.23792,-0.186113,-0.102194
1.22585,-0.0631716,0.0357232
1.24581,-0.187299,0.02199
1.21589,-0.0626581,-0.0780282
1.2411,-0.249123,-0.0737203
1.23167,-0.124023,0.0720924
1.23311,-0.185389,0.0508027
1.2205,-0.122898,-0.0571402
1.23639,-0.185883,-0.0655246
1.23247,-0.124103,0.152093
1.22215,-0.183743,0.100892
1.21737,-0.0627346,-0.0496629
1.25303,-0.188385,0.231027
1.23741,-0.1246,-0.0289393
1.21398,-0.0668092,-0.0212221
1.20924,-0.18612,-0.0356068
1.19532,-0.124579,-0.33643
1.2134,-0.18676,-0.245539
1.22536,-0.12771,0
1.2344,-0.252264,-0.0146678
1.21473,-0.126601,-0.190007
1.21968,-0.187727,-0.157078
1.21814,-0.0670381,0.00709054
1.24927,-0.192281,-0.00734626
1.23018,-0.128212,-0.133229
1.23695,-0.252784,-0.117853
1.24492,-0.129748,0.0291255
1.23832,-0.253065,0.0147143
1.21841,-0.126985,-0.0856609
1.23727,-0.190433,-0.102194
1.22163,-0.0672306,0.0356068
1.23329,-0.189821,0.0217806
1.21566,-0.066902,-0.0780282
1.24413,-0.254253,-0.0739528
1.24315,-0.129563,0.0727901
1.2364,-0.190301,0.0509655
1.22006,-0.127157,-0.0571402
1.24363,-0.191413,-0.0659433
1.23202,-0.128404,0.152093
1.22545,-0.188614,0.101217
1.22513,-0.0674229,-0.0499885
1.25236,-0.192757,0.231027
1.24094,-0.129333,-0.0290324
1.20974,-0.0708127,-0.0211523
1.21254,-0.190962,-0.0357232
1.19871,-0.129163,-0.337508
1.21661,-0.191604,-0.246323
1.22093,-0.131558,0
1.23743,-0.257386,-0.0147143
1.21821,-0.131264,-0.190622
1.22294,-0.1926,-0.157583
1.22588,-0.0717572,0.00713703
1.24464,-0.196018,-0.00732301
1.20996,-0.130375,-0.131087
1.23216,-0.256289,-0.117481
1.23651,-0.133236,0.0289393
1.23743,-0.257386,0.0147143
1.21399,-0.13081,-0.0853819
1.24447,-0.195992,-0.102845
1.22139,-0.0714944,0.0356068
1.23657,-0.194747,0.0218504
1.20745,-0.0706785,-0.0775165
1.24715,-0.259407,-0.0741854
1.23475,-0.133046,0.0723249
1.23968,-0.195237,0.0511284
1.21961,-0.131415,-0.0571402
1.24295,-0.195753,-0.0659433
1.22762,-0.132279,0.151605
1.22478,-0.192891,0.101217
1.22489,-0.071699,-0.0499885
1.25168,-0.197128,0.231027
1.23651,-0.133236,-0.0289393
1.2055,-0.0747874,-0.0210825
1.20791,-0.194558,-0.0356068
1.19442,-0.132921,-0.33643
1.22755,-0.197721,-0.248677
1.22444,-0.136261,0
1.23652,-0.261704,-0.0147143
1.21774,-0.135516,-0.190622
1.22226,-0.196868,-0.157583
1.22962,-0.0762836,0.00716028
1.2479,-0.200997,-0.00734626
1.2174,-0.135478,-0.131944
1.23515,-0.261413,-0.117853
1.23603,-0.137551,0.0289393
1.24044,-0.262532,0.0147609
1.21749,-0.135488,-0.0856609
1.24771,-0.200968,-0.10317
1.23311,-0.0765002,0.0359559
1.24378,-0.200334,0.02199
1.21915,-0.0756344,-0.078284
1.25405,-0.265413,-0.0746505
1.23825,-0.137797,0.0725575
1.23504,-0.198928,0.0509655
1.21914,-0.135672,-0.0571402
1.24226,-0.20009,-0.0659433
1.23899,-0.13788,0.153068
1.2241,-0.197165,0.101217
1.22064,-0.0757267,-0.0498257
1.2471,-0.20087,0.23031
1.24398,-0.138436,-0.0291255
1.20922,-0.0792565,-0.0211523
1.20723,-0.198773,-0.0356068
1.20161,-0.137968,-0.338587
1.21525,-0.200093,-0.246323
1.22396,-0.140535,0
1.23951,-0.26686,-0.0147609
1.22512,-0.140667,-0.191852
1.22156,-0.201133,-0.157583
1.22535,-0.0803137,0.00713703
1.24324,-0.204702,-0.00732301
1.23272,-0.141541,-0.133657
1.23812,-0.266561,-0.118225
1.24349,-0.142777,0.0291255
1.2356,-0.266018,0.0147143
1.21701,-0.139737,-0.0856609
1.23914,-0.204027,-0.102519
1.22884,-0.0805425,0.0358395
1.23912,-0.204025,0.0219202
1.2149,-0.0796284,-0.0780282
1.24531,-0.268108,-0.0741854
1.23776,-0.142119,0.0725575
1.2304,-0.202588,0.0508027
1.21469,-0.139471,-0.0569541
1.23761,-0.203776,-0.065734
1.22667,-0.140846,0.151605
1.2352,-0.203379,0.102194
1.22436,-0.0802485,-0.0499885
1.25028,-0.205861,0.231027
1.23952,-0.142321,-0.0290324
1.20894,-0.083477,-0.0211523
1.21441,-0.204312,-0.0358395
1.19729,-0.141709,-0.337508
1.21841,-0.204985,-0.247108
1.21154,-0.143396,0
1.22685,-0.268619,-0.0146212
1.20892,-0.143085,-0.189392
1.22868,-0.206713,-0.158593
1.22107,-0.0843149,0.00711378
1.24646,-0.209704,-0.00734626
1.23617,-0.14631,-0.134086
1.24108,-0.271733,-0.118597
1.24696,-0.147587,0.0292185
1.24248,-0.272041,0.0148075
1.22048,-0.144453,-0.08594
1.23842,-0.208351,-0.102519
1.22456,-0.0845561,0.0357232
1.24629,-0.209676,0.0220598
1.21859,-0.0841437,-0.078284
1.24826,-0.273307,-0.074418
1.24518,-0.147377,0.0730226
1.22968,-0.206882,0.0508027
1.2142,-0.14371,-0.0569541
1.2369,-0.208095,-0.065734
1.22617,-0.145127,0.151605
1.22662,-0.206367,0.101543
1.21609,-0.0839712,-0.0496629
1.26235,-0.149409,0.340606
1.25343,-0.210877,0.231745
1.24299,-0.147117,-0.0291255
1.20864,-0.0876965,-0.0211523
1.21369,-0.20855,-0.0358395
1.20061,-0.146354,-0.338587
1.22155,-0.209901,-0.247892
1.21501,-0.148108,0
1.22981,-0.273769,-0.0146678
1.20841,-0.147304,-0.189392
1.22013,-0.209657,-0.157583
1.22476,-0.0888662,0.00713703
1.24572,-0.214054,-0.00734626
1.24355,-0.151587,-0.134942
1.23623,-0.275198,-0.118225
1.24246,-0.151455,0.0291255
1.24152,-0.276376,0.0148075
1.21601,-0.14823,-0.0856609
1.24161,-0.213348,-0.102845
1.22426,-0.0888301,0.0357232
1.23767,-0.212671,0.0219202
1.20635,-0.0875302,-0.0775165
1.2473,-0.277663,-0.074418
1.23673,-0.150756,0.0725575
1.24077,-0.213204,0.0512912
1.22956,-0.149881,-0.0576986
1.24404,-0.213764,-0.0661527
1.23354,-0.150367,0.15258
1.2259,-0.210647,0.101543
1.21978,-0.0885048,-0.0498257
1.24264,-0.151477,0.335429
1.25269,-0.215251,0.231745
1.24246,-0.151455,-0.0291255
1.20434,-0.0916115,-0.0210825
1.22083,-0.214167,-0.0360723
1.2001,-0.150544,-0.338587
1.21308,-0.212808,-0.246323
1.22639,-0.153842,0
1.22885,-0.27806,-0.0146678
1.21573,-0.152505,-0.190622
1.2233,-0.2146,-0.158088
1.22444,-0.0931409,0.00713703
1.24497,-0.218401,-0.00734626
1.22723,-0.153947,-0.133229
1.24303,-0.28127,-0.118968
1.23796,-0.155293,0.0290324
1.24055,-0.280708,0.0148075
1.22736,-0.153964,-0.086498
1.23693,-0.216992,-0.102519
1.22793,-0.0934063,0.0358395
1.24086,-0.217681,0.02199
1.21399,-0.0923462,-0.0780282
1.25801,-0.284659,-0.0751156
1.23224,-0.154576,0.0723249
1.24396,-0.218224,0.051454
1.2211,-0.153178,-0.0573263
1.24722,-0.218796,-0.066362
1.24482,-0.156154,0.154043
1.23301,-0.216303,0.102194
1.21946,-0.0927621,-0.0498257
1.26127,-0.158218,0.340606
1.24418,-0.218263,0.23031
1.23796,-0.155293,-0.0290324
1.20803,-0.0957105,-0.0211523
1.21622,-0.217298,-0.0359559
1.1958,-0.153822,-0.337508
1.22399,-0.218688,-0.248677
1.2259,-0.157694,0
1.23187,-0.282814,-0.0147143
1.21525,-0.156324,-0.190622
1.22652,-0.21914,-0.158593
1.22813,-0.097303,0.00716028
1.24427,-0.222311,-0.00734626
1.21885,-0.156787,-0.132372
1.23438,-0.283391,-0.118225
1.2335,-0.158671,0.0289393
1.23966,-0.284604,0.0148075
1.22687,-0.157819,-0.086498
1.24802,-0.22298,-0.103496
1.23162,-0.0975793,0.0359559
1.24017,-0.221578,0.02199
1.2137,-0.0961596,-0.0780282
1.24543,-0.285929,-0.074418
1.22779,-0.157936,0.0720924
1.23146,-0.220022,0.0509655
1.22457,-0.157523,-0.0575125
1.23866,-0.221308,-0.0659433
1.23645,-0.159051,0.153068
1.22447,-0.218773,0.101543
1.22315,-0.0969084,-0.0499885
1.25694,-0.161686,0.339571
1.25511,-0.224247,0.232462
1.23747,-0.159182,-0.0290324
1.21166,-0.100468,-0.0212221
1.21541,-0.221755,-0.0359559
1.19523,-0.158203,-0.337508
1.21547,-0.221764,-0.247108
1.22135,-0.161661,0
1.23861,-0.289146,-0.0148075
1.2225,-0.161814,-0.191852
1.22571,-0.223634,-0.158593
1.23574,-0.102465,0.00720677
1.24345,-0.22687,-0.00734626
1.23721,-0.288819,-0.118597
1.24084,-0.164241,0.0291255
1.23861,-0.289146,0.0148075
1.22233,-0.161791,-0.086219
1.24327,-0.226838,-0.10317
1.23125,-0.102093,0.0359559
1.24328,-0.22684,0.0220598
1.21732,-0.100937,-0.078284
1.24827,-0.2914,-0.0746505
1.23908,-0.164007,0.0727901
1.23458,-0.225251,0.0511284
1.22795,-0.162534,-0.0576986
1.24177,-0.226563,-0.0661527
1.23979,-0.164103,0.153555
1.23543,-0.225406,0.102519
1.22279,-0.101391,-0.0499885
1.26783,-0.167813,0.342676
1.25428,-0.228845,0.232462
1.23687,-0.163716,-0.0290324
1.21528,-0.105041,-0.0212919
1.21463,-0.225996,-0.0359559
1.19848,-0.162893,-0.338587
1.21468,-0.226006,-0.247108
1.22474,-0.166462,0
1.2337,-0.292545,-0.0147609
1.21801,-0.165548,-0.191237
1.22883,-0.228637,-0.159098
1.23139,-0.106433,0.00718353
1.24265,-0.231209,-0.00734626
1.2177,-0.165505,-0.132372
1.24782,-0.295893,-0.119712
1.24026,-0.168571,0.0291255
1.2376,-0.293468,0.0148075
1.22966,-0.167131,-0.0867771
1.23463,-0.229717,-0.102519
1.22292,-0.105701,0.0357232
1.24248,-0.231178,0.0220598
1.22093,-0.10553,-0.0785399
1.24336,-0.294834,-0.074418
1.24245,-0.168869,0.0730226
1.23771,-0.230291,0.0512912
1.21945,-0.165744,-0.0573263
1.24097,-0.230896,-0.0661527
1.23528,-0.167895,0.153068
1.22287,-0.22753,0.101543
1.22242,-0.105658,-0.0499885
1.26723,-0.172238,0.342676
1.25347,-0.233222,0.232462
1.24422,-0.16911,-0.0292185
1.21093,-0.108924,-0.0212221
1.21384,-0.230234,-0.0359559
1.19791,-0.167076,-0.338587
1.21774,-0.230975,-0.247892
1.22019,-0.170184,0
1.23656,-0.297786,-0.0148075
1.22526,-0.170891,-0.192467
1.22022,-0.231446,-0.158088
1.22304,-0.110014,0.00713703
1.2497,-0.237036,-0.00739275
1.22893,-0.171402,-0.133657
1.24678,-0.300247,-0.119712
1.24362,-0.173452,0.0292185
1.24045,-0.298722,0.014854
1.22907,-0.171423,-0.0867771
1.24166,-0.235512,-0.10317
1.22653,-0.110328,0.0358395
1.23774,-0.234768,0.02199
1.21658,-0.109433,-0.078284
1.2462,-0.300107,-0.0746505
1.24185,-0.173205,0.0730226
1.24083,-0.235354,0.051454
1.22678,-0.171103,-0.0576986
1.24801,-0.236716,-0.0665713
1.23469,-0.172206,0.153068
1.22207,-0.231797,0.101543
1.23001,-0.110641,-0.0503142
