2.46006,0.912445,-0.0305462
2.45509,0.891153,-0.0304065
2.46571,0.885283,-0.0304996
2.46879,0.87667,-0.0304996
2.47183,0.868047,-0.0304996
2.4747,0.859846,-0.0304996
2.47754,0.851634,-0.0304996
2.49267,0.856835,0.0306859
2.48064,0.842548,-0.0304996
2.49579,0.847694,0.0306859
2.48342,0.834317,-0.0304996
2.50238,0.840686,0.0307325
2.49391,0.828164,-0.0305928
2.5053,0.831945,0.0307325
2.49693,0.819018,-0.0305928
2.50833,0.822758,0.0307325
2.49597,0.809063,-0.0305462
2.50738,0.812763,0.0306859
2.50231,0.80244,-0.0305928
2.50992,0.804882,0.0306859
2.50537,0.792826,-0.0305928
2.46377,0.914313,-0.0152737
2.513,0.79524,0.0306859
2.50511,0.792744,-0.153022
2.51166,0.786147,-0.0306393
2.52312,0.789731,0.030779
2.50378,0.783677,-0.152789
2.51821,0.778555,-0.0306859
2.46978,0.897952,-0.0152737
2.51821,0.778555,0.0306859
2.51413,0.777291,-0.153254
2.51736,0.767713,-0.0306393
2.47698,0.889814,-0.015297
2.52884,0.771213,0.030779
2.51709,0.767631,-0.153254
2.47153,0.878128,-0.0763336
2.52002,0.758922,-0.0306393
2.48007,0.881163,-0.015297
2.53534,0.763535,0.0308256
2.5274,0.761144,-0.15372
2.53033,0.752401,-0.0307325
2.48313,0.872501,-0.015297
2.53799,0.754681,0.0308256
2.52239,0.750041,-0.153254
2.5291,0.742437,-0.0306859
2.48616,0.863827,-0.015297
2.54061,0.745816,0.0308256
2.52882,0.742356,-0.153487
2.46516,0.847863,-0.0758681
2.53142,0.734488,-0.0306859
2.48886,0.856013,-0.015297
2.5391,0.736717,0.030779
2.53114,0.734408,-0.153487
2.47568,0.841826,-0.0761008
2.53397,0.725646,-0.0306859
2.49183,0.847319,-0.015297
2.5455,0.72895,0.0308256
2.53753,0.726667,-0.15372
2.47496,0.831473,-0.0759845
2.53661,0.716353,-0.0306859
2.49872,0.839454,-0.0153202
2.55586,0.721789,0.0309187
2.49838,0.83934,0.0460045
2.53633,0.716275,-0.153487
2.4815,0.824522,-0.0761008
2.54282,0.709013,-0.0307325
2.50149,0.831164,-0.0153202
2.5435,0.7092,-0.246488
2.55824,0.71331,0.0309187
2.50494,0.832312,0.0460744
2.54254,0.708934,-0.15372
2.50568,0.832558,-0.138376
2.48436,0.815856,-0.0761008
2.54914,0.701193,-0.030779
2.50817,0.823675,-0.0153435
2.55364,0.702431,-0.247231
2.56071,0.704376,0.0309187
2.51163,0.824812,0.0461442
2.545,0.700055,-0.15372
2.48733,0.806744,-0.0761008
2.55169,0.691845,-0.030779
2.50737,0.813242,-0.0153202
2.5562,0.693066,-0.247231
2.55941,0.693938,0.0308722
2.51464,0.8156,0.0461442
2.5514,0.691767,-0.153952
2.50397,0.812141,-0.137958
2.49,0.798491,-0.0761008
2.55011,0.682345,-0.0307325
2.51767,0.807365,-0.0153667
2.56617,0.686644,-0.247975
2.56557,0.68648,0.0309187
2.52114,0.808477,0.046214
2.5614,0.685366,-0.154417
2.50665,0.803833,-0.137958
2.49277,0.789796,-0.0761008
2.55248,0.673441,-0.0307325
2.52429,0.799782,-0.0153899
2.56856,0.677684,-0.247975
2.56795,0.677523,0.0309187
2.52394,0.799673,0.046214
2.56378,0.676422,-0.154417
2.51325,0.796286,-0.138167
2.49565,0.780654,-0.0761008
2.5588,0.665088,-0.030779
2.51956,0.788137,-0.0153435
2.57488,0.669267,-0.248347
2.57428,0.669113,0.0309653
2.53067,0.791612,0.0462838
2.56624,0.667022,-0.154417
2.51997,0.788262,-0.138376
2.50191,0.77399,-0.0762172
2.56475,0.658038,-0.0308256
2.52203,0.780215,-0.0153435
2.57311,0.660183,-0.247975
2.57637,0.66102,0.0309653
2.52933,0.782474,0.046214
2.56832,0.658954,-0.154417
2.52762,0.781944,0.107793
2.53006,0.782701,-0.138795
2.51224,0.767589,-0.0764499
2.57091,0.650063,-0.0308722
2.53239,0.773745,-0.0153899
2.5754,0.651198,-0.247975
2.58254,0.653004,0.0310118
2.53204,0.773641,0.046214
2.57448,0.650965,-0.15465
2.53033,0.773117,0.107793
2.52514,0.771531,-0.138376
2.5149,0.758816,-0.0764499
2.46834,0.878453,0
2.5654,0.639151,-0.030779
2.5389,0.766057,-0.0154132
2.58152,0.643167,-0.248347
2.58092,0.643019,0.0309653
2.53434,0.764682,-0.216104
2.58061,0.64294,-0.154882
2.52919,0.763126,0.10763
2.52782,0.762712,-0.138376
2.5215,0.750733,-0.0765663
2.46777,0.868072,0
2.56772,0.629743,-0.030779
2.53786,0.755604,-0.0153899
2.58773,0.634649,-0.248718
2.58715,0.634507,0.0310118
2.53368,0.754361,0.0461442
2.58295,0.633477,-0.154882
2.5358,0.754991,0.107793
2.5306,0.753442,-0.138376
2.48597,0.874472,-0.0613216
2.52781,0.743496,-0.0766826
2.47442,0.861199,0
2.57757,0.623105,-0.0308722
2.53651,0.746056,-0.0153667
2.58982,0.626065,-0.248718
2.59313,0.626865,0.0310584
2.54001,0.747084,0.046214
2.58115,0.62397,-0.15465
2.54212,0.747706,0.107956
2.53691,0.746173,-0.138586
2.4813,0.863595,-0.0611355
2.519,0.730885,-0.0763336
2.48134,0.853426,0
2.57984,0.613654,-0.0308722
2.53539,0.73564,-0.0153435
2.58822,0.615648,-0.248347
2.59541,0.617357,0.0310584
2.54234,0.737657,-0.216104
2.55041,0.739998,0.0463536
2.58731,0.61543,-0.154882
2.54101,0.73727,0.107793
2.54347,0.737984,-0.138795
2.49201,0.857097,-0.0613216
2.52922,0.724288,-0.0765663
2.48052,0.843471,0
2.59365,0.607381,-0.0310118
2.54948,0.730088,-0.0154132
2.60199,0.609333,-0.249462
2.48742,0.845817,0.0611355
2.59365,0.607381,0.0310118
2.5449,0.728778,-0.216104
2.55298,0.731091,0.0463536
2.59333,0.607305,-0.155115
2.55125,0.730596,0.108119
2.54603,0.7291,-0.138795
2.49499,0.848392,-0.0613216
2.53174,0.715454,-0.0765663
2.48724,0.836081,0
2.58016,0.594729,-0.0308256
2.54816,0.720096,-0.0153899
2.60022,0.599351,-0.24909
2.59575,0.598323,0.0310118
2.53976,0.717721,-0.215453
2.54782,0.719999,0.046214
2.59932,0.599145,-0.155347
2.55378,0.721685,0.108119
2.4959,0.838995,-0.122656
2.5524,0.721294,-0.139004
2.49794,0.839677,-0.0613216
2.54565,0.71028,-0.0769154
2.49379,0.829092,0
2.58992,0.587942,-0.0309187
2.55439,0.712719,-0.0154132
2.60607,0.591609,-0.249462
2.60553,0.591484,0.031105
2.54596,0.710368,-0.215779
2.55404,0.712622,0.0462838
2.60519,0.591408,-0.15558
2.56001,0.714288,0.108281
2.54708,0.710681,-0.138586
2.50071,0.831391,-0.0613216
2.54811,0.701389,-0.0769154
2.49667,0.820381,0
2.58806,0.578026,-0.0308722
2.55686,0.703797,-0.0154132
2.6159,0.584244,-0.250205
2.49979,0.821408,0.0612286
2.59977,0.580641,0.0310118
2.55611,0.703592,-0.21643
2.55266,0.702641,0.046214
2.59555,0.579698,-0.154882
2.56249,0.705347,0.108281
2.50156,0.821987,-0.122656
2.5611,0.704965,-0.139214
2.50359,0.822656,-0.0613216
2.54295,0.689952,-0.0766826
2.49966,0.811225,0
2.59797,0.570252,-0.0309653
2.55942,0.694422,-0.0154132
2.61024,0.572945,-0.249462
2.50279,0.81224,0.0612286
2.60969,0.572824,0.031105
2.55868,0.694219,-0.21643
2.56294,0.695375,0.0463536
2.60545,0.571894,-0.155347
2.5612,0.694905,0.108119
2.49695,0.810347,-0.122284
2.56367,0.695574,-0.139214
2.51039,0.814709,-0.0614147
2.54908,0.682549,-0.076799
2.49853,0.801709,0
2.59985,0.561633,-0.0309653
2.56171,0.68593,-0.0154132
2.61991,0.565967,-0.250205
2.51308,0.806379,0.0614147
2.61158,0.564166,0.031105
2.56867,0.687792,-0.21708
2.56909,0.687906,0.0464234
2.61514,0.564937,-0.155813
2.56735,0.687441,0.108281
2.50724,0.804503,-0.122656
2.5621,0.686035,-0.139004
2.51689,0.807601,-0.0615077
2.54372,0.671605,-0.0765663
2.50894,0.7954,0
2.60179,0.552553,-0.0309653
2.56796,0.678004,-0.0154364
2.62187,0.556818,-0.250205
2.51588,0.797601,0.0614147
2.60962,0.554215,0.0310584
2.5672,0.677803,-0.216755
2.56374,0.676892,0.0462838
2.6171,0.555804,-0.155813
2.56587,0.677454,0.108119
2.50622,0.794538,-0.12247
2.57221,0.679126,-0.139423
2.55178,0.673732,0.215453
2.51588,0.797601,-0.0614147
2.55766,0.665743,-0.0769154
2.5117,0.786637,0
2.60762,0.544286,-0.0310118
2.57805,0.671052,-0.0154829
2.6238,0.547663,-0.250205
2.51865,0.788815,0.0614147
2.61545,0.54592,0.031105
2.56569,0.667834,-0.21643
2.56996,0.668946,0.0463536
2.62293,0.547482,-0.156045
2.57596,0.670507,0.108444
2.51279,0.78698,-0.122656
2.5707,0.669137,-0.139214
2.55797,0.665826,0.215779
2.52247,0.79001,-0.0615077
2.55996,0.656812,-0.0769154
2.50679,0.775501,0
2.61734,0.536788,-0.031105
2.45835,0.894282,0.015204
2.57263,0.660061,-0.0154364
2.6335,0.540102,-0.250949
2.52139,0.780019,0.0614147
2.62126,0.537592,0.0311515
2.57573,0.660856,-0.21708
2.56841,0.658978,0.0462838
2.617,0.536719,-0.15558
2.57828,0.661512,0.108444
2.51934,0.779385,-0.122842
2.57688,0.661153,-0.139423
2.568,0.658875,0.21643
2.52521,0.781201,-0.0615077
2.45721,0.884649,-0.0455857
2.55825,0.647338,-0.076799
2.51699,0.769523,0
2.61519,0.527314,-0.0310584
2.57868,0.652507,-0.0154597
2.62356,0.529003,-0.249834
2.52779,0.772822,0.0615077
2.63087,0.530477,0.0312447
2.5779,0.65231,-0.21708
2.58221,0.6534,0.0464932
2.62268,0.528826,-0.155813
2.57271,0.650997,0.108119
2.51427,0.768689,-0.12247
2.58294,0.653583,-0.139632
2.56631,0.649376,0.216104
2.52779,0.772822,-0.0615077
2.4642,0.876978,-0.0456555
2.56837,0.639891,-0.0770317
2.51597,0.759137,0
2.6328,0.520831,-0.0312447
2.58494,0.644019,-0.0154829
2.6372,0.521703,-0.250949
2.53443,0.764708,0.0616008
2.62495,0.519279,0.0311515
2.51366,0.758441,-0.183599
2.58028,0.642858,-0.21708
2.58847,0.644898,0.046563
2.6246,0.51921,-0.155813
2.53465,0.764774,0.154185
2.58284,0.643496,0.108444
2.52089,0.760624,-0.122656
2.57756,0.642181,-0.139214
2.57254,0.640931,0.21643
2.53443,0.764708,-0.0616008
2.47102,0.869699,-0.0457253
2.57059,0.630921,-0.0770317
2.52627,0.752634,0
2.62282,0.509349,-0.031105
2.57421,0.631811,-0.337389
2.48267,0.8738,0.015297
2.58717,0.634991,-0.0154829
2.64292,0.513253,-0.251321
2.53708,0.755856,0.0616008
2.63067,0.510874,0.0311981
2.51629,0.749661,-0.183599
2.58251,0.633847,-0.21708
2.58682,0.634905,0.0464932
2.63032,0.510806,-0.156045
2.59283,0.636381,0.10877
2.53119,0.7541,-0.123028
2.58755,0.635084,-0.139632
2.57476,0.631946,0.21643
2.53325,0.754714,-0.0615077
2.47389,0.861499,-0.0457253
2.57266,0.622392,-0.0770317
2.52875,0.744252,0
2.62449,0.500648,-0.031105
2.56858,0.621404,-0.336379
2.47422,0.861616,0.0152272
2.58537,0.625467,-0.0154597
2.6407,0.503739,-0.250949
2.54725,0.749695,0.0617869
2.63235,0.502147,0.0311981
2.51494,0.740185,-0.18332
2.59234,0.627154,-0.217731
2.5928,0.627263,0.046563
2.64377,0.504325,-0.156743
2.5398,0.747503,0.154185
2.59881,0.628718,0.108933
2.54135,0.747958,-0.123401
2.58964,0.626499,-0.139632
2.57297,0.622466,0.216104
2.47599,0.86223,-0.106816
2.54341,0.748567,-0.0616939
2.46932,0.850256,-0.0455857
2.57871,0.614337,-0.0771481
2.53518,0.736538,0
2.63016,0.492222,-0.0311515
2.57459,0.613356,-0.336884
2.481,0.854277,0.0152505
2.58754,0.61644,-0.0154597
2.65027,0.495985,-0.251693
2.54985,0.740801,0.0617869
2.63409,0.492957,0.0311981
2.52517,0.73363,-0.183878
2.59064,0.617178,-0.217406
2.59108,0.617284,0.0464932
2.63374,0.492891,-0.156045
2.53856,0.73752,0.153952
2.5971,0.618718,0.10877
2.53627,0.736855,-0.123028
2.60347,0.620234,-0.14026
2.579,0.614407,0.21643
2.53833,0.737454,-0.0615077
2.47606,0.842919,-0.0456555
2.57695,0.604418,-0.0770317
2.53773,0.727683,0
2.64366,0.485203,-0.0312912
2.58058,0.60527,-0.337389
2.48397,0.845611,0.0152505
2.59357,0.608317,-0.0154829
2.64806,0.486011,-0.251321
2.54858,0.730793,0.0616939
2.63973,0.484481,0.0312447
2.52771,0.724811,-0.183878
2.60442,0.610862,-0.218382
2.60101,0.610061,0.0466328
2.65115,0.486578,-0.156975
2.55263,0.731956,0.15465
2.59925,0.609648,0.10877
2.53114,0.725794,-0.122656
2.6095,0.612054,-0.14047
2.5889,0.607221,0.21708
2.47438,0.842349,-0.10649
2.54858,0.730793,-0.0616939
2.48657,0.836822,-0.0457951
2.57514,0.594519,-0.0769154
2.53256,0.716641,0
2.63747,0.474555,-0.0311981
2.58268,0.596258,-0.337389
2.49069,0.838211,0.0152737
2.59568,0.599259,-0.0154829
2.65367,0.477469,-0.251693
2.55111,0.721892,0.0616939
2.64534,0.475971,0.0312912
2.52639,0.714896,-0.183599
2.60265,0.60087,-0.218057
2.60312,0.600978,0.0466328
2.65283,0.47732,-0.156975
2.54364,0.719778,0.153952
2.60525,0.60147,0.108933
2.54135,0.719129,-0.123028
2.59995,0.600245,-0.139842
2.59488,0.599076,0.217406
2.4811,0.834981,-0.106653
2.54726,0.720803,-0.0616008
2.48568,0.826875,-0.0457253
2.5811,0.586413,-0.0770317
2.5466,0.711024,0
2.63911,0.465346,-0.0311981
2.58861,0.588119,-0.337894
2.4936,0.829512,0.0152737
2.60556,0.591968,-0.0155294
2.65532,0.468204,-0.251693
2.55747,0.714058,0.0617869
2.65092,0.46743,0.0313378
2.53656,0.708219,-0.184157
2.60085,0.590898,-0.217731
2.6052,0.591888,0.0466328
2.65448,0.468057,-0.156975
2.55768,0.714117,0.15465
2.60344,0.591487,0.10877
2.54384,0.710254,-0.123028
2.60592,0.592052,-0.140051
2.59307,0.589132,0.21708
2.48779,0.827577,-0.106816
2.55362,0.712983,-0.0616939
2.49615,0.820691,-0.0458649
2.59094,0.579143,-0.0772645
2.55678,0.704255,0
2.64466,0.456811,-0.0312447
2.58291,0.577348,-0.336884
2.48889,0.818303,0.0152272
2.60761,0.582869,-0.0155294
2.65693,0.458932,-0.251693
2.55994,0.705126,0.0617869
2.65254,0.458173,0.0313378
2.53901,0.69936,-0.184157
2.60679,0.582685,-0.218057
2.49167,0.81922,0.0763336
2.60335,0.581917,0.046563
2.66004,0.459468,-0.157208
2.56401,0.706245,0.154882
2.60939,0.583267,0.108933
2.55016,0.702431,-0.123214
2.61577,0.584694,-0.14047
2.59122,0.579206,0.216755
2.48686,0.817639,-0.106653
2.55994,0.705126,-0.0617869
2.49519,0.810737,-0.0457951
2.59685,0.570955,-0.0773808
2.55922,0.695326,0
2.65018,0.448244,-0.0312912
2.59653,0.570885,-0.338399
2.49933,0.812083,0.0152737
2.60572,0.572904,-0.0155062
2.6703,0.451648,-0.252808
2.56239,0.696186,0.0617869
2.65807,0.449578,0.0313844
2.54914,0.692586,-0.184715
2.6127,0.574439,-0.218382
2.49832,0.811753,0.0764499
2.61318,0.574544,0.0467026
2.65769,0.449514,-0.156975
2.55489,0.69415,0.154185
2.61141,0.574156,0.108933
2.56031,0.69562,-0.123587
2.61389,0.574702,-0.14026
2.60102,0.571871,0.217406
2.4973,0.811424,-0.106979
2.55853,0.695138,-0.0616939
2.49039,0.799578,-0.0456555
2.59883,0.561887,-0.0773808
2.55777,0.685354,0
2.65567,0.439645,-0.0313378
2.59851,0.561818,-0.338399
2.50596,0.804577,0.015297
2.6077,0.563806,-0.0155062
2.67579,0.442975,-0.25318
2.5648,0.687238,0.0617869
2.66356,0.440951,0.0314309
2.54769,0.682651,-0.184436
2.61469,0.565316,-0.218382
2.50494,0.80425,0.0765663
2.61517,0.56542,0.0467026
2.66318,0.440887,-0.157208
2.56116,0.686261,0.154417
2.60949,0.564193,0.10877
2.55886,0.685646,-0.123401
2.6276,0.568108,-0.140888
2.60689,0.563631,0.217731
2.50012,0.802702,-0.106979
2.5648,0.687238,-0.0617869
2.50842,0.795716,-0.0459347
2.60077,0.552811,-0.0773808
2.55628,0.675399,0
2.65324,0.429732,-0.0312912
2.60045,0.552744,-0.338399
2.51257,0.797034,0.0153202
2.61748,0.556362,-0.0155527
2.67339,0.432994,-0.252808
2.56332,0.677259,0.0616939
2.66509,0.43165,0.0314309
2.55391,0.674773,-0.184715
2.62444,0.557843,-0.219033
2.51155,0.79671,0.0766826
2.61712,0.556287,0.0467026
2.67259,0.432864,-0.157673
2.55968,0.676296,0.154185
2.61926,0.556742,0.109096
2.5651,0.677729,-0.123587
2.62175,0.55727,-0.14047
2.60884,0.554527,0.217731
2.50672,0.795178,-0.107142
2.57105,0.679302,-0.06188
2.51118,0.786956,-0.0459347
2.61051,0.545365,-0.0776135
2.56249,0.66748,0
2.66263,0.421719,-0.0313844
2.61014,0.545286,-0.339409
2.51534,0.788259,0.0153202
2.61549,0.546405,-0.0155294
2.5593,0.666649,-0.284878
2.68275,0.424907,-0.253551
2.57341,0.670324,0.06188
2.65868,0.421094,0.0313378
2.55239,0.664849,-0.184436
2.62637,0.548679,-0.219033
2.5105,0.786743,0.0765663
2.62297,0.547967,0.0467725
2.50642,0.785465,-0.168336
2.68197,0.424783,-0.158138
2.57748,0.671384,0.155115
2.62119,0.547596,0.109096
2.56745,0.668772,-0.123587
2.62368,0.548116,-0.14047
2.60686,0.544602,0.217406
2.50566,0.785228,-0.106979
2.57728,0.671332,-0.061973
2.50982,0.77788,-0.0458649
2.6083,0.536357,-0.0774972
2.56845,0.660423,0
2.66394,0.413353,-0.0313844
2.60795,0.536285,-0.338904
2.51016,0.777985,0.0152737
2.62111,0.538992,-0.0155527
2.56909,0.660586,-0.285735
2.68407,0.416477,-0.253551
2.57163,0.66124,0.0617869
2.66789,0.413966,0.0314309
2.55833,0.657821,-0.184715
2.62808,0.540426,-0.219033
2.51678,0.780036,0.0766826
2.62076,0.538919,0.0467026
2.50506,0.776405,-0.16808
2.67934,0.415743,-0.157906
2.57184,0.661295,0.15465
2.62681,0.540164,0.109258
2.58115,0.663688,-0.124145
2.63321,0.54148,-0.140888
2.60856,0.536411,0.217406
2.5043,0.77617,-0.106816
2.57163,0.66124,-0.0617869
2.51252,0.769113,-0.0458649
2.61799,0.528831,-0.0777299
2.57074,0.651453,0
2.67327,0.40525,-0.0314775
2.60203,0.525606,-0.337894
2.51668,0.770388,0.015297
2.62298,0.529838,-0.0155527
2.55981,0.648683,-0.28445
2.68945,0.407701,-0.253923
2.5778,0.653241,0.06188
2.67723,0.405849,0.0315241
2.56448,0.649866,-0.184994
2.63777,0.532827,-0.219684
2.51948,0.771246,0.0766826
2.63046,0.53135,0.0468423
2.51921,0.771161,-0.168848
2.67683,0.405789,-0.157673
2.56639,0.650351,0.154185
2.6326,0.531782,0.109421
2.58345,0.654674,-0.124145
2.63509,0.532285,-0.140888
2.61432,0.52809,0.217731
2.51082,0.768593,-0.106979
2.57392,0.652259,-0.0617869
2.51902,0.761495,-0.0459347
2.61198,0.518133,-0.0774972
2.573,0.642475,0
2.67467,0.395915,-0.0314775
2.61552,0.518836,-0.339409
2.52701,0.763913,0.0153435
2.63266,0.522235,-0.0155992
2.56978,0.64167,-0.285307
2.68297,0.397144,-0.25318
2.57618,0.64327,0.0617869
2.68259,0.397087,0.0315706
2.5706,0.641877,-0.185273
2.6357,0.522839,-0.219359
2.52216,0.762446,0.0766826
2.6323,0.522164,0.0468423
2.51424,0.760052,-0.168336
2.68218,0.397026,-0.157906
2.58027,0.64429,0.154882
2.63052,0.521811,0.109258
2.57409,0.642747,-0.123587
2.64477,0.524637,-0.141307
2.61615,0.518961,0.217731
2.51731,0.76098,-0.107142
2.58394,0.645207,-0.061973
2.52166,0.752698,-0.0459347
2.62162,0.510541,-0.0777299
2.57523,0.63349,0
2.68791,0.388293,-0.0316172
2.62511,0.51122,-0.340419
2.52967,0.755088,0.0153435
2.63446,0.513043,-0.0155992
2.56814,0.631747,-0.284878
2.68829,0.388346,-0.253551
2.5823,0.635229,0.06188
2.67604,0.386577,0.0314775
2.56895,0.631947,-0.184994
2.64143,0.514399,-0.219684
2.53247,0.755925,0.0769154
2.63803,0.513738,0.0469121
2.5207,0.752413,-0.168592
2.68355,0.387662,-0.157906
2.5825,0.63528,0.154882
2.63625,0.51339,0.109421
2.58408,0.635667,-0.123959
2.63874,0.513875,-0.140888
2.62186,0.510588,0.218057
2.51995,0.752189,-0.107142
2.59006,0.63714,-0.0620661
2.52427,0.74389,-0.0459347
2.62731,0.502137,-0.0778463
2.57742,0.624496,0
2.68133,0.377791,-0.0315241
2.62688,0.502053,-0.340419
2.53612,0.747383,0.0153667
2.64017,0.504594,-0.0156224
2.57806,0.624651,-0.285735
2.69751,0.380071,-0.254295
2.58838,0.627152,0.061973
2.68529,0.378349,0.0315706
2.5789,0.624854,-0.185552
2.63537,0.503678,-0.219033
2.52742,0.744819,0.0766826
2.64767,0.506027,0.0470517
2.52714,0.744737,-0.168848
2.68884,0.378849,-0.158138
2.58859,0.627201,0.155115
2.63802,0.504184,0.109421
2.59405,0.628524,-0.124331
2.64444,0.50541,-0.141098
2.61971,0.500684,0.217731
2.52256,0.743387,-0.107142
2.58838,0.627152,-0.061973
2.53069,0.736193,-0.0460045
2.63298,0.493702,-0.0779626
2.58348,0.616426,0
2.67867,0.367887,-0.0314775
2.62471,0.492151,-0.339914
2.53487,0.73741,0.0153435
2.64978,0.496851,-0.0156689
2.58022,0.615649,-0.285735
2.70277,0.371196,-0.254667
2.59445,0.619043,0.0620661
2.69056,0.369519,0.0316172
2.58107,0.61585,-0.185552
2.65279,0.497416,-0.220335
2.53384,0.737111,0.076799
2.64156,0.495309,0.0469121
2.51823,0.732568,-0.16808
2.69806,0.370549,-0.158603
2.59853,0.620017,0.15558
2.6437,0.495711,0.109584
2.58845,0.617613,-0.123959
2.65404,0.497651,-0.141516
2.62928,0.493008,0.218382
2.52514,0.734579,-0.107142
2.59056,0.618115,-0.061973
2.52953,0.725808,-0.0459347
2.64264,0.485491,-0.0781954
2.59351,0.608779,0
2.6919,0.359653,-0.0316172
2.6343,0.48396,-0.340924
2.53372,0.72701,0.0153202
2.64765,0.486411,-0.0156457
2.58634,0.607095,-0.286163
2.71201,0.36234,-0.25541
2.60059,0.610442,0.0621591
2.6919,0.359653,0.0316172
2.58331,0.606384,-0.185552
2.64675,0.486247,-0.219684
2.53653,0.727817,0.076799
2.65122,0.487068,0.0470517
2.52857,0.725533,-0.168592
2.69544,0.360127,-0.158371
2.58912,0.607749,0.154882
2.6455,0.486016,0.109584
2.59459,0.609033,-0.124145
2.65585,0.487918,-0.141516
2.63107,0.483366,0.218382
2.53166,0.726419,-0.107304
2.58891,0.6077,-0.06188
2.52807,0.716326,-0.0458649
2.63636,0.475307,-0.0779626
2.59162,0.599275,0
2.69704,0.351242,-0.0316637
2.63589,0.475222,-0.340924
2.53996,0.719694,0.0153435
2.64531,0.476919,-0.0156224
2.59221,0.599412,-0.286592
2.6974,0.351288,-0.253923
2.59481,0.600013,0.061973
2.69704,0.351242,0.0316637
2.59308,0.599613,-0.18611
2.65227,0.478175,-0.22001
2.54662,0.721582,0.0770317
2.65676,0.478983,0.0471215
2.5348,0.718233,-0.168848
2.70454,0.352218,-0.158836
2.5989,0.60096,0.155347
2.64709,0.477241,0.109584
2.59659,0.600426,-0.124145
2.66138,0.479817,-0.141726
2.64443,0.476761,0.219359
2.5379,0.71911,-0.107467
2.59871,0.600914,-0.0620661
2.53441,0.708574,-0.0459347
2.63801,0.466102,-0.0779626
2.59369,0.590225,0
2.70222,0.342328,-0.0317103
2.63754,0.466019,-0.340924
2.54631,0.711901,0.0153667
2.64696,0.467683,-0.0156224
2.59429,0.59036,-0.286592
2.70651,0.342872,-0.254667
2.60469,0.592727,0.0621591
2.69428,0.341323,0.0316172
2.58348,0.587902,-0.185273
2.65393,0.468915,-0.22001
2.54528,0.711612,0.0769154
2.66629,0.471099,0.0472611
2.5373,0.709381,-0.168848
2.70575,0.342776,-0.158836
2.60099,0.591885,0.155347
2.64874,0.467999,0.109584
2.59478,0.590472,-0.123959
2.65911,0.46983,-0.141516
2.65,0.468221,0.219684
2.54424,0.711323,-0.10763
2.60469,0.592727,-0.0621591
2.54458,0.70185,-0.0460744
2.64356,0.457572,-0.078079
2.59183,0.580293,0
2.69546,0.331915,-0.0316172
2.64697,0.458162,-0.341934
2.55264,0.704072,0.0153899
2.65251,0.459122,-0.0156457
2.59633,0.5813,-0.286592
2.71559,0.334395,-0.25541
2.60674,0.583631,0.0621591
2.7034,0.332893,0.0317103
2.59331,0.580623,-0.185831
2.65555,0.459647,-0.22001
2.5516,0.703786,0.0770317
2.66398,0.461106,0.0471913
2.5436,0.701581,-0.169104
2.70693,0.333329,-0.158836
2.60693,0.583674,0.15558
2.6543,0.459431,0.109747
2.60462,0.583156,-0.124331
2.6686,0.461907,-0.141935
2.59963,0.58204,0.327097
2.63984,0.456928,0.218708
2.53515,0.699249,-0.107142
2.60284,0.582757,-0.0620661
2.54713,0.692519,-0.0460744
2.6531,0.449215,-0.0783117
2.60566,0.573369,0
2.7046,0.322983,-0.0317103
2.58627,0.569102,-0.41199
2.64472,0.447795,-0.341429
2.55134,0.693662,0.0153667
2.66207,0.450733,-0.0156922
2.60621,0.57349,-0.287448
2.72471,0.325385,-0.256154
2.61277,0.574933,0.0622522
2.71254,0.323932,0.0318034
2.60321,0.57283,-0.186389
2.66508,0.451243,-0.22066
2.55416,0.694429,0.0770317
2.65776,0.450004,0.0470517
2.54616,0.692254,-0.169104
2.71607,0.324353,-0.159301
2.61295,0.574974,0.155813
2.65596,0.4497,0.109747
2.61064,0.574465,-0.124517
2.67028,0.452124,-0.141935
2.60563,0.573361,0.327585
2.64542,0.447915,0.219033
2.54541,0.69205,-0.107467
2.61277,0.574933,-0.0622522
2.5493,0.684514,-0.0460744
2.65055,0.440223,-0.0781954
2.61136,0.566028,0
2.70957,0.314947,-0.0317569
2.58804,0.560974,-0.41199
2.65394,0.440785,-0.342439
2.55351,0.685644,0.0153667
2.66347,0.442368,-0.0156922
2.60411,0.564458,-0.28702
2.61847,0.567569,0.0623452
2.71355,0.315409,0.0318034
2.6128,0.56634,-0.186947
2.66648,0.442869,-0.22066
2.55247,0.685365,0.0769154
2.66311,0.442308,0.0471215
2.55218,0.685287,-0.16936
2.71707,0.315819,-0.159301
2.61475,0.566763,0.155813
2.66525,0.442664,0.110073
2.60853,0.565415,-0.124331
2.67957,0.445042,-0.142354
2.60741,0.565173,0.327585
2.64682,0.439603,0.219033
2.55143,0.685087,-0.10763
2.61065,0.565875,-0.0621591
2.55167,0.67561,-0.0460744
2.65207,0.430968,-0.0781954
2.61332,0.556909,0
2.71463,0.305934,-0.0318034
2.59385,0.55276,-0.412604
2.65938,0.432154,-0.342945
2.56748,0.679797,0.0154364
2.66894,0.433709,-0.0157154
2.61385,0.557021,-0.287877
2.61652,0.557591,0.0622522
2.72258,0.30683,0.0318966
2.61476,0.557215,-0.186947
2.67195,0.434197,-0.220986
2.55871,0.677474,0.0770317
2.67253,0.434292,0.0472611
2.55455,0.676373,-0.16936
2.72609,0.307226,-0.159766
2.61671,0.557631,0.155813
2.65889,0.432075,0.109747
2.6144,0.557138,-0.124517
2.67716,0.435044,-0.142144
2.60937,0.556068,0.327585
2.65227,0.431,0.219359
2.55767,0.677199,-0.107793
2.61652,0.557591,-0.0622522
2.56175,0.668719,-0.046214
2.65356,0.421707,-0.0781954
2.61525,0.547782,0
2.71966,0.29689,-0.03185
2.5919,0.542892,-0.41199
2.66087,0.422868,-0.342945
2.56597,0.66982,0.0154132
2.67044,0.42439,-0.0157154
2.61578,0.547893,-0.287877
2.62237,0.549274,0.0623452
2.71568,0.296456,0.0318034
2.60888,0.546448,-0.186389
2.67345,0.424867,-0.220986
2.56106,0.668538,0.0770317
2.67403,0.42496,0.0472611
2.56076,0.66846,-0.169615
2.72715,0.297708,-0.159766
2.62255,0.549312,0.156045
2.66433,0.423418,0.10991
2.62415,0.549647,-0.12489
2.67472,0.425069,-0.141935
2.6113,0.546955,0.327585
2.6577,0.422364,0.219684
2.55615,0.667257,-0.10763
2.61845,0.548454,-0.0622522
2.5602,0.658777,-0.0461442
2.66687,0.414283,-0.0785444
2.61714,0.538651,0
2.7167,0.286975,-0.0318034
2.59378,0.533841,-0.41199
2.66625,0.414187,-0.34345
2.57604,0.662853,0.0154597
2.67586,0.41568,-0.0157387
2.62157,0.539561,-0.288305
2.62427,0.540117,0.0623452
2.72465,0.287815,0.0318966
2.61468,0.538143,-0.186668
2.67097,0.414921,-0.22066
2.55951,0.658598,0.0769154
2.6755,0.415624,0.0472611
2.56694,0.660512,-0.169871
2.73611,0.289026,-0.160231
2.62445,0.540155,0.156045
2.67369,0.415342,0.110235
2.62605,0.540484,-0.12489
2.68013,0.416344,-0.142144
2.61319,0.537837,0.327585
2.65521,0.412473,0.219359
2.55847,0.658331,-0.10763
2.62819,0.540923,-0.0624383
2.57024,0.651801,-0.0462838
2.67225,0.405571,-0.0786608
2.62685,0.531097,0
2.72166,0.277896,-0.03185
2.5995,0.525567,-0.412604
2.67945,0.406663,-0.344965
2.57446,0.652873,0.0154364
2.6852,0.407537,-0.0157852
2.62733,0.531195,-0.288734
2.63398,0.532538,0.0625313
2.72564,0.278302,0.0318966
2.62045,0.529803,-0.186947
2.68423,0.407389,-0.221637
2.56954,0.651625,0.0771481
2.67693,0.406281,0.0472611
2.56537,0.650566,-0.169615
2.73711,0.279473,-0.160231
2.63415,0.532572,0.15651
2.67907,0.406606,0.110398
2.63575,0.532897,-0.125262
2.68552,0.407584,-0.142354
2.61894,0.529498,0.328072
2.66058,0.403799,0.219684
2.56462,0.650378,-0.107793
2.62614,0.530953,-0.0623452
2.56086,0.639919,-0.0460744
2.66574,0.39507,-0.0784281
2.63261,0.522705,0
2.7266,0.268788,-0.0318966
2.60519,0.517261,-0.413219
2.58061,0.644854,0.0154597
2.6787,0.39699,-0.0157387
2.62137,0.520473,-0.287877
2.63974,0.524121,0.0626244
2.7266,0.268788,0.0318966
2.6262,0.521431,-0.187226
2.68169,0.397434,-0.221311
2.57568,0.643623,0.0772645
2.68625,0.398109,0.0474007
2.57537,0.643544,-0.170127
2.73807,0.269918,-0.160231
2.62816,0.521821,0.156045
2.68838,0.398425,0.110724
2.64152,0.524473,-0.125448
2.69483,0.399381,-0.142773
2.63246,0.522675,0.329535
2.66592,0.395096,0.22001
2.57076,0.642392,-0.107956
2.62798,0.521784,-0.0623452
2.57084,0.632887,-0.046214
2.67106,0.386334,-0.0785444
2.63835,0.514277,0
2.73548,0.260025,-0.0319897
2.61086,0.50892,-0.413834
2.57896,0.634885,0.0154364
2.68403,0.388209,-0.0157619
2.62707,0.51208,-0.288305
2.63371,0.513372,0.0624383
2.73946,0.260403,0.0320363
2.63192,0.513024,-0.187505
2.69095,0.389211,-0.221962
2.57403,0.633671,0.0771481
2.69158,0.389302,0.0474705
2.57372,0.633596,-0.169871
2.74297,0.260736,-0.160464
2.6378,0.514171,0.15651
2.68185,0.387894,0.110398
2.63549,0.51372,-0.125076
2.70016,0.390543,-0.142982
2.63427,0.513482,0.329535
2.67123,0.386358,0.220335
2.57298,0.633414,-0.107956
2.63371,0.513372,-0.0624383
2.57692,0.624851,-0.0462838
2.67635,0.377566,-0.0786608
2.62441,0.502057,0
2.73637,0.250474,-0.0319897
2.61651,0.500545,-0.414449
2.58116,0.625878,0.0154364
2.68932,0.379396,-0.0157852
2.62885,0.502906,-0.288305
2.63941,0.504927,0.0625313
2.73637,0.250474,0.0319897
2.62585,0.502333,-0.186947
2.69624,0.380372,-0.222288
2.58011,0.625624,0.0772645
2.69688,0.380462,0.0475404
2.58368,0.626489,-0.170383
2.74784,0.251523,-0.160696
2.6435,0.50571,0.156743
2.68318,0.378529,0.110398
2.64119,0.505267,-0.125262
2.69755,0.380556,-0.142773
2.62824,0.502791,0.32856
2.68045,0.378144,0.220986
2.57906,0.62537,-0.108119
2.63548,0.504175,-0.0624383
2.57909,0.615853,-0.0462838
2.68558,0.369311,-0.0788935
2.63401,0.494369,0
2.73325,0.240571,-0.0319431
2.61435,0.49068,-0.413834
2.58722,0.617794,0.0154597
2.6946,0.370551,-0.0158084
2.6384,0.495194,-0.289162
2.64116,0.495711,0.0625313
2.74122,0.241272,0.0320363
2.63544,0.494637,-0.187505
2.69755,0.370958,-0.222288
2.58228,0.616614,0.0772645
2.70612,0.372136,0.04768
2.58585,0.617467,-0.170383
2.75665,0.242631,-0.161161
2.64918,0.497216,0.156975
2.69241,0.370251,0.110724
2.64294,0.496045,-0.125262
2.70282,0.371682,-0.142982
2.63779,0.495079,0.329535
2.67781,0.368243,0.22066
2.57734,0.615436,-0.107956
2.64509,0.496448,-0.0626244
2.58511,0.607761,-0.0463536
2.69081,0.360465,-0.0790099
2.64359,0.486619,0
2.74603,0.232038,-0.0320828
2.61605,0.481551,-0.413834
2.58936,0.608759,0.0154597
2.69587,0.361143,-0.0158084
2.64403,0.486701,-0.28959
2.6468,0.487212,0.0626244
2.74603,0.232038,0.0320828
2.64107,0.486156,-0.187784
2.69883,0.361539,-0.222288
2.58052,0.606681,0.0771481
2.69947,0.361625,0.0475404
2.5841,0.607522,-0.170127
2.65482,0.488688,0.157208
2.69764,0.36138,0.110887
2.65251,0.488262,-0.125634
2.71202,0.363306,-0.143401
2.6434,0.486586,0.330022
2.58726,0.608264,-0.108281
2.6468,0.487212,-0.0626244
2.58722,0.598734,-0.0463536
2.69206,0.351071,-0.0790099
2.64527,0.477389,0
2.75479,0.223097,-0.032176
2.63716,0.475926,-0.416909
2.58757,0.598815,0.0154364
2.68918,0.350696,-0.0157619
2.6418,0.476762,-0.289162
2.66029,0.480101,0.0629035
2.75081,0.222775,0.0321294
2.64668,0.477644,-0.188063
2.70403,0.352632,-0.222613
2.59041,0.599473,0.0773808
2.70468,0.352717,0.0476102
2.58621,0.598499,-0.170127
2.65258,0.478709,0.156975
2.69889,0.351962,0.110887
2.65813,0.479711,-0.12582
2.72119,0.35487,-0.143819
2.6529,0.478766,0.330997
2.58936,0.59923,-0.108281
2.65242,0.47868,-0.0627174
2.58929,0.5897,-0.0463536
2.69723,0.342175,-0.0791263
2.6548,0.469546,0
2.75954,0.21379,-0.0322225
2.59744,0.591556,0.0154829
2.70626,0.343321,-0.0158549
2.65128,0.468924,-0.290019
2.65014,0.468723,0.0626244
2.75556,0.213481,0.032176
2.65619,0.469793,-0.188622
2.71711,0.344697,-0.22359
2.59249,0.590428,0.0773808
2.7178,0.344785,0.0478196
2.59995,0.592128,-0.170895
2.65424,0.469448,0.156975
2.7001,0.342539,0.110887
2.64799,0.468342,-0.125262
2.72241,0.34537,-0.143819
2.65846,0.470195,0.331485
2.59144,0.590188,-0.108281
2.65014,0.468723,-0.0626244
2.59134,0.580657,-0.0463536
2.69841,0.332757,-0.0791263
2.64854,0.45891,0
2.76027,0.204155,-0.0322225
2.59949,0.582485,0.0154829
2.70348,0.333382,-0.0158317
2.6529,0.459666,-0.290019
2.6557,0.460151,0.0627174
2.7523,0.203565,0.0321294
2.64995,0.459155,-0.188063
2.71434,0.334722,-0.223264
2.59454,0.581374,0.0773808
2.71502,0.334805,0.0477498
2.6059,0.583921,-0.17115
2.66373,0.461542,0.15744
2.69731,0.332622,0.110724
2.64961,0.459095,-0.125262
2.71567,0.334886,-0.143401
2.65227,0.459556,0.33051
2.60128,0.582886,-0.108607
2.65176,0.459469,-0.0626244
2.59715,0.572923,-0.0464234
2.70744,0.32476,-0.079359
2.66187,0.452135,0
2.76093,0.195001,-0.0322225
2.60141,0.573862,0.0154829
2.70457,0.324416,-0.0158317
2.65441,0.450866,-0.290019
2.66115,0.452012,0.0628105
2.75295,0.194437,0.0321294
2.65539,0.451033,-0.188342
2.71544,0.32572,-0.223264
2.59645,0.572768,0.0773808
2.71611,0.325801,0.0477498
2.60392,0.574417,-0.170895
2.66131,0.452039,0.157208
2.71031,0.325104,0.111212
2.66293,0.452314,-0.12582
2.71677,0.32588,-0.143401
2.68117,0.455413,0.333922
2.5954,0.572535,-0.108281
2.66115,0.452012,-0.0628105
2.61086,0.566397,-0.0466328
2.70855,0.315307,-0.079359
2.6516,0.440871,0
2.76559,0.185629,-0.0322691
2.6034,0.564777,0.0154829
2.7176,0.31636,-0.0159014
2.65596,0.441597,-0.290019
2.67061,0.444031,0.0629966
2.76559,0.185629,0.0322691
2.66088,0.442415,-0.188622
2.72052,0.316699,-0.22359
2.60234,0.564548,0.0774972
2.71326,0.315855,0.04768
2.60201,0.564477,-0.170639
2.67469,0.44471,0.157906
2.71143,0.315641,0.111212
2.66449,0.443015,-0.12582
2.72979,0.317779,-0.144029
2.60128,0.564319,-0.108444
2.66666,0.443376,-0.0629035
2.60109,0.554777,-0.0464234
2.71759,0.306748,-0.0795917
2.66891,0.434183,0
2.7742,0.176483,-0.0323622
2.60535,0.555687,0.0154829
2.71472,0.306424,-0.0158782
2.65749,0.432324,-0.290019
2.67214,0.434707,0.0629966
2.66241,0.433125,-0.188622
2.72557,0.307649,-0.223915
2.6043,0.555461,0.0774972
2.72627,0.307728,0.0478894
2.61178,0.557056,-0.17115
2.66834,0.434089,0.15744
2.7284,0.307968,0.111864
2.67391,0.434995,-0.126192
2.73883,0.309145,-0.144447
2.60715,0.556069,-0.108607
2.66424,0.433423,-0.0628105
2.60692,0.546516,-0.0464932
2.71069,0.296391,-0.079359
2.67436,0.425493,0
2.7748,0.166799,-0.0323622
2.61511,0.548231,0.0155294
2.7277,0.298251,-0.0159479
2.66291,0.42367,-0.290447
2.66969,0.424749,0.0629035
2.67179,0.425083,-0.18918
2.74644,0.3003,-0.225542
2.61404,0.548008,0.0777299
2.7313,0.298645,0.0479592
2.6137,0.547937,-0.17115
2.67378,0.4254,0.157673
2.72151,0.297574,0.111538
2.66752,0.424404,-0.12582
2.73989,0.299584,-0.144447
2.61298,0.547786,-0.10877
2.67364,0.425378,-0.0629966
2.62057,0.539832,-0.0467026
2.72364,0.288189,-0.0797081
2.66793,0.414925,0
2.78335,0.157563,-0.0324553
2.61701,0.539099,0.0155294
2.7327,0.289147,-0.0159711
2.66437,0.414372,-0.290447
2.68301,0.417271,0.0631827
2.6772,0.416367,-0.189459
2.61986,0.539686,0.0778463
2.72835,0.288687,0.0478894
2.6156,0.538809,-0.17115
2.6792,0.416678,0.157906
2.73048,0.288913,0.111864
2.67688,0.416317,-0.126192
2.74092,0.290017,-0.144447
2.61879,0.539467,-0.108933
2.67116,0.415427,-0.0629035
2.61852,0.529889,-0.0466328
2.72463,0.27868,-0.0797081
2.68122,0.407413,0
2.7759,0.147423,-0.0323622
2.61887,0.529961,0.0155294
2.73369,0.279607,-0.0159711
2.66973,0.405667,-0.290876
2.67654,0.406702,0.0629966
2.6668,0.405221,-0.188622
2.60997,0.528159,0.0774972
2.7373,0.279976,0.048029
2.62138,0.530468,-0.171406
2.68458,0.407923,0.158138
2.7275,0.278974,0.111701
2.67437,0.406371,-0.126006
2.74191,0.280448,-0.144447
2.61674,0.52953,-0.10877
2.6805,0.407302,-0.0630896
2.62427,0.521524,-0.0467026
2.72956,0.26956,-0.0798244
2.68263,0.39805,0
2.78439,0.138128,-0.0324553
2.62071,0.520815,0.0155294
2.73863,0.270456,-0.0159944
2.68294,0.398096,-0.292161
2.68981,0.399116,0.0632757
2.67609,0.397081,-0.18918
2.61964,0.520604,0.0777299
2.73826,0.270419,0.048029
2.6193,0.520536,-0.17115
2.69389,0.399721,0.158603
2.74436,0.271022,0.112352
2.68368,0.398206,-0.126379
2.74685,0.271267,-0.144657
2.6225,0.521171,-0.108933
2.68586,0.398529,-0.0631827
2.62608,0.51236,-0.0467026
2.73447,0.260409,-0.0799408
2.684,0.388683,0
2.78485,0.128407,-0.0324553
2.62643,0.512429,0.0155527
2.7316,0.260135,-0.0159479
2.6725,0.387017,-0.290876
2.69911,0.39087,0.0634618
2.68931,0.389452,-0.190017
2.62144,0.511456,0.0777299
2.73521,0.260479,0.0479592
2.62502,0.512153,-0.171406
2.69527,0.390315,0.158603
2.689,0.389407,-0.126565
2.75573,0.262434,-0.145075
2.6243,0.512013,-0.108933
2.68723,0.389151,-0.0631827
2.62785,0.503192,-0.0467026
2.72739,0.250134,-0.0797081
2.69326,0.380432,0
2.63213,0.504012,0.0155759
2.74444,0.251696,-0.0160176
2.68565,0.379357,-0.292161
2.69254,0.380329,0.0632757
2.69461,0.380622,-0.190296
2.62714,0.503056,0.0778463
2.74008,0.251297,0.048029
2.63071,0.50374,-0.171662
2.68871,0.379789,0.158138
2.68243,0.378903,-0.126192
2.76061,0.25318,-0.145285
2.63785,0.505106,-0.109421
2.68858,0.37977,-0.0631827
2.63352,0.494754,-0.0467725
2.7402,0.241665,-0.0800572
2.69061,0.370483,0
2.63781,0.495559,0.0155992
2.75327,0.242817,-0.0160641
2.69484,0.371064,-0.293018
2.70177,0.372019,0.0634618
2.69197,0.370669,-0.190017
2.63281,0.49462,0.0779626
2.74891,0.242433,0.0481686
2.64422,0.496764,-0.17243
2.69397,0.370945,0.158371
2.69166,0.370626,-0.126565
2.75352,0.242839,-0.144866
2.63567,0.495157,-0.109258
2.69781,0.371473,-0.0633688
2.64703,0.487733,-0.0469819
2.74501,0.232436,-0.0801735
2.69189,0.361089,0
2.64346,0.487074,0.0156224
2.7541,0.233206,-0.0160641
2.70702,0.363118,0.0635549
2.6972,0.361801,-0.190296
2.63845,0.486152,0.078079
2.75771,0.233511,0.0483083
2.64201,0.486808,-0.172174
2.70713,0.363133,0.159068
2.69293,0.361229,-0.126565
2.76629,0.234238,-0.145494
2.64131,0.486678,-0.109421
2.70305,0.362586,-0.0634618
2.64478,0.477778,-0.0469121
2.74182,0.222529,-0.0800572
2.70107,0.352725,0
2.6412,0.477132,0.0155992
2.75888,0.223913,-0.0160874
2.70827,0.353666,0.0635549
2.7024,0.3529,-0.190575
2.6362,0.476227,0.0779626
2.76249,0.224207,0.0483781
2.6437,0.477582,-0.172174
2.70838,0.35368,0.159068
2.7021,0.352861,-0.126937
2.76709,0.22458,-0.145494
2.63906,0.476744,-0.109258
2.7043,0.353148,-0.0634618
2.63856,0.467148,-0.0467725
2.74657,0.213265,-0.0801735
2.70228,0.343294,0
2.64285,0.467909,0.0155992
2.75965,0.214281,-0.0160874
2.71742,0.345217,0.063741
2.70757,0.343966,-0.190854
2.64178,0.467719,0.078079
2.75927,0.214252,0.0483083
2.64535,0.46835,-0.172174
2.70959,0.344223,0.159068
2.69935,0.342922,-0.126751
2.64858,0.468922,-0.109584
2.70155,0.343201,-0.0633688
2.64411,0.458619,-0.0468423
2.75527,0.204269,-0.0804062
2.70743,0.33435,0
2.64841,0.459365,0.0156224
2.76836,0.205239,-0.0161339
2.71861,0.33573,0.063741
2.70876,0.334514,-0.190854
2.65128,0.459861,0.0783117
2.77596,0.205802,0.0485875
2.6509,0.459796,-0.17243
2.71078,0.334763,0.159068
2.71243,0.334967,-0.127309
2.65807,0.461041,-0.10991
2.7067,0.33426,-0.0634618
2.6535,0.45119,-0.0469819
2.75194,0.194849,-0.0802899
2.7125,0.325848,0
2.65781,0.451921,0.0156689
2.76902,0.196058,-0.0161339
2.71971,0.326713,0.063741
2.71381,0.326006,-0.191133
2.65279,0.451067,0.0783117
2.65635,0.451673,-0.172685
2.71584,0.326249,0.159301
2.71749,0.326448,-0.127495
2.65565,0.451554,-0.109747
2.71971,0.326713,-0.063741
2.65506,0.441924,-0.0469819
2.7566,0.185509,-0.0804062
2.71759,0.31684,0
2.65937,0.44264,0.0156689
2.76969,0.18639,-0.0161339
2.72877,0.318143,0.0639271
2.71097,0.316068,-0.190854
2.6504,0.441148,0.0781954
2.66578,0.443708,-0.173197
2.72093,0.317229,0.159533
2.71862,0.316959,-0.127495
2.66115,0.442937,-0.10991
2.71686,0.316754,-0.0636479
2.66054,0.433297,-0.0470517
2.76521,0.176395,-0.080639
2.71868,0.307352,0
2.65695,0.432712,0.0156457
2.77431,0.176976,-0.0161571
2.72987,0.308617,0.0639271
2.71999,0.3075,-0.191412
2.65982,0.433179,0.0784281
2.66731,0.4344,-0.173197
2.72995,0.308627,0.159999
2.72368,0.307917,-0.127681
2.66268,0.433646,-0.10991
2.72589,0.308168,-0.0638341
2.66598,0.424635,-0.0471215
2.76581,0.166741,-0.080639
2.71974,0.29786,0
2.66634,0.424693,0.0156922
2.77092,0.16705,-0.0161339
2.7349,0.29952,0.0640202
2.72105,0.298003,-0.191412
2.66131,0.423891,0.0784281
2.67276,0.425714,-0.173453
2.73268,0.299277,-0.128054
2.67207,0.425605,-0.110235
2.72298,0.298214,-0.063741
2.6714,0.415941,-0.0471913
2.73269,0.289628,0
2.66781,0.415382,0.0156922
2.78746,0.158283,-0.0162269
2.73196,0.28955,0.0639271
2.72604,0.288923,-0.191691
2.67068,0.415829,0.0786608
2.67028,0.415767,-0.173197
2.72179,0.288472,-0.127495
2.67749,0.41689,-0.110398
2.73196,0.28955,-0.0639271
2.67679,0.407217,-0.0472611
2.72175,0.278866,0
2.6732,0.406671,0.0157154
2.77602,0.147915,-0.0161571
2.74091,0.280829,0.0641132
2.72306,0.279,-0.191412
2.67606,0.407107,0.0787772
2.68356,0.408246,-0.173965
2.72675,0.279379,-0.127681
2.67498,0.406942,-0.110235
2.73693,0.280421,-0.0640202
2.6782,0.39787,-0.0472611
2.73465,0.270545,0
2.68251,0.398512,0.0157619
2.74187,0.271259,0.0641132
2.73196,0.270279,-0.19197
2.66956,0.396587,0.0785444
2.68891,0.399462,-0.17422
2.73169,0.270252,-0.127868
2.68034,0.398188,-0.110398
2.74187,0.271259,-0.0641132
2.67957,0.38852,-0.0472611
2.73558,0.260998,0
2.67597,0.387998,0.0157154
2.75076,0.262446,0.0642993
2.6828,0.388988,0.0788935
2.67844,0.388356,-0.173453
2.73261,0.260715,-0.127868
2.67775,0.388257,-0.110235
2.7428,0.261687,-0.0641132
2.68091,0.379163,-0.0472611
2.74046,0.251813,0
2.68919,0.380335,0.0157852
2.75564,0.253208,0.0643924
2.68018,0.37906,0.0787772
2.68768,0.380122,-0.173965
2.73351,0.251174,-0.127868
2.68701,0.380026,-0.110561
2.74768,0.252476,-0.0642063
2.69014,0.370895,-0.0474007
2.74132,0.242244,0
2.67862,0.369306,0.0157154
2.74854,0.242883,0.0642063
2.68941,0.370794,0.0790099
2.68899,0.370737,-0.173965
2.73835,0.241982,-0.128054
2.68436,0.370098,-0.110398
2.74058,0.242179,-0.0640202
2.69538,0.362035,-0.0474705
2.75012,0.233351,0
2.69178,0.361551,0.0157852
2.75734,0.233964,0.0643924
2.69465,0.361937,0.0791263
2.69818,0.362412,-0.174476
2.73918,0.232423,-0.128054
2.70148,0.362854,-0.111049
2.75336,0.233626,-0.0642993
2.70059,0.353143,-0.0475404
2.74294,0.223102,0
2.69699,0.352672,0.0158084
2.76611,0.224987,0.0645785
2.69986,0.353048,0.0792426
2.70339,0.353509,-0.174732
2.74395,0.223184,-0.12824
2.6948,0.352386,-0.110724
2.75017,0.22369,-0.0642063
2.70566,0.345163,-0.0476102
2.74363,0.214483,0
2.69809,0.344197,0.0158084
2.69699,0.344057,0.0791263
2.70053,0.344508,-0.174476
2.75261,0.215185,-0.128612
2.70383,0.344929,-0.111049
2.76681,0.216295,-0.0645785
2.70288,0.335224,-0.0475404
2.75234,0.205501,0
2.70324,0.33527,0.0158317
2.71008,0.336118,0.0794753
2.7136,0.336554,-0.175244
2.70501,0.335489,-0.111049
2.75957,0.20604,-0.0643924
2.71203,0.32627,-0.04768
2.75706,0.195694,0
2.70842,0.325837,0.0158549
2.70335,0.325227,0.0792426
2.71085,0.326129,-0.174988
2.7221,0.327482,-0.111701
2.77227,0.196773,-0.0646715
2.70912,0.316811,-0.0476102
2.7577,0.186551,0
2.70552,0.316389,0.0158317
2.7203,0.318118,0.0797081
2.71588,0.317602,-0.175244
2.7192,0.317989,-0.111538
2.76892,0.18731,-0.0645785
2.72213,0.308705,-0.0478196
2.76632,0.177436,0
2.7225,0.308747,0.0159246
2.70948,0.30727,0.079359
2.72094,0.30857,-0.1755
2.71632,0.308046,-0.111375
2.77754,0.178156,-0.0647646
2.7312,0.299597,-0.0479592
2.76695,0.167295,0
2.71169,0.297457,0.0158549
2.72648,0.29908,0.0798244
2.72999,0.299465,-0.176011
2.7214,0.298523,-0.111538
2.78616,0.168456,-0.0649507
2.7282,0.290115,-0.0478894
2.77947,0.158802,0
2.72459,0.289731,0.0159246
2.72746,0.290037,0.0798244
2.73097,0.290409,-0.176011
2.72635,0.289919,-0.111701
2.77872,0.158759,-0.0647646
2.73317,0.281001,-0.0479592
2.72559,0.280221,0.0159246
2.72448,0.280107,0.0797081
2.73197,0.280877,-0.176011
2.7353,0.28122,-0.112026
2.77925,0.149061,-0.0647646
2.73419,0.270981,-0.0479592
2.7266,0.270229,0.0159246
2.7414,0.271696,0.0801735
2.73695,0.271255,-0.176267
2.74029,0.271586,-0.112189
2.74303,0.262676,-0.0480988
2.73146,0.261567,0.0159479
2.73035,0.261461,0.0798244
2.74975,0.263319,-0.177034
2.7372,0.262117,-0.112026
2.74393,0.253098,-0.0480988
2.73235,0.25203,0.0159479
2.74319,0.25303,0.0801735
2.74208,0.252927,-0.112189
2.75281,0.243746,-0.0482385
2.74521,0.243073,0.0160176
2.76401,0.244738,0.0807553
2.75095,0.243581,-0.112515
2.74966,0.233795,-0.0481686
2.73807,0.23281,0.0159711
2.75178,0.233976,-0.112515
2.75436,0.225483,-0.0482385
2.75075,0.225187,0.0160409
2.75648,0.225656,-0.112678
2.76318,0.215527,-0.0483781
2.7516,0.214623,0.0160409
2.75335,0.214759,-0.112515
2.76392,0.205879,-0.0483781
2.75233,0.205016,0.0160409
2.76205,0.20574,-0.112841
2.76462,0.196231,-0.0483781
2.76101,0.195974,0.0160874
2.78269,0.197513,-0.113655
2.76529,0.186579,-0.0483781
2.76167,0.186335,0.0160874
2.76985,0.178148,-0.0484479
2.77451,0.167752,-0.0485177
2.77907,0.158294,-0.0485875
2.78355,0.149777,-0.0486573
2.78405,0.14006,-0.0486573
2.78854,0.130041,-0.0487271
