3.11302,-0.0499892,0.126844
3.09535,-0.0497056,-0.162241
3.0008,-0.2051,-0.0350164
3.09937,-0.060052,-0.0180169
2.98006,-0.203683,-0.278832
2.9968,-0.204827,0.0349698
3.08914,-0.0598539,-0.25223
3.09895,-0.0600439,0.0541025
2.99194,-0.204495,-0.17465
3.09685,-0.0600033,0.126193
3.08718,-0.059816,-0.161823
2.99208,-0.215001,-0.0349233
3.08714,-0.070597,-0.0179472
2.9833,-0.21437,-0.279204
2.98809,-0.214714,0.0348767
3.06899,-0.0701818,-0.250603
3.09872,-0.0708617,0.0541025
2.98722,-0.214652,-0.174417
3.09662,-0.0708137,0.126193
3.07897,-0.0704101,-0.161404
3.06564,-0.0808119,-0.0892498
3.17919,0.0715908,0
2.98334,-0.224842,-0.0348301
3.08688,-0.0813718,-0.0179472
2.96665,-0.223584,-0.277717
2.97935,-0.224541,0.0347836
3.06474,-0.0807882,-0.250277
3.07846,-0.08115,0.0537534
2.98247,-0.224777,-0.174185
3.08836,-0.0814111,0.125867
3.17575,0.0715133,-0.147969
3.07471,-0.0810511,-0.161195
3.06132,-0.0919275,-0.0891334
3.17944,0.059938,0
2.97452,-0.235144,-0.034737
3.07456,-0.0923251,-0.0178774
2.96581,-0.234456,-0.277717
2.97452,-0.235144,0.034737
3.06044,-0.0919008,-0.249952
3.07415,-0.0923126,0.0536836
2.96969,-0.234763,-0.173487
3.08006,-0.09249,0.125541
3.16401,0.0596472,-0.147411
3.0704,-0.0922001,-0.160985
3.17857,0.0599218,-0.0739768
3.049,-0.102211,-0.0887843
3.17163,0.0487165,0
2.97368,-0.245526,-0.034737
3.07022,-0.102923,-0.0178542
2.95704,-0.244152,-0.276973
2.97368,-0.245526,0.034737
3.06408,-0.102717,-0.250277
3.06981,-0.102909,0.0536138
2.96089,-0.24447,-0.173022
3.06374,-0.102705,0.12489
3.1562,0.0484796,-0.147038
3.06208,-0.10265,-0.160567
3.15977,0.0380542,0
2.96488,-0.254701,-0.0346439
2.95224,-0.253616,-0.276602
2.95691,-0.254016,0.0345507
3.05575,-0.112583,-0.249626
3.06945,-0.113088,0.0536138
2.96006,-0.254287,-0.173022
3.05938,-0.112717,0.124727
3.15235,0.0379649,-0.146852
3.04974,-0.112362,-0.159939
3.16691,0.0381403,-0.0736976
3.04421,-0.123333,-0.0886679
3.15189,0.0264058,0
2.95596,-0.264852,-0.0345507
2.94733,-0.264079,-0.27623
2.95596,-0.264852,0.0345507
3.03939,-0.123137,-0.248324
2.95116,-0.264422,-0.172557
3.05895,-0.12393,0.124727
3.14848,0.0263772,-0.146666
3.04931,-0.123539,-0.159939
3.15903,0.0264657,-0.0735115
3.14796,0.015384,0
3.02861,-0.133291,-0.385876
3.05299,-0.134364,-0.0177612
2.94307,-0.274056,0.034411
3.14029,0.0153465,-0.219593
3.03894,-0.133746,-0.248324
3.04459,-0.133994,0.0531949
3.05051,-0.134255,0.124401
3.14455,0.0153673,-0.14648
3.04088,-0.133831,-0.15952
3.14711,0.0153798,-0.0732324
3.02333,-0.143106,-0.0880861
3.144,0.00493858,0
2.94612,-0.284198,-0.0344576
3.02022,-0.142958,-0.384866
3.04454,-0.144109,-0.0177147
2.93753,-0.28337,-0.275486
2.93816,-0.28343,0.0343645
3.13235,0.00492029,-0.219035
3.03051,-0.143446,-0.247673
3.04413,-0.14409,0.0531949
2.94134,-0.283737,-0.172092
3.04207,-0.143992,0.124076
3.03643,-0.143725,-0.159311
3.03848,-0.143823,0.248324
3.13515,0.00492469,-0.0729532
3.13599,-0.00602068,0
2.93317,-0.293287,-0.0343179
3.01574,-0.153299,-0.38436
3.03603,-0.15433,-0.0176682
2.9286,-0.292829,-0.274743
3.14314,-0.00603441,0.0731393
2.93317,-0.293287,0.0343179
3.12437,-0.00599835,-0.218477
2.93238,-0.293208,-0.171626
3.02957,-0.154002,0.123587
3.1326,-0.00601416,-0.145922
3.02793,-0.153918,-0.158892
3.12715,-0.0060037,-0.0727671
3.01028,-0.163558,-0.087737
3.11995,-0.0168807,0
3.01519,-0.163825,-0.38436
2.91622,-0.301876,0.0341317
3.10836,-0.016818,-0.217361
2.92737,-0.303031,-0.171394
3.02902,-0.164576,0.123587
3.12057,-0.0168841,-0.145363
3.0194,-0.164053,-0.158473
3.02148,-0.164166,0.247023
3.11911,-0.0168762,-0.072581
3.00969,-0.174065,-0.087737
3.11588,-0.0277357,0
2.91912,-0.31248,-0.0341782
3.00668,-0.17389,-0.38335
3.12703,-0.027835,0.0727671
2.91515,-0.312054,0.0341317
3.10031,-0.0275971,-0.216803
3.00895,-0.174022,-0.246046
3.02044,-0.174687,0.123262
3.1165,-0.0277412,-0.145177
3.01482,-0.174361,-0.158264
3.01293,-0.174252,0.246372
3.11503,-0.0277282,-0.072488
3.00109,-0.18408,-0.0875043
3.10776,-0.0385128,0
2.90609,-0.321349,-0.0340385
2.99813,-0.183899,-0.38234
2.90954,-0.32173,-0.273256
3.11492,-0.0386015,0.072488
2.90609,-0.321349,0.0340385
3.09221,-0.0383201,-0.216245
3.00434,-0.18428,-0.245721
3.00988,-0.18462,0.0526365
2.91328,-0.322143,-0.170696
3.00785,-0.184495,0.122773
3.1044,-0.0384711,-0.144619
3.10292,-0.0384529,-0.0722088
3.19378,0.10539,-0.0557779
2.99245,-0.194037,-0.0872716
3.09561,-0.0491701,0
2.90495,-0.331491,-0.0340385
2.99351,-0.194106,-0.381835
3.00564,-0.194893,-0.0175055
3.11077,-0.0494109,0.0723949
2.897,-0.330584,0.0339454
3.08807,-0.0490504,-0.215966
2.99572,-0.19425,-0.24507
3.00922,-0.195125,0.0526365
2.9042,-0.331405,-0.170231
3.0032,-0.194734,0.12261
3.10025,-0.0492438,-0.144433
3.00157,-0.194629,-0.157636
3.09077,-0.0490933,-0.0719296
3.19011,0.0946802,-0.0557081
2.99179,-0.20396,-0.0872716
3.09143,-0.0593585,0
2.90781,-0.341589,-0.0340851
3.10259,-0.0595727,0.0722088
2.89589,-0.340189,0.0339454
3.07991,-0.0591373,-0.215408
2.89515,-0.340102,-0.169766
2.99456,-0.204149,0.122285
3.08409,-0.0592175,-0.143688
2.99904,-0.204454,0.245395
3.19195,0.0947347,-0.1301
3.09059,-0.0593424,-0.0719296
3.18642,0.0834394,-0.0556383
2.97909,-0.213544,-0.0869225
3.08321,-0.0699677,0
2.89468,-0.350295,-0.0339454
2.98025,-0.213627,-0.38032
2.99626,-0.214775,-0.017459
2.89026,-0.34976,-0.271768
3.09437,-0.070221,0.0720227
3.06772,-0.0696163,-0.214571
2.98638,-0.214066,-0.244419
2.99586,-0.214746,0.052427
2.88998,-0.349726,-0.169533
3.08997,-0.0701212,0.179998
2.99383,-0.2146,0.122285
3.08786,-0.0700733,-0.143874
2.98822,-0.214198,-0.157008
2.99433,-0.214636,0.24507
3.18427,0.0833829,-0.129775
3.08237,-0.0699488,-0.0717435
3.1827,0.0722255,-0.0555685
2.97035,-0.223342,-0.0866898
3.07095,-0.0804156,0
2.88551,-0.359409,-0.0338523
2.97157,-0.223433,-0.37931
3.06919,-0.0803695,-0.330716
3.0901,-0.0809172,0.0719296
2.87757,-0.35842,0.0337591
3.06347,-0.0802197,-0.214292
2.9911,-0.224902,0.0523572
2.88478,-0.359319,-0.169301
3.07773,-0.0805932,0.179301
2.98908,-0.22475,0.122122
3.07162,-0.0804331,-0.14313
2.98347,-0.224328,-0.156799
3.16856,0.0719046,-0.129124
3.08611,-0.0808125,-0.0718366
3.17494,0.0604077,-0.0554288
2.96952,-0.234227,-0.0866898
3.06264,-0.0914319,0
2.8802,-0.369473,-0.0338057
2.95886,-0.233387,-0.377795
2.9787,-0.234952,-0.017366
3.0778,-0.0918845,0.0716505
2.87623,-0.368964,0.0337591
3.05518,-0.0912092,-0.213734
2.97285,-0.23449,-0.243443
2.97829,-0.23492,0.0521478
2.87949,-0.369381,-0.169068
3.06943,-0.0916347,0.178836
2.98026,-0.235075,0.121796
3.0713,-0.0916906,-0.14313
3.0778,-0.0918845,-0.0716505
3.15514,0.0490141,-0.0550798
2.96868,-0.244592,-0.0866898
3.0543,-0.101855,0
2.867,-0.377957,-0.033666
2.95803,-0.243714,-0.377795
2.96989,-0.244691,-0.0173195
3.05263,-0.1018,-0.329002
3.07746,-0.102627,0.0716505
2.87096,-0.378479,0.0337126
3.05484,-0.101873,-0.213734
2.97746,-0.245315,0.0521478
2.86234,-0.377343,-0.168138
3.06111,-0.102082,0.178371
2.97146,-0.24482,0.121471
3.05898,-0.102011,-0.142571
3.06547,-0.102228,-0.0713713
3.15128,0.0385021,-0.05501
2.9559,-0.25341,-0.0863407
3.04995,-0.111837,0
2.86177,-0.386926,-0.0336195
2.9493,-0.252844,-0.376784
2.96906,-0.254538,-0.0173195
3.04831,-0.111776,-0.328574
2.86536,-0.387412,-0.26991
3.06511,-0.112392,0.0713713
2.86177,-0.386926,0.0336195
3.04252,-0.111564,-0.212897
3.1493,0.0384779,-0.20185
2.86108,-0.386833,-0.168138
3.05676,-0.112086,0.178138
2.96267,-0.25399,0.121145
3.04265,-0.111569,-0.141827
3.14516,0.0384272,-0.128147
3.06111,-0.112246,-0.0712783
3.1514,0.0275019,-0.05501
2.94703,-0.263016,-0.086108
2.8604,-0.396913,-0.0336195
2.96018,-0.264189,-0.017273
3.03598,-0.121937,-0.327289
3.05271,-0.12261,0.0710922
2.85644,-0.396363,0.0335729
2.96377,-0.264509,0.0519384
3.14144,0.0274149,-0.201338
2.85971,-0.396817,-0.168138
3.04837,-0.122435,0.177673
2.95778,-0.263975,0.120982
3.03426,-0.121869,-0.141455
2.95618,-0.263832,-0.155542
3.14527,0.0274484,-0.128147
3.05671,-0.12277,-0.0711852
3.13948,0.0164384,-0.0548006
2.94212,-0.272932,-0.0859916
2.85107,-0.405768,-0.0335263
2.95526,-0.274151,-0.0172498
3.03156,-0.132361,-0.32686
2.84681,-0.405161,-0.268423
3.04428,-0.132916,0.0709061
2.85107,-0.405768,0.0335263
2.95486,-0.274114,0.0517987
3.12954,0.0163864,-0.200571
2.8504,-0.405672,-0.167673
3.04394,-0.132901,0.17744
2.94888,-0.27356,0.120656
3.03382,-0.132459,-0.141455
2.94728,-0.273411,-0.155124
3.12936,0.0163854,-0.127495
3.12752,0.00545856,-0.0545911
2.93717,-0.282817,-0.0858753
2.84568,-0.41514,-0.0334798
2.94234,-0.283315,-0.01718
3.02313,-0.142567,-0.326003
2.84538,-0.415096,-0.268423
3.0398,-0.143353,0.070813
2.84964,-0.415718,0.0335263
2.9366,-0.282763,-0.240839
2.94592,-0.28366,0.0516591
3.12159,0.00544821,-0.200059
2.84501,-0.415043,-0.16744
3.03947,-0.143338,0.177208
2.94393,-0.283468,0.120494
3.02935,-0.14286,-0.141268
2.94233,-0.283315,-0.154914
3.12141,0.00544789,-0.12717
2.9282,-0.292274,-0.0856425
2.84422,-0.425071,-0.0334798
2.92179,-0.291633,-0.373754
2.93735,-0.293187,-0.0171568
3.00276,-0.152113,-0.323862
2.83604,-0.423848,-0.267679
3.03928,-0.153963,0.070813
2.84026,-0.42448,0.0334332
2.94492,-0.293942,0.0516591
3.12159,-0.00544821,-0.200059
2.83565,-0.423791,-0.166975
3.03097,-0.153542,0.176743
2.94292,-0.293743,0.120494
3.02085,-0.153029,-0.140896
3.03129,-0.153559,-0.0706269
2.91921,-0.301671,-0.0854098
2.83876,-0.434392,-0.0334332
2.91681,-0.301423,-0.373249
3.00221,-0.162594,-0.323862
3.02275,-0.163706,0.0704408
2.83876,-0.434392,0.0334332
3.00425,-0.162704,-0.210386
2.93592,-0.303397,0.0515195
3.10559,-0.016261,-0.199036
2.82626,-0.432478,-0.16651
3.02643,-0.163906,0.17651
2.92995,-0.302781,0.120005
3.00433,-0.162709,-0.140152
3.10341,-0.027083,-0.0541723
2.91814,-0.311859,-0.0854098
2.90168,-0.310101,-0.583645
2.91933,-0.311986,-0.0170638
2.99368,-0.172615,-0.323005
2.8212,-0.441789,-0.266564
3.01817,-0.174027,0.0703477
2.82933,-0.443061,0.0333401
2.93086,-0.313219,0.0514497
3.09753,-0.0270317,-0.198524
2.82473,-0.442341,-0.16651
3.01787,-0.174009,0.176045
2.92093,-0.312157,0.119679
2.99976,-0.172965,-0.139966
2.91935,-0.311988,-0.153868
2.91763,-0.311804,0.239537
2.90511,-0.320727,-0.0850607
2.89669,-0.319797,-0.582861
2.81986,-0.451669,-0.0332469
2.90674,-0.320908,-0.372239
2.91822,-0.322175,-0.0170638
2.81964,-0.451634,-0.266564
3.01754,-0.184561,0.0703477
2.82381,-0.452301,0.0332935
2.99109,-0.182943,-0.209548
2.91256,-0.321549,-0.239212
3.09342,-0.0377952,-0.198268
2.81923,-0.451567,-0.166278
3.01724,-0.184542,0.176045
2.91188,-0.321474,0.119354
2.99116,-0.182947,-0.139593
2.91427,-0.321738,-0.153658
3.09115,-0.0485596,-0.0539628
2.90397,-0.330866,-0.0850607
2.89165,-0.329462,-0.582076
2.82222,-0.462156,-0.0332935
2.97788,-0.192571,-0.464257
2.89772,-0.330154,-0.371229
2.90913,-0.331453,-0.0170173
2.97653,-0.192483,-0.321291
2.81019,-0.460186,-0.26582
3.0089,-0.194577,0.0701616
2.81827,-0.461509,0.0332469
2.90874,-0.331409,0.0511006
3.01259,-0.194816,0.175812
2.91074,-0.331637,0.119354
2.90519,-0.331005,-0.15324
2.89486,-0.340068,-0.084828
2.8827,-0.338639,-0.580507
2.81664,-0.471344,-0.0332469
2.96536,-0.202158,-0.462412
2.88473,-0.338878,-0.369713
2.89206,-0.339739,-0.0169243
2.80857,-0.469993,-0.26582
3.00421,-0.204807,0.0700686
2.8127,-0.470684,0.0332004
2.90756,-0.34156,0.0511006
3.07313,-0.0590071,-0.196989
2.80419,-0.46926,-0.16558
2.99596,-0.204244,0.174882
2.90162,-0.340862,0.119028
2.98184,-0.203281,-0.139221
2.99623,-0.204263,-0.0698825
2.87784,-0.347747,-0.0843626
2.80718,-0.479335,-0.0331538
2.95679,-0.211427,-0.461182
2.88359,-0.348442,-0.369713
2.89489,-0.349808,-0.0169475
2.96722,-0.212172,-0.320434
2.79129,-0.476622,-0.264333
2.99554,-0.214197,0.0698825
2.80718,-0.479335,0.0331538
2.97711,-0.21288,-0.208711
2.89847,-0.35024,0.050961
2.79868,-0.477885,-0.165347
2.99128,-0.213893,0.17465
2.89651,-0.350003,0.118865
2.96919,-0.212313,-0.138663
2.89494,-0.349814,-0.152821
2.90659,-0.351222,0.533802
2.88064,-0.357781,-0.0844789
2.80163,-0.487955,-0.0331072
2.95213,-0.220936,-0.460567
3.07092,-0.0793423,0.0178542
2.88975,-0.358913,-0.0169243
2.96253,-0.221714,-0.320006
2.98684,-0.223533,0.0696964
2.79375,-0.486583,0.0330141
2.89333,-0.359357,0.0508912
3.06469,-0.0791812,-0.196478
2.79708,-0.487163,-0.165347
2.98657,-0.223513,0.174417
2.8874,-0.358621,0.11854
2.96449,-0.22186,-0.138477
2.88187,-0.357935,-0.152193
2.98913,-0.223705,0.368045
2.98684,-0.223533,-0.0696964
2.87534,-0.36783,-0.0843626
2.97085,-0.23329,0
2.78801,-0.496118,-0.0329675
2.94736,-0.231445,-0.459953
3.06661,-0.0904793,0.017831
2.88444,-0.368994,-0.016901
2.95773,-0.232259,-0.319578
2.78397,-0.4954,-0.263961
2.986,-0.234479,0.0696964
2.79195,-0.496819,0.0330141
2.95566,-0.232097,-0.207316
2.87888,-0.368283,-0.236933
2.89199,-0.369959,0.0508912
3.0564,-0.0901778,-0.195966
2.78348,-0.495313,-0.16465
2.98175,-0.234145,0.174185
2.88607,-0.369202,0.11854
2.96764,-0.233037,-0.138663
2.88054,-0.368495,-0.152193
2.98037,-0.234037,0.36707
3.05387,-0.100774,-0.0533346
2.87008,-0.377343,-0.0842462
2.95806,-0.242677,0
2.7902,-0.506562,-0.0330141
2.93866,-0.241085,-0.458723
2.85618,-0.375516,-0.366683
2.87521,-0.378018,-0.0168546
2.94501,-0.241607,-0.318292
2.78223,-0.505115,-0.263961
2.78626,-0.505847,0.0329675
2.95086,-0.242086,-0.207037
2.87482,-0.377967,0.050612
2.78174,-0.505026,-0.16465
2.97296,-0.243899,0.173719
2.8808,-0.378753,0.118377
2.96282,-0.243068,-0.138477
2.86736,-0.376985,-0.151565
2.97954,-0.244439,0.36707
2.88325,-0.379075,0.530214
2.96922,-0.243592,-0.0693242
2.86485,-0.386324,-0.0841298
2.85316,-0.384748,-0.5758
2.95724,-0.252485,0
2.78457,-0.515084,-0.0329675
2.92997,-0.250156,-0.457493
2.86601,-0.386481,-0.0168081
2.9442,-0.251371,-0.318292
2.7727,-0.512889,-0.263218
2.97238,-0.253778,0.0694172
2.78457,-0.515084,0.0329675
2.94209,-0.251191,-0.206479
2.86446,-0.386272,-0.235957
2.86959,-0.386963,0.0505422
2.76827,-0.512069,-0.163952
2.9602,-0.252738,0.173022
2.87557,-0.38777,0.118214
2.95006,-0.251872,-0.137918
2.87005,-0.387026,-0.151774
2.9708,-0.253643,0.366096
2.96441,-0.253097,-0.0692311
2.85153,-0.395175,-0.0837807
2.95231,-0.262967,0
2.7748,-0.523803,-0.0328744
2.92509,-0.260543,-0.456878
2.84563,-0.394357,-0.365673
2.86854,-0.397532,-0.0168313
2.93929,-0.261808,-0.317864
2.76298,-0.521571,-0.262474
2.96346,-0.263961,0.0692311
2.77087,-0.523061,0.0328279
2.94115,-0.261973,-0.206479
2.86419,-0.396929,0.0504724
2.76245,-0.521471,-0.16372
2.95925,-0.263585,0.173022
2.86621,-0.397209,0.117888
2.94115,-0.261974,-0.137546
2.8607,-0.396446,-0.151356
2.9659,-0.264177,0.365608
2.9555,-0.263251,-0.069045
2.83882,-0.402508,-0.573447
2.94351,-0.271506,0
2.77314,-0.532517,-0.0328744
2.92032,-0.269368,-0.456263
2.84437,-0.403295,-0.365673
3.03313,-0.130838,0.017645
2.85539,-0.404857,-0.0167616
2.93054,-0.27031,-0.317007
2.75741,-0.529497,-0.262102
2.95465,-0.272535,0.069045
2.76136,-0.530255,0.0327347
2.84992,-0.404081,-0.234981
3.03989,-0.13113,0.0885516
2.85897,-0.405364,0.0504026
2.76472,-0.5309,-0.163952
2.95443,-0.272514,0.172789
2.85703,-0.40509,0.117563
2.93634,-0.270845,-0.13736
2.84757,-0.403749,-0.150728
2.95319,-0.2724,0.364146
2.95067,-0.272167,-0.0689519
2.84079,-0.41392,-0.083548
2.83338,-0.41284,-0.572663
2.93846,-0.282424,0
2.75538,-0.540084,-0.0326882
2.83495,-0.413069,-0.364663
2.85382,-0.415818,-0.0167616
2.92552,-0.28118,-0.316579
2.75145,-0.539315,-0.261731
2.94562,-0.283113,0.0688589
2.76323,-0.541623,0.0327813
2.92336,-0.280972,-0.205363
2.8444,-0.414447,-0.234655
2.84947,-0.415185,0.0502629
3.01847,-0.141819,-0.193663
2.75874,-0.540743,-0.16372
2.94144,-0.28271,0.172092
2.85545,-0.416057,0.117563
2.93528,-0.282118,-0.13736
2.84205,-0.414103,-0.150518
2.95212,-0.283737,0.364146
2.94164,-0.28273,-0.0687658
2.83142,-0.422653,-0.0833153
2.93348,-0.292283,0
2.75348,-0.549699,-0.0326882
2.82957,-0.422377,-0.364158
3.0201,-0.152463,0.0175752
2.84839,-0.425187,-0.0167383
2.92848,-0.291784,-0.317007
2.74955,-0.548916,-0.261731
2.75348,-0.549699,0.0326882
2.91839,-0.290779,-0.205084
2.84801,-0.425129,0.0502629
2.75292,-0.549588,-0.163487
2.94043,-0.292976,0.172092
2.85003,-0.425432,0.1174
2.92235,-0.291174,-0.136801
2.83663,-0.423432,-0.150309
2.94321,-0.293253,0.363171
2.85284,-0.425851,0.525909
2.82202,-0.431326,-0.0830826
2.92448,-0.3017,0
2.74762,-0.55851,-0.0326416
2.89758,-0.298925,-0.453189
2.82023,-0.431052,-0.363147
2.83503,-0.433314,-0.0166686
2.91557,-0.300781,-0.315722
2.74372,-0.557717,-0.261359
2.93562,-0.302849,0.0686728
2.7437,-0.557714,0.032595
2.91339,-0.300555,-0.204805
3.01433,-0.162723,0.0878534
2.8465,-0.435068,0.0502629
2.73925,-0.556808,-0.162789
2.92748,-0.302009,0.171394
2.83668,-0.433566,0.116911
2.92529,-0.301783,-0.136988
2.82724,-0.432124,-0.14989
2.93822,-0.303118,0.362683
2.91573,-0.300797,-0.0682075
2.91943,-0.311482,0
2.74174,-0.567287,-0.032595
2.89259,-0.308618,-0.452574
2.81871,-0.440894,-0.363147
3.00698,-0.172855,0.0175055
2.8335,-0.443207,-0.0166686
2.9145,-0.310956,-0.315722
2.73005,-0.56487,-0.260243
2.92262,-0.311822,0.0683936
2.74174,-0.567287,0.032595
2.90042,-0.309453,-0.203968
2.82415,-0.441745,-0.233353
3.00975,-0.173014,0.087737
2.83707,-0.443765,0.0501233
2.99689,-0.172275,-0.192384
2.7412,-0.567175,-0.163022
2.9264,-0.312226,0.171394
2.82725,-0.44223,0.116586
2.9123,-0.310721,-0.136429
2.82572,-0.44199,-0.14989
2.9332,-0.312951,0.362196
2.90671,-0.310125,-0.0680214
2.90651,-0.319341,0
2.73603,-0.575075,-0.0325485
2.80555,-0.44787,-0.361632
2.82419,-0.450846,-0.0166221
2.8977,-0.318373,-0.314009
2.72437,-0.572625,-0.259872
2.91765,-0.320565,0.0683006
2.73211,-0.574253,0.0325019
2.89943,-0.318563,-0.203968
2.82275,-0.450615,-0.233353
3.00121,-0.181985,0.0875043
2.82776,-0.451415,0.0499837
2.99235,-0.181448,-0.192128
2.7394,-0.575784,-0.163022
2.9135,-0.320109,0.170696
2.8219,-0.45048,0.116423
2.91131,-0.319868,-0.136429
2.91642,-0.32043,0.360246
2.99202,-0.181427,-0.122122
2.83284,-0.452226,0.52304
2.91765,-0.320565,-0.0683006
2.80551,-0.458917,-0.0827335
2.90129,-0.330047,0
2.72598,-0.583901,-0.0324553
2.80773,-0.45928,-0.362137
2.81455,-0.460395,-0.0165756
2.89646,-0.329497,-0.314009
2.71436,-0.581413,-0.259128
2.91242,-0.331314,0.0682075
2.72207,-0.583063,0.0324088
2.89026,-0.328792,-0.20341
2.81313,-0.460164,-0.232702
2.82206,-0.461624,0.0499139
2.98765,-0.192679,-0.191873
2.72936,-0.584626,-0.162557
2.90828,-0.330843,0.170464
2.82409,-0.461957,0.116586
2.90609,-0.330593,-0.136243
2.80679,-0.459127,-0.149053
2.91122,-0.331177,0.359758
2.9005,-0.329958,-0.0679284
2.98066,-0.202679,-0.0521478
2.79995,-0.468048,-0.0826171
2.89615,-0.339706,0
2.72392,-0.593413,-0.0324553
2.86957,-0.336589,-0.449499
2.79828,-0.46777,-0.361127
2.89134,-0.339143,-0.31358
2.71621,-0.591732,-0.2595
2.91125,-0.341478,0.0682075
2.72392,-0.593413,0.0324553
2.88513,-0.338414,-0.203131
2.80757,-0.469323,-0.232377
2.8086,-0.469494,0.0497045
2.7234,-0.593299,-0.162324
2.90314,-0.340527,0.170231
2.81064,-0.469835,0.116097
2.90094,-0.340269,-0.136057
2.80123,-0.468263,-0.148843
2.91005,-0.341337,0.359758
2.82557,-0.472331,0.522322
2.89933,-0.34008,-0.0679284
2.79838,-0.477331,-0.0826171
2.89103,-0.348829,0
2.71803,-0.601578,-0.0324088
2.86844,-0.346103,-0.449499
2.78889,-0.475712,-0.360117
2.8074,-0.47887,-0.0165523
2.8823,-0.347776,-0.312723
2.71034,-0.599876,-0.259128
2.90613,-0.350651,0.0681145
2.71413,-0.600714,0.0323622
2.88003,-0.347502,-0.202852
2.79814,-0.47729,-0.231726
2.80308,-0.478132,0.0496346
2.97433,-0.212159,-0.191105
2.70972,-0.599739,-0.161626
2.89407,-0.349196,0.169766
2.80906,-0.479153,0.116097
2.89583,-0.349409,-0.135871
2.79573,-0.476878,-0.148634
2.90496,-0.35051,0.359271
2.88231,-0.347777,-0.0675562
2.96725,-0.222067,-0.0519384
2.88583,-0.358426,0
2.71982,-0.61194,-0.0324553
2.86329,-0.355627,-0.448884
2.79112,-0.486125,-0.360622
2.79783,-0.487294,-0.0165058
2.87712,-0.357345,-0.312295
2.69657,-0.60671,-0.258013
2.88108,-0.357836,0.0675562
2.71202,-0.610184,0.0323622
2.8788,-0.357553,-0.202852
2.79646,-0.487054,-0.231726
2.97442,-0.222604,0.0868062
2.80139,-0.487914,0.0496346
2.96959,-0.222242,-0.190849
2.71151,-0.61007,-0.161859
2.88887,-0.358804,0.169533
2.79162,-0.486212,0.115446
2.87874,-0.357545,-0.135126
2.79405,-0.486634,-0.148634
2.89978,-0.360158,0.358783
2.87314,-0.35685,-0.0673701
2.96247,-0.232111,-0.0518686
2.78317,-0.494756,-0.082268
2.77662,-0.493591,-0.564033
2.87265,-0.366976,0
2.70207,-0.617864,-0.0322691
2.85027,-0.364117,-0.447039
2.7816,-0.494476,-0.359612
2.80005,-0.497757,-0.0165291
2.86797,-0.366378,-0.311438
2.69832,-0.617007,-0.258385
2.88378,-0.368397,0.0676492
2.69817,-0.616973,0.0322225
2.8617,-0.365577,-0.201736
2.78689,-0.495417,-0.231075
2.79574,-0.49699,0.0495648
2.96083,-0.231983,-0.190338
2.70547,-0.618641,-0.161626
2.78991,-0.495954,0.115446
2.87747,-0.367591,-0.135126
2.78446,-0.494986,-0.148215
2.88669,-0.368769,0.357321
2.80506,-0.498646,0.519452
2.87188,-0.366877,-0.0673701
2.96168,-0.241933,-0.0518686
2.78151,-0.503982,-0.082268
2.77111,-0.502097,-0.563249
2.87142,-0.3765,0
2.69611,-0.625917,-0.0322225
2.84513,-0.373053,-0.446424
2.77994,-0.503697,-0.359612
2.79052,-0.505613,-0.0164826
2.86279,-0.375369,-0.31101
2.69238,-0.625051,-0.258013
2.88254,-0.377958,0.0676492
2.70001,-0.626821,0.0322691
2.86047,-0.375065,-0.201736
2.78131,-0.503946,-0.23075
2.7862,-0.504832,0.0494252
2.96005,-0.2418,-0.190338
2.69562,-0.625803,-0.161161
2.78432,-0.50449,0.115283
2.87227,-0.376612,-0.13494
2.77888,-0.503505,-0.148006
2.88151,-0.377823,0.356833
2.79564,-0.506542,0.518017
2.86668,-0.375879,-0.067277
2.96078,-0.252787,-0.0518686
2.77178,-0.512719,-0.0820353
2.86209,-0.385953,0
2.6938,-0.635794,-0.0322225
2.84374,-0.383478,-0.446424
2.77027,-0.51244,-0.358602
2.85746,-0.385328,-0.310581
2.6862,-0.634,-0.257641
2.87321,-0.387452,0.0674631
2.6938,-0.635794,0.0322225
2.85512,-0.385013,-0.201457
2.77553,-0.513411,-0.230424
2.77254,-0.512858,0.0492158
2.6972,-0.636596,-0.161394
2.77852,-0.513965,0.11512
2.86691,-0.386603,-0.134754
2.77309,-0.51296,-0.147797
2.88404,-0.388913,0.357321
2.86528,-0.386383,-0.067277
2.93996,-0.26135,-0.0515195
2.76605,-0.52165,-0.0819189
2.85677,-0.395393,0
2.68767,-0.644261,-0.032176
2.83847,-0.39286,-0.44581
2.76457,-0.521371,-0.358097
2.77503,-0.523345,-0.0164128
2.84822,-0.394209,-0.309725
2.68397,-0.643372,-0.257641
2.86788,-0.396931,0.0673701
2.68767,-0.644261,0.032176
2.84586,-0.393883,-0.200899
2.76588,-0.521619,-0.229773
2.77859,-0.524015,0.0493554
2.93438,-0.260854,-0.188803
2.68719,-0.644146,-0.160929
2.78456,-0.525142,0.115446
2.86159,-0.39606,-0.134568
2.77128,-0.522637,-0.147797
2.8748,-0.397889,0.356346
2.78421,-0.525076,0.516582
2.86392,-0.396382,-0.067277
2.93504,-0.271243,-0.0514497
2.75636,-0.529793,-0.0816862
2.85141,-0.4048,0
2.68152,-0.652693,-0.0321294
2.83317,-0.402211,-0.445195
2.75494,-0.52952,-0.357087
2.77319,-0.533029,-0.0164128
2.84682,-0.404149,-0.309725
2.67397,-0.650854,-0.256897
2.84668,-0.404129,0.0669048
2.68152,-0.652693,0.0321294
2.83656,-0.402692,-0.200341
2.76496,-0.531447,0.049146
2.93346,-0.271096,-0.188803
2.68493,-0.653522,-0.160929
2.75916,-0.530333,0.114469
2.84832,-0.404362,-0.13401
2.76551,-0.531553,-0.147587
2.8616,-0.406247,0.354884
2.85064,-0.404691,-0.0669978
2.92617,-0.280212,-0.0513101
2.75459,-0.538931,-0.0816862
2.68323,-0.66254,-0.032176
2.82791,-0.411035,-0.44458
2.82972,-0.411299,-0.308011
2.66793,-0.658763,-0.256526
2.84137,-0.412991,0.0668117
2.66769,-0.658705,0.0319897
2.75835,-0.539668,-0.229448
2.76711,-0.541381,0.0492158
2.93651,-0.281202,-0.189058
2.67112,-0.65955,-0.160231
2.75739,-0.539479,0.114469
2.83906,-0.412656,-0.133637
2.7559,-0.539187,-0.147169
2.92419,-0.280022,-0.119679
2.77285,-0.542504,0.515147
2.84928,-0.414142,-0.0669978
2.92114,-0.290539,-0.0512403
2.74475,-0.547459,-0.0814535
2.83269,-0.422337,0
2.66138,-0.667505,-0.0319431
2.81856,-0.420231,-0.44335
2.74339,-0.547188,-0.356076
2.83213,-0.422254,-0.30844
2.66549,-0.668537,-0.256526
2.66526,-0.668478,0.0319897
2.74463,-0.547435,-0.228471
2.75726,-0.549954,0.0490762
2.91958,-0.290383,-0.188035
2.66868,-0.669336,-0.160231
2.76323,-0.551146,0.114795
2.83753,-0.423058,-0.133637
2.74998,-0.548503,-0.146959
2.84379,-0.423992,-0.0669048
2.91215,-0.299914,-0.0511006
2.7389,-0.556241,-0.0813371
2.82724,-0.431619,0
2.65904,-0.676791,-0.0319431
2.81317,-0.429471,-0.442735
2.73369,-0.555181,-0.355066
2.82671,-0.431537,-0.308011
2.66314,-0.677837,-0.256526
2.83043,-0.432106,0.0666256
2.66291,-0.677778,0.0319897
2.74661,-0.557805,-0.228797
2.74749,-0.557984,0.0489365
2.91457,-0.300164,-0.187779
2.66633,-0.678647,-0.160231
2.75346,-0.559197,0.114469
2.83208,-0.432358,-0.133451
2.75197,-0.558894,-0.147169
2.84542,-0.434394,0.353421
2.83834,-0.433313,-0.0668117
2.90722,-0.308639,-0.0510308
2.73323,-0.564035,-0.0812208
2.82192,-0.439883,0
2.6569,-0.685142,-0.0319431
2.81181,-0.438307,-0.442735
2.73193,-0.563767,-0.355066
2.75001,-0.567497,-0.0163199
2.82141,-0.439803,-0.307583
2.82906,-0.440996,0.0666256
2.6569,-0.685142,0.0319431
2.74572,-0.566612,0.0489365
2.90568,-0.308476,-0.187268
2.65645,-0.685026,-0.159766
2.74778,-0.567037,0.114306
2.82281,-0.440022,-0.133079
2.74629,-0.566729,-0.146959
2.83619,-0.442107,0.352446
2.82906,-0.440996,-0.0666256
2.72723,-0.573226,-0.0811044
2.6505,-0.693862,-0.0318966
2.80238,-0.447363,-0.441505
2.72984,-0.573776,-0.355066
2.73617,-0.575105,-0.0162501
2.808,-0.44826,-0.306298
2.65076,-0.693931,-0.255782
2.81953,-0.450101,0.0664395
2.65437,-0.694875,0.0319431
2.73971,-0.575849,0.0488667
2.90849,-0.319559,-0.187524
2.65392,-0.694758,-0.159766
2.81946,-0.450091,0.166278
2.73395,-0.574638,0.113818
2.89699,-0.328533,-0.0508912
2.7213,-0.581906,-0.080988
2.64419,-0.702083,-0.03185
2.8008,-0.457143,-0.441505
2.73023,-0.583816,-0.0162269
2.79464,-0.456137,-0.305012
2.64062,-0.701136,-0.255039
2.81005,-0.458652,0.0662534
2.64419,-0.702083,0.03185
2.72902,-0.583557,-0.227821
2.73768,-0.585409,0.0488667
2.9034,-0.32926,-0.187268
2.64762,-0.702993,-0.159533
2.81393,-0.459287,0.166045
2.72411,-0.582506,0.113492
2.79987,-0.456992,-0.132148
2.73044,-0.583861,-0.146331
2.82189,-0.460584,-0.0665326
2.88788,-0.337715,-0.0507516
2.71535,-0.590552,-0.0808717
2.77738,-0.463279,-0.788238
2.63786,-0.710269,-0.0318034
2.78749,-0.464966,-0.439661
2.72818,-0.593342,-0.0162269
2.78911,-0.465235,-0.304584
2.81237,-0.469116,0.0663465
2.63786,-0.710269,0.0318034
2.71918,-0.591385,-0.22717
2.73172,-0.594112,0.0487969
2.88637,-0.337538,-0.186244
2.81231,-0.469106,0.166045
2.72206,-0.592011,0.113492
2.88277,-0.346812,-0.0506818
2.70947,-0.598691,-0.0807553
2.62778,-0.716907,-0.0317103
2.77814,-0.47288,-0.438431
2.70442,-0.597575,-0.352541
2.71838,-0.60066,-0.0161804
2.78363,-0.473815,-0.304156
2.80292,-0.477097,0.0661604
2.63549,-0.719012,0.0318034
2.71801,-0.600579,0.0485875
2.88127,-0.346631,-0.185989
2.63507,-0.718896,-0.159068
2.80287,-0.477089,0.16558
2.72008,-0.601035,0.113492
2.8108,-0.47844,-0.0663465
2.70726,-0.608617,-0.0807553
2.78418,-0.484415,-0.439661
2.70221,-0.607483,-0.352541
2.71226,-0.609742,-0.0161571
2.77404,-0.48265,-0.303299
2.80115,-0.487367,0.0661604
2.63284,-0.728667,0.0318034
2.71579,-0.610537,0.0485875
2.87206,-0.356207,-0.185477
2.62857,-0.727484,-0.158836
2.8011,-0.487359,0.16558
2.71006,-0.609247,0.113166
2.78313,-0.484232,-0.13159
2.80058,-0.487268,0.349034
2.70122,-0.617173,-0.080639
2.61873,-0.734612,-0.0316637
2.77079,-0.492057,-0.437816
2.87267,-0.366469,0.0168313
2.71401,-0.620097,-0.0161804
2.77234,-0.492331,-0.303299
2.79156,-0.495744,0.0659743
2.62258,-0.735693,0.0317103
2.70585,-0.618231,0.0484479
2.86684,-0.365725,-0.185221
2.61832,-0.734498,-0.158371
2.79545,-0.496436,0.165347
2.70012,-0.616923,0.112841
2.77748,-0.493245,-0.131404
2.86637,-0.365665,-0.117725
2.69126,-0.62479,-0.0804062
2.6123,-0.742655,-0.0316172
2.76906,-0.501726,-0.437816
2.69404,-0.625436,-0.352036
2.70014,-0.626853,-0.0161106
2.76669,-0.501296,-0.30287
2.61649,-0.743847,-0.253923
2.78981,-0.505485,0.0659743
2.61615,-0.743749,0.0316637
2.70367,-0.627673,0.0484479
2.61958,-0.744725,-0.158603
2.7937,-0.506191,0.165347
2.69406,-0.62544,0.112678
2.70038,-0.626908,-0.145285
2.85715,-0.37463,-0.1174
2.8538,-0.384327,-0.0502629
2.69295,-0.635098,-0.0805226
2.60201,-0.749555,-0.0315241
2.75174,-0.508516,-0.435356
2.68412,-0.633014,-0.351026
2.85815,-0.384913,0.0167616
2.69794,-0.636275,-0.0161106
2.7571,-0.509505,-0.302014
2.78016,-0.513767,0.0657882
2.61354,-0.752876,0.0316637
2.70147,-0.637106,0.0484479
2.84839,-0.383599,-0.184198
2.61313,-0.752759,-0.158371
2.78799,-0.515214,0.165115
2.69186,-0.634841,0.112678
2.76219,-0.510445,-0.130846
2.69818,-0.63633,-0.145285
2.68683,-0.643563,-0.0804062
2.59553,-0.757513,-0.0314775
2.74995,-0.518118,-0.435356
2.67803,-0.641455,-0.350521
2.6957,-0.645688,-0.0161106
2.77835,-0.523468,0.0657882
2.61089,-0.761995,0.0316637
2.68681,-0.643558,-0.225542
2.68756,-0.643738,0.0482385
2.60665,-0.760757,-0.158138
2.7744,-0.522724,0.164417
2.68574,-0.643302,0.112515
2.75646,-0.519344,-0.130659
2.68068,-0.651993,-0.0802899
2.60438,-0.76997,-0.0316172
2.75201,-0.528459,-0.435971
2.67192,-0.649862,-0.350016
2.84351,-0.403173,0.0166918
2.68177,-0.652258,-0.0160409
2.77651,-0.533163,0.0657882
2.60438,-0.76997,0.0316172
2.68141,-0.65217,0.0481686
2.84169,-0.402914,-0.183942
2.60015,-0.768719,-0.157906
2.77256,-0.532406,0.164417
2.68348,-0.652673,0.112515
2.75463,-0.528963,-0.130659
2.6859,-0.653263,-0.144866
2.66675,-0.658471,-0.0799408
2.59401,-0.776761,-0.0315241
2.73851,-0.535786,-0.434126
2.66963,-0.659185,-0.350016
2.83813,-0.412521,0.0166686
2.68336,-0.662574,-0.0160641
2.59441,-0.776879,-0.252808
2.76678,-0.541316,0.0656021
2.60168,-0.779056,0.0316172
2.74512,-0.537079,-0.195597
2.67912,-0.661526,0.0481686
2.59363,-0.776646,-0.157673
2.77069,-0.542081,0.164417
2.66954,-0.659162,0.112026
2.66455,-0.667311,-0.0799408
2.58377,-0.783039,-0.0314309
2.73672,-0.544864,-0.434126
2.66358,-0.66707,-0.34951
2.8407,-0.422518,0.0166918
2.66951,-0.668554,-0.0159944
2.76105,-0.549708,0.065509
2.59142,-0.785359,0.0315241
2.66915,-0.668463,0.048029
2.82309,-0.419899,-0.182919
2.59104,-0.785242,-0.157673
2.76104,-0.549706,0.163952
2.66734,-0.668011,0.112026
2.73921,-0.54536,-0.130101
2.67365,-0.66959,-0.144447
2.65833,-0.675623,-0.0798244
2.58102,-0.792053,-0.0314309
2.72318,-0.552058,-0.432282
2.66124,-0.676363,-0.34951
2.8313,-0.431227,0.0166453
2.67104,-0.678853,-0.0160176
2.7284,-0.553115,-0.299872
2.75911,-0.559342,0.065509
2.58484,-0.793227,0.0314775
2.73358,-0.554167,-0.195039
2.66223,-0.676614,-0.22424
2.65905,-0.675806,0.0478894
2.81766,-0.429149,-0.182663
2.58065,-0.791939,-0.157208
2.7591,-0.55934,0.163952
2.66499,-0.677318,0.112026
2.73337,-0.554124,-0.129915
2.66355,-0.67695,-0.144029
2.65595,-0.684898,-0.0798244
2.73439,-0.564273,0
2.57442,-0.799871,-0.0313844
2.72124,-0.56156,-0.432282
2.65118,-0.683667,-0.3485
2.82187,-0.439876,0.0165988
2.66478,-0.687174,-0.0159944
2.75323,-0.568162,0.0654159
2.58206,-0.802245,0.0314775
2.72772,-0.562899,-0.19476
2.65985,-0.685903,-0.22424
2.6528,-0.684085,0.0478196
2.57405,-0.799757,-0.156975
2.75322,-0.568161,0.16372
2.65874,-0.685618,0.111864
2.73142,-0.563662,-0.129915
2.66117,-0.686244,-0.144029
2.74511,-0.566486,0.344159
2.64593,-0.691679,-0.0795917
2.72858,-0.572516,0
2.57175,-0.808404,-0.0313844
2.71549,-0.569769,-0.431667
2.64122,-0.690448,-0.34749
2.8204,-0.449231,0.0165988
2.65087,-0.692972,-0.0159246
2.57938,-0.810803,0.0314775
2.72584,-0.571941,-0.19476
2.6537,-0.693711,-0.223915
2.65052,-0.692878,0.0478196
2.57139,-0.808289,-0.156975
2.74351,-0.575648,0.163254
2.65646,-0.694431,0.111864
2.72954,-0.572717,-0.129915
2.65502,-0.694055,-0.143819
2.73933,-0.574771,0.343672
2.7435,-0.575646,-0.0652298
2.63565,-0.699322,-0.079359
2.72647,-0.582513,0
2.56496,-0.816611,-0.0313378
2.70952,-0.578892,-0.431052
2.63867,-0.700124,-0.34749
2.81084,-0.458278,0.0165523
2.64445,-0.701657,-0.0159014
2.74137,-0.585698,0.0652298
2.57258,-0.819038,0.0314309
2.71983,-0.581094,-0.194481
2.81364,-0.458735,0.0829662
2.64409,-0.701562,0.0477498
2.5646,-0.816496,-0.156743
2.74138,-0.5857,0.163254
2.65003,-0.703138,0.111701
2.71961,-0.581047,-0.129543
2.73746,-0.584862,-0.0651368
2.63331,-0.708058,-0.079359
2.7167,-0.589854,0
2.55843,-0.823886,-0.0312912
2.70372,-0.587036,-0.430437
2.6325,-0.70784,-0.346985
2.80536,-0.46694,0.0165291
2.70496,-0.587305,-0.298158
2.73551,-0.593937,0.0651368
2.56224,-0.825112,0.0313378
2.71398,-0.589264,-0.194202
2.80816,-0.467406,0.0828498
2.64175,-0.710327,0.0477498
2.79572,-0.465336,-0.181639
2.55808,-0.823772,-0.15651
2.73162,-0.593093,0.162789
2.64768,-0.711922,0.111701
2.72157,-0.590911,-0.129729
2.64239,-0.710499,-0.143401
2.72749,-0.592196,0.342697
2.63468,-0.718297,-0.0794753
2.71853,-0.600196,0
2.55554,-0.832812,-0.0312912
2.69394,-0.594766,-0.429207
2.80371,-0.476729,0.0165291
2.64347,-0.720693,-0.0159246
2.69901,-0.595886,-0.29773
2.55554,-0.832812,0.0312912
2.71191,-0.598734,-0.194202
2.63475,-0.718316,-0.222939
2.79863,-0.475865,0.0826171
2.6354,-0.718492,0.04768
2.79015,-0.474423,-0.181384
2.55519,-0.832697,-0.15651
2.73343,-0.603485,0.163022
2.63747,-0.719057,0.111375
2.71559,-0.599546,-0.129543
2.63989,-0.719718,-0.143401
2.72153,-0.600857,0.342209
2.63216,-0.72749,-0.0794753
2.70862,-0.60793,0
2.55262,-0.841727,-0.0312912
2.69185,-0.604166,-0.429207
2.61985,-0.724087,-0.345975
2.79415,-0.485145,0.0164826
2.69692,-0.605304,-0.29773
2.72349,-0.611268,0.0649507
2.55642,-0.84298,0.0313378
2.69812,-0.605575,-0.193365
2.62902,-0.726621,0.0476102
2.78454,-0.483477,-0.181128
2.54847,-0.84036,-0.156278
2.72352,-0.611274,0.162557
2.63109,-0.727194,0.111212
2.70568,-0.607271,-0.12917
2.62967,-0.7268,-0.142982
2.71554,-0.609484,0.341722
2.61805,-0.733437,-0.0791263
2.70648,-0.617381,0
2.54587,-0.849367,-0.0312447
2.68201,-0.6118,-0.427977
2.6173,-0.733227,-0.345975
2.62682,-0.735894,-0.0158549
2.69479,-0.614714,-0.29773
2.71744,-0.619882,0.0648576
2.55346,-0.851898,0.0313378
2.69599,-0.614989,-0.193365
2.78737,-0.493996,0.0823844
2.62262,-0.734715,0.0475404
2.77498,-0.4918,-0.180616
2.54174,-0.847987,-0.156045
2.70969,-0.618113,0.161859
2.63239,-0.737452,0.111375
2.70355,-0.616712,-0.12917
2.62711,-0.735975,-0.142982
2.71727,-0.619843,0.342209
2.71354,-0.618992,-0.0647646
2.70431,-0.626824,0
2.54289,-0.858248,-0.0312447
2.67986,-0.621158,-0.427977
2.61473,-0.742359,-0.345975
2.78676,-0.503928,0.0164593
2.62424,-0.745058,-0.0158549
2.69263,-0.624117,-0.29773
2.70747,-0.627558,0.0646715
2.54289,-0.858248,0.0312447
2.69383,-0.624396,-0.193365
2.61942,-0.743689,-0.222288
2.78169,-0.503011,0.082268
2.62003,-0.743865,0.0475404
2.77324,-0.501484,-0.180616
2.53498,-0.855577,-0.155813
2.7114,-0.628469,0.162092
2.61826,-0.743362,0.110887
2.69748,-0.625243,-0.128984
2.62069,-0.74405,-0.142773
2.70349,-0.626634,0.340747
2.77269,-0.501385,-0.114795
2.70747,-0.627558,-0.0646715
2.60134,-0.74838,-0.0787772
2.68653,-0.632593,0
2.67383,-0.629603,-0.427362
2.60831,-0.750384,-0.34547
2.78105,-0.512927,0.0164361
2.61778,-0.753108,-0.0158317
2.68269,-0.631689,-0.296873
2.70137,-0.636088,0.0645785
2.53609,-0.865827,0.0311981
2.68387,-0.631967,-0.192807
2.77992,-0.512718,0.082268
2.60974,-0.750795,0.0474007
2.77147,-0.511161,-0.180616
2.53198,-0.864421,-0.155813
2.7053,-0.637015,0.161859
2.61565,-0.752497,0.110887
2.6914,-0.63374,-0.128798
2.61423,-0.752089,-0.142563
2.70128,-0.636068,0.340747
2.767,-0.510335,-0.114632
2.70137,-0.636088,-0.0645785
2.76314,-0.519604,-0.0490762
2.60255,-0.758575,-0.0788935
2.68819,-0.642897,0
2.52928,-0.873369,-0.0311515
2.59805,-0.757264,-0.34446
2.77531,-0.521892,0.0164128
2.61129,-0.761122,-0.0158084
2.68047,-0.64105,-0.296873
2.69913,-0.645514,0.0645785
2.53684,-0.87598,0.0312447
2.67776,-0.640403,-0.192528
2.60651,-0.759727,-0.221637
2.76632,-0.520202,0.0819189
2.6071,-0.7599,0.0474007
2.76575,-0.520095,-0.18036
2.52517,-0.871951,-0.15558
2.6953,-0.644596,0.161394
2.61301,-0.761622,0.110887
2.68528,-0.642201,-0.128612
2.60776,-0.760092,-0.142354
2.69518,-0.644569,0.340259
2.75734,-0.518514,-0.114306
2.75738,-0.528493,-0.0490064
2.59606,-0.766523,-0.0787772
2.67816,-0.650389,0
2.52621,-0.882192,-0.0311515
2.58778,-0.764081,-0.34345
2.67821,-0.650402,-0.296873
2.69298,-0.653988,0.0644854
2.52999,-0.883511,0.0311981
2.67939,-0.650688,-0.192807
2.59676,-0.766731,0.0472611
2.75608,-0.528243,-0.179849
2.52588,-0.882076,-0.155813
2.69303,-0.654001,0.161394
2.61033,-0.770739,0.110887
2.68302,-0.65157,-0.128612
2.60509,-0.76919,-0.142354
2.68906,-0.653037,0.339772
2.75159,-0.527383,-0.114143
2.68909,-0.653044,-0.0643924
2.7516,-0.537348,-0.0489365
2.59336,-0.77558,-0.0787772
2.68364,-0.661649,0
2.52312,-0.891005,-0.0311515
2.65174,-0.653784,-0.424903
2.5889,-0.774246,-0.343955
2.75197,-0.537421,0.0162966
2.59825,-0.777041,-0.0157619
2.6682,-0.657843,-0.296016
2.67323,-0.659082,-0.192528
2.75477,-0.537969,0.0816862
2.59023,-0.774644,0.0471913
2.75422,-0.53786,-0.179849
2.51525,-0.888229,-0.155347
2.68685,-0.662441,0.161161
2.60763,-0.779846,0.110887
2.67685,-0.659976,-0.128426
2.68676,-0.662419,0.339772
2.74581,-0.536219,-0.11398
2.67903,-0.660512,-0.0642063
2.74578,-0.54617,-0.0488667
2.67743,-0.670041,0
2.51999,-0.899807,-0.0311515
2.64561,-0.662077,-0.424288
2.58618,-0.783278,-0.343955
2.74615,-0.546244,0.0162734
2.66589,-0.667153,-0.296016
2.67671,-0.66986,0.0642063
2.51622,-0.898462,0.031105
2.66704,-0.66744,-0.192249
2.58696,-0.783513,-0.22066
2.74896,-0.546802,0.0815699
2.58752,-0.783681,0.0471913
2.74449,-0.545913,-0.179337
2.51214,-0.897003,-0.155347
2.67678,-0.669877,0.160696
2.59341,-0.785468,0.110398
2.66678,-0.667375,-0.128054
2.68058,-0.67083,0.339284
2.74392,-0.5458,-0.11398
2.74003,-0.554479,-0.0487969
2.66356,-0.675964,0
2.6434,-0.670846,-0.424288
2.57978,-0.790687,-0.34345
2.74825,-0.556141,0.0162966
2.58908,-0.793537,-0.0157387
2.65595,-0.674033,-0.295159
2.67447,-0.678733,0.0642063
2.51323,-0.906801,0.031105
2.66094,-0.675299,-0.19197
2.58435,-0.792088,-0.22066
2.74321,-0.555122,0.0814535
2.5849,-0.792258,0.0471913
2.74658,-0.555803,-0.179593
2.50164,-0.902618,-0.154882
2.67454,-0.67875,0.160696
2.58697,-0.792893,0.110235
2.66455,-0.676215,-0.128054
2.58557,-0.792463,-0.141726
2.6745,-0.678739,0.338797
2.73818,-0.554104,-0.113818
2.6706,-0.677749,-0.0641132
2.73818,-0.563562,-0.0487969
2.56629,-0.795871,-0.0781954
2.66131,-0.684793,0
2.50269,-0.91239,-0.0310118
2.57335,-0.798062,-0.342945
2.73463,-0.562832,0.0162269
2.57879,-0.799749,-0.0156922
2.65371,-0.682837,-0.295159
2.66446,-0.685605,0.0640202
2.50645,-0.91376,0.0310584
2.65096,-0.682131,-0.191412
2.74136,-0.564215,0.0814535
2.57844,-0.79964,0.0471215
2.74081,-0.564103,-0.179337
2.50238,-0.912277,-0.155115
2.67228,-0.687615,0.160696
2.58051,-0.800283,0.110073
2.57911,-0.799849,-0.141516
2.73241,-0.562375,-0.113655
2.7361,-0.573594,-0.0487969
2.56717,-0.80647,-0.0783117
2.65104,-0.692521,0
2.49933,-0.921557,-0.0310118
2.62718,-0.686287,-0.422443
2.56284,-0.80511,-0.341934
2.57584,-0.809195,-0.0156922
2.65118,-0.692559,-0.295159
2.66193,-0.695366,0.0640202
2.50309,-0.922941,0.0310584
2.57115,-0.807721,-0.22001
2.73144,-0.572618,0.0812208
2.57168,-0.807887,0.0470517
2.73091,-0.572507,-0.178825
2.49527,-0.920061,-0.154882
2.57756,-0.809736,0.110073
2.57235,-0.8081,-0.141307
2.66585,-0.69639,0.338309
2.73033,-0.572386,-0.113655
2.72245,-0.580164,-0.0485875
2.56448,-0.814978,-0.0783117
2.64873,-0.701308,0
2.49252,-0.928444,-0.0309653
2.62489,-0.694995,-0.422443
2.55637,-0.812403,-0.341429
2.56933,-0.816521,-0.0156689
2.64503,-0.700329,-0.294731
2.65574,-0.703166,0.0639271
2.50001,-0.931236,0.0310584
2.64228,-0.6996,-0.191133
2.56846,-0.816242,-0.22001
2.56136,-0.813988,0.0469121
2.72509,-0.580728,-0.178569
2.48473,-0.925542,-0.154417
2.65197,-0.702166,0.159766
2.57867,-0.819489,0.110235
2.56966,-0.816626,-0.141307
2.65201,-0.702178,0.336847
2.72451,-0.580604,-0.113492
2.64801,-0.701119,-0.063741
2.71649,-0.588816,-0.0485177
2.6424,-0.709513,0
2.62244,-0.704154,-0.422443
2.57027,-0.826709,-0.0156922
2.64555,-0.710358,0.063741
2.63982,-0.708819,-0.191133
2.71967,-0.589503,0.080988
2.56612,-0.825373,0.0470517
2.72695,-0.591082,-0.178825
2.48522,-0.935617,-0.15465
2.64565,-0.710384,0.159533
2.56819,-0.826038,0.10991
2.63954,-0.708744,-0.127309
2.56679,-0.82559,-0.141307
2.65338,-0.712461,0.337334
2.71466,-0.588417,-0.113166
2.64555,-0.710358,-0.063741
2.71822,-0.59963,-0.0485875
2.54337,-0.828355,-0.0778463
2.63207,-0.71709,0
2.61222,-0.711683,-0.421213
2.56342,-0.834886,-0.0156689
2.63907,-0.718998,0.0636479
2.48581,-0.946256,0.0309653
2.6295,-0.716392,-0.190575
2.71749,-0.599467,0.080988
2.55167,-0.831057,0.0468423
2.71697,-0.599353,-0.178314
2.47804,-0.943299,-0.154417
2.63532,-0.717976,0.159068
2.56134,-0.834208,0.109747
2.64078,-0.719464,-0.127495
2.55236,-0.831281,-0.140679
2.64309,-0.720094,0.336359
2.71248,-0.598363,-0.113166
2.71242,-0.607293,-0.0485177
2.63366,-0.726419,0
2.47536,-0.951192,-0.0308722
2.60616,-0.718835,-0.420598
2.6368,-0.727286,0.0636479
2.47909,-0.952626,0.0309187
2.62339,-0.723588,-0.190296
2.54477,-0.837661,-0.218708
2.55284,-0.84032,0.0469121
2.71507,-0.607886,-0.178314
2.47506,-0.951079,-0.154417
2.64075,-0.728375,0.159533
2.55491,-0.841001,0.109584
2.63465,-0.726694,-0.127309
2.55353,-0.840545,-0.140888
2.70279,-0.605135,-0.112841
2.6368,-0.727286,-0.0636479
2.71018,-0.61723,-0.0485177
2.53388,-0.844384,-0.0777299
2.63098,-0.736067,0
2.47558,-0.961706,-0.0309187
2.60731,-0.729447,-0.421213
2.55009,-0.849786,-0.0156224
2.6235,-0.733976,-0.293446
2.62641,-0.73479,0.0634618
2.47558,-0.961706,0.0309187
2.62072,-0.733199,-0.190296
2.54546,-0.848243,-0.219033
2.54216,-0.847142,0.0467725
2.70504,-0.61606,-0.177802
2.47156,-0.960144,-0.154417
2.63037,-0.735897,0.159068
2.55181,-0.850359,0.109584
2.70445,-0.615925,-0.113003
2.63026,-0.735867,-0.0635549
2.70022,-0.624883,-0.0483781
2.53471,-0.854501,-0.0778463
2.62454,-0.744155,0
2.60095,-0.737466,-0.420598
2.62768,-0.745044,0.0635549
2.46849,-0.96888,0.0308722
2.61815,-0.742342,-0.190296
2.69559,-0.623812,0.0805226
2.5354,-0.854733,0.0467026
2.70288,-0.625499,-0.177802
2.6201,-0.742896,0.158603
2.54504,-0.857985,0.109421
2.54366,-0.85752,-0.140679
2.69449,-0.623559,-0.112678
2.61614,-0.741772,-0.0632757
2.68623,-0.632028,-0.0481686
2.52399,-0.861203,-0.0776135
2.61411,-0.751559,0
2.46492,-0.977921,-0.0308722
2.59443,-0.745902,-0.419983
2.68659,-0.632114,0.0160409
2.6134,-0.751355,0.0632757
2.46492,-0.977921,0.0308722
2.61158,-0.750831,-0.190017
2.68939,-0.632772,0.0804062
2.53225,-0.86402,0.0467026
2.69279,-0.633573,-0.17729
2.61352,-0.751391,0.158371
2.5381,-0.866016,0.109258
2.53294,-0.864257,-0.14026
2.6883,-0.632516,-0.112515
2.60956,-0.750251,-0.0631827
2.6879,-0.64233,-0.0482385
2.51719,-0.868704,-0.0774972
2.60379,-0.758442,0
2.45778,-0.985031,-0.0308256
2.59561,-0.756059,-0.420598
2.53712,-0.875582,-0.0155992
2.60692,-0.759355,0.0631827
2.45406,-0.983543,0.030779
2.60128,-0.75771,-0.189459
2.52921,-0.872854,0.0467026
2.69057,-0.642968,-0.17729
2.61089,-0.760509,0.158371
2.53128,-0.873567,0.109096
2.52991,-0.873093,-0.14026
2.68996,-0.642825,-0.112678
2.61076,-0.760473,-0.0632757
2.67809,-0.648888,-0.0480988
2.51445,-0.876608,-0.0774972
2.60139,-0.766618,0
2.45096,-0.991248,-0.030779
2.60836,-0.768671,0.0632757
2.52223,-0.879321,-0.218057
2.52268,-0.879479,0.0466328
2.68465,-0.650478,-0.177034
2.61231,-0.769837,0.158603
2.52475,-0.880199,0.108933
2.52715,-0.881037,-0.14026
2.67239,-0.647508,-0.112026
2.60069,-0.766411,-0.0630896
2.67581,-0.658232,-0.0480988
2.51137,-0.885379,-0.0774972
2.59487,-0.77455,0
2.598,-0.775484,0.0630896
2.51915,-0.88812,-0.218057
2.51205,-0.885619,0.0464932
2.67461,-0.657938,-0.176523
2.60196,-0.776666,0.158138
2.52543,-0.890336,0.109096
2.52029,-0.888525,-0.140051
2.66624,-0.655877,-0.111864
2.59417,-0.77434,-0.0629966
2.66185,-0.664662,-0.0478894
2.50827,-0.89414,-0.0774972
2.59215,-0.783603,0
2.59527,-0.784548,0.0630896
2.50895,-0.894383,0.0464932
2.6723,-0.66727,-0.176523
2.59159,-0.783433,0.157673
2.51854,-0.897803,0.108933
2.50965,-0.894634,-0.139632
2.66393,-0.66518,-0.111864
2.58762,-0.782234,-0.0629035
2.65952,-0.673949,-0.0478894
2.59322,-0.793817,0
2.58105,-0.790091,0.0628105
2.6588,-0.673767,0.0798244
2.50581,-0.903135,0.0464932
2.58884,-0.792475,0.157673
2.51027,-0.904744,-0.139842
2.66547,-0.675457,-0.112026
2.58105,-0.790091,-0.0628105
2.65703,-0.683692,-0.0478894
2.49054,-0.907958,-0.0771481
2.58647,-0.802132,0
2.57814,-0.799546,0.0628105
2.49831,-0.910792,-0.21708
2.50248,-0.912313,0.0464932
2.57829,-0.799592,0.157208
2.49943,-0.911202,-0.139423
2.66297,-0.685222,-0.112026
2.57432,-0.798361,-0.0627174
2.65088,-0.69149,-0.0478196
2.49126,-0.917594,-0.0772645
2.57998,-0.809507,0
2.57547,-0.808091,0.0628105
2.49944,-0.920607,0.0464932
2.65358,-0.692195,-0.175755
2.49265,-0.918105,-0.139214
2.64522,-0.690013,-0.111375
2.57165,-0.806894,-0.0627174
2.64072,-0.698693,-0.04768
2.57333,-0.817297,0
2.56882,-0.815866,0.0627174
2.56326,-0.814098,-0.188063
2.48872,-0.926535,0.0463536
2.64729,-0.700432,-0.1755
2.56898,-0.815915,0.156975
2.48943,-0.9268,-0.139214
2.64666,-0.700265,-0.111538
2.56882,-0.815866,-0.0627174
2.63427,-0.70733,-0.0476102
2.47715,-0.93258,-0.0770317
2.56651,-0.825499,0
2.56962,-0.8265,0.0628105
2.48531,-0.935651,0.0463536
2.63699,-0.70806,-0.174988
2.56217,-0.824102,0.156743
2.63249,-0.706852,-0.111049
2.56201,-0.824051,-0.0626244
2.63179,-0.716521,-0.0476102
2.47388,-0.941221,-0.0770317
2.556,-0.831976,0
2.55531,-0.831751,0.0625313
2.48202,-0.94432,0.0463536
2.6345,-0.71726,-0.174988
2.56084,-0.833548,-0.125448
2.47527,-0.941749,-0.138795
2.63001,-0.716036,-0.111049
2.55912,-0.832989,-0.0626244
2.62169,-0.723118,-0.0474705
2.46701,-0.947985,-0.0769154
2.55323,-0.840448,0
2.54494,-0.837719,0.0623452
2.54322,-0.837153,-0.187226
2.47141,-0.949677,0.046214
2.63211,-0.725993,-0.174988
2.54891,-0.839026,0.156278
2.47213,-0.949952,-0.138795
2.62377,-0.723691,-0.110887
2.54874,-0.83897,-0.0624383
2.61915,-0.732265,-0.0474705
2.45623,-0.953696,-0.0766826
2.54649,-0.848091,0
2.542,-0.846598,0.0623452
2.47181,-0.959745,0.0462838
2.54597,-0.847918,0.156278
2.4688,-0.958576,-0.138795
2.61738,-0.731769,-0.110724
2.5458,-0.847862,-0.0624383
2.61273,-0.740313,-0.0474007
2.45289,-0.962265,-0.0766826
2.53972,-0.855698,0
2.53524,-0.854189,0.0622522
2.61162,-0.739998,-0.173965
2.54299,-0.8568,0.156278
2.46172,-0.965729,-0.138586
2.61096,-0.739812,-0.110561
2.54282,-0.856743,-0.0624383
2.60244,-0.747221,-0.0472611
2.45323,-0.972294,-0.076799
2.53672,-0.864558,0
2.53603,-0.864324,0.0623452
2.61669,-0.751313,-0.174476
2.53243,-0.863095,0.155813
2.45833,-0.974316,-0.138586
2.60836,-0.748921,-0.110561
2.53603,-0.864324,-0.0623452
2.60352,-0.757872,-0.0473309
2.44223,-0.978305,-0.0765663
2.52975,-0.872545,0
2.52151,-0.869701,0.0620661
2.60242,-0.757551,-0.173709
2.45475,-0.98332,-0.138586
2.59792,-0.756242,-0.110235
2.52907,-0.872309,-0.0622522
2.59319,-0.764693,-0.0471913
2.44251,-0.988324,-0.0766826
2.52291,-0.880053,0
2.52054,-0.879223,-0.186668
2.59976,-0.766631,-0.173709
2.52773,-0.881732,-0.124703
2.59527,-0.765306,-0.110235
2.52601,-0.881132,-0.0622522
2.59051,-0.77374,-0.0471913
2.51983,-0.888854,0
2.58702,-0.7727,0.0156922
2.51745,-0.888016,-0.186668
2.59324,-0.774558,-0.173453
2.52086,-0.889221,-0.124517
2.58492,-0.772073,-0.10991
2.52292,-0.889944,-0.0622522
2.50949,-0.894081,0
2.50504,-0.892497,0.06188
2.51465,-0.895921,-0.186668
2.58698,-0.781547,-0.173197
2.51634,-0.896523,-0.0621591
2.57753,-0.789014,-0.0470517
2.50243,-0.901916,0
2.50175,-0.901672,0.06188
2.57264,-0.787518,-0.17243
2.57579,-0.78848,-0.109747
2.50551,-0.903028,-0.061973
2.57476,-0.798006,-0.0470517
2.50302,-0.912015,0
2.57129,-0.79693,0.0156457
2.49693,-0.909794,-0.185831
2.57369,-0.797676,-0.172685
2.50407,-0.912396,-0.124145
2.57302,-0.797466,-0.109747
2.5721,-0.80654,-0.0470517
2.56863,-0.805453,0.0156457
2.49015,-0.91669,-0.185552
2.57103,-0.806206,-0.172685
2.49728,-0.919314,-0.123959
2.56655,-0.804798,-0.109584
2.56531,-0.814751,-0.0469819
2.4891,-0.926676,0
2.56185,-0.813651,0.0156224
2.48303,-0.924419,-0.185273
2.56045,-0.813207,-0.172174
2.49389,-0.928461,-0.123959
2.55596,-0.81178,-0.109258
2.56245,-0.823701,-0.0469819
2.49334,-0.938177,0
2.47769,-0.93229,0.0616008
2.48353,-0.934486,-0.185552
