2.72382,0.689233,0.114469
2.71118,0.536827,-0.032176
2.72066,0.678337,-0.0162966
2.70744,0.536086,-0.257641
2.72188,0.821784,0.0661604
2.71118,0.536827,0.032176
2.7203,0.678245,0.0489365
2.71069,0.536731,-0.160929
2.71458,0.676819,0.11398
2.71913,0.667883,-0.0162734
2.70538,0.525873,-0.257269
2.71707,0.809993,0.0659743
2.70126,0.525071,0.0320363
2.72265,0.668746,0.0489365
2.71255,0.527266,-0.160929
2.71304,0.666387,0.113818
2.71157,0.666026,-0.146331
2.7179,0.667581,0.228471
2.70479,0.654358,-0.080988
2.71879,0.518636,-0.0322225
2.72145,0.658386,-0.0162734
2.70329,0.515679,-0.256897
2.71604,0.799374,0.0658812
2.71486,0.517886,0.032176
2.71045,0.517045,-0.160696
2.71535,0.656912,0.113818
2.70859,0.655277,0.227495
2.71272,0.507673,-0.0321294
2.71984,0.647957,-0.0162501
2.70507,0.506242,-0.256897
2.71882,0.78989,0.0658812
2.70879,0.506937,0.0320828
2.72336,0.648796,0.0488667
2.71224,0.507583,-0.160696
2.71763,0.647431,0.113818
2.71086,0.64582,0.227495
2.7093,0.63546,-0.080988
2.71054,0.497478,-0.0320828
2.71819,0.637545,-0.0162269
2.71074,0.497515,-0.257269
2.72156,0.780394,0.0658812
2.71054,0.497478,0.0320828
2.70614,0.49667,-0.160231
2.71598,0.637028,0.113655
2.7184,0.637595,-0.146331
2.70922,0.635442,0.22717
2.70371,0.6242,-0.0807553
2.70961,0.766741,0
2.7204,0.628053,-0.0162269
2.7007,0.485933,-0.256154
2.71657,0.768711,0.0656951
2.71226,0.488012,0.0320828
2.72392,0.628867,0.0487969
2.71179,0.487927,-0.160464
2.71429,0.626644,0.113492
2.72061,0.628101,-0.146331
2.71531,0.626878,0.227495
2.70977,0.615645,-0.0808717
2.71867,0.617667,-0.0162036
2.7063,0.477195,-0.256526
2.71923,0.759224,0.0656951
2.70607,0.477153,0.0319897
2.7222,0.61847,0.0487271
2.70954,0.477765,-0.160231
2.71257,0.61628,0.113329
2.71499,0.616831,-0.145913
2.7097,0.61563,0.226844
2.70718,0.745681,0
2.70772,0.467704,-0.0319897
2.72081,0.608173,-0.0162036
2.70403,0.467066,-0.256154
2.72187,0.749727,0.0656951
2.71119,0.468304,-0.160231
2.7108,0.605935,0.113166
2.70208,0.595079,-0.0805226
2.70523,0.458527,-0.0319431
2.70941,0.459235,-0.256526
2.72035,0.740123,0.0656021
2.70523,0.458527,0.0319431
2.72234,0.599541,0.0486573
2.71265,0.459784,-0.160231
2.72419,0.741168,0.164417
2.71659,0.598276,0.113329
2.71195,0.587336,-0.0807553
2.7082,0.726673,0
2.71471,0.45039,-0.0320363
2.71306,0.587574,-0.0161339
2.72678,0.731659,0.0656951
2.71076,0.449735,0.0319897
2.72051,0.589188,0.0485875
2.70636,0.449005,-0.159766
2.71519,0.728549,0.16372
2.71867,0.588789,0.113329
2.70686,0.716193,0
2.70837,0.43963,-0.0319431
2.71509,0.578101,-0.0161339
2.70469,0.439033,-0.255782
2.72159,0.720091,0.065509
2.71626,0.440911,0.0320363
2.72255,0.579688,0.0485875
2.70397,0.438916,-0.159533
2.71386,0.718046,0.163487
2.70898,0.576799,0.112841
2.71003,0.577024,0.226193
2.70934,0.706741,0
2.71383,0.430801,-0.0319897
2.71709,0.568621,-0.0161339
2.7062,0.429589,-0.255782
2.72021,0.709577,0.0654159
2.70198,0.428919,0.03185
2.72064,0.569363,0.0485177
2.70943,0.430101,-0.159766
2.72408,0.710585,0.163952
2.71489,0.568159,0.113003
2.72408,0.710587,-0.065509
2.71012,0.557295,-0.0805226
2.70742,0.420099,-0.0318966
2.71514,0.558328,-0.0161106
2.70769,0.420141,-0.255782
2.72267,0.700078,0.0654159
2.70742,0.420099,0.0318966
2.7179,0.558895,-0.226519
2.71486,0.421254,-0.159999
2.7188,0.699083,0.163487
2.70902,0.557069,0.112678
2.7188,0.699082,-0.0653229
2.70813,0.54704,-0.0804062
2.70645,0.685843,0
2.70096,0.409446,-0.0318034
2.721,0.549638,-0.0161339
2.70914,0.410686,-0.255782
2.71735,0.688605,0.0652298
2.70887,0.410645,0.0318966
2.72063,0.549563,0.0484479
2.70842,0.410577,-0.159533
2.7251,0.690569,0.16372
2.71095,0.547609,0.112678
2.72123,0.689587,-0.0653229
2.70495,0.675422,0
2.70633,0.400601,-0.03185
2.71897,0.539357,-0.0161106
2.71055,0.401226,-0.255782
2.70633,0.400601,0.03185
2.71352,0.820294,0.0825008
2.70588,0.400535,-0.159301
2.71974,0.679117,0.163254
2.72069,0.539697,0.113003
2.70778,0.390679,-0.03185
2.70995,0.808386,0.0164361
2.71308,0.527861,-0.0160641
2.70412,0.390152,-0.255039
2.71444,0.667233,0.0650437
2.70778,0.390679,0.03185
2.71268,0.809201,0.0823844
2.72056,0.529317,0.0483781
2.70733,0.390615,-0.159301
2.72222,0.669144,0.163254
2.71088,0.527432,0.112515
2.71444,0.667233,-0.0650437
2.70146,0.380626,-0.254667
2.72052,0.659169,0.0651368
2.70906,0.381697,0.03185
2.71535,0.8002,0.0823844
2.71838,0.519541,0.0483083
2.70861,0.381634,-0.159301
2.72054,0.659172,0.163022
2.70476,0.516939,0.112189
2.71275,0.657286,-0.0649507
2.69979,0.506228,-0.0799408
2.70245,0.371152,-0.0317569
2.71661,0.509383,-0.0160641
2.70671,0.371738,-0.255039
2.72281,0.64967,0.0651368
2.70641,0.371696,0.0318034
2.71549,0.509172,-0.225542
2.71045,0.788485,0.0821517
2.70993,0.372179,-0.159301
2.71894,0.648747,0.162789
2.71833,0.509706,0.112678
2.70894,0.64636,-0.129729
2.70547,0.497524,-0.0800572
2.70633,0.635761,0
2.71166,0.362776,-0.03185
2.71429,0.779335,0.0164128
2.71837,0.499896,-0.0160641
2.708,0.362287,-0.255039
2.72117,0.639247,0.0650437
2.71166,0.362776,0.03185
2.71318,0.779018,0.0821517
2.71121,0.362717,-0.159301
2.72507,0.640165,0.163022
2.71616,0.49949,0.112515
2.71507,0.637814,-0.129915
2.7071,0.488548,-0.0800572
2.70452,0.62588,0
2.70491,0.352747,-0.0317569
2.71608,0.490168,-0.0160409
2.70523,0.352789,-0.254667
2.71938,0.629317,0.0649507
2.70888,0.353264,0.0318034
2.7119,0.768925,0.0820353
2.71965,0.490812,0.0482385
2.70448,0.35269,-0.158836
2.7194,0.629323,0.162557
2.71781,0.49048,0.112515
2.70938,0.627004,-0.129543
2.71548,0.628416,-0.0648576
2.70669,0.616435,0
2.71009,0.343805,-0.0318034
2.71182,0.758685,0.0163664
2.7025,0.342842,-0.254295
2.71376,0.618044,0.0647646
2.70613,0.343302,0.0317569
2.71842,0.760531,0.0821517
2.70569,0.343247,-0.158836
2.71769,0.618939,0.162324
2.70769,0.478901,0.112026
2.70376,0.615767,-0.12917
2.70986,0.617156,-0.0646715
2.69863,0.467591,-0.0797081
2.70731,0.333856,-0.0317569
2.7106,0.748152,0.0163431
2.71549,0.470512,-0.0160176
2.70368,0.333408,-0.254295
2.7198,0.609444,0.0648576
2.70334,0.333366,0.0317103
2.7095,0.747848,0.0818026
2.71907,0.471132,0.0481686
2.71084,0.334291,-0.159068
2.71983,0.609451,0.162324
2.70541,0.468766,0.111864
2.70589,0.606328,-0.12917
2.7198,0.609444,-0.0648576
2.70051,0.323451,-0.0316637
2.71319,0.738685,0.0163431
2.70482,0.323968,-0.254295
2.71801,0.599085,0.0647646
2.70051,0.323451,0.0316637
2.71595,0.739435,0.0819189
2.70406,0.323876,-0.158603
2.71804,0.599093,0.162092
2.71097,0.459987,0.112026
2.7158,0.598598,-0.129543
2.71801,0.599085,-0.0647646
2.70577,0.449395,-0.0798244
2.69765,0.313562,-0.0316172
2.71265,0.450537,-0.350016
2.71189,0.728173,0.0163199
2.71476,0.450888,-0.0159944
2.70594,0.314525,-0.254295
2.72008,0.589594,0.0647646
2.69765,0.313562,0.0316172
2.71368,0.450707,-0.224566
2.72402,0.590448,0.162324
2.70468,0.449212,0.111701
2.71397,0.588269,-0.129357
2.71617,0.588747,-0.0646715
2.70733,0.439946,-0.0798244
2.7033,0.576084,0
2.69873,0.304142,-0.0316172
2.70638,0.439792,-0.349005
2.70668,0.716654,0.0162734
2.71632,0.441408,-0.0159944
2.71098,0.305523,-0.254667
2.72212,0.580095,0.0647646
2.70271,0.30459,0.0316637
2.71332,0.718409,0.0816862
2.70625,0.30499,-0.158603
2.71825,0.579271,0.161859
2.71412,0.44105,0.112026
2.70819,0.577125,-0.128984
2.7143,0.578428,-0.0645785
2.70529,0.566643,0
2.69978,0.29472,-0.0316172
2.71181,0.430964,-0.34951
2.71691,0.709221,0.0163199
2.7139,0.431295,-0.0159711
2.70807,0.295625,-0.254295
2.7163,0.568949,0.0645785
2.70375,0.295154,0.0316637
2.6987,0.565263,-0.192807
2.71581,0.708933,0.0816862
2.70333,0.295108,-0.158371
2.71244,0.568141,0.161394
2.70775,0.430318,0.111701
2.71018,0.567668,-0.128984
2.70848,0.56731,-0.0643924
2.69848,0.419194,-0.0794753
2.70334,0.556391,0
2.70874,0.286135,-0.0317103
2.71539,0.42182,-0.0159711
2.70512,0.285752,-0.253923
2.72219,0.560271,0.0646715
2.70079,0.285294,0.0316172
2.71439,0.698453,0.0815699
2.70832,0.28609,-0.158603
2.72223,0.56028,0.161859
2.70528,0.42025,0.111538
2.70824,0.557399,-0.128798
2.71827,0.559465,-0.0645785
2.70592,0.68621,-0.0487271
2.70388,0.410371,-0.0795917
2.70526,0.54695,0
2.70177,0.275864,-0.0316172
2.71404,0.68827,0.0162734
2.70893,0.411138,-0.0159246
2.7061,0.276307,-0.253923
2.71237,0.548387,0.0643924
2.69779,0.275458,0.0315706
2.69867,0.545618,-0.192528
2.70906,0.687007,0.0813371
2.70533,0.276228,-0.158371
2.71634,0.54919,0.161394
2.70278,0.410204,0.111375
2.71017,0.547941,-0.128798
2.71237,0.548387,-0.0643924
2.70536,0.400458,-0.0795917
2.70333,0.536254,0
2.69878,0.265569,-0.0315706
2.7084,0.400907,-0.3485
2.7049,0.675411,0.0162036
2.7071,0.266387,-0.253923
2.70276,0.265961,0.0316172
2.70768,0.676105,0.0812208
2.71797,0.402324,0.0479592
2.7103,0.266702,-0.158603
2.71834,0.539231,0.161394
2.70427,0.400296,0.111375
2.71216,0.538005,-0.128798
2.71822,0.539209,0.340259
2.70272,0.390913,-0.0794753
2.70509,0.527287,0
2.70363,0.256997,-0.0316172
2.70186,0.390788,-0.34749
2.70797,0.257409,-0.253923
2.72006,0.530204,0.0644854
2.70363,0.256997,0.0316172
2.70991,0.667123,0.0812208
2.70321,0.256958,-0.158138
2.71619,0.529451,0.161161
2.70953,0.391899,0.111538
2.71392,0.529009,-0.128798
2.72,0.530193,0.340259
2.70518,0.655952,-0.0485875
2.70011,0.380917,-0.079359
2.70691,0.51784,0
2.70451,0.247557,-0.0316172
2.70321,0.381354,-0.34749
2.70944,0.656984,0.0162036
2.70913,0.382189,-0.0159014
2.70488,0.247592,-0.253551
2.70849,0.247922,0.0316637
2.70834,0.656717,0.0811044
2.71668,0.383255,0.0478894
2.70409,0.247519,-0.158138
2.71802,0.519965,0.161161
2.70297,0.381321,0.111212
2.71183,0.518781,-0.128612
2.72183,0.520694,0.340259
2.71796,0.519954,-0.0643924
2.71146,0.646962,-0.0486573
2.69753,0.370475,-0.0792426
2.70093,0.506442,0
2.69743,0.236944,-0.0315241
2.71572,0.647978,0.0162269
2.71051,0.372258,-0.0159014
2.70577,0.237677,-0.253551
2.71592,0.509252,0.0642993
2.7054,0.237644,0.0316172
2.71461,0.647714,0.0812208
2.70101,0.237258,-0.157906
2.71991,0.51,0.161161
2.70831,0.371956,0.111375
2.70586,0.507366,-0.12824
2.71592,0.509252,0.339284
2.69868,0.361999,-0.0792426
2.70251,0.497954,0
2.70215,0.228806,-0.0315706
2.70995,0.637611,0.0161804
2.7077,0.36321,-0.0158782
2.70652,0.498694,-0.296445
2.70651,0.229175,-0.253551
2.70215,0.228806,0.0315706
2.70885,0.637352,0.080988
2.70572,0.229109,-0.158138
2.7215,0.501454,0.161161
2.7055,0.362915,0.111212
2.71137,0.499587,-0.128426
2.7136,0.499998,0.338797
2.72234,0.365173,0.500798
2.71751,0.500718,-0.0642993
2.7079,0.627159,-0.0485177
2.70389,0.353094,-0.079359
2.70423,0.488517,0
2.70699,0.353499,-0.34749
2.70827,0.627244,0.0161571
2.70824,0.489242,-0.296445
2.70729,0.219726,-0.253551
2.71924,0.491228,0.0642993
2.70293,0.219372,0.0315706
2.69764,0.487327,-0.191691
2.70717,0.62699,0.0808717
2.70252,0.219339,-0.157906
2.7193,0.49124,0.160929
2.70279,0.35295,0.111049
2.70916,0.489409,-0.12824
2.71533,0.490522,0.338797
2.71969,0.355157,0.50008
2.71137,0.489807,-0.0641132
2.70227,0.615926,-0.0483781
2.70114,0.34315,-0.0792426
2.70198,0.478378,0
2.70368,0.209936,-0.0315706
2.70427,0.343548,-0.346985
2.71044,0.617788,0.0161571
2.70224,0.343289,-0.0158317
2.69819,0.477706,-0.295159
2.70804,0.210275,-0.253551
2.717,0.481037,0.0642063
2.70368,0.209936,0.0315706
2.70544,0.616648,0.0807553
2.70981,0.344251,0.04768
2.70104,0.615646,-0.177546
2.69929,0.209595,-0.157673
2.71314,0.480353,0.160464
2.70401,0.343514,0.111049
2.71086,0.479949,-0.12824
2.71702,0.481041,0.338797
2.72092,0.345662,0.50008
2.71306,0.48034,-0.0641132
2.70757,0.469626,0
2.70041,0.200201,-0.0315241
2.70477,0.606571,0.0161106
2.71533,0.335325,-0.0159014
2.70768,0.469644,-0.296016
2.70479,0.200526,-0.25318
2.71078,0.470182,0.0640202
2.70439,0.200497,0.0315706
2.69705,0.4678,-0.191412
2.70758,0.6072,0.0807553
2.71496,0.335279,0.0477498
2.70318,0.606213,-0.177546
2.70399,0.200466,-0.157906
2.7148,0.470879,0.160464
2.70122,0.333583,0.110887
2.70858,0.4698,-0.128054
2.71477,0.470875,0.338309
2.7182,0.335679,0.499363
2.71472,0.470866,-0.0641132
2.7026,0.596184,-0.0483083
2.70131,0.458833,0
2.70109,0.190774,-0.0315241
2.7066,0.32466,-0.346985
2.70687,0.597127,0.0161106
2.71251,0.325369,-0.0158782
2.7093,0.46019,-0.296016
2.70547,0.191084,-0.25318
2.71635,0.461387,0.0641132
2.6971,0.190492,0.0314775
2.70968,0.597745,0.0807553
2.71611,0.325801,0.0477498
2.70528,0.596774,-0.177546
2.70467,0.191027,-0.157906
2.71642,0.4614,0.160464
2.70237,0.324152,0.110887
2.7102,0.460343,-0.128054
2.71249,0.460732,0.337822
2.70077,0.595781,-0.112678
2.71545,0.325721,0.498645
2.71241,0.460718,-0.0640202
2.70467,0.586746,-0.0483083
2.69895,0.448744,0
2.69775,0.181076,-0.0314775
2.71363,0.315897,-0.0158782
2.70696,0.450077,-0.295588
2.70612,0.181638,-0.25318
2.71794,0.451902,0.0641132
2.69376,0.180808,0.0314309
2.70393,0.586587,0.0805226
2.70344,0.58648,-0.17729
2.70532,0.181584,-0.157906
2.71408,0.45126,0.160231
2.70349,0.314717,0.110887
2.71179,0.450879,-0.128054
2.718,0.451911,0.338309
2.72048,0.316695,0.499363
2.7067,0.577302,-0.0483083
2.69437,0.171404,-0.0314309
2.70486,0.305311,-0.34648
2.70706,0.57738,0.0160874
2.70852,0.440626,-0.295588
2.70674,0.172191,-0.25318
2.7195,0.442412,0.0641132
2.69437,0.171404,0.0314309
2.69786,0.438891,-0.191133
2.70972,0.30586,-0.222613
2.71435,0.306382,0.04768
2.70157,0.576208,-0.177034
2.70457,0.305278,0.110887
2.70941,0.44077,-0.127868
2.7078,0.440509,0.336847
2.70096,0.576078,-0.112515
2.71375,0.306314,0.497928
2.71556,0.44177,-0.0640202
2.70097,0.565737,-0.0481686
2.69882,0.294615,-0.0790099
2.70209,0.429419,0
2.69498,0.161527,-0.0314309
2.70596,0.295395,-0.34648
2.70787,0.295603,-0.0158317
2.70226,0.429446,-0.294731
2.70735,0.162269,-0.25318
2.71321,0.431186,0.0639271
2.69498,0.161527,0.0314309
2.69551,0.428373,-0.190854
2.70806,0.567223,0.0805226
2.71545,0.296431,0.04768
2.70757,0.56712,-0.17729
2.70256,0.161982,-0.157673
2.7133,0.4312,0.159999
2.7017,0.294929,0.110724
2.71495,0.431463,-0.128054
2.71724,0.431827,0.337822
2.70305,0.566174,-0.112515
2.71094,0.295938,0.49721
2.71321,0.431186,-0.0639271
2.70283,0.556778,-0.0481686
2.7035,0.420457,0
2.69949,0.152816,-0.0314775
2.70693,0.286421,-0.34648
2.70319,0.556853,0.0160409
2.70485,0.286201,-0.0158084
2.70367,0.420483,-0.294731
2.69992,0.15284,-0.252436
2.71067,0.421572,0.0638341
2.69949,0.152816,0.0314775
2.70993,0.55824,0.0805226
2.71244,0.287004,0.0476102
2.70161,0.556528,-0.176779
2.70308,0.153019,-0.157673
2.71076,0.421587,0.159766
2.69868,0.285548,0.110561
2.71242,0.421844,-0.127868
2.71081,0.421594,0.336847
2.71582,0.287361,0.497928
2.71067,0.421572,-0.0638341
2.70476,0.54734,-0.0481686
2.70406,0.276577,-0.543637
2.70001,0.143393,-0.0314775
2.70396,0.276567,-0.345975
2.70584,0.276758,-0.0158084
2.70119,0.410446,-0.294303
2.70044,0.143415,-0.252436
2.71608,0.412709,0.0639271
2.69602,0.143181,0.0314309
2.71186,0.548778,0.0805226
2.70745,0.547886,-0.177034
2.69563,0.14316,-0.157208
2.71617,0.412722,0.159999
2.70364,0.276534,0.110724
2.70992,0.411773,-0.127681
2.71226,0.412129,0.336847
2.70292,0.54697,-0.112352
2.71289,0.27748,0.49721
2.71213,0.412108,-0.0638341
2.70665,0.537895,-0.0481686
2.69773,0.266416,-0.0788935
2.70111,0.26675,-0.542853
2.70241,0.400986,0
2.7005,0.133966,-0.0314775
2.70702,0.537968,0.0160409
2.70679,0.267311,-0.0158084
2.70261,0.401014,-0.294303
2.7049,0.134185,-0.252808
2.71355,0.402638,0.0638341
2.6965,0.133768,0.0314309
2.69583,0.400009,-0.190575
2.71326,0.53921,-0.17729
2.70808,0.134342,-0.157906
2.71759,0.403238,0.159999
2.69663,0.266308,0.110398
2.7153,0.402897,-0.127868
2.70976,0.402076,0.336359
2.7009,0.536752,-0.112189
2.71384,0.268008,0.49721
2.71355,0.402638,-0.0638341
2.7086,0.527972,-0.0481686
2.69471,0.256149,-0.0787772
2.69991,0.390506,0
2.69697,0.123885,-0.0314309
2.70192,0.256835,-0.34547
2.71193,0.392245,-0.295159
2.7014,0.124088,-0.252436
2.71105,0.392118,0.063741
2.69298,0.123701,0.0313844
2.69728,0.390126,-0.190575
2.70738,0.257354,0.0474705
2.69955,0.526207,-0.176267
2.70456,0.124233,-0.157673
2.7151,0.392704,0.159766
2.70157,0.256802,0.110561
2.71122,0.392142,0.336359
2.70641,0.518235,-0.0480988
2.69554,0.247212,-0.0787772
2.70911,0.38267,0
2.69737,0.114941,-0.0314309
2.69881,0.247512,-0.344965
2.70062,0.247678,-0.0157619
2.70534,0.382138,-0.294303
2.70179,0.115129,-0.252436
2.71233,0.383126,0.063741
2.69737,0.114941,0.0314309
2.69461,0.380622,-0.190296
2.70822,0.248375,0.0474705
2.70128,0.517253,-0.176267
2.69698,0.114924,-0.157208
2.70848,0.382582,0.159301
2.69843,0.247477,0.110398
2.71409,0.383373,-0.127681
2.7125,0.38315,0.336359
2.71173,0.248697,0.496493
2.70837,0.382567,-0.0636479
2.70427,0.508046,-0.048029
2.69241,0.23745,-0.0786608
2.71043,0.373211,0
2.70175,0.10568,-0.0314775
2.69966,0.238089,-0.344965
2.70147,0.238249,-0.0157619
2.70272,0.372149,-0.293874
2.6982,0.105541,-0.252064
2.70573,0.372564,0.0635549
2.70175,0.10568,0.0314775
2.69987,0.371757,-0.190575
2.70747,0.508646,0.0801735
2.71305,0.239271,0.0475404
2.70307,0.50782,-0.176267
2.70135,0.105665,-0.15744
2.71375,0.373669,0.159533
2.70749,0.372806,-0.127309
2.71382,0.373678,0.336359
2.70637,0.50844,-0.112189
2.71258,0.239229,0.496493
2.70573,0.372564,-0.0635549
2.7021,0.497879,-0.0479592
2.6972,0.228388,-0.0787772
2.70457,0.229012,-0.542853
2.69982,0.362152,0
2.7021,0.0962494,-0.0314775
2.69123,0.361,-0.422443
2.70442,0.228999,-0.34547
2.70246,0.497946,0.0159711
2.70627,0.229156,-0.0157852
2.70006,0.362184,-0.293446
2.69855,0.0961228,-0.252064
2.70702,0.363118,0.0635549
2.7053,0.498468,0.0800572
2.71387,0.2298,0.0475404
2.70483,0.498382,-0.176267
2.69772,0.0960931,-0.157208
2.70713,0.363133,0.159068
2.70009,0.228632,0.110398
2.71274,0.363885,-0.127495
2.71117,0.363676,0.335872
2.7042,0.498266,-0.112026
2.7134,0.229759,0.496493
2.70702,0.363118,-0.0635549
2.70382,0.488443,-0.0479592
2.694,0.218647,-0.0786608
2.70107,0.352725,0
2.69043,0.0864307,-0.0313378
2.70521,0.219557,-0.34547
2.70812,0.48922,0.0159944
2.70705,0.219707,-0.0157852
2.70525,0.353272,-0.293874
2.71223,0.354183,0.0636479
2.69443,0.0865592,0.0313844
2.70308,0.488311,0.0799408
2.70262,0.488227,-0.176011
2.69803,0.086675,-0.157208
2.71234,0.354197,0.159301
2.70087,0.219205,0.110398
2.70607,0.353378,-0.127123
2.71243,0.354209,0.335872
2.70199,0.488112,-0.111864
2.70936,0.480172,-0.048029
2.69869,0.210023,-0.0787772
2.69824,0.209988,-0.541284
2.70619,0.344272,0
2.6907,0.077509,-0.0313378
2.70196,0.210278,-0.344965
2.71175,0.21104,-0.0158084
2.69852,0.343295,-0.293018
2.6947,0.0776242,0.0313844
2.70469,0.479345,0.0799408
2.7074,0.210701,0.0474007
2.70029,0.478566,-0.175755
2.70629,0.077958,-0.157673
2.71746,0.345705,0.159533
2.6976,0.209938,0.110235
2.71119,0.344907,-0.127309
2.70965,0.344712,0.335384
2.69966,0.478453,-0.111701
2.7149,0.211284,0.496493
2.71339,0.345188,-0.0636479
2.70314,0.469343,-0.0478894
2.69542,0.200305,-0.0786608
2.70737,0.334823,0
2.69096,0.0681155,-0.0313378
2.69872,0.20055,-0.34446
2.70849,0.201275,-0.0157852
2.70364,0.334361,-0.293446
2.71458,0.335714,0.0636479
2.69096,0.0681155,0.0313378
2.69682,0.333517,-0.190017
2.70812,0.201248,0.0474007
2.70195,0.469136,-0.175755
2.69856,0.068308,-0.157208
2.70676,0.334746,0.158836
2.71237,0.335441,-0.127309
2.7088,0.201299,-0.142354
2.7069,0.334763,0.334897
2.70131,0.469025,-0.111701
2.7117,0.201514,0.495776
2.71061,0.335223,-0.0635549
2.70082,0.459235,-0.0478196
2.69212,0.190613,-0.0785444
2.70456,0.324894,0
2.69518,0.0588097,-0.0313844
2.70337,0.191409,-0.344965
2.70917,0.19182,-0.0157852
2.70479,0.324922,-0.293446
2.71573,0.326236,0.0636479
2.69917,0.058897,0.0314309
2.69401,0.323626,-0.189738
2.70403,0.45978,0.0798244
2.70881,0.191794,0.0474007
2.70357,0.459703,-0.175755
2.69878,0.0588885,-0.157208
2.71187,0.325773,0.159068
2.70299,0.191382,0.110398
2.71353,0.325971,-0.127309
2.71593,0.32626,0.335872
2.70293,0.459594,-0.111701
2.70846,0.19177,0.495058
2.71176,0.32576,-0.0635549
2.7024,0.449804,-0.0478196
2.69277,0.181214,-0.0785444
2.69638,0.181457,-0.540499
2.7017,0.314987,0
2.69536,0.0494007,-0.0313844
2.70006,0.181705,-0.34446
2.70184,0.181825,-0.0157387
2.70196,0.315017,-0.293018
2.70494,0.315365,0.0633688
2.69137,0.0493274,0.0313378
2.70946,0.182337,0.0474007
2.70516,0.450262,-0.175755
2.69897,0.0494669,-0.157208
2.70506,0.315379,0.158603
2.69965,0.181677,0.110235
2.70671,0.315571,-0.126937
2.71311,0.316317,0.335384
2.70452,0.450155,-0.111701
2.70518,0.182049,0.494341
2.70891,0.315828,-0.0634618
2.70001,0.439725,-0.0477498
2.70091,0.172294,-0.541284
2.70278,0.305555,0
2.69152,0.0399331,-0.0313378
2.70038,0.439785,0.0159014
2.70246,0.172393,-0.0157387
2.707,0.306031,-0.293446
2.70395,0.0401174,-0.252436
2.70603,0.305921,0.0633688
2.69152,0.0399331,0.0313378
2.71065,0.441458,-0.176011
2.69514,0.0399867,-0.156975
2.71408,0.306832,0.159068
2.69628,0.171999,0.110073
2.7078,0.306122,-0.126937
2.70631,0.305953,0.33441
2.69818,0.439428,-0.111375
2.70973,0.172857,0.495058
2.70205,0.305472,-0.0632757
2.70943,0.431555,-0.0478894
2.69397,0.16241,-0.0785444
2.7015,0.162864,-0.541284
2.69588,0.295247,0
2.70126,0.16285,-0.34446
2.71103,0.163439,-0.0157852
2.70805,0.29658,-0.293446
2.70708,0.296473,0.0633688
2.69564,0.0305823,0.0313844
2.69328,0.294962,-0.189459
2.70268,0.162936,0.0472611
2.70429,0.430737,-0.1755
2.69925,0.0306233,-0.157208
2.71117,0.296921,0.158836
2.69686,0.162585,0.110073
2.70885,0.296667,-0.126937
2.71131,0.296936,0.334897
2.6997,0.430006,-0.111375
2.71032,0.163396,0.495058
2.71105,0.296908,-0.0634618
2.69906,0.420248,-0.04768
2.69052,0.152778,-0.0784281
2.70205,0.153433,-0.541284
2.70087,0.286256,0
2.69573,0.0211719,-0.0313844
2.70181,0.153419,-0.34446
2.70759,0.153747,-0.0157619
2.70116,0.286286,-0.292589
2.71207,0.287443,0.0634618
2.69173,0.0211405,0.0313378
2.70228,0.42075,0.0795917
2.70323,0.1535,0.0472611
2.70184,0.42068,-0.175244
2.69535,0.0211689,-0.156975
2.71616,0.287876,0.159068
2.7014,0.153396,0.110235
2.71233,0.287469,0.334897
2.69724,0.419964,-0.111212
2.70301,0.153487,0.493623
2.70186,0.276828,0
2.69179,0.0117463,-0.0313378
2.69837,0.143778,-0.343955
2.70412,0.144084,-0.0157387
2.69818,0.276452,-0.292161
2.70908,0.277568,0.0633688
2.69579,0.0117637,0.0313844
2.69924,0.27656,-0.189738
2.70373,0.411316,0.0795917
2.71174,0.14449,0.0474007
2.70329,0.411248,-0.175244
2.69541,0.011762,-0.156975
2.70523,0.277174,0.158371
2.69793,0.143755,0.110073
2.70688,0.277343,-0.126751
2.70936,0.277597,0.33441
2.70264,0.411149,-0.111375
2.70746,0.144262,0.494341
2.7051,0.277161,-0.0632757
2.69798,0.400809,-0.0476102
2.70281,0.267394,0
2.69582,0.00235286,-0.0313844
2.70282,0.134555,-0.34446
2.70061,0.134445,-0.0157154
2.70705,0.267814,-0.293018
2.71003,0.268109,0.0633688
2.69182,0.00234937,0.0313378
2.70019,0.267136,-0.189738
2.70024,0.134426,0.0471913
2.70471,0.401809,-0.175244
2.69943,0.00235601,-0.157208
2.70618,0.267728,0.158371
2.69988,0.267105,-0.126379
2.7001,0.401125,-0.111212
2.70402,0.134614,0.493623
2.70605,0.267716,-0.0632757
2.69936,0.391389,-0.0476102
2.69576,0.257199,0
2.68781,-0.00703577,-0.0312912
2.70327,0.12512,-0.34446
2.69972,0.391442,0.0158549
2.70506,0.125202,-0.0157387
2.70401,0.257986,-0.292589
2.71095,0.258648,0.0633688
2.69181,-0.00704624,0.0313378
2.69316,0.256951,-0.18918
2.69819,0.39122,-0.174732
2.69942,-0.00706615,-0.157208
2.7071,0.258281,0.158371
2.69488,0.124731,0.10991
2.70477,0.258059,-0.126565
2.70333,0.257921,0.333435
2.70149,0.391698,-0.111212
2.70447,0.125175,0.493623
2.69901,0.257509,-0.0630896
2.70863,0.383084,-0.0477498
2.70461,0.248519,0
2.68777,-0.0164187,-0.0312912
2.69973,0.115512,-0.343955
2.70489,0.248545,-0.292589
2.70387,0.248451,0.0631827
2.69177,-0.0164431,0.0313378
2.69802,0.247913,-0.189459
2.70911,0.115914,0.0473309
2.70349,0.382358,-0.174988
2.69938,-0.0164896,-0.157208
2.71196,0.249194,0.158603
2.6953,0.115323,0.10991
2.70566,0.248615,-0.126565
2.70581,0.115773,-0.141935
2.70817,0.248846,0.333922
2.70284,0.382265,-0.111212
2.70882,0.115902,0.494341
2.70786,0.248817,-0.0632757
2.69806,0.371987,-0.0475404
2.69678,0.105956,-0.0785444
2.7004,0.106098,-0.540499
2.69749,0.238371,0
2.69569,-0.0258781,-0.0313844
2.70011,0.106087,-0.343955
2.69787,0.105999,-0.0156922
2.69782,0.238401,-0.291732
2.70473,0.239011,0.0631827
2.69169,-0.0258397,0.0313378
2.69092,0.237791,-0.188901
2.7055,0.106299,0.0472611
2.70086,0.372372,-0.174732
2.69531,-0.0258744,-0.156975
2.70486,0.239023,0.158138
2.69968,0.10607,0.110073
2.70902,0.23939,0.333922
2.70416,0.372827,-0.111212
2.70528,0.10629,0.493623
2.69676,0.238307,-0.0629966
2.68911,0.0971951,-0.0783117
2.70221,0.230236,0
2.6956,-0.0343462,-0.0313844
2.70043,0.0976046,-0.343955
2.69958,0.363559,0.0158317
2.70619,0.0978125,-0.0157387
2.69856,0.229925,-0.291732
2.70546,0.230513,0.0631827
2.6956,-0.0343462,0.0313844
2.6996,0.230014,-0.189459
2.70982,0.0979437,0.0473309
2.70201,0.363886,-0.174732
2.69921,-0.0343922,-0.157208
2.7056,0.230524,0.158138
2.696,0.0974444,0.10991
2.70326,0.230326,-0.126379
2.70976,0.230879,0.333922
2.70135,0.363797,-0.111049
2.70953,0.0979335,0.494341
2.70546,0.230513,-0.0631827
2.6965,0.353566,-0.0474705
2.68943,0.0878083,-0.0783117
2.70104,0.0881875,-0.540499
2.69901,0.220477,0
2.69546,-0.0437549,-0.0313844
2.70076,0.0881783,-0.343955
2.70251,0.0882356,-0.0157154
2.70331,0.220828,-0.292161
2.70625,0.221068,0.0631827
2.69146,-0.04369,0.0313378
2.69974,0.35399,0.0792426
2.70215,0.0882237,0.0471913
2.69931,0.353934,-0.174476
2.70306,-0.0438783,-0.15744
2.7024,0.220754,0.157906
2.70405,0.220889,-0.126379
2.70684,0.0883769,-0.141935
2.70659,0.221096,0.333435
2.70657,0.354885,-0.111212
2.69806,0.0880902,0.492188
2.70227,0.220743,-0.0630896
2.69778,0.34368,-0.0474705
2.69581,0.210271,0
2.68729,-0.0534755,-0.0312912
2.70106,0.0782782,-0.343955
2.70282,0.0783291,-0.0157154
2.69617,0.210299,-0.291304
2.71103,0.211458,0.0632757
2.69128,-0.0535551,0.0313378
2.6972,0.21038,-0.18918
2.70645,0.0784344,0.0472611
2.70059,0.344037,-0.174476
2.70288,-0.0537859,-0.15744
2.70718,0.211158,0.158138
2.69263,0.078034,0.109747
2.70484,0.210976,-0.126379
2.70315,0.0783388,-0.141726
2.70738,0.211174,0.333435
2.69596,0.343447,-0.110724
2.70623,0.078428,0.493623
2.69508,0.210214,-0.0629035
2.69891,0.334732,-0.0474705
2.68998,0.0690305,-0.0783117
2.70048,0.201629,0
2.69109,-0.0624788,-0.0313378
2.69337,0.0691177,-0.342945
2.70478,0.20195,-0.292161
2.70374,0.201872,0.0630896
2.69509,-0.0625717,0.0313844
2.69391,0.201138,-0.188901
2.7027,0.069357,0.0471913
2.69379,0.334098,-0.173965
2.70269,-0.0627481,-0.15744
2.70388,0.201882,0.157906
2.69288,0.069105,0.109747
2.70553,0.202005,-0.126379
2.70807,0.202195,0.333435
2.70648,0.0694539,0.493623
2.70773,0.20217,-0.0631827
2.69819,0.0598181,-0.0785444
2.69718,0.191918,0
2.68686,-0.0717648,-0.0312912
2.69757,0.0598041,-0.34345
2.70329,0.059931,-0.0157154
2.69754,0.191943,-0.291304
2.70842,0.192717,0.0631827
2.69486,-0.0719783,0.0313844
2.69459,0.191734,-0.188901
2.70292,0.0599229,0.0471913
2.6989,0.325171,-0.17422
2.69048,-0.0718615,-0.156743
2.71253,0.19301,0.158371
2.6971,0.0597938,0.10991
2.70622,0.192561,-0.126379
2.71272,0.193023,0.333922
2.69823,0.32509,-0.110724
2.70277,0.0599195,0.492906
2.70443,0.192434,-0.0630896
2.70585,0.18257,0
2.68658,-0.0816115,-0.0312912
2.69777,0.0499173,-0.34345
2.69949,0.0499492,-0.0156922
2.69822,0.182055,-0.291304
2.70113,0.182251,0.0629966
2.69857,-0.0819759,0.0314309
2.69528,0.181857,-0.188901
2.69913,0.0499424,0.0471215
2.69611,0.314814,-0.173965
2.69818,-0.081964,-0.157208
2.6933,0.0498347,0.109747
2.70292,0.182372,-0.126192
2.70945,0.182813,0.333435
2.69941,0.315198,-0.110724
2.70113,0.182251,-0.0629966
2.69829,0.306001,-0.0474007
2.69055,0.0408582,-0.0783117
2.69446,0.172827,0
2.68629,-0.0905208,-0.0312912
2.70189,0.0410304,-0.343955
2.69964,0.0409963,-0.0156922
2.69881,0.173106,-0.291304
2.70571,0.173548,0.0630896
2.69029,-0.0906555,0.0313378
2.69586,0.172917,-0.188901
2.69756,0.305918,0.0790099
2.69928,0.0409908,0.0471215
2.69714,0.305871,-0.173965
2.70585,0.173557,0.157906
2.69345,0.0409023,0.109747
2.69952,0.173152,-0.126006
2.70211,0.173318,0.33246
2.70044,0.306244,-0.110724
2.70312,0.0410491,0.492906
2.69772,0.173036,-0.0629035
2.69537,0.296143,-0.0473309
2.69068,0.0314655,-0.0783117
2.69837,0.0315555,-0.539715
2.68996,-0.100047,-0.0313378
2.69805,0.0315517,-0.34345
2.69573,0.296183,0.0157619
2.70777,0.0316654,-0.0157387
2.7023,0.16386,0.0629966
2.68996,-0.100047,0.0313378
2.70043,0.163747,-0.18918
2.7074,0.0316611,0.0472611
2.70613,0.297326,-0.174476
2.70155,-0.100478,-0.15744
2.71042,0.164352,0.158138
2.69358,0.0314995,0.109747
2.70011,0.163727,-0.126006
2.70666,0.164124,0.332947
2.70325,0.0316125,0.492906
2.7063,0.164102,-0.0630896
2.70041,0.286685,-0.0474007
2.69563,0.153542,0
2.68957,-0.109904,-0.0313378
2.69814,0.0216632,-0.34345
2.70688,0.154182,0.0630896
2.68957,-0.109904,0.0313378
2.69305,0.153395,-0.188622
2.7035,0.0217062,0.0471913
2.69529,0.286141,-0.173709
2.70117,-0.110378,-0.15744
2.70303,0.153963,0.157673
2.70468,0.154057,-0.126192
2.70328,0.153978,0.33246
2.69461,0.286069,-0.110398
2.70335,0.021705,0.492906
2.70688,0.154182,-0.0630896
2.69483,0.0127004,-0.0784281
2.69613,0.144602,0
2.68919,-0.118822,-0.0313378
2.69423,0.0126976,-0.342945
2.70047,0.144836,-0.291304
2.70738,0.145206,0.0630896
2.69753,0.144678,-0.188901
2.70356,0.0127415,0.0471913
2.70417,0.278019,-0.17422
2.69679,-0.119158,-0.157208
2.70353,0.144999,0.157673
2.69773,0.0127141,0.10991
2.70517,0.145088,-0.126192
2.70426,0.0127448,-0.141726
2.70378,0.145013,0.33246
2.69554,0.277132,-0.110398
2.7034,0.0127408,0.492906
2.69939,0.144777,-0.0629035
2.69434,0.267507,-0.0472611
2.7046,0.13559,0
2.68876,-0.128209,-0.0313378
2.69823,0.00329701,-0.34345
2.69471,0.267543,0.0157387
2.69595,0.00329423,-0.0156689
2.70096,0.135408,-0.291304
2.70387,0.135553,0.0629966
2.69276,-0.1284,0.0313844
2.70599,0.135659,-0.189459
2.69959,0.00329867,0.0471215
2.70115,0.268183,-0.173965
2.69636,-0.128572,-0.157208
2.70003,0.135361,0.15744
2.69376,0.00329155,0.109747
2.70167,0.135443,-0.126006
2.70823,0.135772,0.332947
2.69649,0.267721,-0.110398
2.70343,0.00330337,0.492906
2.70387,0.135553,-0.0629966
2.69855,-0.00659272,-0.539715
2.69709,0.125306,0
2.69227,-0.138268,-0.0313844
2.68477,0.124733,-0.418139
2.69567,0.257665,0.0157387
2.69995,-0.00659613,-0.0156922
2.70144,0.125508,-0.291304
2.70036,0.125457,0.0629035
2.68827,-0.138063,0.0313378
2.69451,0.125186,-0.188622
2.70358,-0.00660501,0.0471913
2.69814,0.257902,-0.173709
2.70848,0.125835,0.157906
2.69376,-0.00658101,0.109747
2.70215,0.125541,-0.126006
2.70428,-0.00660672,-0.141726
2.70078,0.125477,0.331972
2.69746,0.257836,-0.110398
2.70342,-0.00660463,0.492906
2.70435,0.125643,-0.0629966
2.6961,0.249161,-0.0472611
2.68682,-0.0150059,-0.0781954
2.69348,0.116658,0
2.68383,-0.146291,-0.0312912
2.69646,0.249194,0.0157387
2.69991,-0.015079,-0.0156922
2.70182,0.11702,-0.291304
2.69674,0.116799,0.0628105
2.69887,0.116892,-0.188901
2.70755,-0.0151216,0.0472611
2.69894,0.249423,-0.173709
2.70887,0.117325,0.157906
2.69372,-0.0150444,0.109747
2.69854,0.116877,-0.12582
2.70425,-0.0151032,-0.141726
2.70513,0.117163,0.33246
2.70074,0.116973,-0.0629035
2.69297,0.239393,-0.0471913
2.69075,-0.0244215,-0.0783117
2.69387,0.107255,0
2.6873,-0.15589,-0.0313378
2.68621,-0.0243804,-0.341934
2.70384,-0.0245404,-0.0157154
2.70512,0.107703,0.0629966
2.6873,-0.15589,0.0313378
2.69129,0.107152,-0.188342
2.70348,-0.0245371,0.0471913
2.69184,0.239293,-0.173197
2.70527,0.107709,0.157673
2.69365,-0.0244479,0.109747
2.70293,0.107615,-0.126006
2.70156,0.107561,0.331972
2.70332,-0.0245356,0.492906
2.70512,0.107703,-0.0629966
2.68664,-0.0347008,-0.0781954
2.69826,0.0970545,0
2.69067,-0.166454,-0.0313844
2.698,-0.0348476,-0.34345
2.69173,-0.0347666,-0.0156457
2.70261,0.0972111,-0.291304
2.69752,0.0970283,0.0628105
2.69067,-0.166454,0.0313844
2.69966,0.097105,-0.188901
2.69274,0.228956,-0.173197
2.69826,-0.166923,-0.15744
2.70566,0.097321,0.157673
2.68954,-0.0347383,0.109584
2.70332,0.0972367,-0.126006
2.70592,0.0973301,0.33246
2.69205,0.228897,-0.110073
2.69534,-0.0348132,0.491471
2.70552,0.0973158,-0.0629966
2.69864,0.219973,-0.0472611
2.69858,0.0876358,0
2.69008,-0.175845,-0.0313844
2.69787,-0.0442646,-0.34345
2.70359,-0.0443586,-0.0157154
2.70293,0.0877772,-0.291304
2.70184,0.0877419,0.0629035
2.69008,-0.175845,0.0313844
2.69998,0.0876814,-0.188901
2.69791,0.219913,0.0787772
2.70722,-0.0444182,0.0472611
2.6975,0.21988,-0.173453
2.70199,0.0877468,0.15744
2.6934,-0.0441914,0.109747
2.70764,0.08793,-0.126192
2.70227,0.0877558,0.331972
2.69283,0.219499,-0.110073
2.69913,-0.0442854,0.492188
2.70184,0.0877419,-0.0629035
2.69884,0.0791568,0
2.69749,-0.184842,-0.0314775
2.69771,-0.0527408,-0.34345
2.69569,0.211209,0.0157154
2.70344,-0.0528527,-0.0157154
2.69922,0.0791679,-0.290876
2.70211,0.0792526,0.0629035
2.68951,-0.184296,0.0313844
2.69227,0.078964,-0.188342
2.6946,0.211123,0.0786608
2.70707,-0.0529237,0.0472611
2.6942,0.211092,-0.173197
2.70226,0.0792571,0.15744
2.69325,-0.0526535,0.109747
2.69991,0.0791882,-0.12582
2.70377,-0.0528592,-0.141726
2.69857,0.0791488,0.331485
2.70147,0.211662,-0.110398
2.69505,-0.0526886,0.491471
2.70211,0.0792526,-0.0629035
2.69605,0.201771,-0.0471913
2.68615,-0.0618948,-0.0781954
2.6951,0.0696329,0
2.69751,-0.0621567,-0.34345
2.69641,0.201798,0.0157154
2.69524,-0.0621043,-0.0156689
2.69837,0.0697173,0.0628105
2.69252,0.0695663,-0.188342
2.70229,-0.0622667,-0.22066
2.70287,-0.0622801,0.0471913
2.6989,0.201985,-0.173453
2.69643,-0.194228,-0.15744
2.69853,0.0697214,0.157208
2.69305,-0.0620538,0.109747
2.70017,0.0697639,-0.12582
2.69958,-0.0622042,-0.141516
2.69883,0.0697291,0.331485
2.70272,-0.0622765,0.492906
2.69837,0.0697173,-0.0628105
2.69674,0.192358,-0.0471913
2.69533,0.0602242,0
2.68417,-0.202766,-0.0313378
2.69331,-0.0714677,-0.342945
2.703,-0.0717248,-0.0157154
2.70368,0.0604109,-0.291304
2.70659,0.0604759,0.0629966
2.68816,-0.203067,0.0313844
2.68876,0.0600775,-0.188063
2.69464,-0.0715029,0.0470517
2.69561,0.192278,-0.173197
2.69875,0.0603007,0.157208
2.68882,-0.0713485,0.109584
2.7004,0.0603375,-0.12582
2.70334,-0.0717337,-0.141726
2.69905,0.0603074,0.331485
2.69092,0.191944,-0.10991
2.70248,-0.071711,0.492906
2.70659,0.0604759,-0.0629966
2.69346,0.181733,-0.0471215
2.68562,-0.0815841,-0.0781954
2.69954,0.0499485,0
2.69135,-0.213704,-0.0314309
2.69699,-0.0819292,-0.34345
2.68672,-0.0816172,-0.0156224
2.69992,0.0499555,-0.290876
2.70281,0.0500089,0.0629035
2.68736,-0.213388,0.0313844
2.69695,0.0499006,-0.188622
2.70176,-0.0820743,-0.22066
2.69834,-0.0819705,0.0471215
2.69234,0.181657,-0.172941
2.69892,-0.214305,-0.157673
2.70296,0.0500117,0.15744
2.68853,-0.0816723,0.109584
2.70061,0.0499683,-0.12582
2.70304,-0.0821132,-0.141726
2.69926,0.0499434,0.331485
2.69563,0.181879,-0.110073
2.69432,-0.0818482,0.491471
2.69481,0.049861,-0.0627174
2.68932,-0.0910935,-0.0783117
2.6957,0.040465,0
2.69058,-0.223097,-0.0314309
2.69441,-0.0912659,-0.0156689
2.70007,0.0405307,-0.290876
2.70296,0.0405741,0.0629035
2.6866,-0.222767,0.0313844
2.69312,0.0404263,-0.188342
2.69804,-0.091389,0.0471215
2.69296,0.172258,-0.172941
2.69513,0.0404565,0.156975
2.68823,-0.0910565,0.109584
2.69677,0.0404811,-0.125634
2.69942,0.0405209,0.331485
2.69625,0.172468,-0.110073
2.69402,-0.0912527,0.491471
2.69897,0.0405141,-0.0628105
2.68502,-0.0993939,-0.0781954
2.69181,0.0319486,0
2.68987,-0.231549,-0.0314309
2.69811,-0.0998782,-0.0156922
2.70019,0.032048,-0.290876
2.69508,0.0319874,0.0627174
2.68588,-0.231206,0.0313844
2.68924,0.0319181,-0.188063
2.69388,0.163821,0.0785444
2.69349,0.163797,-0.172941
2.69744,-0.2322,-0.157673
2.69524,0.0319893,0.156975
2.68793,-0.0995014,0.109584
2.69289,0.0319614,-0.125448
2.70351,0.0320874,0.331972
2.69678,0.163997,-0.110073
2.69508,0.0319874,-0.0627174
2.68466,-0.108766,-0.0781954
2.68506,-0.24058,-0.0313844
2.69953,0.154708,0.0157154
2.70174,-0.109458,-0.0157154
2.69917,0.0226131,0.0628105
2.68506,-0.24058,0.0313844
2.69333,0.0225641,-0.188342
2.70137,-0.109443,0.0471913
2.69404,0.154394,-0.172941
2.69661,-0.241615,-0.157673
2.69534,0.0225809,0.156975
2.68756,-0.108883,0.109584
2.69698,0.0225947,-0.125634
2.69963,0.0226169,0.331485
2.69728,-0.109277,0.492188
2.69917,0.0226131,-0.0628105
2.69571,0.144579,-0.0471215
2.68424,-0.118605,-0.0781954
2.69197,0.0126857,0
2.68814,-0.250791,-0.0314309
2.69164,-0.118931,-0.342945
2.70132,-0.119359,-0.0157154
2.70035,0.0127252,-0.290876
2.69924,0.01272,0.0628105
2.68416,-0.25042,0.0313844
2.68541,0.0126548,-0.187784
2.69296,-0.11899,0.0470517
2.6994,0.0127207,0.157208
2.68715,-0.118733,0.109584
2.69705,0.0127096,-0.125634
2.70367,0.0127408,0.331972
2.69389,0.144481,-0.10991
2.69293,-0.118989,0.491471
2.69924,0.01272,-0.0628105
2.68783,-0.127695,-0.0783117
2.696,0.00376433,0
2.68332,-0.259319,-0.0313844
2.69519,-0.128045,-0.34345
2.69691,-0.128127,-0.0156922
2.6964,0.00376489,-0.290447
2.69927,0.00376889,0.0628105
2.6873,-0.259704,0.0314309
2.68943,0.00375516,-0.188063
2.69996,-0.128272,-0.22066
2.69655,-0.128109,0.0471215
2.69543,0.00376354,0.156975
2.69308,0.00376025,-0.125448
2.69972,0.00376953,0.331485
2.69036,0.135346,-0.109747
2.69646,-0.128105,0.492188
2.70327,0.00377448,-0.0629035
2.69599,-0.00564648,0
2.68239,-0.268684,-0.0313844
2.69473,-0.137452,-0.34345
2.69245,-0.137336,-0.0156689
2.70037,-0.00565565,-0.290876
2.69926,-0.00565333,0.0628105
2.68637,-0.269083,0.0314309
2.68544,-0.00562437,-0.187784
2.69591,0.126193,0.0785444
2.70008,-0.137725,0.0471913
2.69551,0.126174,-0.172941
2.69027,-0.137225,0.109747
2.69707,-0.00564873,-0.125634
2.69972,-0.00565428,0.331485
2.69481,0.126141,-0.10991
2.69206,-0.137316,0.491471
2.69526,-0.00564495,-0.0627174
2.69196,-0.0155047,0
2.68935,-0.27934,-0.0314775
2.69345,0.116186,0.0156689
2.69593,-0.147422,-0.0156922
2.69636,-0.0155301,-0.290447
2.69373,-0.279796,-0.252808
2.69922,-0.0155466,0.0628105
2.68537,-0.278927,0.0314309
2.69236,0.116138,0.0784281
2.69556,-0.147402,0.0471215
2.69197,0.116122,-0.172685
2.69539,-0.0155245,0.156975
2.69703,-0.015534,-0.125634
2.70025,-0.147659,-0.141726
2.70322,-0.0155696,-0.0629035
2.68632,-0.156303,-0.0783117
2.69188,-0.0249013,0
2.69233,-0.289153,-0.0315241
2.69384,0.106783,0.0156689
2.69939,-0.157064,-0.0157154
2.69629,-0.024942,-0.290447
2.70315,-0.0250055,0.0629035
2.69331,-0.0249145,-0.188342
2.69635,0.106882,-0.172941
2.69193,-0.28911,-0.157673
2.7033,-0.0250069,0.15744
2.68922,-0.156472,0.109747
2.69696,-0.0249482,-0.125634
2.69564,-0.024936,0.330997
2.69915,-0.0249685,-0.0628105
2.6898,0.0981604,-0.0469819
2.69179,-0.033358,0
2.68346,-0.296731,-0.0314309
2.68921,-0.16495,-0.342945
2.6909,-0.165054,-0.0156689
2.70017,-0.0334618,-0.290876
2.69578,-0.298093,-0.25318
2.68744,-0.297171,0.0314775
2.68923,-0.0333262,-0.188063
2.69452,-0.165276,0.0471215
2.69268,0.0982655,-0.172685
2.69922,-0.03345,0.157208
2.68871,-0.16492,0.109747
2.69687,-0.0334209,-0.125634
2.69555,-0.0334045,0.330997
2.70306,-0.0334976,-0.0629035
2.69317,-0.175104,-0.0785444
2.68236,-0.306564,-0.0314309
2.69254,-0.175063,-0.34345
2.69051,0.0883131,0.0156457
2.69427,-0.175175,-0.0156922
2.69605,-0.0432943,-0.290447
2.68236,-0.306564,0.0314309
2.68909,-0.0431824,-0.188063
2.6939,-0.175151,0.0471215
2.68903,0.0882647,-0.17243
2.69387,-0.30788,-0.157906
2.69109,-0.0432147,0.156743
2.69673,-0.0433052,-0.125634
2.69541,-0.043284,0.330997
2.68832,0.0882414,-0.109584
2.69892,-0.0433404,-0.0628105
2.69549,-0.0522268,0
2.6853,-0.315925,-0.0314775
2.69591,-0.184261,-0.343955
2.69078,0.0793906,0.0156457
2.69367,-0.184108,-0.0156922
2.69192,-0.0521575,-0.290019
2.69876,-0.0522901,0.0628105
2.68927,-0.316392,0.0315241
2.68893,-0.0520995,-0.188063
2.6973,-0.184356,0.0471913
2.68931,0.0793471,-0.17243
2.6968,-0.317278,-0.158138
2.69493,-0.0522158,0.156975
2.69657,-0.0522476,-0.125634
2.69922,-0.0522989,0.331485
2.6886,0.0793261,-0.109584
2.69876,-0.0522901,-0.0628105
2.69068,0.069988,-0.0469819
2.6873,-0.0614526,0
2.68418,-0.325296,-0.0314775
2.68301,-0.0613546,-0.417524
2.69104,0.0699975,0.0156457
2.69301,-0.19351,-0.0156922
2.69967,-0.0617356,-0.290876
2.69856,-0.0617102,0.0628105
2.68873,-0.0614853,-0.188063
2.69664,-0.19377,0.0471913
2.69755,0.0701667,-0.172941
2.69074,-0.0615312,0.156743
2.68684,-0.193066,0.109747
2.69637,-0.0616601,-0.125634
2.69505,-0.0616299,0.330997
2.69285,0.0700446,-0.109747
2.69856,-0.0617102,-0.0628105
2.68322,-0.202694,-0.0783117
2.69905,-0.0716199,0
2.68694,-0.335628,-0.0315241
2.69228,-0.203379,-0.0156922
2.69943,-0.07163,-0.290876
2.69832,-0.0716005,0.0628105
2.68297,-0.335132,0.0314775
2.68849,-0.0713396,-0.188063
2.6993,-0.203909,-0.220986
2.6999,-0.203954,0.0472611
2.68981,0.0601009,-0.17243
2.69049,-0.0713928,0.156743
2.68611,-0.202913,0.109747
2.69613,-0.0715423,-0.125634
2.69481,-0.0715073,0.330997
2.69832,-0.0716005,-0.0628105
2.69111,0.0507323,-0.0469819
2.68249,-0.212059,-0.0783117
2.69479,-0.0809209,0
2.68575,-0.345005,-0.0315241
2.69555,-0.213091,-0.0157154
2.70205,-0.081139,0.0629035
2.68178,-0.344496,0.0314775
2.68423,-0.080604,-0.187784
2.69518,-0.213062,0.0471913
2.69821,-0.0810237,0.157208
2.68937,-0.212603,0.10991
2.69985,-0.0810731,-0.12582
2.70248,-0.0811519,0.331972
2.70205,-0.081139,-0.0629035
2.68174,-0.221421,-0.0783117
2.69848,-0.0904609,0
2.68453,-0.354378,-0.0315241
2.68221,-0.0899154,-0.417524
2.68908,-0.222028,-0.34345
2.68681,-0.22184,-0.0156689
2.70575,-0.0907044,0.0629966
2.68056,-0.353855,0.0314775
2.6959,-0.0903743,-0.188622
2.69043,-0.222139,0.0471215
2.68617,0.0412599,-0.172174
2.68993,-0.0901741,0.156743
2.68861,-0.221989,0.10991
2.69556,-0.090363,-0.125634
2.69821,-0.0904518,0.331485
2.69376,-0.0903025,-0.0627174
2.69417,-0.0992617,0
2.6873,-0.363815,-0.0315706
2.69005,-0.231091,-0.0156922
2.69457,-0.0992765,-0.290447
2.69744,-0.099382,0.0628105
2.6873,-0.363815,0.0315706
2.6916,-0.0991668,-0.188342
2.69765,-0.231745,0.0472611
2.68629,0.032352,-0.172174
2.68962,-0.0990938,0.156743
2.68388,-0.230562,0.109747
2.69125,-0.0991542,-0.125448
2.6979,-0.0993988,0.331485
2.68957,0.0323915,-0.109584
2.70144,-0.0995293,-0.0629035
2.68981,-0.108504,0
2.68601,-0.373193,-0.0315706
2.68154,-0.10817,-0.417524
2.68922,-0.24048,-0.0156922
2.70107,-0.108958,0.0629035
2.68886,-0.240447,0.0471215
2.68639,0.0229749,-0.172174
2.69352,-0.374236,-0.158371
2.68925,-0.108482,0.156743
2.69888,-0.10887,-0.12582
2.69367,0.0230371,-0.109747
2.69708,-0.108797,-0.0628105
2.68756,0.013134,-0.0469121
2.6854,-0.118186,0
2.68859,-0.3836,-0.0316172
2.69629,-0.251077,-0.0157387
2.69379,-0.118556,-0.290447
2.70065,-0.118858,0.0629035
2.68067,-0.38247,0.0315241
2.69082,-0.118425,-0.188342
2.69991,-0.251413,0.0473309
2.68646,0.0131286,-0.172174
2.69283,-0.118513,0.156975
2.69012,-0.250502,0.110073
2.69048,-0.11841,-0.125448
2.69315,-0.118527,0.330997
2.70065,-0.118858,-0.0629035
2.68759,0.00422166,-0.0469121
2.68899,-0.12728,0
2.6873,-0.392514,-0.0316172
2.68071,-0.126888,-0.417524
2.69544,-0.260016,-0.0157387
2.70424,-0.128002,0.0629966
2.67939,-0.391358,0.0315241
2.69041,-0.127347,-0.188342
2.69508,-0.259981,0.0472611
2.68649,0.00421993,-0.172174
2.7004,-0.12782,0.15744
2.69406,-0.12752,-0.125634
2.69671,-0.127645,0.331485
2.68149,-0.268121,-0.0784281
2.69252,-0.136869,0
2.68591,-0.401892,-0.0316172
2.6921,-0.136847,-0.419368
2.68795,-0.00516049,0.0156224
2.69054,-0.269026,-0.0157154
2.6969,-0.137091,-0.290876
2.69579,-0.137034,0.0628105
2.68591,-0.401892,0.0316172
2.68995,-0.136738,-0.188342
2.69415,-0.269387,0.0472611
2.6934,-0.403012,-0.158603
2.68797,-0.136637,0.156743
2.68835,-0.268807,0.110073
2.69228,-0.136856,0.330997
2.68976,-0.00516397,-0.109584
2.69579,-0.137034,-0.0628105
2.68054,-0.277479,-0.0784281
2.69203,-0.146266,0
2.68054,-0.410659,-0.0315706
2.69356,-0.278828,-0.0157387
2.69929,-0.146661,0.0629035
2.6845,-0.411265,0.0316172
2.69743,-0.146559,-0.188901
2.6932,-0.27879,0.0472611
2.68408,-0.411202,-0.158138
2.69146,-0.146236,0.156975
2.69709,-0.146541,-0.12582
2.69575,-0.146468,0.331485
2.68573,-0.0145313,-0.109421
2.69929,-0.146661,-0.0629035
2.6796,-0.286367,-0.0784281
2.68754,-0.154962,0
2.68312,-0.420165,-0.0316172
2.68864,-0.287333,-0.0157154
2.69479,-0.155381,0.0628105
2.67917,-0.419546,0.0315706
2.69294,-0.155274,-0.188622
2.69226,-0.287719,0.0472611
2.68639,-0.0234437,-0.172174
2.6906,-0.421336,-0.158603
2.69096,-0.15516,0.156975
2.68249,-0.286675,0.10991
2.69659,-0.155485,-0.12582
2.69129,-0.155179,0.330997
2.68967,-0.0234724,-0.109584
2.69879,-0.155611,-0.0629035
2.69097,-0.164587,0
2.68775,-0.0328387,0.0156224
2.68763,-0.296717,-0.0157154
2.69534,-0.164854,-0.290876
2.69823,-0.165031,0.0629035
2.68442,-0.164186,-0.188063
2.69521,-0.297554,0.0473309
2.68629,-0.0328208,-0.172174
2.69838,-0.16504,0.15744
2.68544,-0.296476,0.110073
2.69204,-0.164653,-0.125634
2.69073,-0.164572,0.330997
2.68557,-0.0328121,-0.109421
2.69423,-0.164786,-0.0628105
2.69125,-0.0427474,-0.0469819
2.68636,-0.17419,0
2.68762,-0.0426896,0.0156224
2.69447,-0.307472,-0.0157619
2.70159,-0.175178,0.0629966
2.68004,-0.439354,0.0316172
2.68778,-0.174282,-0.188342
2.69013,-0.306977,0.0472611
2.69413,-0.0427931,-0.172685
2.69377,-0.17467,0.157208
2.68831,-0.306769,0.110235
2.69407,-0.17469,0.331485
2.68543,-0.042655,-0.109421
2.70159,-0.175178,-0.0629966
2.70309,-0.051902,-0.0471913
2.67857,-0.448239,-0.0316172
2.68746,-0.0516019,0.0156224
2.68946,-0.315939,-0.0157387
2.69809,-0.183938,-0.291304
2.701,-0.184136,0.0629966
2.68646,-0.449559,0.0317103
2.69515,-0.183737,-0.188901
2.69643,-0.316757,-0.221637
2.6891,-0.315896,0.0472611
2.68599,-0.0515737,-0.172174
2.69318,-0.183602,0.157208
2.68331,-0.315216,0.110073
2.69347,-0.183623,0.331485
2.68927,-0.0516367,-0.109584
2.68903,-0.18332,-0.0627174
2.68328,-0.324713,-0.0786608
2.6891,-0.192757,0
2.68093,-0.45826,-0.0316637
2.68437,-0.324845,-0.0157154
2.69347,-0.19307,-0.290876
2.69635,-0.193277,0.0629035
2.68093,-0.45826,0.0316637
2.69051,-0.192858,-0.188622
2.69195,-0.325762,0.0473309
2.69252,-0.193002,0.157208
2.69416,-0.19312,-0.12582
2.69678,-0.193307,0.331972
2.68908,-0.0610237,-0.109584
2.69236,-0.192991,-0.0628105
2.68439,-0.202311,0
2.68317,-0.468771,-0.0317103
2.68702,-0.0708315,0.0156224
2.68316,-0.334681,-0.0157154
2.69562,-0.203158,0.0629035
2.68581,-0.202418,-0.188342
2.6947,-0.336121,0.0474007
2.69577,-0.203169,0.15744
2.69742,-0.203293,-0.126006
2.68813,-0.202593,0.330997
2.68484,-0.0707739,-0.109421
2.69164,-0.202858,-0.0628105
2.69041,-0.0798494,-0.0469819
2.6837,-0.211212,0
2.69077,-0.0798602,0.0156457
2.68601,-0.344085,-0.0157387
2.69602,-0.212181,-0.291304
2.69095,-0.211782,0.0628105
2.67767,-0.476965,0.0316637
2.69308,-0.21195,-0.188901
2.68961,-0.344547,0.0473309
2.68531,-0.079698,-0.172174
2.69509,-0.212108,0.15744
2.68459,-0.0796768,-0.109421
2.69095,-0.211782,-0.0628105
2.68611,-0.0891076,-0.0469121
2.68693,-0.220906,0
2.67992,-0.487024,-0.0317103
2.68875,-0.353981,-0.0157619
2.69526,-0.221591,-0.291304
2.69418,-0.221502,0.0629035
2.67992,-0.487024,0.0317103
2.68437,-0.220695,-0.188342
2.69235,-0.354455,0.0474007
2.68501,-0.089071,-0.172174
2.69831,-0.221841,0.157673
2.68261,-0.353172,0.110235
2.69199,-0.221322,-0.12582
2.69065,-0.221212,0.331485
2.69816,-0.221829,-0.0629966
2.67848,-0.362145,-0.0786608
2.68615,-0.230284,0
2.68607,-0.497834,-0.0318034
2.6875,-0.363364,-0.0157619
2.69447,-0.230998,-0.291304
2.69339,-0.230905,0.0629035
2.67821,-0.496376,0.0317103
2.69153,-0.230746,-0.188901
2.68714,-0.363315,0.0473309
2.68468,-0.0984429,-0.172174
2.68558,-0.230236,0.156975
2.68928,-0.363605,0.110561
2.69381,-0.230941,0.331972
2.68796,-0.0985631,-0.109584
2.69339,-0.230905,-0.0629035
2.69728,-0.240726,0
2.68432,-0.507207,-0.0318034
2.69018,-0.373293,-0.0157852
2.68858,-0.23995,0.0628105
2.68432,-0.507207,0.0318034
2.69468,-0.240494,-0.18918
2.68981,-0.373243,0.0474007
2.68432,-0.107814,-0.172174
2.68874,-0.239964,0.157208
2.68404,-0.372441,0.110398
2.69436,-0.240465,-0.126006
2.68904,-0.23999,0.331485
2.6876,-0.107945,-0.109584
2.69257,-0.240305,-0.0629035
2.67985,-0.381399,-0.0787772
2.68646,-0.51733,-0.03185
2.68939,-0.117421,0.0156457
2.68886,-0.382681,-0.0157852
2.69675,-0.25017,-0.291732
2.69569,-0.250072,0.0629966
2.68588,-0.249162,-0.188622
2.69245,-0.383193,0.0474705
2.68792,-0.117357,-0.17243
2.69748,-0.250238,-0.126192
2.68818,-0.249375,0.331485
2.68721,-0.117326,-0.109584
2.69171,-0.249702,-0.0629035
2.68461,-0.126603,-0.0469121
2.6785,-0.390751,-0.0787772
2.68856,-0.527474,-0.0318966
2.69146,-0.392642,-0.0158084
2.69586,-0.259582,-0.291732
