1.36558,-0.294499,0.254704
1.40462,-0.231778,-0.0331267
1.37414,-0.163127,-0.0241541
1.39035,-0.304926,-0.0414249
1.43576,-0.242068,-0.407598
1.43289,-0.314255,-0.293391
1.37657,-0.232088,0
1.40131,-0.379939,-0.0169029
1.41477,-0.238529,-0.223212
1.42244,-0.311964,-0.185362
1.38227,-0.164092,0.00809019
1.40264,-0.30762,-0.00834591
1.41964,-0.239349,-0.155077
1.41456,-0.383531,-0.136814
1.39592,-0.23535,0.0329406
1.38973,-0.376799,0.0167632
1.38896,-0.234177,-0.0984961
1.41359,-0.310022,-0.118141
1.38965,-0.164968,0.0407267
1.39854,-0.306722,0.0249918
1.39136,-0.16517,-0.0897964
1.41059,-0.382457,-0.0851155
1.38212,-0.233024,0.0816272
1.38198,-0.30309,0.0576415
1.39478,-0.235158,-0.0658881
1.40464,-0.30806,-0.0753638
1.37023,-0.231019,0.170617
1.36296,-0.298919,0.11391
1.39305,-0.165372,-0.057153
1.40775,-0.237344,-0.0332198
1.37753,-0.168408,-0.0242239
1.38928,-0.309777,-0.0414249
1.4387,-0.247732,-0.408676
1.43944,-0.320962,-0.29496
1.3797,-0.237571,0
1.39612,-0.383768,-0.0168563
1.41004,-0.242795,-0.222597
1.42135,-0.316927,-0.185362
1.38963,-0.169887,0.00813668
1.40156,-0.312515,-0.00834591
1.41095,-0.242953,-0.15422
1.41705,-0.389522,-0.137185
1.39509,-0.240221,0.0329406
1.39612,-0.383768,0.0168563
1.38813,-0.239024,-0.0984961
1.4125,-0.314954,-0.118141
1.38113,-0.168847,0.040494
1.39746,-0.311602,0.0249918
1.39473,-0.17051,-0.0900522
1.41695,-0.389496,-0.0855806
1.38523,-0.238524,0.0818598
1.38482,-0.308782,0.0578043
1.40183,-0.241382,-0.0662603
1.40746,-0.31383,-0.0755731
1.36941,-0.2358,0.170617
1.35802,-0.302807,0.113585
1.3885,-0.169749,-0.0569902
1.36349,-0.304026,0.254704
1.37694,-0.173215,-0.0242239
1.38039,-0.312857,-0.0411922
1.43783,-0.252752,-0.408676
1.43449,-0.325118,-0.294176
1.37492,-0.241693,0
1.39092,-0.387566,-0.0168097
1.41307,-0.2484,-0.223212
1.41636,-0.321009,-0.184857
1.38109,-0.173738,0.00809019
1.40826,-0.319173,-0.0083924
1.42185,-0.249943,-0.155505
1.42335,-0.396604,-0.137929
1.39818,-0.245782,0.0330337
1.39477,-0.388639,0.0168563
1.39908,-0.24594,-0.0993332
1.4075,-0.319002,-0.117816
1.38053,-0.173667,0.040494
1.39247,-0.315594,0.024922
1.39017,-0.17488,-0.0897964
1.41558,-0.394439,-0.0855806
1.39226,-0.244741,0.0823249
1.38763,-0.314497,0.0579672
1.39311,-0.24489,-0.0658881
1.41025,-0.319624,-0.0757825
1.37249,-0.241266,0.171105
1.36084,-0.308427,0.11391
1.3879,-0.174594,-0.0569902
1.40999,-0.247859,-0.0333128
1.37236,-0.177507,-0.0241541
1.39098,-0.320366,-0.0415413
1.43694,-0.257769,-0.408676
1.44099,-0.331884,-0.295745
1.38588,-0.24861,0
1.39725,-0.394593,-0.0169029
1.4122,-0.253331,-0.223212
1.41523,-0.325951,-0.184857
1.38841,-0.179584,0.00813668
1.40324,-0.323189,-0.00836916
1.40531,-0.252095,-0.153791
1.41813,-0.400488,-0.137557
1.39731,-0.250661,0.0330337
1.3934,-0.393506,0.0168563
1.40214,-0.251527,-0.0996122
1.41415,-0.325702,-0.118467
1.38388,-0.178998,0.0406104
1.39136,-0.320453,0.024922
1.38955,-0.179731,-0.0897964
1.41036,-0.398293,-0.0853481
1.3796,-0.247484,0.0816272
1.38263,-0.318442,0.0578043
1.40011,-0.251162,-0.0662603
1.41302,-0.325441,-0.0759918
1.37555,-0.246757,0.171592
1.35976,-0.313175,0.11391
1.38728,-0.179438,-0.0569902
1.34246,-0.240821,0.365452
1.40912,-0.252779,-0.0333128
1.37173,-0.182297,-0.0241541
1.38985,-0.325219,-0.0415413
1.43603,-0.262784,-0.408676
1.44746,-0.338699,-0.297314
1.38107,-0.252726,0
1.39587,-0.399467,-0.0169029
1.42297,-0.260394,-0.225057
1.41795,-0.331794,-0.185362
1.38778,-0.184429,0.00813668
1.4021,-0.328086,-0.00836916
1.41616,-0.259147,-0.155077
1.41672,-0.405436,-0.137557
1.39643,-0.255537,0.0330337
1.39202,-0.398367,0.0168563
1.39733,-0.255701,-0.0993332
1.41689,-0.331545,-0.118792
1.38325,-0.183828,0.0406104
1.39802,-0.32713,0.0250617
1.39287,-0.185106,-0.0900522
1.40512,-0.402115,-0.0851155
1.38659,-0.253736,0.0820923
1.37761,-0.322356,0.0576415
1.40315,-0.256767,-0.0664464
1.41576,-0.331282,-0.0762012
1.37468,-0.251557,0.171592
1.36642,-0.319737,0.114561
1.38665,-0.184279,-0.0569902
1.36023,-0.318287,0.254704
1.40429,-0.256976,-0.0332198
1.37901,-0.188165,-0.0242938
1.3926,-0.330993,-0.0416576
1.43889,-0.268501,-0.409755
1.43482,-0.341029,-0.29496
1.38411,-0.258279,0
1.40215,-0.406565,-0.016996
1.42594,-0.266084,-0.225672
1.41292,-0.335824,-0.184857
1.39109,-0.189813,0.00815993
1.40484,-0.333903,-0.0083924
1.41524,-0.264089,-0.155077
1.41912,-0.411488,-0.137929
1.3916,-0.259676,0.0329406
1.38678,-0.40211,0.0168097
1.3925,-0.259846,-0.0990542
1.4196,-0.337411,-0.119118
1.38656,-0.189195,0.0407267
1.39298,-0.331083,0.0249918
1.39222,-0.189967,-0.0900522
1.41905,-0.411465,-0.0860458
1.38962,-0.259307,0.0823249
1.37648,-0.327162,0.0576415
1.39832,-0.260931,-0.0662603
1.41071,-0.335298,-0.0759918
1.36989,-0.255625,0.171105
1.3653,-0.324504,0.114561
1.39392,-0.190199,-0.0573159
1.35911,-0.323033,0.254704
1.40339,-0.261877,-0.0332198
1.37438,-0.192423,-0.0242239
1.38755,-0.334914,-0.0415413
1.44173,-0.274242,-0.410833
1.44506,-0.348796,-0.297314
1.3832,-0.263109,0
1.39304,-0.409203,-0.0169029
1.41723,-0.269583,-0.224442
1.42331,-0.343547,-0.186372
1.38645,-0.194113,0.00813668
1.40367,-0.338805,-0.0083924
1.43385,-0.272743,-0.157218
1.41768,-0.416439,-0.137929
1.39854,-0.266027,0.0331267
1.38921,-0.408075,0.0168563
1.39943,-0.266196,-0.0996122
1.41454,-0.341429,-0.118792
1.38193,-0.19348,0.0406104
1.3957,-0.336882,0.0250617
1.39155,-0.194826,-0.0900522
1.41377,-0.415291,-0.0858132
1.39263,-0.264902,0.0825574
1.38699,-0.334778,0.05813
1.40133,-0.266557,-0.0664464
1.41341,-0.341158,-0.0762012
1.36899,-0.260406,0.171105
1.36416,-0.329268,0.114561
1.39324,-0.195064,-0.0573159
1.40247,-0.266774,-0.0332198
1.38162,-0.198356,-0.0243636
1.38637,-0.339756,-0.0415413
1.44455,-0.280006,-0.411911
1.43622,-0.351971,-0.295745
1.38227,-0.267935,0
1.39927,-0.416344,-0.016996
1.42404,-0.276032,-0.225672
1.41825,-0.347568,-0.185867
1.38181,-0.198383,0.00811343
1.39859,-0.34275,-0.00836916
1.40946,-0.273206,-0.154648
1.41622,-0.421385,-0.137929
1.3976,-0.270907,0.0331267
1.39544,-0.415204,0.0169494
1.40241,-0.271839,-0.0998913
1.41334,-0.346364,-0.118792
1.3852,-0.198871,0.0407267
1.39452,-0.341752,0.0250617
1.39086,-0.199682,-0.0900522
1.42379,-0.42364,-0.0865109
1.39169,-0.269762,0.0825574
1.38193,-0.338667,0.0579672
1.40431,-0.272207,-0.0666326
1.41222,-0.346089,-0.0762012
1.37587,-0.266694,0.17208
1.363,-0.334028,0.114561
1.3886,-0.199358,-0.057153
1.34276,-0.260276,0.366488
1.36446,-0.334387,0.256139
1.4133,-0.273951,-0.0334989
1.37301,-0.202013,-0.0242239
1.38906,-0.345558,-0.0416576
1.43978,-0.284301,-0.410833
1.43878,-0.357929,-0.296529
1.38525,-0.273534,0
1.39398,-0.420072,-0.0169494
1.42307,-0.281002,-0.225672
1.42088,-0.353475,-0.186372
1.38506,-0.203788,0.00813668
1.40903,-0.350527,-0.0084389
1.4163,-0.279665,-0.155505
1.42999,-0.430922,-0.139416
1.38632,-0.417764,0.0168563
1.39754,-0.275959,-0.0996122
1.41212,-0.351296,-0.118792
1.38055,-0.203123,0.0406104
1.3972,-0.347583,0.0251315
1.3862,-0.203955,-0.0897964
1.41466,-0.426303,-0.0860458
1.38291,-0.273071,0.0820923
1.38849,-0.345418,0.0582928
1.39943,-0.276334,-0.0664464
1.40325,-0.349088,-0.0757825
1.37103,-0.270726,0.171592
1.36956,-0.340709,0.115212
1.38394,-0.203622,-0.0569902
1.33805,-0.264213,0.365452
1.36329,-0.339148,0.256139
1.40449,-0.277333,-0.0333128
1.37229,-0.206805,-0.0242239
1.39172,-0.351384,-0.041774
1.43878,-0.289325,-0.410833
1.44513,-0.36487,-0.298098
1.39213,-0.279945,0
1.40016,-0.42727,-0.0170425
1.42208,-0.285967,-0.225672
1.41579,-0.357461,-0.185867
1.38039,-0.208025,0.00811343
1.40004,-0.353485,-0.0083924
1.42701,-0.286959,-0.15679
1.42086,-0.433586,-0.138673
1.39568,-0.280657,0.0331267
1.39633,-0.426103,0.016996
1.40048,-0.281623,-0.0998913
1.42248,-0.35915,-0.119769
1.38378,-0.208536,0.0407267
1.3921,-0.351479,0.0250617
1.38943,-0.209387,-0.0900522
1.41698,-0.432404,-0.0862783
1.38195,-0.277897,0.0820923
1.3834,-0.349284,0.05813
1.39846,-0.281217,-0.0664464
1.41364,-0.356918,-0.0764105
1.37397,-0.276292,0.17208
1.3645,-0.344511,0.114887
1.39113,-0.209643,-0.0573159
1.36591,-0.344868,0.256856
1.40744,-0.283022,-0.0334059
1.37156,-0.211594,-0.0242239
1.38661,-0.355247,-0.0416576
1.44908,-0.296663,-0.414068
1.44385,-0.369912,-0.298098
1.37939,-0.282396,0
1.39866,-0.432155,-0.0170425
1.42108,-0.29093,-0.225672
1.42222,-0.36437,-0.186877
1.39151,-0.214672,0.00818318
1.40267,-0.359362,-0.00841565
1.40263,-0.287152,-0.15422
1.42314,-0.439719,-0.139044
1.39861,-0.286329,0.0332198
1.39484,-0.430974,0.016996
1.40339,-0.28731,-0.10017
1.42508,-0.365103,-0.120094
1.39095,-0.214585,0.0409595
1.38699,-0.355343,0.0249918
1.39263,-0.214845,-0.0903081
1.41546,-0.437347,-0.0862783
1.38879,-0.284321,0.0825574
1.38218,-0.354111,0.05813
1.39747,-0.286097,-0.0664464
1.40851,-0.360859,-0.0762012
1.373,-0.281087,0.17208
1.37101,-0.351251,0.115538
1.39433,-0.215107,-0.0574787
1.41036,-0.288735,-0.0334989
1.37082,-0.21638,-0.0242239
1.38923,-0.361091,-0.041774
1.44049,-0.300148,-0.411911
1.43875,-0.373963,-0.297314
1.38231,-0.288025,0
1.39332,-0.43584,-0.016996
1.41618,-0.295082,-0.225057
1.42478,-0.370331,-0.187382
1.39471,-0.220151,0.00820642
1.40528,-0.365263,-0.0084389
1.4094,-0.293669,-0.155077
1.414,-0.442306,-0.138301
1.40151,-0.292025,0.0333128
1.38951,-0.434646,0.0169494
1.40629,-0.293021,-0.100449
1.41994,-0.369072,-0.119769
1.38229,-0.218192,0.0407267
1.39735,-0.363201,0.0252013
1.39188,-0.219704,-0.0903081
1.41774,-0.443478,-0.0865109
1.38779,-0.289167,0.0825574
1.37706,-0.357928,0.0579672
1.40037,-0.291788,-0.0666326
1.42271,-0.369793,-0.0770385
1.37589,-0.286688,0.172567
1.37364,-0.357037,0.115863
1.38963,-0.21935,-0.0573159
1.36728,-0.355385,0.257574
1.40543,-0.292841,-0.0334059
1.37009,-0.220925,-0.0242239
1.39189,-0.366715,-0.0418904
1.44326,-0.305721,-0.412989
1.4413,-0.379731,-0.298098
1.37744,-0.291778,0
1.39569,-0.441665,-0.0170425
1.4152,-0.299777,-0.225057
1.42354,-0.375054,-0.187382
1.39397,-0.224775,0.00820642
1.40793,-0.37094,-0.00846215
1.42787,-0.302462,-0.157218
1.43151,-0.453001,-0.14016
1.40054,-0.296671,0.0333128
1.39187,-0.440459,0.016996
1.40141,-0.296856,-0.10017
1.41485,-0.372763,-0.119443
1.38156,-0.222774,0.0407267
1.39227,-0.366814,0.0251315
1.39114,-0.224319,-0.0903081
1.42007,-0.449381,-0.0867434
1.38292,-0.29294,0.0823249
1.3836,-0.364529,0.0582928
1.41112,-0.298914,-0.0671909
1.41375,-0.372473,-0.0766198
1.36717,-0.289603,0.171592
1.36473,-0.359559,0.115212
1.38889,-0.223957,-0.0573159
1.41227,-0.299157,-0.033592
1.36931,-0.225706,-0.0242239
1.39447,-0.372603,-0.0420067
1.44595,-0.311569,-0.414068
1.44754,-0.386785,-0.299667
1.38423,-0.29827,0
1.39414,-0.446534,-0.0170425
1.418,-0.305547,-0.225672
1.42223,-0.38002,-0.187382
1.38528,-0.228339,0.00815993
1.3989,-0.373787,-0.00841565
1.42681,-0.307445,-0.157218
1.42992,-0.457995,-0.14016
1.39949,-0.301558,0.0333128
1.39414,-0.446534,0.0170425
1.40816,-0.303427,-0.100728
1.4251,-0.380787,-0.120419
1.38472,-0.228246,0.0408431
1.39485,-0.372704,0.0252013
1.39035,-0.229173,-0.0903081
1.41469,-0.453118,-0.0865109
1.38579,-0.298606,0.0825574
1.38618,-0.370388,0.0584557
1.40617,-0.302996,-0.0670048
1.4163,-0.378437,-0.0768292
1.37391,-0.296046,0.172567
1.36347,-0.364321,0.115212
1.38416,-0.228153,-0.057153
1.36103,-0.363668,0.256856
1.41122,-0.304085,-0.033592
1.36843,-0.230962,-0.0242239
1.38917,-0.376908,-0.0418904
1.44098,-0.316293,-0.412989
1.44605,-0.39234,-0.299667
1.38698,-0.30444,0
1.40382,-0.455588,-0.0171822
1.42454,-0.312685,-0.226902
1.4131,-0.383401,-0.186372
1.38834,-0.234322,0.00818318
1.40131,-0.380203,-0.0084389
1.41008,-0.30951,-0.155505
1.41678,-0.459794,-0.139044
1.39051,-0.305215,0.0331267
1.39241,-0.451884,0.0170425
1.40309,-0.307976,-0.100449
1.41978,-0.385213,-0.120094
1.38383,-0.233561,0.0408431
1.3934,-0.378057,0.0252013
1.38946,-0.23451,-0.0903081
1.41674,-0.459779,-0.0867434
1.39244,-0.305637,0.0830225
1.37703,-0.373615,0.05813
1.40109,-0.307537,-0.0668187
1.41098,-0.382826,-0.0766198
1.37276,-0.30132,0.172567
1.36976,-0.371641,0.115863
1.38721,-0.234132,-0.0573159
1.35962,-0.368891,0.256856
1.40614,-0.308644,-0.0334989
1.37156,-0.236417,-0.0242938
1.3917,-0.382815,-0.0420067
1.43987,-0.321321,-0.412989
1.44467,-0.397386,-0.299667
1.38201,-0.308408,0
1.39842,-0.459238,-0.0171357
1.41958,-0.316794,-0.226287
1.42323,-0.391488,-0.187887
1.38357,-0.238487,0.00815993
1.39998,-0.385092,-0.0084389
1.4284,-0.318761,-0.157647
1.42274,-0.467222,-0.139788
1.39724,-0.311809,0.0333128
1.39082,-0.456742,0.0170425
1.4059,-0.313741,-0.100728
1.42227,-0.391224,-0.120419
1.38301,-0.23839,0.0408431
1.39208,-0.382919,0.0252013
1.39256,-0.240037,-0.0905639
1.42271,-0.467213,-0.0872085
1.39136,-0.310496,0.0830225
1.37957,-0.37948,0.0582928
1.40001,-0.312426,-0.0668187
1.40964,-0.387749,-0.0766198
1.3717,-0.30611,0.172567
1.3723,-0.377478,0.116188
1.39427,-0.24033,-0.0576415
1.34623,-0.300424,0.369594
1.36591,-0.375722,0.258291
1.40895,-0.314422,-0.033592
1.37475,-0.241416,-0.0243636
1.39049,-0.387185,-0.0420067
1.45012,-0.328395,-0.416224
1.43586,-0.399818,-0.298098
1.38103,-0.312749,0
1.39697,-0.463629,-0.0171357
1.41473,-0.32038,-0.225672
1.42581,-0.397022,-0.188392
1.38282,-0.242833,0.00815993
1.40647,-0.391635,-0.00848539
1.41575,-0.320612,-0.156362
1.41748,-0.470435,-0.139416
1.39626,-0.316197,0.0333128
1.38559,-0.459849,0.016996
1.40102,-0.317275,-0.100449
1.42103,-0.39569,-0.120419
1.38619,-0.243426,0.0409595
1.39857,-0.389436,0.0253409
1.39574,-0.245101,-0.0908197
1.42503,-0.472938,-0.0874411
1.38259,-0.313102,0.0825574
1.38607,-0.385956,0.0586185
1.39512,-0.31594,-0.0666326
1.41611,-0.394319,-0.0770385
1.37461,-0.311294,0.173054
1.36342,-0.379648,0.115538
1.39744,-0.245401,-0.0578043
1.41186,-0.31973,-0.033685
1.3739,-0.246214,-0.0243636
1.40067,-0.395295,-0.0423558
1.44521,-0.332591,-0.415146
1.44578,-0.408024,-0.300452
1.38383,-0.318464,0
1.39535,-0.468502,-0.0171357
1.41745,-0.326202,-0.226287
1.4206,-0.400919,-0.187887
1.39377,-0.249775,0.00822967
1.40509,-0.396542,-0.00848539
1.43013,-0.32912,-0.158075
1.42338,-0.477915,-0.14016
1.39904,-0.321966,0.0334059
1.39156,-0.467229,0.0170891
1.40379,-0.323058,-0.100728
1.42348,-0.401731,-0.120745
1.38533,-0.248263,0.0409595
1.39335,-0.393229,0.0252711
1.39094,-0.249268,-0.0905639
1.41958,-0.476639,-0.0872085
1.38538,-0.318821,0.08279
1.38472,-0.390792,0.0586185
1.40569,-0.323496,-0.0671909
1.41857,-0.400345,-0.0772479
1.37738,-0.316981,0.173542
1.36592,-0.385488,0.115863
1.38871,-0.248867,-0.0574787
1.36718,-0.385842,0.259009
1.41073,-0.324656,-0.033685
1.37303,-0.251008,-0.0243636
1.39544,-0.399082,-0.0422395
1.44404,-0.337634,-0.415146
1.45566,-0.416303,-0.302805
1.37881,-0.322382,0
1.40507,-0.477229,-0.0172754
1.42015,-0.332048,-0.226902
1.42682,-0.408057,-0.188897
1.38502,-0.2532,0.00818318
1.39985,-0.400344,-0.00846215
1.40961,-0.329583,-0.155933
1.42548,-0.484161,-0.140531
1.4018,-0.327758,0.0334989
1.39749,-0.474656,0.0171822
1.40265,-0.327956,-0.100728
1.42207,-0.406697,-0.120745
1.38446,-0.253097,0.0409595
1.39197,-0.39809,0.0252711
1.39399,-0.254839,-0.0908197
1.42169,-0.482875,-0.0874411
1.39203,-0.325474,0.0832551
1.38335,-0.395623,0.0586185
1.40845,-0.329311,-0.0673771
1.41716,-0.405294,-0.0772479
1.3724,-0.320883,0.173054
1.3684,-0.39135,0.116188
1.38783,-0.253713,-0.0574787
1.34688,-0.314916,0.370629
1.36961,-0.391694,0.259726
1.40959,-0.329579,-0.033685
1.37215,-0.255799,-0.0243636
1.39788,-0.405063,-0.0423558
1.4466,-0.343562,-0.416224
1.44289,-0.418107,-0.300452
1.39325,-0.33089,0
1.39961,-0.480831,-0.0172288
1.42668,-0.33883,-0.228132
1.42158,-0.411931,-0.188392
1.39199,-0.259499,0.00822967
1.39845,-0.405228,-0.00846215
1.41619,-0.336339,-0.15679
1.42378,-0.489134,-0.140531
1.39287,-0.330801,0.0333128
1.39583,-0.479532,0.0171822
1.40538,-0.333773,-0.101007
1.41681,-0.410549,-0.120419
1.37964,-0.257195,0.0408431
1.39058,-0.402947,0.0252711
1.38917,-0.258972,-0.0905639
1.42377,-0.489132,-0.0876736
1.387,-0.329408,0.0830225
1.37428,-0.398225,0.0582928
1.4034,-0.333302,-0.0671909
1.41574,-0.410238,-0.0772479
1.37127,-0.325672,0.173054
1.3632,-0.395014,0.115863
1.39479,-0.260021,-0.0578043
1.36067,-0.394282,0.258291
1.40843,-0.334497,-0.033685
1.37125,-0.260587,-0.0243636
1.39262,-0.408814,-0.0422395
1.44914,-0.349513,-0.417303
1.44895,-0.425351,-0.302021
1.37653,-0.332,0
1.38659,-0.481776,-0.0170891
1.42933,-0.344735,-0.228746
1.41632,-0.415773,-0.187887
1.39108,-0.264356,0.00822967
1.39702,-0.410107,-0.00846215
1.41887,-0.342213,-0.157218
1.42582,-0.495408,-0.140903
1.39559,-0.336598,0.0334059
1.39037,-0.483088,0.0171357
1.40033,-0.337741,-0.100728
1.42684,-0.418861,-0.121396
1.38659,-0.263502,0.0410758
1.393,-0.408925,0.0253409
1.39218,-0.264565,-0.0908197
1.41828,-0.492789,-0.0874411
1.38585,-0.334247,0.0830225
1.38439,-0.406397,0.0587813
1.40223,-0.338199,-0.0671909
1.4143,-0.415178,-0.0772479
1.37013,-0.330456,0.173054
1.36181,-0.399771,0.115863
1.38995,-0.264142,-0.0576415
1.32587,-0.319782,0.365452
1.36684,-0.401246,0.259726
1.41503,-0.341286,-0.0338711
1.38206,-0.267895,-0.024573
1.39494,-0.415056,-0.0423558
1.44785,-0.354822,-0.417303
1.44362,-0.42954,-0.301236
1.37919,-0.337995,0
1.39613,-0.490834,-0.0172288
1.42038,-0.34809,-0.227517
1.43,-0.425488,-0.189907
1.3901,-0.269453,0.00822967
1.40318,-0.417506,-0.00850864
1.41761,-0.347411,-0.157218
1.42776,-0.501952,-0.141275
1.39047,-0.34076,0.0333128
1.39236,-0.489508,0.0171822
1.40296,-0.343821,-0.101007
1.41766,-0.421814,-0.120745
1.38561,-0.268583,0.0410758
1.39532,-0.415168,0.0254107
1.3912,-0.269666,-0.0908197
1.42777,-0.501957,-0.0881388
1.38849,-0.340275,0.0832551
1.38289,-0.411468,0.0587813
1.40098,-0.343336,-0.0671909
1.40894,-0.419219,-0.0770385
1.36891,-0.335476,0.173054
1.36798,-0.407033,0.116514
1.3929,-0.269995,-0.0578043
1.32469,-0.324639,0.365452
1.36536,-0.406253,0.259726
1.40989,-0.345519,-0.0337781
1.38117,-0.272476,-0.024573
1.38973,-0.418526,-0.0422395
1.4504,-0.36055,-0.418381
1.44219,-0.434325,-0.301236
1.38194,-0.343532,0
1.40957,-0.500818,-0.0174151
1.41921,-0.352798,-0.227517
1.42859,-0.430227,-0.189907
1.39312,-0.274836,0.00825292
1.40179,-0.422157,-0.00850864
1.42031,-0.353069,-0.157647
1.42233,-0.50535,-0.140903
1.39709,-0.347298,0.0334989
1.39827,-0.4968,0.0172754
1.40955,-0.350396,-0.101565
1.42007,-0.427662,-0.12107
1.38471,-0.273176,0.0410758
1.39394,-0.419793,0.0254107
1.39421,-0.27505,-0.0910755
1.4261,-0.506689,-0.0881388
1.38735,-0.344878,0.0832551
1.38534,-0.417204,0.0589441
1.41147,-0.350871,-0.0677493
1.41136,-0.425041,-0.0772479
1.37164,-0.340971,0.173542
1.37044,-0.412717,0.116839
1.39199,-0.274612,-0.0578043
1.364,-0.410778,0.259726
1.41261,-0.351157,-0.0338711
1.37236,-0.27572,-0.0244334
1.39209,-0.424541,-0.0423558
1.44913,-0.365611,-0.418381
1.44442,-0.4405,-0.302021
1.38073,-0.348354,0
1.40029,-0.50303,-0.0173219
1.42564,-0.359683,-0.228746
1.42707,-0.435211,-0.189907
1.38824,-0.278909,0.00822967
1.40413,-0.428214,-0.00853189
1.40364,-0.354133,-0.155933
1.42431,-0.511659,-0.141275
1.39587,-0.352173,0.0334989
1.39652,-0.501678,0.0172754
1.40832,-0.355314,-0.101565
1.42238,-0.433779,-0.121396
1.39159,-0.279583,0.0413086
1.39246,-0.424656,0.0254107
1.39716,-0.280701,-0.0913314
1.42056,-0.510314,-0.0879062
1.38614,-0.349718,0.0832551
1.39152,-0.424369,0.0592698
1.40636,-0.354819,-0.0675632
1.42133,-0.433461,-0.0778759
1.37044,-0.345757,0.173542
1.36899,-0.417498,0.116839
1.39103,-0.27947,-0.0578043
1.36633,-0.416685,0.260444
1.4075,-0.355107,-0.0337781
1.37531,-0.28131,-0.0245032
1.39442,-0.430578,-0.0424722
1.44785,-0.370667,-0.418381
1.45037,-0.447854,-0.30359
1.38726,-0.355156,0
1.40604,-0.510646,-0.0174151
1.42055,-0.363677,-0.228132
1.42934,-0.441361,-0.190412
1.39509,-0.285356,0.00827617
1.39881,-0.431933,-0.00850864
1.41396,-0.36199,-0.157218
1.42251,-0.516627,-0.141275
1.39851,-0.358035,0.033592
1.39852,-0.507915,0.0173219
1.41867,-0.363197,-0.102403
1.42847,-0.441094,-0.122047
1.39061,-0.284439,0.0413086
1.40244,-0.433054,0.0256201
1.39617,-0.285577,-0.0913314
1.42253,-0.516632,-0.0881388
1.38878,-0.355545,0.0834876
1.38239,-0.426865,0.0589441
1.40898,-0.360717,-0.0677493
1.41981,-0.438419,-0.0778759
1.37692,-0.352508,0.174517
1.36753,-0.422274,0.116839
1.39396,-0.285125,-0.0579672
1.36486,-0.421452,0.260444
1.40625,-0.360018,-0.0337781
1.37829,-0.286684,-0.024573
1.3968,-0.436392,-0.0425885
1.45034,-0.376434,-0.419459
1.44513,-0.451492,-0.302805
1.38995,-0.360759,0
1.40434,-0.515306,-0.0174151
1.42316,-0.369379,-0.228746
1.43165,-0.447282,-0.190918
1.39414,-0.289981,0.00827617
1.39737,-0.436569,-0.00850864
1.42045,-0.368675,-0.158075
1.42453,-0.522714,-0.141647
1.38957,-0.360661,0.0334059
1.38932,-0.509794,0.0172288
1.39815,-0.362887,-0.101007
1.427,-0.445829,-0.122047
1.38966,-0.289049,0.0413086
1.39336,-0.435317,0.0254805
1.39521,-0.290205,-0.0913314
1.43205,-0.525474,-0.0888364
1.39146,-0.361152,0.0837202
1.38097,-0.431447,0.0589441
1.40004,-0.363379,-0.0673771
1.41835,-0.443125,-0.0778759
1.3719,-0.356075,0.174029
1.36992,-0.427996,0.117165
1.39692,-0.290559,-0.05813
1.40505,-0.36468,-0.0337781
1.38119,-0.292321,-0.0246428
1.39527,-0.441265,-0.0425885
1.44902,-0.381494,-0.419459
1.44355,-0.456533,-0.302805
1.38481,-0.36459,0
1.39878,-0.518814,-0.0173685
1.42186,-0.374344,-0.228746
1.43765,-0.454669,-0.191928
1.40094,-0.296502,0.00832266
1.39965,-0.44265,-0.00853189
1.42684,-0.375656,-0.158932
1.42643,-0.529068,-0.142019
1.39604,-0.367546,0.033592
1.39878,-0.518814,0.0173685
1.40845,-0.370813,-0.101844
1.42164,-0.449605,-0.121721
1.38473,-0.29307,0.0411922
1.38802,-0.438972,0.0254107
1.3981,-0.2959,-0.0915872
1.42272,-0.527692,-0.0883713
1.37861,-0.362957,0.0830225
1.38327,-0.43747,0.059107
1.41036,-0.371316,-0.0679354
1.41299,-0.446869,-0.0776666
1.37065,-0.360862,0.174029
1.36462,-0.431573,0.116839
1.38808,-0.293779,-0.0578043
1.41537,-0.372636,-0.0340572
1.37234,-0.295457,-0.0245032
1.39372,-0.446133,-0.0425885
1.44768,-0.38655,-0.419459
1.45689,-0.466353,-0.305943
1.38353,-0.369422,0
1.40071,-0.525097,-0.0174151
1.42436,-0.380325,-0.229361
1.42472,-0.456056,-0.190412
1.38817,-0.298865,0.00825292
1.40952,-0.451192,-0.00860163
1.42168,-0.379609,-0.158504
1.4283,-0.535442,-0.14239
1.39861,-0.373448,0.033685
1.39322,-0.522289,0.0173219
1.411,-0.376757,-0.102123
1.42765,-0.456996,-0.122372
1.3876,-0.298743,0.0413086
1.39029,-0.445034,0.0254805
1.39315,-0.299938,-0.0913314
1.42835,-0.535458,-0.0888364
1.3889,-0.370857,0.0837202
1.38554,-0.443515,0.0592698
1.41291,-0.377268,-0.0681216
1.42283,-0.455452,-0.0782946
1.36938,-0.365644,0.174029
1.35931,-0.435118,0.116514
1.38704,-0.298622,-0.0578043
1.4102,-0.376543,-0.0339642
1.37521,-0.301101,-0.024573
1.39976,-0.453459,-0.0428213
1.45747,-0.394621,-0.422694
1.44779,-0.469018,-0.304374
1.38995,-0.37634,0
1.40635,-0.532818,-0.0175082
1.42303,-0.385295,-0.229361
1.42312,-0.461026,-0.190412
1.38321,-0.302853,0.00822967
1.40033,-0.453644,-0.00855514
1.43186,-0.387687,-0.159789
1.43015,-0.541835,-0.142762
1.40116,-0.379373,0.0337781
1.39513,-0.528566,0.0173685
1.41353,-0.382723,-0.102403
1.42605,-0.461976,-0.122372
1.38655,-0.303585,0.0413086
1.38872,-0.449884,0.0254805
1.3921,-0.304799,-0.0913314
1.419,-0.537611,-0.0883713
1.37989,-0.373616,0.0832551
1.38398,-0.448348,0.0592698
1.41544,-0.383242,-0.0683077
1.42503,-0.461647,-0.0785039
1.37576,-0.372497,0.175004
1.36537,-0.442318,0.117165
1.3938,-0.305172,-0.05813
1.40888,-0.381463,-0.0339642
1.37025,-0.305031,-0.0245032
1.39817,-0.458342,-0.0428213
1.44123,-0.395628,-0.418381
1.44987,-0.47529,-0.305159
1.38092,-0.379071,0
1.40448,-0.537723,-0.0175082
1.42548,-0.391306,-0.229976
1.42904,-0.468463,-0.191423
1.39386,-0.310287,0.00829941
1.39494,-0.457283,-0.00853189
1.42283,-0.390577,-0.158932
1.42081,-0.543976,-0.142019
1.39597,-0.383203,0.033685
1.39327,-0.533433,0.0173685
1.41218,-0.387655,-0.102403
1.43579,-0.470677,-0.123349
1.38939,-0.309292,0.0414249
1.38715,-0.454729,0.0254805
1.39882,-0.311392,-0.091843
1.42457,-0.545417,-0.0888364
1.38243,-0.379487,0.0834876
1.39,-0.455667,0.0595955
1.41025,-0.387123,-0.0681216
1.42341,-0.466618,-0.0785039
1.37445,-0.377297,0.175004
1.37139,-0.449565,0.117816
1.39663,-0.310904,-0.0582928
1.41139,-0.387438,-0.0340572
1.37307,-0.310695,-0.024573
1.39276,-0.461961,-0.0427049
1.43984,-0.400656,-0.418381
1.4482,-0.480348,-0.305159
1.38344,-0.384962,0
1.41005,-0.545509,-0.0176013
1.42411,-0.396279,-0.229976
1.4274,-0.473448,-0.191423
1.38886,-0.314268,0.00827617
1.39713,-0.463409,-0.00855514
1.42529,-0.396608,-0.15936
1.42262,-0.55037,-0.14239
1.39462,-0.388074,0.033685
1.38767,-0.53685,0.0173219
1.40698,-0.391512,-0.102123
1.43793,-0.476941,-0.123674
1.3922,-0.315023,0.0415413
1.39694,-0.463346,0.0256899
1.39772,-0.316273,-0.091843
1.42266,-0.550386,-0.0888364
1.3811,-0.384311,0.0834876
1.38841,-0.460516,0.0595955
1.40889,-0.392043,-0.0681216
1.41798,-0.470327,-0.0782946
1.3693,-0.381028,0.174517
1.36603,-0.453094,0.11749
1.39943,-0.316659,-0.0584557
1.41003,-0.392362,-0.0340572
1.37588,-0.316382,-0.0246428
1.39872,-0.469364,-0.0429376
1.44651,-0.485401,-0.305159
1.38209,-0.389789,0
1.40442,-0.548971,-0.0175548
1.42272,-0.401248,-0.229976
1.43326,-0.480953,-0.192433
1.39555,-0.320907,0.00832266
1.40688,-0.4721,-0.00862488
1.42007,-0.400501,-0.158932
1.4244,-0.556782,-0.142762
1.39326,-0.392939,0.033685
1.38952,-0.543147,0.0173685
1.40944,-0.397504,-0.102403
1.43247,-0.480689,-0.123349
1.38719,-0.318984,0.0414249
1.39531,-0.468219,0.0256899
1.39661,-0.32115,-0.091843
1.41701,-0.553895,-0.0886039
1.38743,-0.391297,0.0839528
1.383,-0.464088,0.0594326
1.40751,-0.396958,-0.0681216
1.40876,-0.472732,-0.0778759
1.36796,-0.385805,0.174517
1.36444,-0.45786,0.11749
1.38663,-0.318855,-0.0579672
1.4048,-0.396196,-0.0339642
1.37476,-0.321183,-0.0246428
1.39708,-0.474244,-0.0429376
1.44852,-0.491708,-0.305943
1.38841,-0.396809,0
1.39133,-0.549463,-0.0174151
1.42511,-0.407298,-0.230591
1.42781,-0.484677,-0.191928
1.38664,-0.323956,0.00827617
1.40522,-0.477008,-0.00862488
1.43013,-0.408734,-0.160217
1.42615,-0.563214,-0.143134
1.39572,-0.398899,0.0337781
1.39505,-0.550932,0.0174616
1.40805,-0.402421,-0.102403
1.42701,-0.484405,-0.123023
1.38607,-0.323825,0.0414249
1.39367,-0.473087,0.0256899
1.39548,-0.326023,-0.091843
1.43364,-0.566172,-0.0897667
1.38606,-0.396138,0.0839528
1.38516,-0.470197,0.0595955
1.40611,-0.401869,-0.0681216
1.41467,-0.480214,-0.0782946
1.37424,-0.39276,0.175492
1.36283,-0.46262,0.11749
1.3894,-0.324602,-0.05813
1.41495,-0.404394,-0.0342433
1.37364,-0.32598,-0.0246428
1.40676,-0.483013,-0.0432867
1.45422,-0.499308,-0.307512
1.3947,-0.403878,0
1.40798,-0.561727,-0.0176479
1.42748,-0.413369,-0.231206
1.42987,-0.490947,-0.192433
1.38939,-0.329718,0.00829941
1.40355,-0.48191,-0.00862488
1.42488,-0.412617,-0.159789
1.43157,-0.57114,-0.143877
1.40585,-0.407106,0.0340572
1.38941,-0.554316,0.0174151
1.41047,-0.408444,-0.102682
1.42531,-0.489383,-0.123023
1.38882,-0.329584,0.0415413
1.38823,-0.47665,0.0256201
1.39434,-0.330892,-0.091843
1.42053,-0.566734,-0.089069
1.38467,-0.400973,0.0839528
1.38729,-0.476327,0.0597583
1.41622,-0.410109,-0.0686799
1.42054,-0.487744,-0.0787133
1.36905,-0.39645,0.175004
1.36875,-0.469963,0.118141
1.39604,-0.331296,-0.0584557
1.40585,-0.407106,-0.0340572
1.38027,-0.332647,-0.0247824
1.39751,-0.485297,-0.043054
1.45247,-0.504382,-0.307512
1.39328,-0.408744,0
1.40972,-0.568133,-0.0176944
1.42602,-0.41835,-0.231206
1.43189,-0.497237,-0.192938
1.39212,-0.335503,0.00832266
1.40563,-0.488119,-0.00864813
1.41961,-0.416469,-0.15936
1.43327,-0.577622,-0.144249
1.3929,-0.408633,0.0337781
1.39488,-0.562153,0.0175082
1.41669,-0.415611,-0.10324
1.43866,-0.499587,-0.124325
1.38767,-0.33443,0.0415413
1.39411,-0.484117,0.0257598
1.39317,-0.335757,-0.091843
1.42225,-0.573182,-0.0893015
1.37943,-0.40468,0.0837202
1.38184,-0.479856,0.0595955
1.40711,-0.412801,-0.0683077
1.4226,-0.49401,-0.0789226
1.37528,-0.403462,0.175979
1.3671,-0.474738,0.118141
1.39487,-0.336167,-0.0584557
1.40442,-0.412011,-0.0340572
1.37521,-0.336512,-0.0247126
1.40335,-0.492822,-0.0432867
1.447,-0.508149,-0.306727
1.38418,-0.411326,0
1.40773,-0.573051,-0.0176944
1.42455,-0.423325,-0.231206
1.43015,-0.502232,-0.192938
1.39094,-0.34036,0.00832266
1.40015,-0.491697,-0.00862488
1.42578,-0.423688,-0.160217
1.42017,-0.578117,-0.143134
1.3953,-0.414632,0.0338711
1.39291,-0.567019,0.0175082
1.40758,-0.418281,-0.102682
1.42562,-0.500643,-0.123349
1.39037,-0.340222,0.0416576
1.39996,-0.49163,0.0258994
1.39587,-0.341567,-0.0920989
1.42024,-0.578143,-0.0893015
1.38184,-0.41063,0.0839528
1.38016,-0.484677,0.0595955
1.40566,-0.41771,-0.0683077
1.4171,-0.497649,-0.0787133
1.37386,-0.40826,0.175979
1.37296,-0.482149,0.118792
1.40146,-0.342934,-0.0587813
1.41064,-0.419189,-0.0342433
1.37027,-0.339868,-0.0246428
1.40557,-0.498565,-0.0434031
1.44539,-0.512692,-0.306727
1.39054,-0.417976,0
1.40222,-0.575951,-0.0176479
1.42322,-0.427798,-0.231206
1.43604,-0.509376,-0.193948
1.39374,-0.345691,0.00834591
1.3986,-0.496093,-0.00862488
1.42063,-0.42702,-0.159789
1.42203,-0.584089,-0.143506
1.39399,-0.419014,0.0338711
1.39482,-0.572912,0.0175548
1.4139,-0.424998,-0.10324
1.42404,-0.505119,-0.123349
1.38542,-0.343626,0.0415413
1.39841,-0.496026,0.0258994
1.40254,-0.347872,-0.0926105
1.42949,-0.587153,-0.0899992
1.39201,-0.418418,0.0846504
1.38239,-0.490346,0.0597583
1.41199,-0.424424,-0.0686799
1.42306,-0.504769,-0.079132
1.36877,-0.411431,0.175492
1.36392,-0.483795,0.118141
1.39261,-0.345411,-0.0584557
1.40931,-0.423618,-0.0342433
1.37683,-0.346602,-0.0247824
1.40005,-0.502119,-0.0432867
1.45098,-0.520383,-0.308296
1.3929,-0.423992,0
1.41129,-0.58544,-0.0177876
1.4255,-0.433914,-0.231821
1.42679,-0.511706,-0.192938
1.38865,-0.349578,0.00832266
1.40815,-0.505023,-0.00869462
1.43054,-0.435451,-0.161074
1.42367,-0.590575,-0.143877
1.39635,-0.425041,0.0339642
1.39281,-0.577777,0.0175548
1.40478,-0.427607,-0.102682
1.42978,-0.512779,-0.123999
1.38033,-0.347484,0.0414249
1.38914,-0.498204,0.0257598
1.39357,-0.350817,-0.0920989
1.43112,-0.593669,-0.0902318
1.3829,-0.420949,0.0841853
1.38067,-0.495169,0.0597583
1.4105,-0.42935,-0.0686799
1.42505,-0.511082,-0.0793413
1.37492,-0.418519,0.176467
1.36223,-0.488553,0.118141
1.39527,-0.351245,-0.0586185
1.40782,-0.428535,-0.0342433
1.37167,-0.350655,-0.0247126
1.40572,-0.509974,-0.0435194
1.44169,-0.523022,-0.306727
1.39516,-0.430273,0
1.41282,-0.592154,-0.0178341
1.4239,-0.439136,-0.231821
1.42863,-0.518285,-0.193443
1.38736,-0.354665,0.00832266
1.40629,-0.510181,-0.00869462
1.42894,-0.440691,-0.161074
1.42884,-0.598868,-0.144621
1.39478,-0.430157,0.0339642
1.39438,-0.584424,0.0176013
1.41845,-0.437457,-0.103798
1.43163,-0.519375,-0.124325
1.3868,-0.354521,0.0416576
1.39106,-0.504656,0.0258296
1.40001,-0.3579,-0.0926105
1.42526,-0.597367,-0.0899992
1.37753,-0.424838,0.0839528
1.38636,-0.502952,0.060084
1.40892,-0.434517,-0.0686799
1.42692,-0.517664,-0.0795507
1.36958,-0.422386,0.175979
1.36792,-0.496262,0.118792
1.40172,-0.358337,-0.0589441
1.41007,-0.434871,-0.0343364
1.37812,-0.35769,-0.0248522
1.4076,-0.5165,-0.0436358
1.38975,-0.434191,0
1.40696,-0.595769,-0.0177876
1.41851,-0.443173,-0.231206
1.4379,-0.527619,-0.194958
1.39767,-0.362762,0.0083924
1.40817,-0.51671,-0.00871787
1.41972,-0.443553,-0.160217
1.4193,-0.600995,-0.143877
1.39319,-0.435266,0.0339642
1.39959,-0.59265,0.0176944
1.42065,-0.443842,-0.104077
1.43346,-0.525992,-0.12465
1.38549,-0.359602,0.0416576
1.40422,-0.515262,0.0261088
1.40256,-0.364032,-0.0928664
1.42306,-0.602587,-0.0899992
1.38359,-0.432265,0.0844179
1.38451,-0.50803,0.060084
1.40732,-0.439678,-0.0686799
1.42501,-0.522891,-0.0795507
1.3756,-0.42977,0.176954
1.36609,-0.501272,0.118792
1.39653,-0.362468,-0.0587813
1.40083,-0.437651,-0.0341503
1.37699,-0.362017,-0.0248522
1.40222,-0.51953,-0.0435194
1.39983,-0.442169,0
1.41243,-0.603329,-0.0178807
1.42464,-0.450009,-0.232436
1.43623,-0.532133,-0.194958
1.39652,-0.367152,0.0083924
1.40279,-0.519742,-0.00869462
1.41832,-0.448011,-0.160217
1.42107,-0.607016,-0.144249
1.39182,-0.439641,0.0339642
1.39037,-0.593902,0.0176013
1.41164,-0.4459,-0.103519
1.4318,-0.530493,-0.12465
1.38435,-0.363953,0.0416576
1.39885,-0.518282,0.026039
1.39754,-0.367421,-0.0926105
1.4285,-0.610192,-0.0904643
1.38984,-0.439016,0.084883
1.38291,-0.512377,0.060084
1.40593,-0.444097,-0.0686799
1.41587,-0.524589,-0.079132
1.37046,-0.432894,0.176467
1.36825,-0.506946,0.119118
1.39925,-0.36787,-0.0589441
1.41089,-0.445663,-0.0344294
1.38345,-0.368883,-0.0249918
1.40414,-0.525824,-0.0436358
1.39446,-0.445835,0
1.41399,-0.609839,-0.0179273
1.42683,-0.456183,-0.233051
1.43437,-0.537143,-0.194958
1.39136,-0.370994,0.00836916
1.4122,-0.528843,-0.00876437
1.42054,-0.454171,-0.160646
1.41894,-0.611972,-0.144249
1.39409,-0.445714,0.0340572
1.39196,-0.600335,0.0176479
1.41007,-0.450824,-0.103519
1.42994,-0.535488,-0.12465
1.38694,-0.369813,0.041774
1.39703,-0.523161,0.026039
1.40011,-0.373326,-0.0928664
1.43003,-0.616756,-0.0906969
1.3883,-0.443864,0.084883
1.38485,-0.518603,0.0602468
1.41198,-0.451436,-0.0690522
1.41777,-0.530929,-0.0793413
1.36516,-0.436466,0.175979
1.36647,-0.511719,0.119118
1.3941,-0.371722,-0.0587813
1.40551,-0.449367,-0.0343364
1.37436,-0.371862,-0.0248522
1.4022,-0.530967,-0.0436358
1.39663,-0.452175,0
1.40808,-0.61342,-0.0178807
1.42515,-0.461409,-0.233051
1.42868,-0.540992,-0.194453
1.38999,-0.376091,0.00836916
1.40277,-0.531183,-0.00871787
1.434,-0.464274,-0.162359
1.42764,-0.621941,-0.145365
1.38864,-0.449589,0.0339642
1.38608,-0.603836,0.0176013
1.416,-0.458448,-0.104077
1.42051,-0.537901,-0.123999
1.38171,-0.373849,0.0416576
1.39884,-0.529695,0.0261088
1.39488,-0.377412,-0.0926105
1.43508,-0.625183,-0.091162
1.38287,-0.44772,0.0846504
1.38294,-0.523675,0.0602468
1.41792,-0.459069,-0.0694244
1.42702,-0.540366,-0.0799694
1.36733,-0.44269,0.176467
1.36459,-0.516724,0.119118
1.39272,-0.376829,-0.0587813
1.41147,-0.456979,-0.0345225
1.37306,-0.376657,-0.0248522
1.40781,-0.538716,-0.0438685
1.39124,-0.455802,0
1.40593,-0.618332,-0.0178807
1.42728,-0.467612,-0.233666
1.43419,-0.548812,-0.195463
1.39253,-0.381999,0.0083924
1.41212,-0.540365,-0.00878761
1.42481,-0.4668,-0.161502
1.42546,-0.626921,-0.145365
1.39466,-0.456923,0.0341503
1.40593,-0.618332,0.0178807
1.41818,-0.46463,-0.104356
1.4298,-0.547131,-0.124976
1.38425,-0.379728,0.041774
1.40445,-0.537433,0.0262484
1.40125,-0.384391,-0.0931222
1.42924,-0.628581,-0.0909294
1.38888,-0.455031,0.0851155
1.38857,-0.531356,0.0605724
1.41631,-0.464016,-0.0694244
1.42886,-0.546771,-0.0801787
1.37332,-0.449932,0.177442
1.3665,-0.522909,0.119443
1.39525,-0.382746,-0.0589441
1.40226,-0.459413,-0.0343364
1.37565,-0.382279,-0.024922
1.40974,-0.544823,-0.0439849
1.39731,-0.462929,0
1.41118,-0.626235,-0.0179738
1.42197,-0.471099,-0.233051
1.43977,-0.556426,-0.196473
1.39126,-0.386614,0.0083924
1.40285,-0.542161,-0.00874112
1.41948,-0.470272,-0.161074
1.41973,-0.630029,-0.144993
1.39314,-0.461546,0.0341503
1.40387,-0.62299,0.0178807
1.428,-0.473095,-0.105193
1.43541,-0.554744,-0.125627
1.38684,-0.385387,0.0418904
1.39893,-0.540646,0.0261786
1.39997,-0.389036,-0.0931222
1.43079,-0.634937,-0.091162
1.38737,-0.459634,0.0851155
1.38308,-0.534517,0.0604096
1.41097,-0.467454,-0.0692383
1.43449,-0.554386,-0.0805974
1.37182,-0.454484,0.177442
1.36848,-0.528875,0.119769
1.39398,-0.38737,-0.0589441
1.40073,-0.464061,-0.0343364
1.38201,-0.389247,-0.0250617
1.39666,-0.545378,-0.0436358
1.39569,-0.467803,0
1.41264,-0.632792,-0.0180204
1.42407,-0.477316,-0.233666
1.44151,-0.562891,-0.196978
1.3976,-0.393637,0.0084389
1.40841,-0.549964,-0.00878761
1.42537,-0.477752,-0.161931
1.42116,-0.636609,-0.145365
1.3991,-0.468948,0.0343364
1.39439,-0.624617,0.0177876
1.41877,-0.475541,-0.104635
1.43718,-0.561201,-0.125952
1.38933,-0.391309,0.0420067
1.40449,-0.548435,0.0263182
1.3986,-0.39392,-0.0931222
1.42492,-0.638295,-0.0909294
1.38197,-0.463205,0.084883
1.38492,-0.540795,0.0605724
1.41312,-0.473646,-0.0694244
1.42882,-0.557937,-0.080388
1.37023,-0.459269,0.177442
1.37034,-0.535099,0.120094
1.40031,-0.394401,-0.0592698
1.41427,-0.474031,-0.0347086
1.38058,-0.394309,-0.0250617
1.39837,-0.551961,-0.0437522
1.38639,-0.470345,0
1.4176,-0.641263,-0.0181135
1.41857,-0.481262,-0.233051
1.43944,-0.568171,-0.196978
1.39615,-0.398757,0.0084389
1.4101,-0.556591,-0.00881086
1.42361,-0.482973,-0.161931
1.42607,-0.645096,-0.146108
1.39737,-0.474072,0.0343364
1.39573,-0.631372,0.0178341
1.41324,-0.479455,-0.104356
1.43141,-0.565001,-0.125627
1.38405,-0.395301,0.0418904
1.39875,-0.552111,0.0262484
1.40483,-0.401236,-0.0936338
1.43713,-0.650096,-0.0918597
1.39161,-0.472116,0.0855806
1.38665,-0.547335,0.0607353
1.41137,-0.478822,-0.0694244
1.42305,-0.561704,-0.0801787
1.36477,-0.463013,0.176954
1.36095,-0.53719,0.119443
1.39501,-0.398433,-0.059107
1.41252,-0.479211,-0.0347086
1.37919,-0.399126,-0.0250617
1.40386,-0.559801,-0.0439849
1.3923,-0.477779,0
1.41171,-0.644546,-0.018067
1.42062,-0.487494,-0.233666
1.43376,-0.571722,-0.196473
1.39475,-0.403628,0.0084389
1.41558,-0.564473,-0.00885736
1.42191,-0.487939,-0.161931
1.42019,-0.648416,-0.145736
1.39571,-0.478947,0.0343364
1.40444,-0.641224,0.0179738
1.41156,-0.484386,-0.104356
1.43313,-0.571471,-0.125952
1.3865,-0.401241,0.0420067
1.40053,-0.558471,0.0263182
1.39575,-0.403918,-0.0931222
1.44211,-0.658426,-0.0923248
1.38995,-0.47697,0.0855806
1.38844,-0.553652,0.0608981
1.42103,-0.487636,-0.0699828
1.4248,-0.568148,-0.080388
1.37066,-0.470351,0.177929
1.39361,-0.4033,-0.059107
1.41084,-0.484139,-0.0347086
1.37395,-0.402813,-0.0249918
1.40932,-0.567686,-0.0442176
1.40196,-0.48657,0
1.41309,-0.651144,-0.0181135
1.41891,-0.49245,-0.233666
1.43912,-0.579689,-0.197484
1.38949,-0.407369,0.00841565
1.40247,-0.564927,-0.00878761
1.42396,-0.494203,-0.162359
1.43239,-0.660036,-0.147223
1.40159,-0.486439,0.0345225
1.38766,-0.639427,0.0177876
1.40986,-0.48931,-0.104356
1.43113,-0.57647,-0.125952
1.38509,-0.406078,0.0420067
1.40599,-0.566345,0.0264578
1.39816,-0.409911,-0.093378
1.42893,-0.658442,-0.0916271
1.37696,-0.477891,0.084883
1.39021,-0.559989,0.0610609
1.41932,-0.492594,-0.0699828
1.4228,-0.573117,-0.080388
1.36901,-0.475133,0.177929
1.39603,-0.409287,-0.0592698
1.40914,-0.489061,-0.0347086
1.37637,-0.408745,-0.0250617
1.40362,-0.571095,-0.0441012
1.40403,-0.492786,0
1.42169,-0.661132,-0.0182532
1.42091,-0.498709,-0.234281
1.43708,-0.584709,-0.197484
1.39573,-0.414494,0.00846215
1.41161,-0.574342,-0.00885736
1.43348,-0.503122,-0.163644
1.42285,-0.661674,-0.14648
1.39233,-0.488679,0.0343364
1.39267,-0.64764,0.0178807
1.41944,-0.498193,-0.105193
1.43649,-0.584467,-0.126603
1.38366,-0.410911,0.0420067
1.40771,-0.572757,0.0265277
1.40437,-0.417061,-0.0938897
1.43386,-0.666794,-0.0920922
1.38282,-0.48534,0.0853481
1.38455,-0.563332,0.0608981
1.41759,-0.497545,-0.0699828
1.42819,-0.581091,-0.0808067
1.37858,-0.483853,0.179392
1.39843,-0.415295,-0.0594326
1.40743,-0.493977,-0.0347086
1.38267,-0.415609,-0.0252013
1.40542,-0.577265,-0.0442176
1.39862,-0.496102,0
1.41949,-0.665843,-0.0182532
1.43042,-0.507382,-0.236125
1.44248,-0.592486,-0.198494
1.39818,-0.420271,0.00848539
1.40599,-0.5775,-0.00883411
1.42056,-0.503885,-0.162359
1.42426,-0.66808,-0.146852
1.39447,-0.494631,0.0344294
1.38328,-0.648857,0.0177876
1.41402,-0.501563,-0.104914
1.43823,-0.590742,-0.126929
1.39378,-0.41895,0.0423558
1.4058,-0.577422,0.0265277
1.40298,-0.421716,-0.0938897
1.43526,-0.673241,-0.0923248
1.38873,-0.492593,0.0858132
1.38637,-0.569438,0.0610609
1.41593,-0.502243,-0.0699828
1.42995,-0.587342,-0.0810161
1.36574,-0.48444,0.177929
1.4047,-0.422231,-0.0597583
1.41332,-0.501315,-0.0348947
1.38496,-0.42184,-0.0252711
1.41438,-0.58701,-0.0445667
1.3855,-0.497172,0
1.41342,-0.669329,-0.0182067
1.42483,-0.511286,-0.23551
1.44396,-0.59929,-0.198999
1.39663,-0.425393,0.00848539
1.41126,-0.585716,-0.0088806
1.41871,-0.509088,-0.162359
1.4254,-0.675,-0.147223
1.40018,-0.50244,0.0346156
1.41217,-0.506742,-0.104914
1.43238,-0.594481,-0.126603
1.38076,-0.42056,0.0420067
1.40368,-0.58257,0.0265277
1.40143,-0.426856,-0.0938897
1.43278,-0.678497,-0.0923248
1.38315,-0.496331,0.0855806
1.38796,-0.576048,0.0612238
1.41408,-0.50743,-0.0699828
1.43148,-0.59411,-0.0812254
1.37517,-0.493466,0.179392
1.40314,-0.427377,-0.0597583
1.40771,-0.505141,-0.0348017
1.3873,-0.42785,-0.0253409
1.40863,-0.590398,-0.0444503
1.39503,-0.506097,0
1.41469,-0.675983,-0.0182532
1.42304,-0.516257,-0.23551
1.4382,-0.602793,-0.198494
1.39513,-0.430266,0.00848539
1.4092,-0.590639,-0.0088806
1.42066,-0.515393,-0.162788
1.42663,-0.681688,-0.147595
1.39842,-0.507324,0.0346156
1.41789,-0.51439,-0.105472
1.43029,-0.599478,-0.126603
1.38693,-0.427734,0.0422395
1.39795,-0.585921,0.0264578
1.39993,-0.431745,-0.0938897
1.43401,-0.685216,-0.0925573
1.38892,-0.503879,0.0860458
1.38226,-0.579344,0.0610609
1.42357,-0.51645,-0.0705412
1.43308,-0.600648,-0.0814348
1.39782,-0.431094,-0.0595955
1.41345,-0.512779,-0.0349878
1.37824,-0.430066,-0.0252013
1.40298,-0.593509,-0.044334
1.40086,-0.513474,0
1.41604,-0.682407,-0.0182998
1.43245,-0.525053,-0.237355
1.43985,-0.609105,-0.198999
1.38606,-0.432507,0.0084389
1.40355,-0.59375,-0.00885736
1.43388,-0.525576,-0.164501
1.39673,-0.511959,0.0346156
1.41618,-0.519089,-0.105472
1.43564,-0.607324,-0.127254
1.3855,-0.432331,0.0422395
1.39968,-0.592111,0.0265277
1.40611,-0.438763,-0.0944013
1.43532,-0.691701,-0.0927899
1.38724,-0.508482,0.0860458
1.38769,-0.587039,0.0613866
1.4181,-0.519793,-0.0703551
1.4274,-0.60384,-0.0812254
1.4002,-0.436918,-0.0597583
1.40799,-0.516087,-0.0348947
1.38436,-0.437283,-0.0253409
1.40458,-0.599973,-0.0444503
1.39906,-0.518361,0
1.42444,-0.692593,-0.0184395
1.4269,-0.528677,-0.23674
1.44136,-0.615686,-0.199504
1.39599,-0.440957,0.00850864
1.40883,-0.601788,-0.00890385
1.42831,-0.529196,-0.164073
1.40618,-0.520999,0.0348947
1.4181,-0.525416,-0.105751
1.44084,-0.615464,-0.127905
1.38398,-0.437165,0.0422395
1.40128,-0.598565,0.0265975
1.40077,-0.442466,-0.0941455
1.42931,-0.694961,-0.0925573
1.38546,-0.513322,0.0860458
1.38563,-0.59188,0.0613866
1.41253,-0.523352,-0.0701689
1.43263,-0.611957,-0.0816441
1.40629,-0.44421,-0.060084
1.41368,-0.523778,-0.0350808
1.39036,-0.444791,-0.0254805
1.40604,-0.606701,-0.0445667
1.38966,-0.520678,0
1.4183,-0.696047,-0.0183929
1.43606,-0.538064,-0.238585
1.44638,-0.624109,-0.200514
1.39436,-0.44607,0.00850864
1.41029,-0.608532,-0.0089271
1.42636,-0.534428,-0.164073
1.40052,-0.524746,0.0348017
1.4199,-0.53201,-0.10603
1.43858,-0.62074,-0.127905
1.38618,-0.443453,0.0423558
1.40642,-0.606865,0.0267371
1.41054,-0.451246,-0.094913
1.43392,-0.703713,-0.0930224
1.39105,-0.521198,0.0865109
1.38712,-0.598538,0.0615494
1.41809,-0.531329,-0.0705412
1.42671,-0.615622,-0.0814348
1.40846,-0.450579,-0.0602468
1.40801,-0.527552,-0.0349878
1.38119,-0.447178,-0.0253409
1.41491,-0.616396,-0.0449158
1.39531,-0.528359,0
1.42678,-0.540274,-0.237355
1.43328,-0.624399,-0.198999
1.3966,-0.452167,0.00853189
1.41549,-0.616647,-0.00897359
1.43936,-0.545037,-0.165786
1.39494,-0.528216,0.0347086
1.41431,-0.53555,-0.105751
1.4364,-0.625758,-0.127905
1.38462,-0.448289,0.0423558
1.41163,-0.614966,0.0268767
1.40516,-0.454938,-0.0946572
1.43146,-0.708714,-0.0930224
1.38548,-0.524637,0.0862783
1.38136,-0.60178,0.0613866
1.41996,-0.537691,-0.0707273
1.43188,-0.623789,-0.0818534
1.39927,-0.453031,-0.0599211
1.41364,-0.535296,-0.0351739
1.39499,-0.456491,-0.0256201
1.41297,-0.620838,-0.0449158
1.40112,-0.535596,0
1.43246,-0.547576,-0.238585
1.43858,-0.632092,-0.200009
1.39517,-0.456552,0.00853189
1.42087,-0.624308,-0.00902009
1.43021,-0.546716,-0.164929
1.40074,-0.535451,0.0348947
1.42007,-0.54284,-0.106309
1.43443,-0.630268,-0.127905
1.37941,-0.451393,0.0422395
1.40237,-0.61618,0.0267371
1.39993,-0.458108,-0.0944013
1.43637,-0.716774,-0.0934876
1.39502,-0.533264,0.086976
1.422,-0.543576,-0.0709134
1.42626,-0.626677,-0.0816441
1.40544,-0.459911,-0.0602468
1.41568,-0.541163,-0.0352669
1.38579,-0.458843,-0.0254805
1.41445,-0.627388,-0.0450321
1.39924,-0.540484,0
1.43791,-0.555421,-0.239815
1.39357,-0.46142,0.00853189
1.40771,-0.624399,-0.00895035
1.41345,-0.545973,-0.163216
1.40259,-0.541778,0.0349878
1.42189,-0.549232,-0.106588
1.43586,-0.636887,-0.12823
1.38921,-0.459975,0.0425885
1.40021,-0.621071,0.0267371
1.39832,-0.462992,-0.0944013
1.43029,-0.719988,-0.093255
1.38198,-0.533814,0.0862783
1.42382,-0.549976,-0.0710996
1.43502,-0.636511,-0.0822721
1.40382,-0.464814,-0.0602468
1.41005,-0.54466,-0.0351739
1.38781,-0.465432,-0.0255503
1.40108,-0.627908,-0.0446831
1.40088,-0.547308,0
1.43209,-0.5595,-0.2392
1.39558,-0.468039,0.00855514
1.4126,-0.633071,-0.00899684
1.42987,-0.558632,-0.165358
1.39678,-0.545705,0.0348947
1.41977,-0.554687,-0.106588
1.43705,-0.644026,-0.128556
1.38364,-0.464035,0.0424722
1.40146,-0.628079,0.0268069
1.40789,-0.472166,-0.0951688
1.43464,-0.729093,-0.0937201
1.38735,-0.542023,0.0867434
1.41425,-0.552531,-0.0707273
1.43621,-0.64365,-0.0824815
1.40203,-0.470201,-0.0602468
1.41168,-0.551526,-0.0352669
1.39013,-0.471073,-0.0256201
1.40275,-0.633954,-0.0447994
1.38799,-0.547304,0
1.43768,-0.566896,-0.24043
1.39411,-0.472421,0.00855514
1.41061,-0.637506,-0.00899684
1.40961,-0.555827,-0.163216
1.4025,-0.553024,0.0350808
1.4106,-0.556217,-0.10603
1.43502,-0.648538,-0.128556
1.38975,-0.470946,0.0427049
1.40677,-0.635773,0.0269465
1.41018,-0.477868,-0.0954247
1.38936,-0.547843,0.086976
1.41994,-0.559903,-0.0710996
1.43418,-0.648159,-0.0824815
1.4119,-0.478451,-0.0607353
1.41366,-0.557425,-0.03536
1.39226,-0.47722,-0.0256899
1.41144,-0.643824,-0.0451485
1.40094,-0.558067,0
1.43936,-0.573374,-0.241045
1.39623,-0.478581,0.00857839
1.42293,-0.649066,-0.00908983
1.43722,-0.572519,-0.166643
1.39684,-0.556436,0.0349878
1.41977,-0.565568,-0.106867
1.43274,-0.653543,-0.128556
1.38054,-0.473201,0.0424722
1.40454,-0.640679,0.0269465
1.40472,-0.481493,-0.0951688
1.39486,-0.555645,0.0874411
1.41427,-0.563377,-0.0709134
1.43191,-0.653161,-0.0824815
1.40644,-0.482081,-0.0605724
1.41542,-0.563836,-0.035453
1.39058,-0.482077,-0.0256899
1.40555,-0.647075,-0.0450321
1.39898,-0.562954,0
1.43002,-0.575444,-0.239815
1.39077,-0.482142,0.00855514
1.42065,-0.654029,-0.00908983
1.43521,-0.577532,-0.166643
1.40231,-0.564295,0.0351739
1.41778,-0.57052,-0.106867
1.4377,-0.661875,-0.129207
1.38265,-0.479327,0.0425885
1.40304,-0.486393,-0.0951688
1.39661,-0.562002,0.0876736
1.41971,-0.571294,-0.0712857
1.43687,-0.661496,-0.0829002
1.40475,-0.486987,-0.0605724
1.41344,-0.568773,-0.035453
1.38503,-0.485846,-0.0256201
1.40679,-0.653908,-0.0451485
1.40061,-0.569584,0
1.43522,-0.583659,-0.241045
1.39277,-0.48856,0.00857839
1.41462,-0.657546,-0.00906659
1.44045,-0.585785,-0.1675
1.40023,-0.56943,0.0351739
1.41568,-0.575713,-0.106867
1.43888,-0.66882,-0.129532
1.38466,-0.485715,0.0427049
1.40501,-0.492854,-0.0954247
1.39455,-0.567117,0.0876736
1.4139,-0.574988,-0.0710996
1.4272,-0.66339,-0.0824815
1.40673,-0.493455,-0.0607353
1.41876,-0.576963,-0.0356391
1.38324,-0.49092,-0.0256201
1.40077,-0.657361,-0.0450321
1.40222,-0.576235,0
1.39851,-0.496338,0.00862488
1.4122,-0.662726,-0.00906659
1.41622,-0.58199,-0.164929
1.39814,-0.574559,0.0351739
1.41725,-0.582414,-0.107146
1.43642,-0.674089,-0.129532
1.39041,-0.493461,0.0429376
1.40696,-0.499335,-0.0956805
1.38876,-0.570706,0.0874411
1.40439,-0.577129,-0.0707273
1.4356,-0.673708,-0.0831095
1.40491,-0.498608,-0.0607353
1.40923,-0.579119,-0.035453
1.38923,-0.497962,-0.0257598
1.40954,-0.666888,-0.0453812
1.3967,-0.579105,0
1.38941,-0.498029,0.00857839
1.42096,-0.672291,-0.00913633
1.44745,-0.600146,-0.168785
1.40371,-0.582012,0.03536
1.4191,-0.588392,-0.107425
1.4415,-0.682009,-0.130183
1.39261,-0.499176,0.043054
1.4129,-0.506447,-0.0961922
1.39065,-0.576596,0.0876736
1.40996,-0.584599,-0.0710996
1.43348,-0.678215,-0.0831095
1.41086,-0.505716,-0.0610609
1.4148,-0.586606,-0.0356391
1.39124,-0.504171,-0.0258296
1.4072,-0.671804,-0.0453812
1.39467,-0.583977,0
1.39895,-0.506965,0.00864813
1.40056,-0.668631,-0.00902009
1.43067,-0.59905,-0.167071
1.40905,-0.589997,0.0355461
1.41336,-0.591801,-0.107146
1.43551,-0.685319,-0.129858
1.38334,-0.50131,0.0428213
1.41487,-0.512735,-0.096448
1.38126,-0.578362,0.0872085
1.40791,-0.589517,-0.0710996
1.4311,-0.683214,-0.0831095
1.40909,-0.510638,-0.0610609
1.41643,-0.593086,-0.0357322
1.38938,-0.509266,-0.0258296
