1.24238,0.126197,-0.134514
1.2625,0.00440695,-0.117853
1.23332,0.125276,0.0288463
1.24391,0.00434204,0.0144815
1.24256,0.126214,-0.0873351
1.25808,0.0659333,-0.102845
1.22159,0.184747,0.0359559
1.2461,0.0653053,0.0217806
1.22749,0.185641,-0.0795632
1.25786,0.00439074,-0.0732552
1.23554,0.125501,0.0723249
1.23328,0.0646336,0.0503142
1.24424,0.126385,-0.058257
1.2366,0.0648076,-0.0648966
1.22841,0.124777,0.151605
1.23021,0.0644727,0.100566
1.22504,0.18527,-0.050477
1.23774,0.125725,0.333359
1.23001,0.0644619,0.22457
1.24128,0.126084,-0.0290324
1.22651,0.181116,-0.021641
1.24199,0.0607436,-0.0361886
1.2229,0.119906,-0.343978
1.24581,0.0609305,-0.249461
1.23806,0.121393,0
1.25591,2.24575e-07,-0.0146212
1.23121,0.120722,-0.192467
1.25635,0.061446,-0.160108
1.23459,0.182309,0.00725327
1.24649,0.0609637,-0.00725327
1.24282,0.121859,-0.134514
1.25455,2.2433e-07,-0.11711
1.23375,0.12097,0.0288463
1.24792,2.23145e-07,0.0145281
1.24299,0.121876,-0.0873351
1.25034,0.0611521,-0.102194
1.22222,0.180482,0.0359559
1.23833,0.0605647,0.021641
1.22814,0.181355,-0.0795632
1.26586,2.26353e-07,-0.0737203
1.22802,0.120409,0.0718598
1.2335,0.0603285,0.0503142
1.23672,0.121262,-0.0578847
1.24081,0.0606861,-0.0651059
1.23279,0.120876,0.152093
1.22645,0.0599836,0.100241
1.21777,0.179825,-0.0501514
1.23817,0.121404,0.333359
1.23022,0.0601682,0.22457
1.24171,0.121751,-0.0290324
1.22321,0.17605,-0.0215712
1.2462,0.056372,-0.036305
1.21566,0.1147,-0.341822
1.26562,0.0572504,-0.253384
1.24248,0.117231,0
1.25591,-0.00460266,-0.0146212
1.23558,0.11658,-0.193082
1.24467,0.0563031,-0.158593
1.21941,0.175504,0.00716028
1.25869,0.0569372,-0.00732301
1.25513,0.118424,-0.135799
1.2625,-0.00462683,-0.117853
1.24215,0.117199,0.0290324
1.25191,-0.004588,0.0145746
1.2474,0.117695,-0.0876141
1.25056,0.0565692,-0.102194
1.21892,0.175432,0.0358395
1.23455,0.0558451,0.0215712
1.22484,0.176284,-0.0793074
1.24987,-0.00458055,-0.0727901
1.24436,0.117408,0.0727901
1.23771,0.055988,0.050477
1.24114,0.117104,-0.0580708
1.253,0.0566796,-0.065734
1.24508,0.117476,0.153555
1.23861,0.0560288,0.101217
1.22238,0.17593,-0.0503142
1.23861,0.116866,0.333359
1.2383,0.0560148,0.226005
1.25011,0.11795,-0.0292185
1.21985,0.171222,-0.0215014
1.2384,0.0516879,-0.0360723
1.22372,0.111152,-0.343978
1.26189,0.0526684,-0.252599
1.23492,0.112169,0
1.25588,-0.00898691,-0.0146212
1.23205,0.111908,-0.192467
1.24486,0.0519577,-0.158593
1.2319,0.172914,0.00723002
1.2429,0.0518757,-0.00723002
1.24366,0.112963,-0.134514
1.26248,-0.00903411,-0.117853
1.24653,0.113224,0.0291255
1.25588,-0.00898691,0.0146212
1.24383,0.112979,-0.0873351
1.25473,0.0523696,-0.102519
1.22744,0.172288,0.0360723
1.23873,0.0517019,0.021641
1.2215,0.171453,-0.0790515
1.24985,-0.00894374,-0.0727901
1.22885,0.111618,0.0718598
1.23789,0.0516669,0.050477
1.2495,0.113493,-0.0584431
1.2492,0.0521386,-0.0655246
1.23362,0.112051,0.152093
1.22685,0.0512058,0.100241
1.22694,0.172218,-0.050477
1.24671,0.11324,0.335429
1.23849,0.0516916,0.226005
1.24255,0.112862,-0.0290324
1.21645,0.166634,-0.0214316
1.23057,0.0472742,-0.0358395
1.22025,0.106758,-0.3429
1.2503,0.048032,-0.250246
1.23927,0.108422,0
1.25985,-0.0131931,-0.0146678
1.23241,0.107822,-0.192467
1.24899,0.0479819,-0.159098
1.23247,0.168828,0.00723002
1.25106,0.0480611,-0.00727652
1.24402,0.108838,-0.134514
1.25846,-0.0131786,-0.117481
1.23893,0.108393,0.0289393
1.24785,-0.0130675,0.0145281
1.24817,0.109201,-0.0876141
1.25888,0.0483617,-0.102845
1.23593,0.169302,0.036305
1.24289,0.0477476,0.0217108
1.22997,0.168485,-0.0795632
1.24582,-0.0130463,-0.0725575
1.23717,0.108239,0.0723249
1.23407,0.0474084,0.0503142
1.24588,0.109001,-0.058257
1.24138,0.0476894,-0.0651059
1.24189,0.108652,0.153068
1.23099,0.0472904,0.100566
1.22355,0.167606,-0.0503142
1.22783,0.107422,0.330253
1.23079,0.0472825,0.22457
1.2469,0.10909,-0.0291255
1.21703,0.162386,-0.0214316
1.23872,0.0432571,-0.0360723
1.22445,0.10282,-0.343978
1.24654,0.0435302,-0.249461
1.23964,0.104095,0
1.25579,-0.0175352,-0.0146212
1.23672,0.10385,-0.193082
1.25312,0.04376,-0.159603
1.22909,0.163995,0.00720677
1.25122,0.0436935,-0.00727652
1.24836,0.104828,-0.134942
1.25841,-0.0175717,-0.117481
1.24329,0.104402,0.0290324
1.24779,-0.0174235,0.0145281
1.24059,0.104176,-0.0870561
1.25107,0.0436885,-0.102194
1.22859,0.163929,0.0360723
1.24305,0.0434084,0.0217108
1.22659,0.163662,-0.0793074
1.25375,-0.0175068,-0.0730226
1.23754,0.103919,0.0723249
1.23822,0.0432396,0.050477
1.24626,0.104651,-0.058257
1.24553,0.043495,-0.0653153
1.2304,0.103319,0.151605
1.23115,0.0429928,0.100566
1.22809,0.163862,-0.050477
1.2282,0.103135,0.330253
1.23488,0.0431229,0.225287
1.25126,0.105071,-0.0292185
1.22158,0.158439,-0.0215014
1.24287,0.0388413,-0.0361886
1.22482,0.0983314,-0.343978
1.24669,0.0389608,-0.249461
1.23204,0.0989106,0
1.25572,-0.0221381,-0.0146212
1.22921,0.0986838,-0.191852
1.25327,0.0391664,-0.159603
1.23365,0.160003,0.00723002
1.25936,0.0393568,-0.00732301
1.25666,0.100888,-0.135799
1.26232,-0.0222544,-0.117853
1.24366,0.0998439,0.0290324
1.24372,-0.0219266,0.0144815
1.23301,0.098989,-0.086498
1.25521,0.039227,-0.102519
1.22918,0.159424,0.0360723
1.2472,0.0389767,0.0217806
1.22718,0.159165,-0.0793074
1.25368,-0.0221022,-0.0730226
1.24189,0.099702,0.0725575
1.24236,0.0388255,0.0506399
1.25062,0.100402,-0.0584431
1.24568,0.0389292,-0.0653153
1.23472,0.0991265,0.152093
1.22333,0.0382308,0.0999156
1.22472,0.158845,-0.0503142
1.22857,0.0986322,0.330253
1.23109,0.0384734,0.22457
1.24366,0.0998439,-0.0290324
1.22607,0.154888,-0.0215712
1.24299,0.0347198,-0.0361886
1.22514,0.0942694,-0.343978
1.24289,0.0347171,-0.248677
1.24432,0.0957454,0
1.26364,-0.0264694,-0.0147143
1.23347,0.0949105,-0.192467
1.25736,0.0351213,-0.160108
1.22623,0.154909,0.00718353
1.25949,0.0351807,-0.00732301
1.25303,0.0964151,-0.135371
1.25825,-0.0263566,-0.117481
1.24399,0.0957194,0.0290324
1.25164,-0.0262181,0.0145746
1.24925,0.0961244,-0.0876141
1.25932,0.0351759,-0.102845
1.2297,0.155347,0.0360723
1.24333,0.0347292,0.0217108
1.21978,0.154094,-0.0787957
1.25759,-0.0263428,-0.0732552
1.24222,0.0955834,0.0725575
1.24248,0.0347057,0.0506399
1.25094,0.0962547,-0.0584431
1.2498,0.03491,-0.0655246
1.23901,0.0953363,0.15258
1.23142,0.0343967,0.100566
1.22524,0.154783,-0.0503142
1.23274,0.0948543,0.331288
1.24302,0.0347206,0.226722
1.24797,0.0960262,-0.0291255
1.21866,0.149633,-0.0214316
1.2471,0.0304787,-0.036305
1.22546,0.0899926,-0.343978
1.25085,0.0305703,-0.250246
1.23268,0.0905227,0
1.25954,-0.0307822,-0.0146678
1.2338,0.0906046,-0.192467
1.25351,0.0306354,-0.159603
1.22677,0.150628,0.00718353
1.2556,0.0306866,-0.00729976
1.24939,0.0917497,-0.134942
1.25815,-0.0307483,-0.117481
1.24032,0.0910839,0.0289393
1.25954,-0.0307822,0.0146678
1.25753,0.0923479,-0.0881722
1.25943,0.0307802,-0.102845
1.22627,0.150567,0.0359559
1.24744,0.030487,0.0217806
1.22824,0.150809,-0.0793074
1.2535,-0.0306346,-0.0730226
1.23458,0.090662,0.0720924
1.23061,0.0300758,0.0501514
1.24729,0.0915952,-0.058257
1.24991,0.0305474,-0.0655246
1.23933,0.091011,0.15258
1.23153,0.0300983,0.100566
1.2337,0.15148,-0.0506399
1.22921,0.0902679,0.330253
1.23133,0.0300933,0.22457
1.24032,0.0910839,-0.0289393
1.2152,0.144904,-0.0213617
1.2432,0.0260413,-0.0361886
1.22577,0.085714,-0.343978
1.25879,0.0263678,-0.251815
1.23698,0.086498,0
1.26342,-0.0352906,-0.0147143
1.24593,0.087124,-0.194311
1.25361,0.0262593,-0.159603
1.23126,0.146818,0.00720677
1.2597,0.0263869,-0.00732301
1.2497,0.0873876,-0.134942
1.25406,-0.035029,-0.11711
1.24063,0.0867535,0.0289393
1.25143,-0.0349556,0.0145746
1.24989,0.0874007,-0.0876141
1.25953,0.0263834,-0.102845
1.22679,0.146285,0.0359559
1.24754,0.0261321,0.0217806
1.22479,0.146048,-0.0790515
1.2494,-0.0348988,-0.0727901
1.2309,0.0860731,0.0718598
1.2347,0.0258633,0.0503142
1.25557,0.0877979,-0.0586292
1.24202,0.0260166,-0.0651059
1.23964,0.0866841,0.15258
1.23163,0.0257989,0.100566
1.22629,0.146226,-0.0503142
1.24108,0.0867848,0.333359
1.24323,0.0260418,0.226722
1.24462,0.0870325,-0.0290324
1.22762,0.14204,-0.0215712
1.25128,0.0218408,-0.0364214
1.22222,0.0811792,-0.3429
1.25103,0.0218364,-0.250246
1.23328,0.0819142,0
1.26329,-0.0397009,-0.0147143
1.23834,0.0822502,-0.193082
1.25369,0.0218829,-0.159603
1.23176,0.142519,0.00720677
1.24779,0.0217798,-0.00725327
1.25794,0.0835516,-0.135799
1.24597,-0.0391564,-0.116366
1.24891,0.0829521,0.0291255
1.2433,-0.0390727,0.0144815
1.25019,0.0830369,-0.0876141
1.25962,0.0219863,-0.102845
1.23126,0.142461,0.0360723
1.25162,0.0218467,0.0218504
1.22926,0.14223,-0.0793074
1.24927,-0.0392602,-0.0727901
1.23518,0.0820402,0.0720924
1.23878,0.0216227,0.050477
1.25587,0.0834143,-0.0586292
1.23412,0.0215412,-0.0646873
1.23201,0.0818298,0.151605
1.23171,0.0214993,0.100566
1.23473,0.142863,-0.0506399
1.23752,0.0821957,0.332324
1.23544,0.0215643,0.225287
1.24492,0.0826871,-0.0290324
1.22414,0.137309,-0.0215014
1.24735,0.0174179,-0.036305
1.22634,0.077155,-0.343978
1.26286,0.0176345,-0.252599
1.22558,0.0771072,0
1.25115,-0.0436908,-0.0145746
1.23468,0.0776797,-0.192467
1.25773,0.0175628,-0.160108
1.23623,0.138665,0.00723002
1.25986,0.0175925,-0.00732301
1.25028,0.0786615,-0.134942
1.26572,-0.0441995,-0.118225
1.24919,0.0785929,0.0291255
1.24316,-0.0434116,0.0144815
1.2425,0.0781721,-0.0870561
1.25171,0.0174788,-0.102194
1.21983,0.136826,0.0357232
1.25169,0.0174785,0.0218504
1.22975,0.137939,-0.0793074
1.2571,-0.0438985,-0.0732552
1.24343,0.0782305,0.0725575
1.24285,0.017355,0.0506399
1.25216,0.0787799,-0.0584431
1.25016,0.0174572,-0.0655246
1.24418,0.0782775,0.153068
1.23577,0.0172562,0.100892
1.22331,0.137216,-0.0501514
1.24551,0.0783615,0.334394
1.23551,0.0172525,0.225287
1.25318,0.078844,-0.0292185
1.22858,0.133467,-0.0215712
1.2474,0.0130634,-0.036305
1.22275,0.0726451,-0.3429
1.259,0.0131848,-0.251815
1.24181,0.0737773,0
1.25099,-0.0480582,-0.0145746
1.23494,0.0733691,-0.192467
1.26175,0.0132136,-0.160613
1.23273,0.133917,0.00720677
1.24791,0.0130687,-0.00725327
1.25452,0.0745322,-0.135371
1.26158,-0.0484649,-0.117853
1.24547,0.0739945,0.0290324
1.25099,-0.0480582,0.0145746
1.25074,0.0743075,-0.0876141
1.25974,0.0131926,-0.102845
1.22825,0.133431,0.0359559
1.24774,0.0130669,0.0217806
1.23022,0.133645,-0.0793074
1.25694,-0.0482867,-0.0732552
1.23174,0.0731788,0.0718598
1.2389,0.0129744,0.050477
1.24844,0.0741713,-0.058257
1.24622,0.013051,-0.0653153
1.23255,0.0732273,0.151605
1.23183,0.0129003,0.100566
1.23173,0.133808,-0.050477
1.23807,0.0735548,0.332324
1.24343,0.0130218,0.226722
1.24547,0.0739945,-0.0290324
1.229,0.129607,-0.0215712
1.25543,0.00920335,-0.0365377
1.23451,0.0694527,-0.346135
1.25903,0.00922972,-0.251815
1.24204,0.0698759,0
1.26282,-0.0524861,-0.0147143
1.23911,0.0697113,-0.193082
1.25782,0.00922082,-0.160108
1.22916,0.129624,0.00718353
1.24795,0.00914845,-0.00725327
1.25078,0.0703675,-0.134942
1.26142,-0.0524278,-0.117853
1.25767,0.0707555,0.0293116
1.24684,-0.0518217,0.0145281
1.25096,0.0703781,-0.0876141
1.25579,0.00920594,-0.102519
1.23264,0.129991,0.0360723
1.25178,0.00917653,0.0218504
1.22667,0.129361,-0.0790515
1.25279,-0.0520692,-0.0730226
1.23994,0.0697577,0.0723249
1.24294,0.00911172,0.0506399
1.25665,0.0706979,-0.0586292
1.25425,0.00919463,-0.065734
1.24467,0.070024,0.153068
1.22788,0.00900137,0.100241
1.22817,0.129519,-0.0503142
1.23829,0.0696652,0.332324
1.2356,0.00905792,0.225287
1.24569,0.0700816,-0.0290324
1.22546,0.12491,-0.0215014
1.24746,0.00478997,-0.036305
1.22706,0.0647368,-0.343978
1.2669,0.00486461,-0.253384
1.25026,0.0659611,0
1.25864,-0.0567141,-0.0146678
1.2354,0.065177,-0.192467
1.26181,0.00484506,-0.160613
1.23359,0.125738,0.00720677
1.25597,0.00482264,-0.00729976
1.25498,0.0662103,-0.135371
1.25725,-0.0566517,-0.117481
1.24194,0.0655219,0.0289393
1.25065,-0.056354,0.0145746
1.25917,0.0664311,-0.0881722
1.25581,0.00482203,-0.102519
1.22911,0.125282,0.0359559
1.2518,0.00480663,0.0218504
1.23108,0.125483,-0.0793074
1.2526,-0.0564423,-0.0730226
1.23618,0.0652184,0.0720924
1.23896,0.00475733,0.050477
1.24492,0.0656791,-0.0580708
1.25427,0.00481611,-0.065734
1.24491,0.0656786,0.153068
1.23588,0.00474549,0.100892
1.23656,0.126042,-0.0506399
1.24238,0.0655455,0.333359
1.23956,0.00475961,0.226005
1.25392,0.0661539,-0.0292185
1.23385,0.121415,-0.021641
1.23948,0.000432953,-0.0360723
1.22727,0.0604534,-0.343978
1.25907,0.000439796,-0.251815
1.24249,0.0612031,0
1.26243,-0.061301,-0.0147143
1.23957,0.061059,-0.193082
1.25785,0.000439372,-0.160108
1.238,0.121824,0.00723002
1.26398,0.000441512,-0.00734626
1.25124,0.0616338,-0.134942
1.26103,-0.0612329,-0.117853
1.23816,0.0609898,0.0288463
1.25044,-0.060719,0.0145746
1.25142,0.061643,-0.0876141
1.2638,0.000441449,-0.10317
1.2375,0.121774,0.0361886
1.25581,0.000438659,0.0219202
1.23946,0.121967,-0.079819
1.2524,-0.0608141,-0.0730226
1.24438,0.0612961,0.0725575
1.24297,0.000434174,0.0506399
1.24514,0.0613334,-0.0580708
1.2423,0.000433938,-0.0651059
1.2372,0.0609423,0.152093
1.24386,0.000434486,0.101543
1.23699,0.121725,-0.0506399
1.25032,0.0615888,0.335429
1.23957,0.000432985,0.226005
1.25015,0.0615801,-0.0291255
1.23427,0.117107,-0.021641
1.25146,-0.00393164,-0.0364214
1.22748,0.0561687,-0.343978
1.25906,-0.0039555,-0.251815
1.2387,0.0566825,0
1.25422,-0.0652917,-0.0146212
1.23977,0.0567314,-0.193082
1.26181,-0.00396415,-0.160613
1.23444,0.117123,0.00720677
1.26397,-0.00397094,-0.00734626
1.25939,0.057629,-0.135799
1.2608,-0.0656347,-0.117853
1.24636,0.0570327,0.0290324
1.25022,-0.0650838,0.0145746
1.24764,0.0570916,-0.0873351
1.26379,-0.00397036,-0.10317
1.22995,0.116698,0.0359559
1.2518,-0.00393271,0.0218504
1.2359,0.117262,-0.0795632
1.25617,-0.0653933,-0.0732552
1.24858,0.0571342,0.0727901
1.23897,-0.00389238,0.050477
1.26131,0.057717,-0.0588153
1.24628,-0.00391537,-0.0653153
1.2374,0.0566229,0.152093
1.22791,-0.00385764,0.100241
1.22945,0.116651,-0.0503142
1.23956,-0.00389424,0.226005
1.25035,0.0572155,-0.0291255
1.23069,0.112435,-0.0215712
1.24744,-0.00827326,-0.036305
1.22767,0.051884,-0.343978
1.26296,-0.00837616,-0.252599
1.23889,0.0523585,0
1.25797,-0.069891,-0.0146678
1.23601,0.0522368,-0.192467
1.24989,-0.00828946,-0.159098
1.22687,0.112086,0.00716028
1.25595,-0.00832968,-0.00729976
1.25958,0.0532328,-0.135799
1.25659,-0.0698141,-0.117481
1.25055,0.0528509,0.0291255
1.24999,-0.0694472,0.0145746
1.25581,0.0530734,-0.0878932
1.25579,-0.00832864,-0.102519
1.22637,0.11204,0.0358395
1.23978,-0.00822245,0.021641
1.22835,0.112222,-0.0790515
1.25992,-0.069999,-0.0734877
1.25276,0.0529444,0.0730226
1.24294,-0.0082434,0.0506399
1.25751,0.0531454,-0.0586292
1.25026,-0.00829191,-0.0655246
1.23759,0.0523035,0.152093
1.23187,-0.00817,0.100566
1.23781,0.113086,-0.0506399
1.23954,-0.00822082,0.226005
1.24655,0.052682,-0.0290324
1.22709,0.107788,-0.0215014
1.25141,-0.0126684,-0.0364214
1.22784,0.047598,-0.343978
1.26292,-0.012785,-0.252599
1.25506,0.0486531,0
1.26571,-0.0747537,-0.0147609
1.24014,0.0480748,-0.193082
1.25779,-0.012733,-0.160108
1.23124,0.108152,0.00718353
1.25991,-0.0127545,-0.00732301
1.25976,0.0488354,-0.135799
1.27224,-0.0751396,-0.118968
1.25472,0.0486399,0.0292185
1.25772,-0.0742821,0.0146678
1.25599,0.0486891,-0.0878932
1.25974,-0.0127528,-0.102845
1.23472,0.108458,0.0360723
1.24775,-0.0126314,0.0217806
1.22874,0.107933,-0.0790515
1.25169,-0.073926,-0.0730226
1.23697,0.0479521,0.0720924
1.24291,-0.0125824,0.0506399
1.2537,0.0486004,-0.0584431
1.25022,-0.0126564,-0.0655246
1.2457,0.0482904,0.153068
1.23981,-0.012551,0.101217
1.23422,0.108414,-0.050477
1.24344,-0.0125877,0.226722
1.24273,0.0481752,-0.0289393
1.22746,0.103504,-0.0215014
1.25135,-0.0170363,-0.0364214
1.2203,0.0430404,-0.341822
1.25122,0.0441311,0
1.26145,-0.0789214,-0.0147143
1.2403,0.0437458,-0.193082
1.25377,-0.0170691,-0.159603
1.23559,0.10419,0.00720677
1.26386,-0.0172066,-0.00734626
1.25595,0.0442978,-0.135371
1.268,-0.0793311,-0.118597
1.24289,0.0438372,0.0289393
1.25746,-0.0786716,0.0146678
1.24817,0.0440236,-0.0873351
1.25969,-0.0171498,-0.102845
1.22712,0.103476,0.0358395
1.25169,-0.0170409,0.0218504
1.23706,0.104314,-0.0795632
1.25541,-0.0785439,-0.0732552
1.24511,0.0439157,0.0725575
1.23886,-0.0168662,0.050477
1.26185,0.0445058,-0.0588153
1.25416,-0.0170745,-0.065734
1.24586,0.0439421,0.153068
1.24375,-0.0169327,0.101543
1.23459,0.104106,-0.050477
1.24339,-0.0169278,0.226722
1.25088,0.0441191,-0.0291255
1.2318,0.0995412,-0.0215712
1.23929,-0.0211988,-0.0360723
1.22814,0.0390255,-0.343978
1.2628,-0.0216009,-0.252599
1.23937,0.0393824,0
1.26116,-0.0833239,-0.0147143
1.24439,0.0395419,-0.193697
1.2656,-0.0216488,-0.161118
1.23595,0.0998768,0.00720677
1.25979,-0.0215495,-0.00732301
1.26405,0.0401664,-0.136227
1.26771,-0.0837565,-0.118597
1.24703,0.0396257,0.0290324
1.24919,-0.0825328,0.0145746
1.24034,0.0394132,-0.0867771
1.25962,-0.0215466,-0.102845
1.24342,0.10048,0.036305
1.25163,-0.0214098,0.0218504
1.23344,0.099674,-0.0793074
1.25912,-0.0831886,-0.0734877
1.25723,0.0399499,0.0732552
1.23879,-0.0211902,0.050477
1.25401,0.0398473,-0.0584431
1.24611,-0.0213154,-0.0653153
1.23807,0.039341,0.152093
1.23571,-0.0211375,0.100892
1.23893,0.100118,-0.0506399
1.24725,-0.021335,0.22744
1.24703,0.0396257,-0.0290324
1.22817,0.0947185,-0.0215014
1.2472,-0.0259067,-0.036305
1.22828,0.0345241,-0.343978
1.26664,-0.0263104,-0.253384
1.24351,0.0349522,0
1.26484,-0.0882237,-0.0147609
1.23663,0.0347589,-0.192467
1.26155,-0.0262047,-0.160613
1.23232,0.0950389,0.00718353
1.25571,-0.0260834,-0.00729976
1.26021,0.0354217,-0.135799
1.25548,-0.0875707,-0.117481
1.24717,0.0350551,0.0290324
1.24489,-0.0868322,0.0145281
1.24447,0.0349792,-0.0870561
1.26352,-0.0262457,-0.10317
1.23182,0.0950003,0.0359559
1.25554,-0.0260798,0.0219202
1.23778,0.0954598,-0.0795632
1.25482,-0.0875248,-0.0732552
1.25338,0.0352297,0.0730226
1.2467,-0.0258962,0.0508027
1.26213,0.0354757,-0.0588153
1.24602,-0.0258822,-0.0653153
1.23424,0.0346917,0.151605
1.23164,-0.0255834,0.100566
1.23929,0.0955764,-0.0506399
1.25503,-0.0260694,0.228875
1.25516,0.0352799,-0.0292185
1.23248,0.0907241,-0.0215712
1.2511,-0.0303574,-0.0364214
1.23224,0.0303309,-0.345056
1.26654,-0.0307319,-0.253384
1.24362,0.030611,0
1.25655,-0.0920542,-0.0146678
1.24465,0.0306362,-0.193697
1.25748,-0.0305122,-0.160108
1.23264,0.0907364,0.00718353
1.25961,-0.0305638,-0.00732301
1.25635,0.0309243,-0.135371
1.26311,-0.0925349,-0.118225
1.25528,0.030898,0.0292185
1.25655,-0.0920542,0.0146678
1.24857,0.0307329,-0.0873351
1.22816,0.090406,0.0358395
1.26344,-0.0306567,0.0220598
1.23412,0.0908452,-0.0793074
1.26645,-0.09278,-0.0739528
1.2495,0.0307558,0.0727901
1.2426,-0.0301512,0.0506399
1.24627,0.0306762,-0.0580708
1.2579,-0.0305224,-0.0659433
1.23435,0.0303829,0.151605
1.23553,-0.0299795,0.100892
1.23563,0.0909561,-0.050477
1.25128,0.0307996,-0.0291255
1.22878,0.0863558,-0.0215014
1.25099,-0.0345064,-0.0364214
1.23233,0.0262441,-0.345056
1.26251,-0.034824,-0.252599
1.24772,0.0265717,0
1.26421,-0.0968318,-0.0147609
1.24079,0.0264241,-0.193082
1.25737,-0.0346824,-0.160108
1.23294,0.0866479,0.00718353
1.2555,-0.0346307,-0.00729976
1.25645,0.0267576,-0.135371
1.2628,-0.0967234,-0.118225
1.24738,0.0265645,0.0290324
1.26022,-0.0965264,0.0147143
1.26064,0.0268468,-0.0881722
1.27129,-0.0350661,-0.103821
1.24041,0.0871733,0.0361886
1.25133,-0.0345158,0.0218504
1.2384,0.0870317,-0.0795632
1.25021,-0.0957597,-0.0730226
1.24561,0.0265267,0.0725575
1.24649,-0.0343822,0.0508027
1.25436,0.026713,-0.0584431
1.25779,-0.034694,-0.0659433
1.25032,0.0266272,0.153555
1.23542,-0.0340768,0.100892
1.23991,0.0871379,-0.0506399
1.25138,0.0266496,-0.0291255
1.23706,0.0825989,-0.021641
1.24687,-0.0387488,-0.036305
1.22857,0.0218737,-0.343978
1.27414,-0.0395963,-0.254952
1.2558,0.0223586,0
1.26785,-0.101564,-0.0148075
1.24878,0.0222335,-0.194311
1.26518,-0.0393177,-0.161118
1.24122,0.0828766,0.00723002
1.25137,-0.0388888,-0.00727652
1.26051,0.0224424,-0.135799
1.25848,-0.100813,-0.117853
1.24746,0.0222102,0.0290324
1.2519,-0.100286,0.0146212
1.26072,0.0224462,-0.0881722
1.26717,-0.0393797,-0.103496
1.23273,0.0823102,0.0359559
1.2592,-0.039132,0.02199
1.23869,0.0827083,-0.0795632
1.25385,-0.100442,-0.0732552
1.24569,0.0221786,0.0725575
1.23837,-0.0384848,0.050477
1.26243,0.0224766,-0.0588153
1.25767,-0.0390843,-0.0659433
1.25041,0.0222626,0.153555
1.24326,-0.0386367,0.101543
1.24021,0.0828093,-0.0506399
1.25946,0.0224237,-0.0293116
1.23335,0.0780278,-0.0215712
1.25871,-0.0435154,-0.0366541
1.22864,0.0175851,-0.343978
1.26223,-0.043637,-0.252599
1.24387,0.0178031,0
1.26749,-0.105989,-0.0148075
1.2449,0.0178178,-0.193697
1.269,-0.0438709,-0.161623
1.2375,0.0782909,0.00720677
1.26322,-0.0436713,-0.00734626
1.2566,0.0179853,-0.135371
1.26606,-0.105869,-0.118597
1.23954,0.0177411,0.0288463
1.25553,-0.104989,0.0146678
1.24882,0.017874,-0.0873351
1.27101,-0.0439404,-0.103821
1.24099,0.0785115,0.0361886
1.25906,-0.0435272,0.02199
1.23898,0.078384,-0.0795632
1.25747,-0.105151,-0.0734877
1.24975,0.0178873,0.0727901
1.24223,-0.0429454,0.0506399
1.25851,0.0180126,-0.0586292
1.25752,-0.0434741,-0.0659433
1.25048,0.0178977,0.153555
1.23914,-0.0428385,0.101217
1.24448,0.078732,-0.0508027
1.25553,0.01797,-0.0292185
1.23759,0.0741767,-0.021641
1.25057,-0.0473864,-0.0364214
1.23639,0.0135954,-0.346135
1.26208,-0.0478225,-0.252599
1.24792,0.0137222,0
1.26315,-0.109845,-0.0147609
1.24495,0.0136895,-0.193697
1.26091,-0.0477783,-0.160613
1.23776,0.0741868,0.00720677
1.26307,-0.04786,-0.00734626
1.25665,0.0138182,-0.135371
1.2657,-0.110067,-0.118597
1.25558,0.0138064,0.0292185
1.25518,-0.109152,0.0146678
1.24488,0.0136888,-0.0870561
1.26289,-0.0478531,-0.10317
1.23326,0.0739174,0.0359559
1.2669,-0.048005,0.0221297
1.23524,0.0740361,-0.0793074
1.2611,-0.109666,-0.0737203
1.24981,0.0137429,0.0727901
1.24208,-0.0470645,0.0506399
1.25856,0.0138391,-0.0586292
1.25737,-0.047644,-0.0659433
1.24656,0.0137072,0.153068
1.23899,-0.0469474,0.101217
1.23276,0.0738874,-0.0503142
1.25958,0.0138504,-0.0293116
1.22986,0.0694056,-0.0215014
1.25839,-0.0520821,-0.0366541
1.22873,0.00922167,-0.343978
1.26191,-0.0522277,-0.252599
1.25196,0.00939607,0
1.27072,-0.114974,-0.014854
1.24104,0.00931404,-0.193082
1.25678,-0.0520153,-0.160108
1.23402,0.0696404,0.00718353
1.2629,-0.0522687,-0.00734626
1.25272,0.00940172,-0.134942
1.26134,-0.114125,-0.118225
1.25163,0.00939352,0.0291255
1.25877,-0.113893,0.0147143
1.25291,0.00940312,-0.0876141
1.25873,-0.0520963,-0.102845
1.2415,0.0700626,0.0361886
1.25473,-0.0519308,0.0219202
1.2355,0.0697239,-0.0793074
1.26468,-0.114427,-0.0739528
1.25384,0.00941014,0.0730226
1.2459,-0.0515652,0.0508027
1.27059,0.00953582,-0.0591876
1.25321,-0.0518676,-0.065734
1.24263,0.00932603,0.15258
1.23483,-0.0511071,0.100892
1.23301,0.0695838,-0.0503142
1.25562,0.00942354,-0.0292185
1.23408,0.0653236,-0.0215712
1.25021,-0.0561158,-0.0364214
1.22875,0.00493255,-0.343978
1.26955,-0.056984,-0.254168
1.24799,0.00500978,0
1.26633,-0.119035,-0.0148075
1.24501,0.00499783,-0.193697
1.26055,-0.0565799,-0.160613
1.23825,0.0655438,0.00720677
1.25472,-0.056318,-0.00729976
1.25672,0.00504482,-0.135371
1.2649,-0.1189,-0.118597
1.25565,0.00504053,0.0292185
1.27031,-0.119409,0.014854
1.26091,0.00506165,-0.0881722
1.27049,-0.057026,-0.103821
1.23774,0.0655172,0.0360723
1.25455,-0.0563104,0.0219202
1.23573,0.0654108,-0.0793074
1.2603,-0.118468,-0.0737203
1.25387,0.00503336,0.0730226
1.2497,-0.0560931,0.0509655
1.26262,0.00506851,-0.0588153
1.26499,-0.0567791,-0.066362
1.2506,0.00502025,0.153555
1.23863,-0.0555959,0.101217
1.24522,0.0659131,-0.0508027
1.24365,0.00499237,-0.0289393
1.23031,0.0608179,-0.0215014
1.254,-0.0606728,-0.0365377
1.22876,0.000643378,-0.343978
1.26543,-0.0612257,-0.253384
1.252,0.000655546,0
1.26591,-0.123454,-0.0148075
1.24898,0.000653962,-0.194311
1.26431,-0.0611714,-0.161118
1.23847,0.0612212,0.00720677
1.2625,-0.061084,-0.00734626
1.26468,0.000662187,-0.136227
1.25655,-0.122542,-0.117853
1.25166,0.000655368,0.0291255
1.25795,-0.122678,0.0147143
1.25693,0.000658128,-0.0878932
1.27028,-0.0614605,-0.103821
1.23796,0.0611963,0.0360723
1.25434,-0.0606892,0.0219202
1.23595,0.0610968,-0.0793074
1.26385,-0.123254,-0.0739528
1.25787,0.000658619,0.0732552
1.24152,-0.0600687,0.0506399
1.26263,0.000661112,-0.0588153
1.26478,-0.0611944,-0.066362
1.24267,0.000650659,0.15258
1.23843,-0.0599192,0.101217
1.24544,0.0615661,-0.0508027
1.25566,0.000657462,-0.0292185
1.23451,0.0567065,-0.0215712
1.26177,-0.065464,-0.0367704
1.23261,-0.00365723,-0.345056
1.26521,-0.0656425,-0.253384
1.24799,-0.00370288,0
1.27343,-0.128677,-0.0149006
1.24502,-0.00369405,-0.193697
1.26805,-0.0657899,-0.161623
1.24666,0.0572648,0.00725327
1.26228,-0.0654906,-0.00734626
1.2607,-0.00374059,-0.135799
1.26404,-0.127728,-0.118597
1.25166,-0.00371375,0.0291255
1.25751,-0.127068,0.0147143
1.25294,-0.00371754,-0.0876141
1.26608,-0.0656877,-0.103496
1.23817,0.0568746,0.0360723
1.25812,-0.0652745,0.02199
1.24413,0.0571485,-0.079819
1.26341,-0.127665,-0.0739528
1.25387,-0.00372032,0.0730226
1.24529,-0.0646091,0.0508027
1.26662,-0.00375815,-0.0590015
1.25658,-0.065195,-0.0659433
1.24266,-0.00368706,0.15258
1.24617,-0.0646549,0.101868
1.24565,0.0572183,-0.0508027
1.25965,-0.00373748,-0.0293116
1.2347,0.0523969,-0.0215712
1.25754,-0.0696469,-0.0366541
1.23644,-0.00798469,-0.346135
1.26497,-0.0700585,-0.253384
1.25197,-0.00808501,0
1.26899,-0.132705,-0.014854
1.24895,-0.00806547,-0.194311
1.26781,-0.0702158,-0.161623
1.24286,0.0527432,0.00723002
1.27003,-0.0703388,-0.00739275
1.26466,-0.00816692,-0.136227
1.27151,-0.132968,-0.11934
1.25563,-0.00810864,0.0292185
1.26104,-0.131873,0.0147609
1.25291,-0.00809108,-0.0876141
1.25788,-0.0696658,-0.102845
1.23836,0.0525522,0.0360723
1.26187,-0.0698869,0.0220598
1.23635,0.0524669,-0.0793074
1.26296,-0.132074,-0.0739528
1.25385,-0.00809712,0.0730226
1.24905,-0.0691766,0.0509655
1.2666,-0.00817946,-0.0590015
1.26831,-0.0702436,-0.0665713
1.24661,-0.00805038,0.153068
1.23798,-0.0685635,0.101217
1.23786,0.0525309,-0.050477
1.25963,-0.00813447,-0.0293116
1.23488,0.0480867,-0.0215712
1.25729,-0.0740361,-0.0366541
1.24026,-0.0123389,-0.347213
1.26863,-0.0747042,-0.254168
1.25194,-0.0124552,0
1.26455,-0.136704,-0.0148075
1.24101,-0.0123464,-0.193082
1.26756,-0.0746409,-0.161623
1.24304,0.0484045,0.00723002
1.26579,-0.0745365,-0.00736951
1.26462,-0.0125813,-0.136227
1.26708,-0.136977,-0.118968
1.2636,-0.0125711,0.0294046
1.26852,-0.137134,0.014854
1.25288,-0.0124645,-0.0876141
1.26559,-0.0745249,-0.103496
1.23454,0.0480737,0.0359559
1.25763,-0.0740562,0.02199
1.24051,0.0483062,-0.0795632
1.26646,-0.136911,-0.0741854
1.25381,-0.0124738,0.0730226
1.24481,-0.0733012,0.0508027
1.25857,-0.0125212,-0.0586292
1.26008,-0.0742007,-0.0661527
1.24658,-0.0124018,0.153068
1.23773,-0.0728845,0.101217
1.24203,0.0483652,-0.0506399
1.2596,-0.0125314,-0.0293116
1.23504,0.0437759,-0.0215712
1.26101,-0.0786734,-0.0367704
1.23635,-0.0166164,-0.346135
1.26837,-0.0791321,-0.254168
1.25189,-0.0168252,0
1.26804,-0.141561,-0.014854
1.24886,-0.0167845,-0.194311
1.27125,-0.0793121,-0.162128
1.2392,0.0439235,0.00720677
1.26153,-0.0787054,-0.00734626
1.25662,-0.0168887,-0.135371
1.26659,-0.141399,-0.118968
1.25955,-0.0169281,0.0293116
1.26009,-0.140673,0.0147609
1.2648,-0.0169987,-0.0884512
1.26532,-0.0789422,-0.103496
1.2387,0.0439056,0.0360723
1.26136,-0.0786947,0.0220598
1.23668,0.0438343,-0.0793074
1.26598,-0.141331,-0.0741854
1.24178,-0.0166894,0.0723249
1.24853,-0.0778949,0.0509655
1.26651,-0.0170217,-0.0590015
1.25982,-0.0785988,-0.0661527
1.24653,-0.0167531,0.153068
1.24145,-0.0774527,0.101543
1.24219,0.0440294,-0.0506399
1.25155,-0.0168206,-0.0291255
1.23118,0.0393368,-0.0215014
1.25674,-0.0828118,-0.0366541
1.23244,-0.0208668,-0.345056
1.272,-0.083817,-0.254952
1.25582,-0.0212627,0
1.26356,-0.145529,-0.0148075
1.2488,-0.0211438,-0.194311
1.27097,-0.0837491,-0.162128
1.24334,0.0397253,0.00723002
1.26523,-0.0833714,-0.00736951
1.25655,-0.021275,-0.135371
1.26609,-0.14582,-0.118968
1.25948,-0.0213246,0.0293116
1.26356,-0.145529,0.0148075
1.25675,-0.0212784,-0.0878932
1.26902,-0.0836207,-0.103821
1.23884,0.0395815,0.0360723
1.26107,-0.0830972,0.0220598
1.24082,0.0396447,-0.0795632
1.26151,-0.145292,-0.0739528
1.24571,-0.0210915,0.0725575
1.24427,-0.0819898,0.0508027
1.26645,-0.0214426,-0.0590015
1.26751,-0.0835212,-0.0665713
1.2544,-0.0212386,0.154043
1.24913,-0.08231,0.102194
1.24633,0.0398207,-0.0508027
1.26348,-0.0213923,-0.0294046
1.23531,0.0351527,-0.0215712
1.26043,-0.0874749,-0.0367704
1.24006,-0.025326,-0.347213
1.26778,-0.087985,-0.254168
1.25974,-0.0257279,0
1.27496,-0.151353,-0.0149472
1.24871,-0.0255027,-0.194311
1.26671,-0.0879104,-0.161623
1.24348,0.035385,0.00723002
1.26893,-0.0880643,-0.00739275
1.26044,-0.0257423,-0.135799
1.26953,-0.150708,-0.11934
1.2554,-0.0256392,0.0292185
1.2551,-0.148995,0.0147143
1.25268,-0.0255837,-0.0876141
1.27667,-0.0886019,-0.104472
1.23897,0.0352569,0.0360723
1.26077,-0.0874986,0.0220598
1.24095,0.0353132,-0.0795632
1.26099,-0.149695,-0.0739528
1.24962,-0.0255213,0.0727901
1.25195,-0.086886,0.0511284
1.26636,-0.0258632,-0.0590015
1.25525,-0.0871155,-0.0659433
1.25432,-0.0256172,0.154043
1.24485,-0.0863938,0.101868
1.24247,0.0353563,-0.0506399
1.2514,-0.0255576,-0.0291255
1.23543,0.0306248,-0.0215712
1.26409,-0.0923855,-0.0368868
1.23996,-0.0298708,-0.347213
1.27136,-0.092917,-0.254952
1.25963,-0.0303449,0
1.26646,-0.155053,-0.014854
1.24466,-0.0299842,-0.193697
1.27033,-0.0928418,-0.162128
1.2476,0.0309263,0.00725327
1.27258,-0.0930061,-0.007416
1.26829,-0.0305534,-0.136656
1.27687,-0.156328,-0.120084
1.26329,-0.0304329,0.0294046
1.25852,-0.154081,0.0147609
1.25657,-0.0302709,-0.0878932
1.26043,-0.0921182,-0.10317
1.23909,0.0307156,0.0360723
1.24848,-0.0912445,0.0218504
1.24107,0.0307646,-0.0795632
1.26044,-0.154316,-0.0739528
1.25351,-0.0301974,0.0730226
1.25162,-0.091474,0.0511284
1.27425,-0.0306969,-0.0593737
1.26289,-0.0922979,-0.066362
1.24628,-0.030023,0.153068
1.24055,-0.0906652,0.101543
1.23859,0.0307031,-0.050477
1.2473,-0.0300477,-0.0290324
1.23953,0.0266137,-0.021641
1.26378,-0.0965769,-0.0368868
1.2437,-0.034088,-0.348291
1.27105,-0.0971324,-0.254952
1.25153,-0.0343026,0
1.27387,-0.16025,-0.0149472
1.24851,-0.0342197,-0.194311
1.25815,-0.0961468,-0.160613
1.24769,0.026789,0.00725327
1.27227,-0.0972257,-0.007416
1.26421,-0.0346501,-0.136227
1.26844,-0.159567,-0.11934
1.25919,-0.0345124,0.0293116
1.26197,-0.158752,0.0148075
1.26045,-0.034547,-0.0881722
1.26807,-0.096905,-0.103821
1.23919,0.0266065,0.0360723
1.25615,-0.0959936,0.02199
1.24117,0.0266489,-0.0795632
1.26784,-0.159491,-0.074418
1.26538,-0.0346822,0.0737203
1.24733,-0.0953195,0.0509655
1.25417,-0.0343749,-0.0584431
1.26258,-0.0964853,-0.066362
1.25014,-0.0342645,0.153555
1.24422,-0.0950823,0.101868
1.23869,0.0265957,-0.050477
1.25519,-0.0344029,-0.0292185
1.23161,0.022143,-0.0215014
1.26742,-0.101306,-0.0370032
1.24743,-0.0385481,-0.34937
1.27461,-0.101881,-0.255737
1.2514,-0.038671,0
1.27727,-0.165209,-0.0149937
1.25233,-0.0386997,-0.194926
1.25781,-0.100538,-0.160613
1.23978,0.0222898,0.00720677
1.25996,-0.10071,-0.00734626
1.25613,-0.0388171,-0.135371
1.26788,-0.163994,-0.11934
1.26306,-0.0390311,0.0294046
1.25744,-0.162643,0.0147609
1.26032,-0.0389466,-0.0881722
1.27567,-0.101966,-0.104472
1.24327,0.0223526,0.0361886
1.25979,-0.100696,0.0220598
1.23726,0.0222445,-0.0793074
1.26728,-0.163916,-0.074418
1.25727,-0.0388523,0.0732552
1.25097,-0.0999914,0.0511284
1.2702,-0.101529,-0.0667807
1.25001,-0.038628,0.153555
1.24388,-0.0994249,0.101868
1.24277,0.0223435,-0.0506399
1.25106,-0.0386606,-0.0291255
1.23568,0.0179016,-0.0215712
1.25909,-0.105065,-0.0367704
1.23573,-0.042505,-0.346135
1.25926,-0.043314,0
1.28065,-0.170193,-0.0150403
1.24824,-0.042935,-0.194311
1.26536,-0.105588,-0.161623
1.24785,0.0180779,0.00725327
1.26359,-0.10544,-0.00736951
1.26394,-0.0434751,-0.136227
1.2673,-0.168419,-0.11934
1.25492,-0.0431648,0.0292185
1.26479,-0.168086,0.014854
1.25619,-0.0432085,-0.0878932
1.26736,-0.105755,-0.103821
1.24334,0.0180126,0.0361886
1.26342,-0.105426,0.0221297
1.24132,0.0179834,-0.0795632
1.25878,-0.167286,-0.0739528
1.25713,-0.0432408,0.0732552
1.24265,-0.103693,0.0508027
1.26188,-0.0434045,-0.0588153
1.26984,-0.105962,-0.0667807
1.24987,-0.0429912,0.153555
1.24353,-0.103766,0.101868
1.24284,0.0180053,-0.0506399
1.25891,-0.0433023,-0.0293116
1.23574,0.0135882,-0.0215712
1.2627,-0.109806,-0.0368868
1.23558,-0.0468183,-0.346135
1.26996,-0.110437,-0.254952
1.2511,-0.0474065,0
1.27213,-0.173581,-0.0149472
1.24808,-0.0472919,-0.194311
1.26498,-0.110004,-0.161623
1.2439,0.013678,0.00723002
1.26321,-0.10985,-0.00736951
1.26378,-0.0478868,-0.136227
1.27065,-0.17338,-0.119712
1.25476,-0.0475451,0.0292185
1.25627,-0.171418,0.0147609
1.25204,-0.0474421,-0.0876141
1.2434,0.0136724,0.0361886
1.26304,-0.109835,0.0221297
1.24537,0.0136941,-0.079819
1.2661,-0.172759,-0.074418
1.25298,-0.0474775,0.0730226
1.25024,-0.108722,0.0511284
1.2737,-0.0482629,-0.0593737
1.26548,-0.110048,-0.0665713
1.25368,-0.0475041,0.154043
1.24713,-0.108452,0.102194
1.25089,0.0137548,-0.0509655
1.25876,-0.0476965,-0.0293116
1.24378,0.00911753,-0.0217108
1.25831,-0.114072,-0.0367704
1.23925,-0.0515065,-0.347213
1.27345,-0.115445,-0.255737
1.25492,-0.0521578,0
1.26752,-0.177687,-0.0149006
1.2479,-0.0518661,-0.194311
1.26852,-0.114998,-0.162128
1.24395,0.00911877,0.00723002
1.27077,-0.115202,-0.007416
1.27154,-0.0528487,-0.137084
1.27395,-0.178589,-0.120084
1.26656,-0.0526418,0.0294977
1.2596,-0.176577,0.0148075
1.25585,-0.0521964,-0.0878932
1.26658,-0.114822,-0.103821
1.24344,0.00911506,0.0361886
1.26263,-0.114464,0.0221297
1.24142,0.00910025,-0.0795632
1.26942,-0.177953,-0.0746505
1.26476,-0.052567,0.0737203
1.25381,-0.113665,0.0512912
1.26953,-0.052765,-0.0591876
1.26507,-0.114685,-0.0665713
1.24556,-0.051769,0.153068
1.25069,-0.113382,0.102519
1.24693,0.00914066,-0.0508027
1.26257,-0.0524758,-0.0294046
1.2398,0.00519331,-0.021641
1.2659,-0.118771,-0.0370032
1.24293,-0.0555715,-0.348291
1.27699,-0.119812,-0.256521
1.25874,-0.0562786,0
1.26696,-0.181668,-0.0149006
1.24773,-0.0557862,-0.194311
1.2721,-0.119353,-0.162633
1.23997,0.00519401,0.00720677
1.2704,-0.119193,-0.007416
1.26342,-0.0564878,-0.136227
1.28127,-0.183721,-0.120827
1.27039,-0.0567992,0.0295907
1.25904,-0.180533,0.0148075
1.25966,-0.0563197,-0.0881722
1.27415,-0.119545,-0.104472
1.24346,0.00520865,0.0361886
1.25828,-0.118056,0.0220598
1.24144,0.00520019,-0.0795632
1.26885,-0.18194,-0.0746505
1.26459,-0.0565401,0.0737203
1.25345,-0.117603,0.0512912
1.26935,-0.0567531,-0.0591876
1.26868,-0.119032,-0.0667807
1.25729,-0.0562138,0.15453
1.25033,-0.11731,0.102519
1.24695,0.00522328,-0.0508027
1.2584,-0.0562634,-0.0293116
1.23581,0.000862772,-0.0215712
1.25752,-0.122415,-0.0367704
1.24273,-0.0599098,-0.348291
1.27266,-0.123889,-0.255737
1.26253,-0.0608647,0
1.27423,-0.187253,-0.0149937
1.25147,-0.0603315,-0.194926
1.26378,-0.123024,-0.161623
1.24798,0.000871266,0.00725327
1.26998,-0.123627,-0.007416
1.27116,-0.0612807,-0.137084
1.27668,-0.187613,-0.120456
1.26219,-0.0608482,0.0294046
1.26631,-0.18609,0.0149006
1.25946,-0.0607164,-0.0881722
1.26975,-0.123606,-0.104147
1.24347,0.000868121,0.0361886
1.25786,-0.122448,0.0220598
1.24145,0.00086671,-0.0795632
1.26426,-0.185787,-0.074418
1.2604,-0.0607617,0.0734877
1.24905,-0.121591,0.0511284
1.27314,-0.061376,-0.0593737
1.26826,-0.12346,-0.0667807
1.26105,-0.0607934,0.155018
1.24595,-0.121288,0.102194
1.24297,0.000867768,-0.0506399
1.24621,-0.060078,-0.0290324
1.23581,-0.00345104,-0.0215712
1.25709,-0.126804,-0.0367704
1.24251,-0.0642474,-0.348291
1.26631,-0.065478,0
1.27357,-0.191699,-0.0149937
1.25126,-0.0646996,-0.194926
1.26729,-0.127833,-0.162128
1.24797,-0.00348502,0.00725327
1.26954,-0.128059,-0.007416
1.26697,-0.0655121,-0.136656
1.2642,-0.19029,-0.11934
1.26197,-0.0652537,0.0294046
1.26566,-0.190509,0.0149006
1.25924,-0.0651124,-0.0881722
1.27328,-0.128437,-0.104472
1.24347,-0.00347244,0.0361886
1.26539,-0.127641,0.0221995
1.24145,-0.00346679,-0.0795632
1.26755,-0.190794,-0.0746505
1.25619,-0.0649548,0.0732552
1.2526,-0.126351,0.0512912
1.25696,-0.0649944,-0.0586292
1.26782,-0.127886,-0.0667807
1.2648,-0.0653999,0.155505
1.24948,-0.126037,0.102519
1.25096,-0.00349335,-0.0509655
1.26597,-0.0654602,-0.0294977
1.23579,-0.00776478,-0.0215712
1.26061,-0.131606,-0.0368868
1.24997,-0.0690088,-0.350448
1.27567,-0.133178,-0.256521
1.26208,-0.0696773,0
1.2808,-0.197362,-0.0150868
1.25892,-0.0695027,-0.196156
1.27078,-0.132668,-0.162633
1.24795,-0.00784123,0.00725327
1.27306,-0.132905,-0.00743925
1.2707,-0.0701535,-0.137084
1.2714,-0.195915,-0.120084
1.25774,-0.069438,0.0293116
1.25312,-0.193098,0.0147609
1.25502,-0.0692876,-0.0878932
1.26886,-0.132467,-0.104147
1.25145,-0.00786316,0.0364214
1.26493,-0.132057,0.0221995
1.2534,-0.00787547,-0.0803307
1.27477,-0.196433,-0.0751156
1.25994,-0.0695594,0.0734877
1.25215,-0.130723,0.0512912
1.2647,-0.0698221,-0.0590015
1.26736,-0.132311,-0.0667807
1.25267,-0.0691579,0.154043
1.24903,-0.130397,0.102519
1.25493,-0.00788509,-0.0511284
1.26174,-0.0696585,-0.0294046
1.24375,-0.0121566,-0.0217108
1.26412,-0.136435,-0.0370032
1.24203,-0.0729201,-0.348291
1.27909,-0.138051,-0.257306
1.25783,-0.0738479,0
1.26825,-0.199963,-0.0149472
1.25077,-0.0734334,-0.194926
1.27426,-0.137529,-0.163139
1.24792,-0.0121974,0.00725327
1.27259,-0.137348,-0.00743925
1.26648,-0.0743555,-0.136656
1.26678,-0.199731,-0.119712
1.26947,-0.0745311,0.0295907
1.26429,-0.19934,0.0149006
1.25875,-0.0739019,-0.0881722
1.27235,-0.137323,-0.104472
1.24341,-0.0121533,0.0361886
1.26844,-0.136901,0.0222693
1.24938,-0.0122116,-0.0800748
1.27408,-0.200882,-0.0751156
1.26767,-0.0744251,0.0739528
1.25566,-0.135521,0.051454
1.26844,-0.0744705,-0.0591876
1.26292,-0.136305,-0.0665713
1.24449,-0.0730648,0.153068
1.24461,-0.134329,0.102194
1.24291,-0.0121484,-0.0506399
1.26548,-0.0742967,-0.0294977
1.2477,-0.0165511,-0.0217806
1.26364,-0.140846,-0.0370032
1.24946,-0.0777335,-0.350448
1.2825,-0.142949,-0.25809
1.26555,-0.0787349,0
1.27544,-0.205662,-0.0150403
1.24262,-0.0773081,-0.193697
1.258,-0.140218,-0.161118
1.23987,-0.0164472,0.00720677
1.26813,-0.141347,-0.007416
1.26621,-0.0787759,-0.136656
1.27787,-0.206054,-0.120827
1.26521,-0.0787136,0.0294977
1.25569,-0.202479,0.0148075
1.27442,-0.0792864,-0.0892883
1.27187,-0.141764,-0.104472
1.24736,-0.0165466,0.036305
1.25603,-0.139998,0.0220598
1.24134,-0.0164668,-0.0795632
1.27337,-0.205328,-0.0751156
1.2674,-0.0788497,0.0739528
1.25121,-0.139461,0.0512912
1.26817,-0.0788977,-0.0591876
1.27435,-0.14204,-0.0671994
1.25216,-0.0779015,0.154043
1.24017,-0.138231,0.101868
1.24286,-0.0164869,-0.0506399
1.27319,-0.0792102,-0.0296838
1.24364,-0.0208393,-0.0217108
1.26314,-0.145256,-0.0370032
1.24533,-0.0818418,-0.34937
1.2742,-0.146529,-0.256521
1.26128,-0.0828897,0
1.2826,-0.211414,-0.0151334
1.25023,-0.0821636,-0.194926
1.26144,-0.145061,-0.161623
1.2478,-0.0209091,0.00725327
1.26762,-0.145772,-0.007416
1.26196,-0.0829346,-0.136227
1.27714,-0.210513,-0.120827
1.26892,-0.0833917,0.0295907
1.26682,-0.208812,0.0149472
1.25821,-0.0826878,-0.0881722
1.27532,-0.146658,-0.104797
1.2433,-0.0208336,0.0361886
1.26745,-0.145753,0.0222693
1.24527,-0.0208666,-0.079819
1.2687,-0.209122,-0.0748831
1.25915,-0.0827495,0.0734877
1.25071,-0.143828,0.0512912
1.26789,-0.083324,-0.0591876
1.26988,-0.146031,-0.06699
1.26376,-0.0830529,0.155505
1.25156,-0.143925,0.102845
1.25079,-0.0209591,-0.0509655
1.26493,-0.0831295,-0.0294977
1.24356,-0.0251802,-0.0217108
1.26262,-0.149665,-0.0370032
1.24888,-0.0864544,-0.350448
1.28537,-0.152361,-0.258875
1.26098,-0.0872919,0
1.27397,-0.214561,-0.0150403
1.24994,-0.0865272,-0.194926
1.27275,-0.150865,-0.163139
1.24772,-0.0252646,0.00725327
1.26314,-0.149726,-0.00739275
1.26166,-0.0873391,-0.136227
1.27247,-0.214308,-0.120456
1.26064,-0.0872682,0.0294046
1.26608,-0.213233,0.0149472
1.26587,-0.0876304,-0.0887302
1.27085,-0.150639,-0.104472
1.24722,-0.0252544,0.036305
1.26694,-0.150176,0.0222693
1.24519,-0.0252133,-0.079819
1.26796,-0.21355,-0.0748831
1.25487,-0.0868684,0.0732552
1.24623,-0.147722,0.0511284
1.26759,-0.0877492,-0.0591876
1.26936,-0.150463,-0.06699
1.26743,-0.0877379,0.155993
1.25105,-0.148293,0.102845
1.25071,-0.025325,-0.0509655
1.26463,-0.0875444,-0.0294977
1.24346,-0.0295209,-0.0217108
1.27003,-0.15504,-0.0372359
1.24473,-0.0905339,-0.34937
1.27704,-0.155896,-0.257306
1.26466,-0.0919831,0
1.27716,-0.219685,-0.0150868
1.25357,-0.0911765,-0.195541
1.27615,-0.155788,-0.163644
1.25163,-0.0297148,0.00727652
1.26658,-0.154618,-0.007416
1.26929,-0.0923196,-0.137084
1.27171,-0.218749,-0.120456
1.26831,-0.0922484,0.0295907
1.25745,-0.216295,0.014854
1.25362,-0.0911802,-0.0878932
1.27823,-0.156041,-0.105123
1.25112,-0.0297027,0.0364214
1.27037,-0.155082,0.0223391
1.25308,-0.0297492,-0.0803307
1.27902,-0.220005,-0.0755807
1.2665,-0.0921172,0.0739528
1.25365,-0.15304,0.051454
1.2593,-0.0915937,-0.0588153
1.26883,-0.154893,-0.06699
1.25919,-0.0915855,0.155018
1.25061,-0.0296907,-0.0509655
1.26432,-0.0919583,-0.0294977
1.24335,-0.0338612,-0.0217108
1.26155,-0.158476,-0.0370032
1.24441,-0.0948782,-0.34937
1.2726,-0.159864,-0.256521
1.25635,-0.0957889,0
1.27244,-0.22345,-0.0150403
1.26507,-0.0964531,-0.197386
1.27166,-0.159747,-0.163139
1.25551,-0.0341925,0.00729976
1.27,-0.159537,-0.00743925
1.27292,-0.097052,-0.137513
1.27486,-0.223876,-0.120827
1.26798,-0.096675,0.0295907
1.25274,-0.219991,0.0148075
1.26125,-0.0961623,-0.0884512
1.26581,-0.159011,-0.104147
1.24301,-0.033852,0.0361886
1.26983,-0.159516,0.0223391
1.24498,-0.0339057,-0.079819
1.27431,-0.223778,-0.0753482
1.27016,-0.0968412,0.0741854
1.2531,-0.157415,0.051454
1.27491,-0.097204,-0.0595598
1.26431,-0.158823,-0.0667807
1.26282,-0.0962822,0.155505
1.2505,-0.0340559,-0.0509655
1.26399,-0.096371,-0.0294977
1.25122,-0.0384468,-0.0218504
1.25702,-0.162366,-0.0368868
1.24407,-0.0992215,-0.34937
1.27981,-0.16531,-0.25809
1.26,-0.100492,0
1.27559,-0.228596,-0.0150868
1.25684,-0.10024,-0.196156
1.25929,-0.16266,-0.161623
1.24339,-0.0382063,0.00723002
1.28133,-0.165507,-0.00750899
1.27654,-0.101811,-0.137941
1.278,-0.229027,-0.121199
1.26763,-0.1011,0.0295907
1.25197,-0.224363,0.0148075
1.26091,-0.100564,-0.0884512
1.27711,-0.164961,-0.105123
1.24688,-0.0383136,0.036305
1.26133,-0.162923,0.0221995
1.24885,-0.0383739,-0.0800748
1.27745,-0.228929,-0.0755807
1.26185,-0.100639,0.0737203
1.25255,-0.161788,0.051454
1.27457,-0.101654,-0.0595598
1.26771,-0.163747,-0.06699
1.25037,-0.0384208,-0.0509655
1.27162,-0.101418,-0.0296838
1.23909,-0.0421875,-0.021641
1.2644,-0.167584,-0.0371195
1.25141,-0.103984,-0.351526
1.28314,-0.170069,-0.258875
1.26365,-0.105001,0
1.27483,-0.232825,-0.0150868
1.2565,-0.104407,-0.196156
1.27448,-0.16892,-0.163644
1.24726,-0.0424654,0.00725327
1.26888,-0.168178,-0.00743925
1.2643,-0.105056,-0.136656
1.28115,-0.233979,-0.121571
1.27526,-0.105966,0.0297768
1.26696,-0.231387,0.0149937
1.26057,-0.104745,-0.0884512
1.27655,-0.169195,-0.105123
1.24675,-0.0424482,0.036305
1.26475,-0.16763,0.0222693
1.24871,-0.042515,-0.0800748
1.26883,-0.231729,-0.0751156
1.26151,-0.104823,0.0737203
1.25597,-0.166466,0.0516168
1.26626,-0.105218,-0.0591876
1.27112,-0.168475,-0.0671994
1.25024,-0.0425669,-0.0509655
1.25932,-0.104641,-0.0294046
1.23894,-0.0465125,-0.021641
1.25985,-0.171458,-0.0370032
1.25104,-0.108352,-0.351526
1.28643,-0.175075,-0.259659
1.26327,-0.109411,0
1.2858,-0.23947,-0.0152265
1.26401,-0.109475,-0.197386
1.26995,-0.172833,-0.163139
1.2511,-0.046969,0.00727652
1.26829,-0.172606,-0.00743925
1.27185,-0.110154,-0.137513
1.28032,-0.23845,-0.121571
1.25895,-0.109036,0.0294046
1.27007,-0.236541,0.0150403
1.26814,-0.109833,-0.0890093
1.272,-0.173112,-0.104797
1.25059,-0.0469499,0.0364214
1.27208,-0.173122,0.0224089
1.24856,-0.0468736,-0.0800748
1.27194,-0.236888,-0.0753482
1.26909,-0.109915,0.0741854
1.25142,-0.17031,0.051454
1.27384,-0.110327,-0.0595598
1.27053,-0.172911,-0.0671994
1.25408,-0.0470808,-0.0511284
1.26691,-0.109727,-0.0295907
1.23877,-0.0508369,-0.021641
1.2632,-0.176407,-0.0371195
1.25066,-0.112718,-0.351526
1.26639,-0.176852,-0.255737
1.25491,-0.113102,0
1.28103,-0.243211,-0.01518
1.26755,-0.114241,-0.198001
1.27327,-0.177814,-0.163644
1.25093,-0.0513358,0.00727652
1.27956,-0.178692,-0.00750899
1.27146,-0.114593,-0.137513
1.26774,-0.240689,-0.120456
1.26652,-0.114148,0.0295907
1.26378,-0.113901,-0.0887302
1.27929,-0.178654,-0.105448
1.25441,-0.0514789,0.0365377
1.27543,-0.178115,0.0224787
1.24839,-0.0512316,-0.0800748
1.27503,-0.242071,-0.0755807
1.26472,-0.113986,0.0739528
1.25477,-0.17523,0.0516168
1.26947,-0.114414,-0.0593737
1.26992,-0.177345,-0.0671994
1.2579,-0.0516219,-0.0512912
1.27051,-0.114507,-0.0296838
1.23459,-0.0549828,-0.0215712
1.27049,-0.181949,-0.0373522
1.25409,-0.117442,-0.352605
1.28129,-0.183496,-0.258875
1.25849,-0.117855,0
1.26839,-0.245402,-0.0150403
1.25928,-0.117928,-0.196771
1.27657,-0.18282,-0.164149
1.24674,-0.0555241,0.00725327
1.27497,-0.18259,-0.00748575
1.27105,-0.119031,-0.137513
1.27081,-0.245869,-0.120827
1.26612,-0.118569,0.0295907
1.2594,-0.11794,-0.0884512
1.27866,-0.183118,-0.105448
1.24624,-0.0555015,0.036305
1.26688,-0.181432,0.0223391
1.2482,-0.055589,-0.0800748
1.27025,-0.245762,-0.0753482
1.25636,-0.117655,0.0734877
1.25415,-0.179609,0.0516168
1.26907,-0.118845,-0.0593737
1.26929,-0.181777,-0.0671994
1.25372,-0.0558346,-0.0511284
1.27806,-0.119687,-0.0298699
1.25037,-0.0600595,-0.0218504
1.26985,-0.186383,-0.0373522
1.28065,-0.187967,-0.258875
1.26206,-0.122634,0
1.28322,-0.252922,-0.0152265
1.25886,-0.122323,-0.196771
1.27592,-0.187275,-0.164149
1.24654,-0.0598757,0.00725327
1.28224,-0.188202,-0.00753224
1.27459,-0.123852,-0.137941
1.27385,-0.251074,-0.121199
1.26967,-0.123374,0.0296838
1.26692,-0.123107,-0.0890093
1.28195,-0.18816,-0.105774
1.24604,-0.0598514,0.036305
1.2702,-0.186434,0.0224089
1.24401,-0.0597541,-0.079819
1.28506,-0.253283,-0.0762784
1.2639,-0.122813,0.0739528
1.24956,-0.183406,0.051454
1.27262,-0.12366,-0.0595598
1.2647,-0.185626,-0.06699
1.25751,-0.0604023,-0.0512912
1.27764,-0.124148,-0.0298699
1.24616,-0.0642179,-0.0217806
1.26919,-0.190815,-0.0373522
1.27998,-0.192437,-0.258875
1.2656,-0.127439,0
1.27841,-0.256612,-0.01518
1.26235,-0.127112,-0.197386
1.27526,-0.191727,-0.164149
1.25032,-0.0644324,0.00727652
1.26971,-0.190892,-0.0074625
1.26623,-0.127503,-0.137084
1.27687,-0.256303,-0.121571
1.27322,-0.128206,0.0297768
1.27046,-0.127928,-0.0892883
1.28129,-0.192633,-0.105774
1.2538,-0.064612,0.0365377
1.27349,-0.191461,0.0224787
1.25177,-0.064507,-0.0803307
1.27242,-0.25541,-0.0755807
1.25551,-0.126423,0.0734877
1.26077,-0.189549,0.0519425
1.27616,-0.128502,-0.059746
1.27194,-0.191228,-0.0674087
1.2533,-0.0645858,-0.0511284
1.26128,-0.127004,-0.0294977
1.24592,-0.0685674,-0.0217806
1.27247,-0.195852,-0.0374686
1.28706,-0.198097,-0.260444
1.2731,-0.132685,0
1.28535,-0.262675,-0.0152731
1.25797,-0.131108,-0.196771
1.27066,-0.195574,-0.163644
1.25408,-0.0690163,0.00729976
1.28089,-0.197149,-0.00753224
1.27369,-0.132747,-0.137941
1.27206,-0.259961,-0.121199
1.26481,-0.131821,0.0295907
1.26207,-0.131535,-0.0887302
1.27667,-0.196498,-0.105448
1.25756,-0.0692079,0.0366541
1.27282,-0.195905,0.0224787
1.25153,-0.0688761,-0.0803307
1.27543,-0.260649,-0.0758133
1.25506,-0.130805,0.0734877
1.2522,-0.192733,0.0516168
1.27173,-0.132542,-0.0595598
1.27521,-0.196274,-0.0676181
1.25705,-0.0691798,-0.0512912
1.26481,-0.131821,-0.0295907
1.25366,-0.0733834,-0.0219202
1.26783,-0.199671,-0.0373522
1.27086,-0.200147,-0.257306
1.2607,-0.135843,0
1.2805,-0.266345,-0.0152265
1.26144,-0.135922,-0.197386
1.27781,-0.201243,-0.164654
1.25383,-0.0733934,0.00729976
1.27625,-0.200996,-0.00750899
1.27322,-0.137192,-0.137941
1.27115,-0.264399,-0.121199
1.26434,-0.136235,0.0295907
1.26557,-0.136367,-0.0890093
1.27598,-0.200953,-0.105448
1.24933,-0.0731299,0.0364214
1.26817,-0.199725,0.0224089
1.25129,-0.0732444,-0.0803307
1.27452,-0.2651,-0.0758133
1.27445,-0.137324,0.0746505
1.26337,-0.198968,0.0521053
1.26728,-0.136552,-0.0593737
1.26663,-0.199481,-0.0671994
1.26079,-0.0738009,-0.051454
1.26831,-0.136663,-0.0296838
1.24542,-0.0772638,-0.0217806
1.27107,-0.204731,-0.0374686
1.2779,-0.20583,-0.258875
1.26022,-0.140243,0
1.26881,-0.141199,-0.198616
1.2771,-0.205702,-0.164654
