2.34495,-0.491167,0.027892
2.38208,-0.378564,-0.196902
2.39754,-0.38102,0.0423744
2.34505,-0.491188,-0.139534
2.38408,-0.378881,0.0983488
2.41105,-0.263201,-0.112978
2.38673,-0.379302,-0.126653
2.41698,-0.263849,-0.056576
2.34313,-0.499759,-0.027892
2.39251,-0.389216,-0.0140881
2.34094,-0.499291,-0.223438
2.33922,-0.498924,0.0278455
2.38068,-0.387292,-0.196902
2.38824,-0.388521,0.0422348
2.34324,-0.49978,-0.139534
2.38267,-0.387616,0.0983488
2.38927,-0.388689,-0.126862
2.416,-0.272706,-0.056576
2.35875,-0.391334,-0.0695846
2.34155,-0.507117,-0.027892
2.38338,-0.395421,-0.0140416
2.33936,-0.506642,-0.223438
2.34546,-0.507964,0.0279386
2.37945,-0.394769,-0.196902
2.38306,-0.395367,0.042165
2.34556,-0.507984,-0.139766
2.3775,-0.394446,0.098186
2.38015,-0.394886,-0.126444
2.41513,-0.280295,-0.056576
2.35342,-0.398897,-0.0694682
2.39493,-0.286426,0
2.33977,-0.515288,-0.027892
2.38987,-0.405075,-0.0140881
2.34147,-0.515662,-0.223809
2.41811,-0.289198,0.056669
2.33977,-0.515288,0.027892
2.37413,-0.402406,-0.196577
2.37772,-0.403015,0.0420952
2.33207,-0.513592,-0.139069
2.37611,-0.402742,0.098186
2.37876,-0.403191,-0.126444
2.36627,-0.401074,0.195926
2.40223,-0.287299,-0.0562968
2.38995,-0.294296,0
2.33405,-0.522578,-0.0278455
2.38056,-0.41205,-0.0140416
2.33188,-0.522092,-0.223066
2.34576,-0.5252,0.0279852
2.37664,-0.411371,-0.196902
2.38024,-0.411994,0.042165
2.33026,-0.521729,-0.139069
2.36681,-0.409671,0.0978603
2.37734,-0.411492,-0.126444
2.37271,-0.410691,0.196577
2.40518,-0.296171,-0.0563898
2.35044,-0.416137,-0.0694682
2.33983,-0.533314,-0.0279386
2.37896,-0.421188,-0.0140416
2.32986,-0.531041,-0.223066
2.33203,-0.531536,0.0278455
2.37111,-0.419798,-0.196577
2.3747,-0.420434,0.0420952
2.33603,-0.532448,-0.139534
2.36916,-0.419452,0.0980231
2.39414,-0.304149,-0.112419
2.37181,-0.419921,-0.126234
2.40402,-0.305404,-0.0563898
2.34518,-0.42281,-0.0693518
2.38387,-0.310457,0
2.33035,-0.53886,-0.0278455
2.38156,-0.429369,-0.0140648
2.33206,-0.539256,-0.223438
2.40305,-0.312955,0.0563898
2.33035,-0.53886,0.0278455
2.36586,-0.426538,-0.196251
2.37731,-0.428601,0.042165
2.33434,-0.539784,-0.139534
2.3639,-0.426184,0.0978603
2.39317,-0.311669,-0.112419
2.37441,-0.428079,-0.126444
2.40702,-0.313471,-0.0564829
2.34362,-0.431403,-0.0693518
2.38272,-0.319192,0
2.32836,-0.547397,-0.0278455
2.38391,-0.438819,-0.0140881
2.32619,-0.546888,-0.223066
2.40189,-0.32176,0.0563898
2.32836,-0.547397,0.0278455
2.39669,-0.321063,-0.16909
2.3682,-0.435928,-0.196577
2.37178,-0.436588,0.0420952
2.33235,-0.548336,-0.139534
2.36625,-0.435569,0.0980231
2.39202,-0.320438,-0.112419
2.37282,-0.436779,-0.126444
2.35644,-0.433763,0.1956
2.40585,-0.322291,-0.0564829
2.34996,-0.441056,-0.0695846
2.38555,-0.328052,0
2.32643,-0.555522,-0.0278455
2.3745,-0.445662,-0.0140416
2.31652,-0.553154,-0.222322
2.39679,-0.329598,0.0562968
2.32643,-0.555522,0.0278455
2.36275,-0.443457,-0.196251
2.36238,-0.443389,0.0419556
2.31489,-0.552765,-0.138603
2.36079,-0.443089,0.0978603
2.38297,-0.327697,-0.112047
2.36736,-0.444322,-0.126234
2.35099,-0.441251,0.195275
2.38887,-0.328508,-0.0561107
2.34455,-0.448096,-0.0694682
2.38445,-0.335961,0
2.32458,-0.563233,-0.0278455
2.36185,-0.451401,-0.306074
2.36908,-0.452783,-0.0140183
2.31854,-0.561771,-0.222694
2.39172,-0.336986,0.0562037
2.32069,-0.562291,0.0277989
2.35735,-0.450541,-0.195926
2.3609,-0.45122,0.0419556
2.31304,-0.560438,-0.138603
2.35538,-0.450165,0.0976975
2.38978,-0.336712,-0.112419
2.3698,-0.45292,-0.126444
2.35343,-0.449793,0.1956
2.39568,-0.337544,-0.0562968
2.3469,-0.457041,-0.0695846
2.37534,-0.343139,0
2.31871,-0.570389,-0.0277989
2.36748,-0.46105,-0.0140183
2.31657,-0.569861,-0.222694
2.39053,-0.345333,0.0562037
2.31483,-0.569433,0.0277523
2.38535,-0.344585,-0.168532
2.35576,-0.458767,-0.195926
2.35931,-0.459459,0.0419556
2.3227,-0.57137,-0.139301
2.38713,-0.344842,0.140464
2.36164,-0.459912,0.0980231
2.37673,-0.343338,-0.111861
2.36036,-0.459662,-0.126025
2.34793,-0.457243,0.195275
2.39053,-0.345333,-0.0562037
2.41198,-0.237347,-0.0423046
2.33745,-0.463675,-0.0693518
2.32059,-0.579448,-0.0278455
2.35409,-0.466976,-0.0139486
2.31843,-0.578909,-0.223066
2.38536,-0.35309,0.0561107
2.31671,-0.578479,0.0277989
2.38808,-0.353493,-0.168811
2.35023,-0.466212,-0.1956
2.36162,-0.46847,0.0420254
2.31682,-0.578507,-0.139069
2.3561,-0.467375,0.0978603
2.37156,-0.351047,-0.111675
2.36266,-0.468676,-0.126234
2.34241,-0.46466,0.194949
2.41433,-0.237578,-0.0988373
2.39327,-0.354261,-0.0562968
2.4111,-0.246186,-0.0423046
2.33965,-0.473031,-0.0694682
2.37283,-0.360127,0
2.31069,-0.585983,-0.0277523
2.43132,-0.24825,0.0142043
2.35628,-0.476394,-0.0139718
2.30857,-0.585444,-0.222322
2.38405,-0.36183,0.0561107
2.31457,-0.586966,0.0277989
2.37888,-0.361046,-0.168253
2.34851,-0.474823,-0.1956
2.35596,-0.47633,0.0419556
2.31855,-0.587976,-0.139301
2.35045,-0.475215,0.0976975
2.37026,-0.359737,-0.111675
2.35701,-0.476541,-0.126025
2.33679,-0.472452,0.194624
2.388,-0.36243,-0.0562037
2.34198,-0.481592,-0.0695846
2.37162,-0.367994,0
2.31261,-0.594638,-0.0277989
2.35143,-0.483535,-0.305569
2.34685,-0.482594,-0.0139253
2.31047,-0.594088,-0.222694
2.38678,-0.370347,0.0562037
2.30874,-0.593642,0.0277523
2.37767,-0.368933,-0.168253
2.34692,-0.482608,-0.1956
2.35437,-0.48414,0.0419556
2.30886,-0.593673,-0.138836
2.35669,-0.484617,0.0980231
2.37695,-0.368821,-0.112047
2.35542,-0.484354,-0.126025
2.33911,-0.481002,0.194949
2.38283,-0.369734,-0.0561107
2.32855,-0.487308,-0.0692355
2.36242,-0.375016,0
2.30278,-0.600688,-0.0277058
2.34584,-0.490927,-0.305064
2.34907,-0.491602,-0.0139486
2.30068,-0.600139,-0.22195
2.37758,-0.377422,0.0560176
2.31052,-0.602707,0.0277989
2.37243,-0.376605,-0.167974
2.34913,-0.491614,-0.195926
2.35267,-0.492355,0.0419556
2.31063,-0.602737,-0.139069
2.34716,-0.491203,0.0976975
2.36381,-0.375236,-0.111489
2.3498,-0.491755,-0.125816
2.33352,-0.488347,0.194624
2.37363,-0.376795,-0.0559246
2.33457,-0.497505,-0.0694682
2.30443,-0.610148,-0.0277523
2.34015,-0.498695,-0.304559
2.40871,-0.271457,0.0140881
2.35117,-0.501042,-0.0139718
2.29846,-0.608567,-0.22195
2.38013,-0.386775,0.0561107
2.30443,-0.610148,0.0277523
2.35922,-0.383378,-0.167137
2.34731,-0.500221,-0.195926
2.35085,-0.500975,0.0419556
2.31227,-0.612224,-0.139301
2.38068,-0.386866,0.140464
2.34144,-0.49897,0.0975347
2.3703,-0.385179,-0.111861
2.34798,-0.500364,-0.125816
2.33561,-0.497728,0.194949
2.38407,-0.387417,-0.0562037
2.32909,-0.503992,-0.0693518
2.35981,-0.391088,0
2.3025,-0.617385,-0.0277523
2.33469,-0.505205,-0.304054
2.40387,-0.278563,0.0140648
2.3574,-0.510118,-0.0140183
2.30039,-0.616817,-0.222322
2.3789,-0.394251,0.0561107
2.3025,-0.617385,0.0277523
2.36194,-0.39144,-0.167416
2.33793,-0.505906,-0.195275
2.35317,-0.509203,0.0420254
2.31034,-0.619485,-0.139301
2.37552,-0.39369,0.140231
2.33595,-0.505478,0.0973718
2.36908,-0.392624,-0.111861
2.3464,-0.507738,-0.125816
2.32624,-0.503376,0.194298
2.38679,-0.395558,-0.0562968
2.32341,-0.511259,-0.0692355
2.35449,-0.398655,0
2.30033,-0.625418,-0.0277523
2.33291,-0.513351,-0.304054
2.39494,-0.286004,0.0140183
2.34388,-0.515765,-0.0139486
2.30206,-0.625888,-0.222694
2.37751,-0.402552,0.0561107
2.30033,-0.625418,0.0277523
2.36449,-0.400348,-0.167695
2.33615,-0.514064,-0.195275
2.34357,-0.515695,0.0418858
2.30816,-0.627546,-0.139301
2.37413,-0.40198,0.140231
2.34588,-0.516205,0.0978603
2.37558,-0.402225,-0.112233
2.34071,-0.515067,-0.125606
2.32447,-0.511494,0.194298
2.38539,-0.403888,-0.0562968
2.33331,-0.521985,-0.0695846
2.37279,-0.410279,0
2.29428,-0.632381,-0.0277058
2.32724,-0.520625,-0.303549
2.38996,-0.293874,0.0139951
2.33817,-0.523071,-0.0139253
2.29218,-0.631803,-0.22195
2.37609,-0.410849,0.0561107
2.29814,-0.633444,0.0277523
2.36701,-0.409279,-0.167974
2.33434,-0.522215,-0.195275
2.40486,-0.295706,0.0705155
2.34175,-0.523873,0.0418858
2.4168,-0.297174,-0.156056
2.29441,-0.632415,-0.138603
2.36878,-0.409585,0.139999
2.33627,-0.522646,0.0975347
2.36235,-0.408473,-0.111675
2.3428,-0.524107,-0.125816
2.31878,-0.518734,0.193973
2.37215,-0.410168,-0.0560176
2.31579,-0.526985,-0.0691191
2.35945,-0.416885,0
2.29965,-0.64294,-0.0277989
2.32918,-0.530032,-0.304054
2.39283,-0.303134,0.0140183
2.33623,-0.531637,-0.0139253
2.36547,-0.417947,-0.258747
2.28985,-0.6402,-0.22195
2.36669,-0.418163,0.0559246
2.29965,-0.64294,0.0277989
2.36549,-0.417952,-0.167974
2.33241,-0.530768,-0.195275
2.33592,-0.531565,0.041816
2.29207,-0.640821,-0.138603
2.36726,-0.418264,0.139999
2.33044,-0.530318,0.0973718
2.3569,-0.416433,-0.111489
2.34476,-0.533576,-0.126025
2.32464,-0.528998,0.194624
2.36669,-0.418163,-0.0559246
2.31783,-0.535966,-0.0692355
2.35405,-0.424408,0
2.2897,-0.648782,-0.0277058
2.32732,-0.538159,-0.304054
2.39176,-0.311485,0.0140183
2.33436,-0.539789,-0.0139253
2.28377,-0.647103,-0.221579
2.36522,-0.426422,0.0559246
2.282,-0.646602,0.0276127
2.35617,-0.424791,-0.167416
2.33443,-0.539804,-0.1956
2.33015,-0.538814,0.0417462
2.28982,-0.648817,-0.138603
2.36186,-0.425816,0.139766
2.32468,-0.537549,0.097209
2.35543,-0.424658,-0.111489
2.3312,-0.539058,-0.125397
2.32278,-0.53711,0.194624
2.36915,-0.427132,-0.0560176
2.38632,-0.319674,-0.0420254
2.31196,-0.543543,-0.0691191
2.34854,-0.432309,0
2.28346,-0.656066,-0.0276592
2.32533,-0.546686,-0.304054
2.39457,-0.32078,0.0140416
2.32848,-0.547425,-0.0139021
2.28521,-0.656569,-0.22195
2.36364,-0.435088,0.0559246
2.2873,-0.65717,0.0277058
2.35459,-0.433424,-0.167416
2.32856,-0.547444,-0.195275
2.38963,-0.320119,0.0701664
2.33205,-0.548267,0.041816
2.38575,-0.319599,-0.154266
2.28743,-0.657206,-0.138603
2.36813,-0.435916,0.140231
2.33437,-0.54881,0.0976975
2.34993,-0.432565,-0.111302
2.32921,-0.547599,-0.125397
2.30915,-0.542882,0.193647
2.37544,-0.43726,-0.0562037
2.38134,-0.326626,-0.0419556
2.31024,-0.550803,-0.0691191
2.3511,-0.440422,0
2.28907,-0.665469,-0.0277523
2.31974,-0.553068,-0.303549
2.38562,-0.327214,0.0139951
2.32285,-0.55381,-0.0138789
2.35713,-0.44155,-0.258318
2.28314,-0.663745,-0.22195
2.35833,-0.441775,0.0558315
2.29291,-0.666586,0.0277989
2.35322,-0.440819,-0.167416
2.31907,-0.552908,-0.194624
2.38465,-0.327081,0.07005
2.32254,-0.553735,0.0416763
2.38078,-0.32655,-0.15401
2.28919,-0.665503,-0.138836
2.3589,-0.441883,0.139766
2.32485,-0.554287,0.0973718
2.34856,-0.439945,-0.111302
2.33137,-0.55584,-0.125606
2.30743,-0.550134,0.193647
2.37012,-0.443984,-0.0561107
2.31219,-0.559805,-0.0692355
2.34955,-0.448626,0
2.2829,-0.672326,-0.0277058
2.31394,-0.560228,-0.303044
2.38051,-0.334982,0.0139718
2.31702,-0.560974,-0.0138556
2.35557,-0.449775,-0.258318
2.27699,-0.670586,-0.221579
2.3607,-0.450755,0.0559246
2.28673,-0.673456,0.0277523
2.35559,-0.449778,-0.167695
2.32487,-0.562876,-0.195275
2.3835,-0.335403,0.07005
2.32837,-0.563721,0.041816
2.27919,-0.671234,-0.138371
2.35342,-0.449365,0.139534
2.32291,-0.562399,0.0973718
2.35093,-0.44889,-0.111489
2.33329,-0.564914,-0.125816
2.3055,-0.558185,0.193647
2.3607,-0.450755,-0.0559246
2.37498,-0.343086,-0.0418858
2.30624,-0.567321,-0.0691191
2.35182,-0.457999,0
2.28425,-0.681832,-0.0277523
2.31572,-0.569653,-0.303549
2.38322,-0.344277,0.0139951
2.31883,-0.570418,-0.0138789
2.3461,-0.456886,-0.257461
2.27451,-0.678927,-0.221579
2.35118,-0.457875,0.0557385
2.28042,-0.680688,0.0277058
2.35001,-0.457646,-0.167416
2.3228,-0.571393,-0.195275
2.38621,-0.344708,0.0701664
2.31852,-0.570341,0.0416763
2.37838,-0.343578,-0.15401
2.27671,-0.679583,-0.138371
2.34784,-0.457225,0.139301
2.31307,-0.569,0.0970462
2.34535,-0.45674,-0.111302
2.33121,-0.573462,-0.125816
2.30344,-0.566631,0.193647
2.35903,-0.459404,-0.0559246
2.37383,-0.35096,-0.0418858
2.30435,-0.574965,-0.0691191
2.33852,-0.463463,0
2.27815,-0.688247,-0.0277058
2.31767,-0.57829,-0.304054
2.37811,-0.351593,0.0139718
2.31693,-0.578104,-0.0138789
2.35237,-0.466209,-0.258318
2.27225,-0.686466,-0.221579
2.3575,-0.467224,0.0559246
2.27432,-0.68709,0.0276592
2.33673,-0.46311,-0.166578
2.32089,-0.579093,-0.195275
2.38505,-0.352619,0.0701664
2.32049,-0.578994,0.0417462
2.37723,-0.351463,-0.15401
2.27062,-0.685974,-0.138138
2.34631,-0.465008,0.139301
2.31117,-0.576667,0.0970462
2.34382,-0.464514,-0.111302
2.32154,-0.579256,-0.125397
2.30155,-0.574267,0.193647
2.37222,-0.350723,-0.0976975
2.3575,-0.467224,-0.0559246
2.37253,-0.359658,-0.0418858
2.3061,-0.58439,-0.0692355
2.3368,-0.472031,0
2.27943,-0.697763,-0.0277523
2.31938,-0.587755,-0.304559
2.38076,-0.360906,0.0139951
2.32255,-0.588557,-0.0139253
2.34285,-0.473253,-0.257461
2.26972,-0.694789,-0.221579
2.35969,-0.476654,0.0560176
2.27178,-0.695421,0.0276592
2.33893,-0.472461,-0.166857
2.30716,-0.584657,-0.194298
2.37584,-0.36016,0.0699336
2.32223,-0.588478,0.041816
2.38382,-0.36137,-0.154521
2.27573,-0.69663,-0.138603
2.34459,-0.473604,0.139301
2.31291,-0.586116,0.097209
2.33427,-0.47152,-0.11093
2.31553,-0.586779,-0.125188
2.2917,-0.58074,0.192997
2.36697,-0.358816,-0.0975347
2.36361,-0.477446,-0.0561107
2.36731,-0.367325,-0.041816
2.30017,-0.59144,-0.0691191
2.33906,-0.480991,0
2.27316,-0.704531,-0.0277058
2.31347,-0.59486,-0.304054
2.37553,-0.368601,0.0139718
2.30886,-0.593673,-0.0138556
2.33729,-0.480627,-0.257033
2.26728,-0.702708,-0.221579
2.35018,-0.483277,0.0558315
2.26934,-0.703347,0.0276592
2.33727,-0.480623,-0.166857
2.31282,-0.594693,-0.194949
2.37457,-0.368451,0.0699336
2.31242,-0.594588,0.0416763
2.37465,-0.368465,-0.15401
2.26947,-0.703387,-0.138371
2.34684,-0.48259,0.139534
2.31472,-0.595181,0.0973718
2.33652,-0.48047,-0.111116
2.31734,-0.595853,-0.125397
2.29352,-0.589729,0.193322
2.3657,-0.367076,-0.0975347
2.35409,-0.484082,-0.0559246
2.29046,-0.597047,-0.0688864
2.33353,-0.487926,0
2.27081,-0.712065,-0.0277058
2.30381,-0.600526,-0.303044
2.37035,-0.37585,0.0139486
2.30687,-0.601326,-0.0138556
2.33958,-0.489189,-0.257461
2.26114,-0.709031,-0.221207
2.35247,-0.491886,0.0559246
2.27081,-0.712065,0.0277058
2.33566,-0.488371,-0.166857
2.31084,-0.602359,-0.194949
2.37333,-0.376323,0.0699336
2.3143,-0.603262,0.0417462
2.37342,-0.376337,-0.15401
2.26713,-0.710909,-0.138371
2.34131,-0.489552,0.139301
2.305,-0.600838,0.0970462
2.33883,-0.489033,-0.111302
2.31535,-0.603535,-0.125397
2.28769,-0.596325,0.192997
2.36447,-0.374919,-0.0975347
2.34856,-0.491068,-0.0558315
2.35686,-0.382149,-0.0416763
2.28836,-0.605039,-0.0688864
2.33573,-0.496901,0
2.27213,-0.721198,-0.0277523
2.29786,-0.60755,-0.302539
2.36507,-0.383482,0.0139253
2.29703,-0.60733,-0.0138091
2.33008,-0.495698,-0.256605
2.25865,-0.716919,-0.221207
2.34683,-0.499263,0.0558315
2.27213,-0.721198,0.0277523
2.33394,-0.496521,-0.166857
2.30872,-0.610422,-0.194949
2.372,-0.384606,0.0699336
2.30832,-0.610314,0.0416763
2.37209,-0.38462,-0.15401
2.26463,-0.718818,-0.138371
2.33178,-0.49606,0.138836
2.30289,-0.60888,0.0970462
2.3332,-0.496363,-0.111116
2.31323,-0.611613,-0.125397
2.28945,-0.605326,0.193322
2.36315,-0.38317,-0.0975347
2.34683,-0.499263,-0.0558315
2.35952,-0.390616,-0.0417462
2.29021,-0.613659,-0.0690027
2.32625,-0.502953,0
2.26972,-0.728728,-0.0277523
2.30733,-0.618248,-0.304054
2.36379,-0.391322,0.0139253
2.29886,-0.615979,-0.0138324
2.33231,-0.504262,-0.257033
2.25626,-0.724405,-0.221207
2.34125,-0.506197,0.0557385
2.25449,-0.723837,0.0275661
2.32838,-0.503414,-0.166578
2.30283,-0.617043,-0.194624
2.37466,-0.393122,0.07005
2.31014,-0.619001,0.0417462
2.36686,-0.391832,-0.153754
2.26223,-0.726324,-0.138371
2.33793,-0.505478,0.139301
2.297,-0.615479,0.0968833
2.33154,-0.504097,-0.111116
2.30733,-0.618247,-0.125188
2.28358,-0.611883,0.192997
2.36581,-0.391657,-0.0976975
2.34125,-0.506197,-0.0557385
2.3542,-0.398183,-0.0416763
2.28805,-0.62165,-0.0690027
2.32057,-0.510211,0
2.26717,-0.736647,-0.0277523
2.30516,-0.626298,-0.304054
2.37029,-0.400905,0.0139718
2.29284,-0.622951,-0.0138091
2.32665,-0.511547,-0.256605
2.2575,-0.733508,-0.221579
2.34338,-0.515225,0.0558315
2.25575,-0.732939,0.0276127
2.32272,-0.510682,-0.166299
2.29682,-0.624032,-0.194298
2.3575,-0.398742,0.0695846
2.30025,-0.624964,0.0416065
2.36548,-0.400091,-0.153754
2.25589,-0.732983,-0.138138
2.33615,-0.513636,0.139301
2.29869,-0.624541,0.0970462
2.32977,-0.512233,-0.111116
2.30516,-0.626297,-0.125188
2.32266,-0.510671,0.291999
2.28912,-0.621941,0.193647
2.35655,-0.39858,-0.0973718
2.33947,-0.514367,-0.0557385
2.3528,-0.406398,-0.0416763
2.28587,-0.629633,-0.0690027
2.31487,-0.517436,0
2.26078,-0.743307,-0.0277058
2.29148,-0.63118,-0.302539
2.361,-0.407815,0.0139253
2.29451,-0.632013,-0.0138324
2.32873,-0.520533,-0.257033
2.25493,-0.741383,-0.221579
2.34157,-0.523402,0.0558315
2.25698,-0.742058,0.0276592
2.32092,-0.518787,-0.166299
2.29463,-0.632045,-0.194298
2.3561,-0.406969,0.0695846
2.30191,-0.634052,0.0416763
2.36407,-0.408346,-0.153754
2.25711,-0.7421,-0.138371
2.33044,-0.520916,0.139069
2.29265,-0.6315,0.0968833
2.32407,-0.51949,-0.11093
2.30296,-0.63434,-0.125188
2.31699,-0.517909,0.291512
2.27541,-0.626752,0.192671
2.35908,-0.407484,-0.0975347
2.33766,-0.52253,-0.0557385
2.34735,-0.414324,-0.0416065
2.28354,-0.638007,-0.0690027
2.32466,-0.528577,0
2.25425,-0.750325,-0.0276592
2.28916,-0.639574,-0.302539
2.35949,-0.416466,0.0139253
2.29218,-0.640419,-0.0138324
2.31905,-0.527301,-0.256176
2.25976,-0.752159,-0.222322
2.33183,-0.530208,0.0556454
2.25804,-0.751588,0.0277058
2.32678,-0.529059,-0.166857
2.29229,-0.640451,-0.194298
2.35459,-0.415602,0.0695846
2.29572,-0.641408,0.0416065
2.35863,-0.416314,-0.153498
2.2468,-0.747845,-0.137906
2.32463,-0.528569,0.138836
2.29416,-0.640974,0.0970462
2.32604,-0.528891,-0.111116
2.30062,-0.642776,-0.125188
2.31895,-0.527278,0.291999
2.28078,-0.637233,0.193322
2.36151,-0.416822,-0.0976975
2.32793,-0.529321,-0.0555524
2.34589,-0.422515,-0.0416065
2.27746,-0.644884,-0.0688864
2.3228,-0.536689,0
2.25919,-0.760742,-0.0277523
2.28691,-0.647561,-0.302539
2.35408,-0.42399,0.0139021
2.28993,-0.648416,-0.0138324
2.3172,-0.535393,-0.256176
2.24202,-0.754958,-0.220835
2.33387,-0.539244,0.0557385
2.2554,-0.759465,0.0277058
2.32492,-0.537178,-0.166857
2.29388,-0.649535,-0.194624
2.35706,-0.424527,0.0697009
2.29731,-0.650507,0.0416763
2.36109,-0.425252,-0.153754
2.24796,-0.756958,-0.138138
2.32277,-0.53668,0.138836
2.28422,-0.6468,0.0967205
2.3125,-0.534308,-0.110558
2.30604,-0.652979,-0.125606
2.32096,-0.536263,0.292486
2.27854,-0.645191,0.193322
2.35217,-0.423646,-0.0973718
2.32218,-0.536543,-0.0554593
2.34448,-0.430292,-0.0416065
2.2753,-0.652433,-0.0688864
2.32491,-0.545302,0
2.24909,-0.765651,-0.0276592
2.29238,-0.657329,-0.303549
2.3566,-0.432517,0.0139253
2.28776,-0.656006,-0.0138324
2.31541,-0.543074,-0.256176
2.24327,-0.763672,-0.221207
2.32428,-0.545154,0.0555524
2.2453,-0.764363,0.0276127
2.31924,-0.543974,-0.166578
2.28788,-0.65604,-0.194298
2.35171,-0.431619,0.0695846
2.2913,-0.657019,0.0416065
2.35574,-0.432359,-0.153498
2.24921,-0.765695,-0.138371
2.31709,-0.543468,0.138603
2.28206,-0.654372,0.0967205
2.3185,-0.543799,-0.11093
2.29619,-0.658421,-0.125188
2.31144,-0.542144,0.291512
2.26872,-0.650545,0.192671
2.35075,-0.431444,-0.0973718
2.32038,-0.544241,-0.0554593
2.34288,-0.438882,-0.0416065
2.2729,-0.660768,-0.0688864
2.319,-0.552892,0
2.24248,-0.772587,-0.0276127
2.28233,-0.663511,-0.302539
2.35107,-0.440415,0.0139021
2.28534,-0.664387,-0.0138324
2.3134,-0.551557,-0.256176
2.24422,-0.773186,-0.221579
2.33004,-0.555524,0.0557385
2.24627,-0.77389,0.0276592
2.32112,-0.553396,-0.166857
2.28163,-0.663308,-0.193973
2.35011,-0.440236,0.0695846
2.28888,-0.665413,0.0416065
2.35021,-0.440255,-0.153242
2.24639,-0.773934,-0.138371
2.32673,-0.554735,0.139301
2.29116,-0.666078,0.097209
2.31649,-0.552293,-0.11093
2.30143,-0.669063,-0.125606
2.30558,-0.549691,0.291024
2.26632,-0.658856,0.192671
2.34523,-0.439321,-0.097209
2.32615,-0.554597,-0.0556454
2.34927,-0.448148,-0.0417462
2.27453,-0.669431,-0.0690027
2.30938,-0.558698,0
2.24746,-0.78265,-0.0277058
2.30114,-0.556704,-0.368331
2.27631,-0.669955,-0.302034
2.34566,-0.447459,0.0138789
2.28697,-0.673091,-0.0138556
2.30769,-0.55829,-0.255748
2.24541,-0.781934,-0.22195
2.32042,-0.561367,0.0555524
2.24369,-0.781334,0.0276592
2.31539,-0.560152,-0.166578
2.28325,-0.671996,-0.194298
2.34471,-0.447277,0.0694682
2.28666,-0.673,0.0416065
2.34482,-0.447298,-0.152986
2.24759,-0.782692,-0.138603
2.321,-0.561509,0.139069
2.28128,-0.671416,0.0968833
2.31853,-0.560911,-0.111116
2.29153,-0.674435,-0.125188
2.31146,-0.559201,0.291999
2.2603,-0.665242,0.192346
2.34768,-0.447845,-0.0973718
2.3243,-0.562308,-0.0556454
2.34769,-0.456346,-0.0417462
2.27218,-0.677366,-0.0690027
2.29965,-0.564847,0
2.24472,-0.79049,-0.0277058
2.29918,-0.564733,-0.368331
2.27016,-0.676763,-0.301529
2.33623,-0.454118,0.0138324
2.28077,-0.679927,-0.0138324
2.30187,-0.565393,-0.255319
2.25018,-0.792413,-0.222694
2.32232,-0.570418,0.0556454
2.24472,-0.79049,0.0277058
2.31342,-0.56823,-0.166578
2.27707,-0.678823,-0.193973
2.34706,-0.456222,0.0695846
2.28046,-0.679835,0.0415367
2.34324,-0.455481,-0.152986
2.24107,-0.789206,-0.138371
2.31515,-0.568654,0.138836
2.27892,-0.679375,0.0968833
2.31268,-0.568048,-0.11093
2.29299,-0.683571,-0.125397
2.30949,-0.567266,0.291999
2.2656,-0.675406,0.192997
2.34611,-0.456037,-0.0973718
2.31067,-0.567556,-0.0553663
2.34216,-0.463761,-0.0416763
2.26597,-0.684138,-0.0688864
2.30154,-0.573839,0
2.24948,-0.801004,-0.0277989
2.29719,-0.572755,-0.368331
2.27158,-0.685831,-0.302034
2.33856,-0.463047,0.0138556
2.27838,-0.687884,-0.0138324
2.29988,-0.573425,-0.255319
2.23614,-0.796255,-0.221579
2.31256,-0.576586,0.0554593
2.23441,-0.795637,0.0276127
2.30755,-0.575337,-0.166299
2.2785,-0.687919,-0.194298
2.34937,-0.465189,0.0697009
2.2819,-0.688947,0.0416065
2.34556,-0.464433,-0.153242
2.2383,-0.797024,-0.138371
2.31315,-0.576732,0.138836
2.27271,-0.68617,0.0967205
2.3068,-0.575151,-0.110744
2.28677,-0.690417,-0.125188
2.3075,-0.575324,0.291999
2.25942,-0.682158,0.192671
2.34058,-0.463447,-0.097209
2.31644,-0.577553,-0.0555524
2.33661,-0.471143,-0.0416065
2.25975,-0.690874,-0.06877
2.29565,-0.580888,0
2.23914,-0.806142,-0.0277058
2.29135,-0.5798,-0.367716
2.27297,-0.694916,-0.302539
2.34477,-0.472788,0.0139021
2.27597,-0.695833,-0.0138324
2.29787,-0.581449,-0.255319
2.23335,-0.804056,-0.221579
2.31053,-0.584655,0.0554593
2.23162,-0.803432,0.0276127
2.30166,-0.582409,-0.16602
2.27227,-0.694703,-0.193973
2.34382,-0.472596,0.0695846
2.27948,-0.696908,0.0416065
2.34392,-0.472617,-0.153242
2.23927,-0.806185,-0.138603
2.31499,-0.585783,0.139069
2.27412,-0.695268,0.0968833
2.30478,-0.583199,-0.110744
2.28435,-0.698395,-0.125188
2.30163,-0.582402,0.291512
2.26465,-0.692372,0.193322
2.33895,-0.471615,-0.097209
2.31053,-0.584655,-0.0554593
2.33887,-0.480101,-0.0416763
2.25732,-0.698758,-0.06877
2.29748,-0.589892,0
2.24008,-0.815321,-0.0277523
2.28548,-0.586812,-0.367101
2.27432,-0.704019,-0.303044
2.33919,-0.480166,0.0138789
2.27352,-0.703773,-0.0138324
2.30353,-0.591445,-0.256176
2.23801,-0.814571,-0.222322
2.31622,-0.594705,0.0556454
2.22504,-0.809849,0.0275661
2.29961,-0.59044,-0.16602
2.26983,-0.702631,-0.193973
2.33824,-0.479971,0.0694682
2.27704,-0.704861,0.0416065
2.34617,-0.481599,-0.153498
2.22893,-0.811265,-0.138138
2.3052,-0.591874,0.138603
2.27168,-0.703202,0.0968833
2.3066,-0.592234,-0.11093
2.27808,-0.705183,-0.124978
2.29189,-0.588457,0.290537
2.25079,-0.696736,0.192346
2.32946,-0.478169,-0.0968833
2.31235,-0.593711,-0.0555524
2.33343,-0.48663,-0.0416065
2.25512,-0.705846,-0.06877
2.29561,-0.597107,0
2.22624,-0.818215,-0.0276127
2.28745,-0.594984,-0.367716
2.26452,-0.70879,-0.302034
2.32983,-0.485879,0.0138324
2.2713,-0.710912,-0.0138324
2.29396,-0.596676,-0.255319
2.23918,-0.822972,-0.222694
2.31047,-0.600972,0.0555524
2.22999,-0.819595,0.0276592
2.30547,-0.599671,-0.166578
2.26381,-0.708567,-0.193647
2.33672,-0.487314,0.0694682
2.27099,-0.710816,0.0415367
2.33292,-0.486522,-0.152731
2.23012,-0.819641,-0.138371
2.30719,-0.600118,0.138836
2.26564,-0.709141,0.0967205
2.30086,-0.598472,-0.110744
2.27966,-0.71353,-0.125188
2.29772,-0.597654,0.291512
2.2524,-0.704995,0.192671
2.33577,-0.487116,-0.097209
2.31434,-0.601979,-0.0556454
2.33172,-0.494772,-0.0416065
2.25264,-0.713714,-0.06877
2.29738,-0.606137,0
2.22712,-0.827374,-0.0276592
2.28154,-0.601957,-0.367101
2.26582,-0.717889,-0.302539
2.33204,-0.494839,0.0138556
2.27262,-0.720044,-0.0138556
2.28802,-0.603666,-0.254891
2.2363,-0.830783,-0.222694
2.30836,-0.609034,0.0555524
2.23087,-0.828767,0.0277058
2.2995,-0.606697,-0.166299
2.26132,-0.716465,-0.193647
2.335,-0.495468,0.0694682
2.27231,-0.719947,0.0416065
2.33511,-0.495492,-0.152986
2.2235,-0.82603,-0.138138
2.30122,-0.607149,0.138603
2.26696,-0.718253,0.0968833
2.29876,-0.6065,-0.110744
2.28097,-0.722689,-0.125397
2.29561,-0.605671,0.291512
2.25752,-0.715261,0.193322
2.33405,-0.495267,-0.097209
2.30063,-0.606993,-0.0553663
2.32998,-0.502908,-0.0416065
2.24633,-0.720352,-0.0686537
2.29912,-0.615187,0
2.22422,-0.835143,-0.0276592
2.27943,-0.609918,-0.367101
2.26707,-0.727005,-0.303044
2.3303,-0.502976,0.0138556
2.27009,-0.727973,-0.0138556
2.2859,-0.611649,-0.254891
2.2222,-0.834384,-0.221579
2.30236,-0.616054,0.0554593
2.22422,-0.835143,0.0276592
2.29737,-0.61472,-0.166299
2.2626,-0.725572,-0.193973
2.32935,-0.502772,0.0693518
2.26978,-0.727874,0.0416065
2.33337,-0.50364,-0.152986
2.22061,-0.833787,-0.138138
2.29909,-0.615178,0.138603
2.26064,-0.724941,0.0967205
2.29663,-0.61452,-0.110744
2.27463,-0.729427,-0.125188
2.29349,-0.61368,0.291512
2.25122,-0.721919,0.192997
2.33231,-0.503411,-0.097209
2.2985,-0.61502,-0.0553663
2.32821,-0.511038,-0.0416065
2.2476,-0.729423,-0.06877
2.28924,-0.621114,0
2.22503,-0.844321,-0.0277058
2.27728,-0.617871,-0.367101
2.26075,-0.73369,-0.302539
2.32462,-0.51025,0.0138324
2.26754,-0.735893,-0.0138556
2.28375,-0.619624,-0.254891
2.21182,-0.83931,-0.220835
2.29634,-0.62304,0.0553663
2.22129,-0.842902,0.0276592
2.29521,-0.622735,-0.166299
2.26006,-0.733465,-0.193973
2.32758,-0.5109,0.0693518
2.26723,-0.735793,0.0416065
2.3277,-0.510926,-0.152731
2.21395,-0.840116,-0.137906
2.29693,-0.6232,0.138603
2.25809,-0.732828,0.0967205
2.29061,-0.621487,-0.110558
2.26827,-0.73613,-0.124978
2.2875,-0.620642,0.291024
2.24868,-0.729773,0.192997
2.32664,-0.510693,-0.0970462
2.30019,-0.624087,-0.0554593
2.32641,-0.519162,-0.0416065
2.24884,-0.738511,-0.0688864
2.28705,-0.629101,0
2.21833,-0.85065,-0.0276592
2.26194,-0.742815,-0.303044
2.32673,-0.519233,0.0138556
2.26496,-0.743803,-0.0138556
2.28157,-0.627592,-0.254891
2.22004,-0.851303,-0.22195
2.298,-0.632112,0.0554593
2.21086,-0.847786,0.0275661
2.28918,-0.629685,-0.16602
2.2537,-0.740106,-0.193647
2.31798,-0.51728,0.0691191
2.26845,-0.74495,0.0416763
2.3259,-0.519048,-0.152731
2.21846,-0.850699,-0.138371
2.29474,-0.631214,0.138603
2.25552,-0.740705,0.0967205
2.28843,-0.629479,-0.110558
2.26568,-0.744043,-0.124978
2.28532,-0.628623,0.291024
2.23854,-0.73513,0.192346
2.32484,-0.518811,-0.0970462
2.29029,-0.629991,-0.0552732
2.32459,-0.52728,-0.0416065
2.24625,-0.746357,-0.0688864
2.28484,-0.63708,0
2.21908,-0.859833,-0.0277058
2.25181,-0.748203,-0.302034
2.3171,-0.525582,0.0138091
2.2832,-0.636621,-0.255319
2.21705,-0.859047,-0.22195
2.29578,-0.64013,0.0554593
2.22281,-0.861279,0.0277523
2.28697,-0.637672,-0.16602
2.2511,-0.747968,-0.193647
2.32396,-0.527137,0.0693518
2.26204,-0.751603,0.0416065
2.32407,-0.527163,-0.152731
2.21548,-0.858437,-0.138371
2.29637,-0.640293,0.138836
2.24913,-0.747314,0.0965577
2.28622,-0.637463,-0.110558
2.26307,-0.751947,-0.124978
2.27929,-0.63553,0.290537
2.23975,-0.744197,0.192671
2.31912,-0.526039,-0.0968833
2.29578,-0.64013,-0.0554593
2.32273,-0.535391,-0.0416065
2.23984,-0.752919,-0.06877
2.28261,-0.645052,0
2.21979,-0.869032,-0.0277523
2.27069,-0.641684,-0.367101
2.24918,-0.756059,-0.302034
2.31135,-0.532768,0.0137859
2.25592,-0.758323,-0.0138324
2.26948,-0.641342,-0.254034
2.29353,-0.64814,0.0554593
2.21607,-0.867574,0.0277058
2.28857,-0.646736,-0.166299
2.24847,-0.755821,-0.193647
2.3221,-0.535246,0.0693518
2.25561,-0.75822,0.0415367
2.32611,-0.536169,-0.152986
2.21247,-0.866165,-0.138371
2.28643,-0.646133,0.138371
2.25408,-0.757707,0.0968833
2.28782,-0.646527,-0.110744
2.26422,-0.761115,-0.125188
2.28087,-0.644563,0.291024
2.23714,-0.752011,0.192671
2.32505,-0.535926,-0.097209
2.28584,-0.645965,-0.0552732
2.31695,-0.542584,-0.0415367
2.24098,-0.76202,-0.0688864
2.28034,-0.653016,0
2.21674,-0.876776,-0.0277523
2.26843,-0.649606,-0.367101
2.24653,-0.763906,-0.302034
2.32116,-0.543569,0.0138556
2.25326,-0.766193,-0.0138324
2.27105,-0.650355,-0.254463
2.28741,-0.655041,0.0553663
2.21674,-0.876776,0.0277523
2.27862,-0.652524,-0.165741
2.2496,-0.764949,-0.193973
2.31243,-0.541525,0.0691191
2.25295,-0.766089,0.0415367
2.32034,-0.543375,-0.152731
2.20943,-0.873883,-0.138371
2.28416,-0.65411,0.138371
2.24386,-0.762997,0.0965577
2.28555,-0.654509,-0.110744
2.26155,-0.769014,-0.125188
2.28243,-0.653613,0.291512
2.2345,-0.759815,0.192671
2.31928,-0.543128,-0.0970462
2.29126,-0.656142,-0.0554593
2.31894,-0.551593,-0.0416065
2.23453,-0.768538,-0.06877
2.27036,-0.658743,0
2.21367,-0.884508,-0.0277523
2.26615,-0.65752,-0.367101
2.25135,-0.774324,-0.303044
2.31925,-0.551668,0.0138556
2.2764,-0.660495,-0.255319
2.28511,-0.663022,0.0553663
2.20624,-0.88154,0.0276592
2.26867,-0.65825,-0.165183
2.24691,-0.772797,-0.193973
2.31442,-0.550519,0.0692355
2.25783,-0.77655,0.0416763
2.31454,-0.550548,-0.152475
2.20637,-0.88159,-0.138371
2.28186,-0.662079,0.138371
2.24118,-0.770825,0.0965577
2.27942,-0.661369,-0.110558
2.25885,-0.776903,-0.125188
2.27632,-0.66047,0.291024
2.2356,-0.768907,0.192997
2.32126,-0.552145,-0.097209
2.28511,-0.663022,-0.0553663
2.31311,-0.558746,-0.0415367
2.22806,-0.775019,-0.0686537
2.27189,-0.667791,0
2.20315,-0.889236,-0.0276592
2.26005,-0.664312,-0.366486
2.24489,-0.780874,-0.302539
2.31342,-0.558821,0.0138324
2.24785,-0.781905,-0.0138324
2.26645,-0.666194,-0.254463
2.28662,-0.672122,0.0554593
2.19944,-0.887739,0.0276127
2.26635,-0.666165,-0.165183
2.22914,-0.775396,-0.192671
2.3086,-0.557655,0.0691191
2.24755,-0.781799,0.0415367
2.32037,-0.560498,-0.152986
2.20328,-0.889287,-0.138371
2.27954,-0.67004,0.138371
2.24225,-0.779957,0.0967205
2.27326,-0.668195,-0.110372
2.25235,-0.783471,-0.124978
2.274,-0.668412,0.291024
2.22914,-0.775396,0.192671
2.31155,-0.558367,-0.0968833
2.28278,-0.670994,-0.0553663
2.31115,-0.566817,-0.0415367
2.23288,-0.785445,-0.0688864
2.26571,-0.674577,0
2.20744,-0.899941,-0.0277523
2.25393,-0.671069,-0.365871
2.23466,-0.786072,-0.301529
2.30757,-0.565941,0.0138091
2.25265,-0.792401,-0.0138789
2.26793,-0.675236,-0.254891
2.28426,-0.680099,0.0554593
2.20374,-0.898431,0.0277058
2.26402,-0.674072,-0.165183
2.24146,-0.788464,-0.193973
2.30275,-0.564758,0.0690027
2.24103,-0.788312,0.0414669
2.31064,-0.566693,-0.152475
2.20386,-0.89848,-0.138603
2.28101,-0.679133,0.138603
2.23574,-0.786453,0.0965577
2.27092,-0.676126,-0.110372
2.24961,-0.791328,-0.124978
2.27165,-0.676346,0.291024
2.23018,-0.784496,0.192997
2.31346,-0.567385,-0.0970462
2.28426,-0.680099,-0.0554593
2.30537,-0.573512,-0.0414669
2.23026,-0.792846,-0.0688864
2.26346,-0.682086,0
2.19705,-0.904212,-0.0276592
2.25548,-0.67968,-0.366486
2.3018,-0.572624,0.0137859
2.24625,-0.798527,-0.0138556
2.26187,-0.681606,-0.254463
2.28582,-0.688824,0.0555524
2.19705,-0.904212,0.0276592
2.26559,-0.682727,-0.165462
2.24259,-0.797228,-0.194298
2.30475,-0.573357,0.0691191
2.2384,-0.79574,0.0414669
2.30875,-0.574352,-0.152475
2.20086,-0.905783,-0.138603
2.26728,-0.683237,0.137906
2.23689,-0.795201,0.0967205
2.26483,-0.6825,-0.110186
2.2694,-0.683875,0.291024
2.22381,-0.790551,0.192671
2.30769,-0.574089,-0.0968833
2.27816,-0.686517,-0.0553663
2.30723,-0.582535,-0.0415367
2.22748,-0.800626,-0.0688864
2.26107,-0.689983,0
2.19757,-0.91341,-0.0277058
2.25309,-0.687549,-0.366486
2.29979,-0.580655,0.0137859
2.23968,-0.80501,-0.0138324
2.25187,-0.687175,-0.253606
2.27575,-0.694465,0.0553663
2.19757,-0.91341,0.0277058
2.26319,-0.690631,-0.165462
2.2473,-0.807748,-0.194949
2.30661,-0.582377,0.0692355
2.24314,-0.806254,0.0416065
2.30673,-0.582408,-0.152475
2.194,-0.911927,-0.138371
2.26488,-0.691147,0.137906
2.2341,-0.803005,0.0967205
2.25862,-0.689236,-0.11
2.267,-0.691792,0.291024
2.22104,-0.798309,0.192671
2.30955,-0.583119,-0.0970462
2.27575,-0.694465,-0.0553663
2.30519,-0.590585,-0.0415367
2.22467,-0.808396,-0.0688864
2.25482,-0.69669,0
2.19806,-0.922624,-0.0277523
2.25445,-0.696577,-0.367101
2.29775,-0.588679,0.0137859
2.23686,-0.812823,-0.0138324
2.26085,-0.698554,-0.254891
2.27332,-0.702405,0.0553663
2.1833,-0.916432,0.0275661
2.24933,-0.694993,-0.164625
2.24072,-0.814227,-0.194624
2.30456,-0.590425,0.0692355
2.23655,-0.812713,0.0415367
2.30855,-0.591447,-0.152731
2.19449,-0.921126,-0.138603
2.26627,-0.700227,0.138138
2.22753,-0.809433,0.0965577
2.26002,-0.698295,-0.110186
2.24134,-0.814451,-0.124978
2.26077,-0.69853,0.290537
2.21824,-0.806057,0.192671
2.3075,-0.591177,-0.0970462
2.27714,-0.703585,-0.0554593
2.30311,-0.598628,-0.0415367
2.21809,-0.814778,-0.06877
2.24856,-0.703363,0
2.19114,-0.92873,-0.0277058
2.25201,-0.704442,-0.367101
2.30342,-0.598709,0.0138324
2.23776,-0.822005,-0.0138556
2.2584,-0.706441,-0.254891
2.27085,-0.710336,0.0553663
2.18377,-0.925608,0.0276127
2.2507,-0.704032,-0.164904
2.23786,-0.822043,-0.194624
2.29862,-0.59746,0.0691191
2.23746,-0.821894,0.0416065
2.30261,-0.598497,-0.152475
2.26762,-0.709326,0.138371
2.22469,-0.817204,0.0965577
2.25756,-0.70618,-0.110186
2.23848,-0.82227,-0.124978
2.25453,-0.705232,0.290049
2.21915,-0.81517,0.192997
2.30155,-0.598223,-0.0968833
2.27848,-0.712723,-0.0555524
2.30487,-0.607683,-0.0416065
2.21148,-0.821124,-0.0686537
2.2499,-0.712415,0
2.19156,-0.937946,-0.0277523
2.24577,-0.711106,-0.366486
2.30132,-0.606746,0.0138324
2.23488,-0.829812,-0.0138556
2.25213,-0.71312,-0.254463
2.27598,-0.720672,0.0555524
2.18421,-0.934799,0.0276592
2.24823,-0.711884,-0.164904
2.23498,-0.82985,-0.194624
2.29652,-0.60548,0.0691191
2.23083,-0.828307,0.0415367
2.30051,-0.606531,-0.152475
2.26513,-0.717237,0.138371
2.22557,-0.826356,0.0967205
2.25508,-0.714056,-0.110186
2.23934,-0.831469,-0.125188
2.25584,-0.714296,0.290537
2.29945,-0.606253,-0.0968833
2.27598,-0.720672,-0.0555524
2.29115,-0.612626,-0.0413971
2.21609,-0.831648,-0.0688864
2.2474,-0.720264,0
2.18827,-0.945591,-0.0277523
2.24704,-0.720147,-0.367101
2.29146,-0.612709,0.0137859
2.23197,-0.837608,-0.0138556
2.25341,-0.722191,-0.254891
2.26964,-0.727392,0.0554593
2.18827,-0.945591,0.0277523
2.25713,-0.723381,-0.165741
2.22834,-0.836245,-0.194298
2.29439,-0.613493,0.0691191
2.22418,-0.834684,0.0414669
2.29452,-0.613527,-0.152219
2.25501,-0.722702,0.137906
2.22267,-0.834119,0.0967205
2.25258,-0.721923,-0.110186
2.23269,-0.837877,-0.124978
2.2896,-0.612211,-0.0965577
2.26964,-0.727392,-0.0554593
2.29286,-0.621666,-0.0414669
2.20569,-0.836543,-0.0686537
2.24487,-0.728105,0
2.18496,-0.953223,-0.0277523
2.29703,-0.622797,0.0138324
2.22529,-0.843975,-0.0138324
2.2471,-0.728825,-0.254463
2.26709,-0.73531,0.0554593
2.18129,-0.951624,0.0277058
2.2432,-0.727562,-0.164904
2.22913,-0.845433,-0.194624
2.28838,-0.620451,0.0690027
2.21751,-0.841025,0.0413971
2.29622,-0.622577,-0.152475
2.26007,-0.733033,0.138371
2.21975,-0.841873,0.0967205
2.24624,-0.728549,-0.11
2.23348,-0.847082,-0.125188
2.29516,-0.622291,-0.0968833
2.26329,-0.734076,-0.0553663
2.29067,-0.629666,-0.0414669
2.20276,-0.844237,-0.0686537
2.24232,-0.735936,0
2.18528,-0.962457,-0.0277989
2.29098,-0.629751,0.0138091
2.22607,-0.853169,-0.0138556
2.25587,-0.740385,-0.255748
2.26451,-0.743219,0.0554593
2.17796,-0.959232,0.0277058
2.24444,-0.736632,-0.165183
2.22617,-0.853209,-0.194624
2.29391,-0.630555,0.0692355
2.22576,-0.853054,0.0416065
2.29403,-0.630588,-0.152475
2.2575,-0.740918,0.138371
2.21306,-0.848186,0.0965577
2.24748,-0.737631,-0.110186
2.23051,-0.854874,-0.125188
2.29683,-0.631358,-0.0970462
2.26831,-0.744466,-0.0555524
2.29231,-0.638732,-0.0415367
2.20726,-0.854809,-0.0688864
2.23974,-0.743759,0
2.17094,-0.965204,-0.0276592
2.29262,-0.638818,0.0138324
2.21934,-0.85949,-0.0138324
2.25328,-0.748255,-0.255748
2.25811,-0.749859,0.0553663
2.1746,-0.966829,0.0277058
2.24564,-0.74572,-0.165462
2.21946,-0.859534,-0.194298
2.28399,-0.636412,0.0690027
2.21904,-0.859374,0.0415367
2.29181,-0.638592,-0.152475
2.25111,-0.747535,0.138138
2.21009,-0.855905,0.0965577
2.24869,-0.746731,-0.110372
2.22379,-0.861212,-0.124978
2.28306,-0.636154,-0.0965577
2.2657,-0.75238,-0.0555524
2.29007,-0.646729,-0.0415367
2.20426,-0.862509,-0.0688864
2.23713,-0.751573,0
2.17121,-0.974414,-0.0277058
2.28653,-0.64573,0.0138091
2.22005,-0.868689,-0.0138556
2.25065,-0.756116,-0.255748
2.25548,-0.757737,0.0553663
2.17121,-0.974414,0.0277058
2.24303,-0.753554,-0.165462
2.22016,-0.868729,-0.194624
2.27406,-0.642208,0.06877
2.21231,-0.865657,0.0414669
2.28189,-0.644419,-0.151963
2.24848,-0.755388,0.138138
2.21081,-0.865071,0.0967205
2.24985,-0.755849,-0.110558
2.22449,-0.870425,-0.125188
2.28852,-0.646292,-0.0968833
2.26306,-0.760284,-0.0555524
2.28395,-0.653619,-0.0414669
2.20123,-0.870198,-0.0688864
2.2307,-0.75809,0
2.17144,-0.983637,-0.0277523
2.28042,-0.652607,0.0137859
2.21329,-0.874963,-0.0138324
2.24047,-0.761408,-0.254891
2.2566,-0.766892,0.0554593
2.17872,-0.986938,0.0278455
2.24038,-0.761379,-0.165462
2.21711,-0.876474,-0.194624
2.27949,-0.652342,0.0690027
2.20555,-0.871904,0.0413971
2.27962,-0.65238,-0.151963
2.24583,-0.763232,0.138138
2.20778,-0.872783,0.0967205
2.24342,-0.762412,-0.110372
2.22144,-0.878184,-0.125188
2.27856,-0.652077,-0.0965577
2.25282,-0.765605,-0.0553663
2.27782,-0.660474,-0.0413971
2.19076,-0.87491,-0.0686537
2.23561,-0.768473,0
2.17163,-0.992874,-0.0277989
2.27812,-0.660563,0.0137859
2.20651,-0.8812,-0.0138091
2.23779,-0.769224,-0.254891
2.25013,-0.773465,0.0553663
2.16435,-0.989548,0.0277058
2.22639,-0.765304,-0.164625
2.27336,-0.659181,0.0688864
2.21364,-0.884047,0.0416065
2.2735,-0.659222,-0.151707
2.24316,-0.771067,0.138138
2.201,-0.879002,0.0965577
2.24452,-0.771537,-0.110558
2.28395,-0.662253,-0.0968833
2.25391,-0.774764,-0.0554593
2.28317,-0.670675,-0.0415367
2.19511,-0.885544,-0.0688864
2.22536,-0.773645,0
2.16089,-0.997097,-0.0277058
2.27964,-0.669638,0.0138091
2.21084,-0.89189,-0.0138556
2.2351,-0.777031,-0.254891
2.25119,-0.782627,0.0554593
2.23124,-0.775691,-0.165183
2.28255,-0.670493,0.0692355
2.21054,-0.891769,0.0416065
2.27884,-0.669404,-0.152219
2.24422,-0.780204,0.138371
2.19422,-0.885184,0.0963948
2.23427,-0.776743,-0.110186
2.21155,-0.892177,-0.124978
2.28546,-0.671347,-0.0970462
2.25119,-0.782627,-0.0554593
2.27698,-0.6775,-0.0414669
2.1957,-0.89471,-0.0690027
2.22264,-0.781408,0
2.27346,-0.676451,0.0137859
2.20401,-0.898092,-0.0138324
2.23987,-0.787466,-0.255748
2.2409,-0.787828,0.0552732
2.23229,-0.784798,-0.165462
2.27253,-0.676176,0.0690027
2.20371,-0.89797,0.0415367
2.27267,-0.676216,-0.151963
2.24525,-0.789357,0.138603
2.19851,-0.895855,0.0967205
2.23908,-0.787188,-0.110558
2.21212,-0.901398,-0.125188
2.27161,-0.675902,-0.0965577
2.24468,-0.789154,-0.0553663
2.27843,-0.686598,-0.0415367
2.18517,-0.899325,-0.06877
2.2199,-0.789162,0
2.26725,-0.683229,0.0137626
2.20086,-0.90578,-0.0138324
2.23336,-0.793948,-0.255319
2.24191,-0.796985,0.0553663
2.23329,-0.793922,-0.165741
2.26633,-0.682951,0.0688864
2.20426,-0.907179,0.0416065
2.27029,-0.684145,-0.151963
2.23872,-0.795852,0.138371
2.19907,-0.905044,0.0968833
2.24009,-0.796337,-0.110744
2.27307,-0.68498,-0.0967205
2.24568,-0.798324,-0.0554593
2.26455,-0.691045,-0.0413273
2.1894,-0.910017,-0.0690027
2.22466,-0.799612,0
2.26103,-0.689971,0.0137394
2.19399,-0.911922,-0.0138091
2.22684,-0.800394,-0.254891
2.23911,-0.804806,0.0553663
2.22675,-0.800363,-0.165462
2.26776,-0.692025,0.0690027
2.20108,-0.914868,0.0416065
2.26407,-0.690901,-0.151707
2.23217,-0.802311,0.138138
2.19221,-0.911181,0.0967205
2.23353,-0.8028,-0.110558
2.26684,-0.691744,-0.0965577
2.23535,-0.803453,-0.0552732
2.26594,-0.700126,-0.0413971
2.17884,-0.914558,-0.06877
2.22186,-0.807372,0
2.26625,-0.700221,0.0137859
2.20186,-0.924219,-0.0138789
2.22403,-0.808162,-0.254891
2.23629,-0.812617,0.0553663
2.22019,-0.806768,-0.165183
2.26533,-0.699937,0.0690027
2.19418,-0.920998,0.0415367
2.26928,-0.701156,-0.152219
2.22936,-0.810098,0.138138
2.21945,-0.806498,-0.11
2.20256,-0.924514,-0.125188
2.26823,-0.700832,-0.0967205
2.23253,-0.811251,-0.0552732
2.26348,-0.708032,-0.0413971
2.183,-0.925279,-0.0690027
2.21527,-0.813744,0
2.26379,-0.708127,0.0137859
2.19493,-0.930338,-0.0138556
2.22866,-0.818663,-0.255748
2.23344,-0.820418,0.0553663
2.21362,-0.813138,-0.164904
2.26287,-0.70784,0.0690027
2.18727,-0.927091,0.0414669
2.263,-0.707881,-0.151963
2.23026,-0.819252,0.138371
2.22037,-0.815618,-0.110186
2.19196,-0.929079,-0.124769
2.26577,-0.708746,-0.0967205
2.23344,-0.820418,-0.0553663
2.25719,-0.714721,-0.0413273
2.17976,-0.932894,-0.0690027
2.21242,-0.821472,0
2.25749,-0.714818,0.0137626
2.19167,-0.937994,-0.0138556
2.22579,-0.826437,-0.255748
2.23056,-0.828209,0.0553663
2.21451,-0.822249,-0.165183
2.24895,-0.712114,0.0686537
2.1877,-0.936294,0.0415367
2.25671,-0.714572,-0.151707
2.23113,-0.828422,0.138603
2.21751,-0.823364,-0.110186
2.19972,-0.94144,-0.125397
2.25566,-0.714238,-0.0963948
2.23431,-0.829601,-0.0554593
2.25849,-0.723816,-0.0413971
2.17649,-0.940497,-0.0690027
2.21328,-0.830595,0
2.25117,-0.721473,0.0137394
2.22766,-0.83599,0.0553663
2.20789,-0.828572,-0.164904
2.25787,-0.72362,0.0690027
2.18442,-0.943924,0.0415367
2.25421,-0.722444,-0.151707
2.23197,-0.837608,0.138836
2.21088,-0.829695,-0.11
2.25315,-0.722107,-0.0963948
2.23514,-0.8388,-0.0555524
2.25214,-0.730462,-0.0413273
2.17685,-0.949687,-0.0691191
2.20289,-0.835479,0
2.24864,-0.729327,0.0137394
2.18507,-0.953272,-0.0138556
2.22846,-0.845179,0.0554593
2.20871,-0.837689,-0.165183
2.25533,-0.731497,0.0690027
2.17744,-0.949944,0.0414669
2.25547,-0.73154,-0.151963
2.22156,-0.842562,0.138371
2.20797,-0.837408,-0.11
2.25062,-0.729967,-0.0963948
2.22846,-0.845179,-0.0554593
2.25351,-0.739173,-0.0413971
2.16637,-0.953679,-0.0688864
2.20384,-0.84421,0
2.24621,-0.736779,0.0137394
2.1819,-0.960513,-0.0138556
2.21818,-0.849703,0.0552732
2.20592,-0.845008,-0.165183
2.2491,-0.737726,0.0688864
2.17794,-0.958771,0.0415367
2.24924,-0.737772,-0.151707
2.21503,-0.848496,0.138138
2.20518,-0.844725,-0.11
2.25198,-0.738672,-0.0965577
2.22192,-0.851134,-0.0553663
2.24712,-0.745774,-0.0413273
2.16303,-0.961235,-0.0688864
2.19715,-0.850454,0
2.24363,-0.744615,0.0137394
2.17853,-0.968123,-0.0138556
2.21893,-0.858885,0.0553663
2.20668,-0.854144,-0.165462
2.2503,-0.746832,0.0690027
2.17824,-0.967992,0.0416065
2.24665,-0.745618,-0.151707
2.21205,-0.856223,0.138138
2.20222,-0.852417,-0.11
2.25318,-0.747788,-0.0967205
2.2152,-0.857441,-0.0552732
2.24071,-0.752341,-0.0412575
2.16331,-0.970416,-0.0690027
2.19417,-0.858118,0
2.2448,-0.753716,0.0137626
2.17514,-0.975722,-0.0138556
2.22337,-0.869538,0.0555524
2.19997,-0.860388,-0.165183
2.2401,-0.752137,0.06877
2.15295,-0.965768,0.0411877
2.24025,-0.752185,-0.151451
2.21277,-0.865393,0.138371
2.20295,-0.861555,-0.110186
2.24677,-0.754376,-0.0965577
2.21964,-0.868082,-0.0554593
2.24186,-0.761444,-0.0413273
2.16355,-0.979611,-0.0691191
2.1986,-0.868712,0
2.2308,-0.757688,0.0136929
2.17536,-0.984958,-0.0138789
2.22032,-0.877294,0.0555524
2.20067,-0.869528,-0.165462
2.23746,-0.759952,0.06877
2.24139,-0.761285,-0.151707
2.20974,-0.873112,0.138371
2.20365,-0.870707,-0.110372
2.24412,-0.762214,-0.0965577
2.2166,-0.875824,-0.0554593
2.2354,-0.767966,-0.0412575
2.15285,-0.983833,-0.0688864
2.18812,-0.873415,0
2.2357,-0.76807,0.0137394
2.16464,-0.989221,-0.0138324
2.20981,-0.882074,0.0553663
2.20873,-0.881643,-0.166299
2.2348,-0.767757,0.06877
2.23494,-0.767807,-0.151451
2.20802,-0.881357,-0.110744
2.24523,-0.771342,-0.0967205
2.21353,-0.883556,-0.0554593
2.23271,-0.775764,-0.0412575
2.19619,-0.885535,0
2.22923,-0.774556,0.0137161
2.1648,-0.998446,-0.0138556
2.20301,-0.888287,0.0552732
2.20194,-0.887855,-0.16602
2.23966,-0.778178,0.0690027
2.23602,-0.776914,-0.151707
2.19011,-0.883082,-0.11
2.23875,-0.777862,-0.0965577
2.21414,-0.892773,-0.0555524
2.23376,-0.784878,-0.0413273
2.18197,-0.88867,0
2.23029,-0.783659,0.0137394
2.2036,-0.89748,0.0553663
2.19513,-0.894031,-0.165741
2.23693,-0.785991,0.0690027
2.23706,-0.786038,-0.151963
2.19441,-0.893736,-0.110372
2.24356,-0.788322,-0.0968833
2.2036,-0.89748,-0.0553663
2.23101,-0.792671,-0.0413273
2.17516,-0.894759,0
2.23131,-0.792778,0.0137626
2.19676,-0.903645,0.0552732
2.20307,-0.906242,-0.166578
2.2304,-0.792456,0.0688864
2.2343,-0.793841,-0.151963
2.18389,-0.89835,-0.11
2.2295,-0.792135,-0.0963948
2.20046,-0.905166,-0.0553663
2.23575,-0.803158,-0.0414669
2.17941,-0.905416,0
2.221,-0.797858,0.0137161
2.20098,-0.914376,0.0554593
2.22386,-0.798885,0.06877
2.22776,-0.800286,-0.151707
2.18812,-0.909034,-0.110372
2.23048,-0.801263,-0.0965577
2.22542,-0.808227,-0.0413273
2.17624,-0.913018,0
2.22196,-0.806971,0.0137394
2.19408,-0.920506,0.0553663
2.22857,-0.809373,0.0690027
2.22495,-0.808058,-0.151707
2.18125,-0.91512,-0.110186
2.22767,-0.809044,-0.0965577
2.19408,-0.920506,-0.0553663
2.23009,-0.818747,-0.0414669
2.17303,-0.920609,0
2.22288,-0.816101,0.0137626
2.18349,-0.925039,0.0551802
2.21823,-0.814391,0.06877
2.21837,-0.814444,-0.151451
2.17804,-0.922729,-0.110186
2.22483,-0.816816,-0.0965577
2.19454,-0.929719,-0.0554593
2.21972,-0.823743,-0.0413273
2.16981,-0.928188,0
2.22752,-0.826638,0.0138091
2.18393,-0.934228,0.0552732
2.21912,-0.82352,0.0688864
2.21551,-0.822182,-0.151451
2.17481,-0.930326,-0.110186
2.22571,-0.825967,-0.0967205
2.19128,-0.937374,-0.0554593
2.22418,-0.834684,-0.0414669
2.16272,-0.934548,0
2.22073,-0.833392,0.0137859
2.18416,-0.943813,0.0553663
2.21234,-0.830243,0.06877
2.21996,-0.833102,-0.151963
2.18238,-0.943046,-0.110744
2.21519,-0.831311,-0.0963948
2.18783,-0.945399,-0.0554593
2.2214,-0.842055,-0.0414669
2.15961,-0.941715,0
2.21422,-0.839333,0.0137626
2.18835,-0.954247,0.0555524
2.20958,-0.837575,0.06877
2.21345,-0.839044,-0.151707
2.17925,-0.950278,-0.110744
2.21616,-0.840069,-0.0965577
2.18835,-0.954247,-0.0555524
2.21097,-0.846943,-0.0413273
2.15997,-0.950859,0
2.21874,-0.849919,0.0138091
2.18134,-0.960269,0.0554593
2.21037,-0.846713,0.0688864
2.21424,-0.848193,-0.151963
2.21321,-0.847799,-0.0965577
2.17768,-0.958658,-0.0553663
2.21188,-0.855713,-0.0413971
2.16046,-0.959641,0
2.21218,-0.855829,0.0137859
2.21128,-0.855481,0.0690027
2.21141,-0.855531,-0.151963
2.21039,-0.855134,-0.0965577
2.17449,-0.965874,-0.0553663
2.21261,-0.864885,-0.0414669
2.14615,-0.962267,0
2.20918,-0.863546,0.0137859
2.20456,-0.861739,0.0688864
2.21213,-0.864699,-0.152219
2.21111,-0.864299,-0.0967205
2.17111,-0.973459,-0.0553663
2.20957,-0.872603,-0.0414669
2.15006,-0.973051,0
2.20987,-0.872721,0.0138091
2.19782,-0.867961,0.06877
2.21281,-0.873881,-0.152475
2.20436,-0.870544,-0.0965577
2.17134,-0.98268,-0.0554593
2.20652,-0.88031,-0.0414669
2.14665,-0.98055,0
2.19938,-0.877465,0.0137626
2.19478,-0.875627,0.06877
2.20233,-0.878642,-0.151963
2.20131,-0.878234,-0.0965577
2.1679,-0.990253,-0.0554593
2.19601,-0.885017,-0.0413273
2.14322,-0.988037,0
2.20373,-0.888128,0.0138091
2.20283,-0.887767,0.0691191
2.20666,-0.889308,-0.152475
2.20194,-0.887406,-0.0967205
2.15716,-0.994466,-0.0552732
2.20032,-0.895693,-0.0414669
2.14338,-0.9972,0
2.20432,-0.897323,0.0138324
2.18861,-0.890928,0.06877
2.20724,-0.898511,-0.152731
2.20253,-0.896594,-0.0968833
2.19718,-0.903368,-0.0414669
2.19747,-0.903491,0.0138091
2.19288,-0.901603,0.0690027
2.2004,-0.904692,-0.152475
2.19569,-0.902757,-0.0967205
2.19401,-0.911032,-0.0414669
2.19431,-0.911156,0.0138091
2.18234,-0.906186,0.06877
2.18514,-0.907351,-0.0963948
2.18713,-0.917139,-0.0413971
2.18742,-0.917263,0.0137859
2.18285,-0.915344,0.0688864
2.18933,-0.918064,-0.0967205
2.18391,-0.924768,-0.0413971
2.17684,-0.921774,0.0137394
2.187,-0.926076,0.0691191
2.1898,-0.927259,-0.0968833
2.18803,-0.93553,-0.0415367
2.18097,-0.932512,0.0137859
2.18008,-0.932133,0.0690027
2.18655,-0.934897,-0.0968833
2.18108,-0.941577,-0.0414669
2.18137,-0.941704,0.0138091
2.18327,-0.942524,-0.0968833
2.18177,-0.950021,-0.0415367
2.1784,-0.948553,0.0138091
2.18396,-0.950974,-0.0970462
2.17844,-0.957631,-0.0415367
2.17142,-0.954541,0.0137859
2.17492,-0.965609,-0.0415367
2.1679,-0.962493,0.0137859
