2.50932,0.59503,-0.0750536
2.47447,0.716092,0
2.57169,0.478493,-0.0304531
2.55681,0.475725,-0.24277
2.44928,0.708801,-0.178298
2.50982,0.595148,-0.210571
2.55573,0.475524,-0.151394
2.46027,0.711984,-0.119306
2.51528,0.587176,-0.0751699
2.47695,0.707449,0
2.55846,0.466797,-0.24277
2.45557,0.701342,-0.178577
2.51577,0.587289,-0.210897
2.56131,0.467316,-0.151627
2.4589,0.702293,-0.11912
2.47244,0.706159,-0.0598328
2.52501,0.580623,-0.0754027
2.46774,0.695973,0
2.57488,0.460975,-0.0304531
2.50972,0.577109,-0.327792
2.55999,0.458309,-0.24277
2.58276,0.462385,0.0305462
2.45404,0.692112,-0.178298
2.56284,0.458819,-0.151627
2.46506,0.69522,-0.119306
2.52322,0.570483,-0.0752863
2.47798,0.689068,0
2.5805,0.452226,-0.0304996
2.50408,0.566157,-0.326782
2.56165,0.448924,-0.24277
2.51592,0.568833,-0.210571
2.56451,0.449424,-0.151627
2.46759,0.68618,-0.119306
2.52862,0.571705,-0.135864
2.42416,0.803593,-0.104048
2.52119,0.561245,-0.0751699
2.48025,0.680847,0
2.58592,0.444344,-0.0305462
2.50595,0.557851,-0.326782
2.57098,0.441776,-0.243513
2.58987,0.445021,0.0305928
2.52168,0.561353,-0.210897
2.56992,0.441594,-0.151859
2.47371,0.679052,-0.119492
2.43061,0.796795,-0.104211
2.53095,0.55415,-0.0754027
2.48647,0.67323,0
2.58746,0.435314,-0.0305462
2.50788,0.549099,-0.326782
2.56858,0.432138,-0.243142
2.52362,0.552547,-0.210897
2.56751,0.431957,-0.151627
2.47606,0.670412,-0.119492
2.43338,0.788305,-0.104211
2.4858,0.673048,-0.0599259
2.52896,0.544471,-0.0752863
2.49653,0.666611,0
2.59291,0.42693,-0.0305928
2.51754,0.542012,-0.327792
2.56614,0.422522,-0.24277
2.49586,0.666431,0.060112
2.59686,0.42758,0.0306393
2.53333,0.545413,-0.211548
2.57688,0.42429,-0.152092
2.47839,0.661766,-0.119492
2.55672,0.550448,0.2135
2.43992,0.781025,-0.104373
2.492,0.665399,-0.0600189
2.53084,0.53564,-0.0752863
2.49111,0.655855,0
2.59438,0.417876,-0.0305928
2.5233,0.534042,-0.328297
2.57546,0.414828,-0.243513
2.50204,0.658732,0.060205
2.60228,0.419148,0.0306859
2.53522,0.536566,-0.211548
2.57834,0.415292,-0.152092
2.47682,0.652093,-0.119306
2.43882,0.771298,-0.104211
2.4943,0.656696,-0.0600189
2.53661,0.527616,-0.0754027
2.49338,0.647155,0
2.52903,0.526038,-0.328802
2.57296,0.405216,-0.243142
2.50432,0.649993,0.060205
2.59978,0.409439,0.0306393
2.53318,0.526901,-0.211222
2.57978,0.406289,-0.152092
2.48295,0.644446,-0.119492
2.55269,0.53096,0.212849
2.4415,0.762779,-0.104211
2.50045,0.648989,-0.060112
2.4458,0.754763,-0.0446782
2.54236,0.519559,-0.075519
2.59724,0.399753,-0.0305928
2.52307,0.515619,-0.327792
2.58223,0.397444,-0.243885
2.50658,0.641248,0.060205
2.6091,0.401579,0.0307325
2.53891,0.518854,-0.211548
2.58513,0.397889,-0.152324
2.48518,0.635776,-0.119492
2.56625,0.524442,0.213826
2.44414,0.754253,-0.104211
2.49883,0.639266,-0.0600189
2.44077,0.74389,-0.0445385
2.54415,0.510682,-0.075519
2.5056,0.631689,0
2.52486,0.506809,-0.327792
2.55695,0.513251,-0.0151575
2.58754,0.389021,-0.244257
2.51268,0.633473,0.0602981
2.54461,0.510773,-0.211873
2.43614,0.74248,-0.16322
2.48739,0.627097,-0.119492
2.56806,0.515481,0.213826
2.44676,0.745717,-0.104211
2.45075,0.738526,-0.0446782
2.54575,0.502686,-0.075519
2.51145,0.624779,0
2.53033,0.499642,-0.328297
2.51077,0.62461,0.060205
2.6117,0.384266,0.0307325
2.5462,0.502776,-0.211873
2.44228,0.735974,-0.163475
2.58771,0.380735,-0.152324
2.48935,0.619279,-0.119492
2.56967,0.50741,0.213826
2.45292,0.739179,-0.104373
2.51077,0.62461,-0.060205
2.45332,0.729966,-0.0446782
2.54748,0.493796,-0.075519
2.50585,0.614104,0
2.53596,0.491561,-0.328802
2.46131,0.732346,0.014925
2.59007,0.371849,-0.244257
2.52071,0.617745,0.0603911
2.61699,0.375714,0.030779
2.55186,0.494643,-0.212199
2.44867,0.728582,-0.163731
2.59298,0.372267,-0.152557
2.55684,0.495608,-0.136492
2.57925,0.499954,0.214477
2.45932,0.731751,-0.104536
2.51294,0.615841,-0.060205
2.46352,0.723654,-0.0448178
2.55705,0.486397,-0.0757518
2.50409,0.604416,0
2.61036,0.36547,-0.0306859
2.54545,0.484191,-0.329813
2.59924,0.363912,-0.245001
2.52285,0.608944,0.0603911
2.62224,0.367133,0.0308256
2.54965,0.484989,-0.211873
2.45502,0.721157,-0.163987
2.59821,0.363769,-0.152789
2.50138,0.603761,-0.119864
2.57706,0.490204,0.214151
2.45802,0.722037,-0.104373
2.46232,0.713507,-0.044748
2.55881,0.477022,-0.0757518
2.51796,0.598007,0
2.61961,0.35698,-0.030779
2.53941,0.473404,-0.328802
2.59661,0.353846,-0.244629
2.52506,0.599694,0.0603911
2.62357,0.357521,0.0308256
2.55533,0.476372,-0.212199
2.45382,0.711044,-0.163731
2.59953,0.354244,-0.152789
2.50357,0.59459,-0.119864
2.57884,0.480756,0.214151
2.46449,0.714136,-0.104536
2.52117,0.59877,-0.0602981
2.46082,0.704237,-0.0446782
2.56038,0.468533,-0.0757518
2.51993,0.589654,0
2.62078,0.348291,-0.030779
2.54487,0.465694,-0.329308
2.465,0.705432,0.0149017
2.57716,0.471604,-0.0152272
2.60566,0.346282,-0.245372
2.53093,0.592227,0.0604842
2.56082,0.468613,-0.212524
2.50942,0.587194,-0.12005
2.58827,0.473636,0.214802
2.47069,0.707059,-0.104699
2.51925,0.589494,-0.060205
2.47097,0.697816,-0.0448178
2.55807,0.458886,-0.0756354
2.51808,0.579955,0
2.62991,0.340166,-0.0308722
2.55429,0.458209,-0.330318
2.46745,0.696823,0.0149017
2.60291,0.336673,-0.245001
2.52909,0.582491,0.0603911
2.63388,0.340679,0.0309187
2.56636,0.460374,-0.212849
2.46628,0.696493,-0.164243
2.60584,0.337052,-0.153022
2.50756,0.577534,-0.119864
2.59383,0.465302,0.215128
2.47314,0.69843,-0.104699
2.47736,0.689828,-0.0448876
2.56367,0.4502,-0.0757518
2.52018,0.570723,0
2.62717,0.330027,-0.0308256
2.55595,0.448844,-0.330318
2.47769,0.689921,0.0149482
2.60412,0.327131,-0.245001
2.5312,0.573218,0.0603911
2.63114,0.330525,0.0308722
2.56803,0.450965,-0.212849
2.46113,0.685308,-0.163731
2.51746,0.570105,-0.120236
2.59552,0.455792,0.215128
2.47183,0.688289,-0.104536
2.5273,0.572335,-0.0602981
2.47578,0.680549,-0.0448178
2.56909,0.442375,-0.0758681
2.52597,0.563233,0
2.62825,0.321313,-0.0308256
2.55743,0.440366,-0.330318
2.47225,0.679581,0.0149017
2.60915,0.318978,-0.245372
2.5409,0.566562,0.0605772
2.63619,0.322284,0.0309187
2.56165,0.441095,-0.212199
2.46723,0.678201,-0.163987
2.51543,0.560884,-0.12005
2.57846,0.443989,-0.13712
2.58916,0.44583,0.214477
2.47795,0.681148,-0.104699
2.47428,0.670856,-0.044748
2.57456,0.434068,-0.0759845
2.53183,0.555269,0
2.63333,0.312608,-0.0308722
2.56286,0.432096,-0.330823
2.6142,0.310337,-0.245744
2.64127,0.313551,0.0309653
2.57497,0.434138,-0.213175
2.46959,0.669584,-0.163987
2.61716,0.310688,-0.153487
2.51737,0.5521,-0.12005
2.59856,0.438115,0.215128
2.47646,0.671448,-0.104536
2.47672,0.661782,-0.044748
2.58402,0.425929,-0.0762172
2.53384,0.545985,0
2.64241,0.303867,-0.0309653
2.56051,0.422053,-0.330318
2.48092,0.662904,0.014925
2.61928,0.301207,-0.246116
2.65035,0.304781,0.0310584
2.57655,0.424696,-0.213175
2.4915,0.665731,0.0750536
2.47588,0.661558,-0.164243
2.52329,0.54371,-0.120236
2.60015,0.428587,0.215128
2.48277,0.663397,-0.104699
2.54098,0.547522,-0.0604842
2.47901,0.653133,-0.044748
2.53965,0.537966,0
2.63947,0.294199,-0.0309187
2.56197,0.413114,-0.330318
2.48322,0.654241,0.014925
2.62031,0.292063,-0.246116
2.54678,0.539478,0.0605772
2.57801,0.415701,-0.213175
2.49767,0.658049,0.0751699
2.47818,0.652912,-0.164243
2.52517,0.5349,-0.120236
2.60556,0.420143,0.215453
2.48893,0.655746,-0.104862
2.54287,0.538649,-0.0604842
2.48492,0.646348,-0.0448178
2.58284,0.408158,-0.0761008
2.53741,0.529168,0
2.64834,0.286766,-0.0310118
2.57501,0.40692,-0.331833
2.493,0.648449,0.0149715
2.62518,0.284258,-0.246488
2.54847,0.531474,0.0605772
2.65629,0.287627,0.031105
2.58718,0.408843,-0.213826
2.5036,0.651205,0.0752863
2.48021,0.645123,-0.164243
2.53075,0.527779,-0.120423
2.59223,0.409641,-0.137539
2.61081,0.412577,0.215779
2.49485,0.648929,-0.105025
2.54847,0.531474,-0.0605772
2.49126,0.637794,-0.0448876
2.58439,0.398238,-0.0761008
2.54334,0.520223,0
2.64544,0.27618,-0.0309653
2.57656,0.39703,-0.331833
2.49547,0.638873,0.0149715
2.63021,0.27459,-0.246859
2.55832,0.523288,0.0607633
2.66136,0.277842,0.0311515
2.58479,0.3983,-0.2135
2.50221,0.640596,0.0751699
2.49427,0.638565,-0.16501
2.60843,0.401943,0.215453
2.49732,0.639345,-0.105025
2.49713,0.630945,-0.0449574
2.58958,0.390714,-0.0762172
2.54104,0.511442,0
2.65028,0.268271,-0.0310118
2.57387,0.388342,-0.331328
2.63502,0.266727,-0.247231
2.55996,0.515248,0.0607633
2.58997,0.390773,-0.213826
2.50808,0.633712,0.0752863
2.48853,0.628771,-0.164499
2.63405,0.266629,-0.154185
2.53437,0.510099,-0.120423
2.60293,0.392727,-0.137958
2.62151,0.395531,0.21643
2.49932,0.631497,-0.105025
2.49544,0.621257,-0.0448876
2.59093,0.381671,-0.0762172
2.56497,0.377848,-0.518534
2.56243,0.506446,0
2.65518,0.259407,-0.0310584
2.49578,0.621342,0.0149482
2.64386,0.258301,-0.247975
2.56566,0.507084,0.0608564
2.66314,0.260185,0.0311515
2.59527,0.38231,-0.214151
2.51804,0.626885,0.075519
2.49846,0.622009,-0.16501
2.56593,0.507138,0.152324
2.54006,0.502024,-0.120609
2.62287,0.386377,0.21643
2.50538,0.623734,-0.105188
2.55782,0.505533,-0.0606703
2.50547,0.614011,-0.0450272
2.55642,0.495529,0
2.66009,0.250048,-0.031105
2.58051,0.370478,-0.331833
2.50969,0.615047,0.015018
2.64479,0.24861,-0.247975
2.5675,0.497678,0.0608564
2.67204,0.251171,0.0312447
2.59665,0.372796,-0.214151
2.49684,0.611898,-0.164755
2.60963,0.374659,-0.138167
2.62822,0.377328,0.216755
2.50765,0.614547,-0.105188
2.55965,0.496156,-0.0606703
2.49971,0.603821,-0.0448876
2.66091,0.241225,-0.031105
2.58565,0.362469,-0.332338
2.51172,0.60672,0.015018
2.6456,0.239837,-0.247975
2.56914,0.48916,0.0608564
2.66489,0.241586,0.0311515
2.60182,0.364736,-0.214477
2.52236,0.60929,0.075519
2.49886,0.603614,-0.164755
2.57726,0.490705,0.152789
2.54743,0.485026,-0.120795
2.6069,0.365447,-0.137958
2.6334,0.369163,0.21708
2.50968,0.606228,-0.105188
2.5057,0.596016,-0.0449574
2.60271,0.3556,-0.0764499
2.55973,0.478115,0
2.66173,0.231934,-0.031105
2.59476,0.354515,-0.333348
2.50993,0.597023,0.0149947
2.65039,0.230946,-0.248347
2.57476,0.480923,0.0609494
2.67767,0.233323,0.0312912
2.59913,0.355111,-0.214151
2.52058,0.599556,0.0754027
2.50872,0.596734,-0.165266
2.63073,0.359428,0.216755
2.51178,0.597463,-0.105188
2.57083,0.480188,-0.0608564
2.60796,0.346586,-0.0765663
2.5654,0.469451,0
2.66257,0.222178,-0.031105
2.59211,0.34448,-0.332843
2.65916,0.221893,-0.24909
2.57651,0.471483,0.0609494
2.67851,0.223508,0.0312912
2.60436,0.346108,-0.214477
2.52665,0.591225,0.075519
2.507,0.586626,-0.16501
2.58463,0.472969,0.153022
2.62132,0.348362,-0.138586
2.63993,0.350835,0.217406
2.51784,0.589164,-0.10535
2.5099,0.578072,-0.0449574
2.60915,0.337481,-0.0765663
2.57096,0.4612,0
2.66731,0.213202,-0.0311515
2.51414,0.579048,0.0149947
2.66389,0.212928,-0.249462
2.58207,0.463193,0.0610425
2.68326,0.214476,0.0313378
2.60951,0.337527,-0.214802
2.51681,0.579664,-0.165522
2.56031,0.459289,-0.121167
2.64114,0.341618,0.217406
2.51988,0.580372,-0.10535
2.57814,0.462487,-0.0609494
2.5197,0.571076,-0.045097
2.57256,0.452223,0
2.67203,0.204195,-0.0311981
2.59839,0.326872,-0.333348
2.65667,0.203021,-0.248718
2.57974,0.453485,0.0609494
2.68399,0.205109,0.0313378
2.61463,0.328914,-0.215128
2.53462,0.574456,0.0756354
2.6388,0.331955,0.0464234
2.51882,0.570876,-0.165522
2.64098,0.332229,0.108444
2.64232,0.332398,0.217406
2.52189,0.571573,-0.10535
2.57974,0.453485,-0.0609494
2.52158,0.562716,-0.045097
2.57404,0.443689,0
2.67668,0.195624,-0.0312447
2.60734,0.319217,-0.334358
2.52583,0.563664,0.0150412
2.66527,0.19479,-0.249462
2.57729,0.444248,0.0608564
2.68466,0.196207,0.0313378
2.61175,0.319757,-0.214802
2.53651,0.566047,0.0756354
2.5207,0.562519,-0.165522
2.66437,0.194724,-0.15558
2.59723,0.447687,0.153487
2.64603,0.323955,0.108607
2.62477,0.321352,-0.138586
2.59789,0.4478,0.323685
2.64736,0.324117,0.217731
2.53158,0.564947,-0.105676
2.58517,0.445607,-0.0610425
2.52353,0.55391,-0.045097
2.62043,0.311539,-0.076799
2.57952,0.435366,0
2.68134,0.186556,-0.0312912
2.60844,0.310113,-0.334358
2.53169,0.5557,0.0150645
2.64135,0.314027,-0.0154597
2.66991,0.185761,-0.249834
2.59065,0.437245,0.0611355
2.69331,0.187389,0.0314309
2.61285,0.310638,-0.214802
2.53847,0.557189,0.0756354
2.51875,0.55286,-0.165266
2.66901,0.185699,-0.155813
2.63381,0.31313,-0.139004
2.64848,0.314874,0.217731
2.52963,0.555249,-0.105513
2.52554,0.544658,-0.045097
2.62552,0.302391,-0.0769154
2.58504,0.426561,0
2.682,0.176728,-0.0312912
2.5298,0.545575,0.0150412
2.6825,0.17676,-0.250949
2.59618,0.428398,0.0612286
2.69797,0.17778,0.0314775
2.61793,0.301516,-0.215128
2.5444,0.548725,0.0757518
2.65008,0.305218,0.046563
2.52076,0.543626,-0.165266
2.60431,0.42974,0.15372
2.57436,0.424798,-0.121539
2.63891,0.303932,-0.139214
2.65357,0.305621,0.218057
2.53556,0.546817,-0.105676
2.52724,0.536721,-0.045097
2.59032,0.419077,0
2.68654,0.168552,-0.0313378
2.61837,0.293235,-0.335368
2.53541,0.538456,0.0150645
2.6474,0.296487,-0.0154829
2.68304,0.168333,-0.250949
2.69851,0.169304,0.0314775
2.62282,0.293734,-0.215453
2.54611,0.540729,0.0757518
2.53026,0.537363,-0.165778
2.60171,0.420919,0.153487
2.64382,0.296085,-0.139423
2.65452,0.297284,0.218057
2.53335,0.538019,-0.105513
2.59357,0.419602,-0.0611355
2.53302,0.528713,-0.0451668
2.59572,0.410657,0
2.6911,0.159409,-0.0313844
2.61544,0.283665,-0.334863
2.54119,0.530419,0.0150877
2.6524,0.287674,-0.0155062
2.67963,0.15873,-0.250577
2.59501,0.410545,0.0611355
2.70308,0.160119,0.0315241
2.6278,0.285006,-0.215779
2.5519,0.532654,0.0758681
2.53212,0.528526,-0.165778
2.67876,0.158678,-0.156278
2.6071,0.412458,0.15372
2.65819,0.288303,0.108933
2.57712,0.407714,-0.121539
2.64484,0.286854,-0.139423
2.66347,0.288875,0.218708
2.54304,0.530805,-0.105839
2.59896,0.41117,-0.0612286
2.54277,0.521032,-0.0453064
2.69566,0.149767,-0.0314309
2.62435,0.274905,-0.335873
2.54312,0.521102,0.0150877
2.68417,0.149129,-0.250949
2.60045,0.401643,0.0612286
2.70365,0.150211,0.0315241
2.63279,0.275789,-0.216104
2.55775,0.524101,0.0759845
2.53404,0.519243,-0.165778
2.69128,0.149524,-0.156975
2.6086,0.4029,0.15372
2.58254,0.398876,-0.121725
2.63793,0.276327,-0.139004
2.61708,0.404211,0.325147
2.66451,0.279111,0.218708
2.54497,0.521481,-0.105839
2.54057,0.511806,-0.0452366
2.59457,0.391928,0
2.62525,0.2662,-0.335873
2.55267,0.514245,0.0151342
2.68863,0.140434,-0.251321
2.60177,0.393016,0.0612286
2.71212,0.141661,0.0316172
2.55948,0.515616,0.0759845
2.66592,0.270324,0.0467725
2.53966,0.511624,-0.166034
2.68778,0.14039,-0.156743
2.61387,0.394843,0.153952
2.66809,0.270544,0.109258
2.59175,0.391503,-0.122098
2.65075,0.268786,-0.139632
2.62626,0.396715,0.326122
2.66542,0.270273,0.218708
2.54276,0.512249,-0.105676
2.60573,0.393613,-0.0613216
2.55018,0.504489,-0.0453763
2.64225,0.258611,-0.0772645
2.60383,0.384038,0
2.55053,0.504557,0.015111
2.70502,0.131826,-0.252808
2.615,0.385684,0.0615077
2.7126,0.132195,0.0316172
2.63857,0.258251,-0.21643
2.55734,0.505904,0.0758681
2.66685,0.261018,0.0467725
2.53752,0.501983,-0.165778
2.69224,0.131203,-0.156975
2.61128,0.385136,0.15372
2.59706,0.383039,-0.122284
2.65167,0.259533,-0.139632
2.63156,0.388127,0.32661
2.67032,0.261358,0.219033
2.55238,0.504923,-0.106002
2.61104,0.385101,-0.0614147
2.548,0.494821,-0.0453064
2.61308,0.376085,0
2.70505,0.122363,-0.0315241
2.63099,0.24824,-0.336379
2.55227,0.49565,0.015111
2.6681,0.251741,-0.0155759
2.70944,0.122562,-0.25318
2.61633,0.376553,0.0615077
2.71704,0.122906,0.0316637
2.64343,0.249413,-0.216755
2.56694,0.498498,0.0761008
2.54709,0.494644,-0.16629
2.62051,0.377156,0.154185
2.60233,0.374539,-0.12247
2.65654,0.25065,-0.139842
2.63289,0.378938,0.32661
2.67518,0.252409,0.219359
2.5502,0.495248,-0.105839
2.60445,0.374844,-0.0612286
2.54971,0.485923,-0.0453064
2.61041,0.366405,0
2.70946,0.113086,-0.0315706
2.6358,0.239412,-0.336884
2.56185,0.488235,0.0151575
2.66897,0.242426,-0.0155759
2.69791,0.112604,-0.252064
2.61366,0.366862,0.0614147
2.71745,0.11342,0.0316637
2.64825,0.240544,-0.21708
2.67657,0.243116,0.0469121
2.5488,0.485749,-0.16629
2.62181,0.368005,0.154185
2.67874,0.243313,0.109584
2.60363,0.365453,-0.12247
2.66535,0.242097,-0.14026
2.68002,0.243429,0.219684
2.55977,0.487839,-0.106165
2.61762,0.367417,-0.0615077
2.55934,0.478044,-0.0454461
2.60777,0.356294,0
2.71785,0.10346,-0.0316637
2.64456,0.23044,-0.337894
2.56755,0.479577,0.0151807
2.67382,0.232989,-0.0155992
2.71025,0.10317,-0.25318
2.61895,0.357821,0.0615077
2.72184,0.103612,0.0317103
2.65309,0.231183,-0.217406
2.57437,0.480851,0.0762172
2.55841,0.47787,-0.166801
2.70944,0.10314,-0.157906
2.63106,0.359475,0.15465
2.60495,0.355908,-0.12247
2.65827,0.231634,-0.139842
2.63947,0.360625,0.327097
2.68089,0.233605,0.219684
2.56154,0.478454,-0.106165
2.56091,0.469553,-0.0454461
2.61291,0.348172,0
2.64926,0.221999,-0.338399
2.56913,0.47106,0.0151807
2.67857,0.224455,-0.0156224
2.71455,0.0943199,-0.253551
2.62409,0.349662,0.0616008
2.72217,0.0945847,0.0317103
2.64987,0.22205,-0.21708
2.57595,0.47231,0.0762172
2.55606,0.468663,-0.166545
2.71775,0.0944311,-0.158371
2.63619,0.351275,0.154882
2.68834,0.225274,0.10991
2.61007,0.347795,-0.122656
2.663,0.22315,-0.140051
2.64852,0.352918,0.328072
2.68165,0.224713,0.219684
2.55918,0.469236,-0.106002
2.56647,0.461319,-0.0455159
2.61807,0.339564,0
2.71849,0.0849575,-0.0316637
2.64607,0.212433,-0.337894
2.57076,0.462089,0.0151807
2.67933,0.215104,-0.0156224
2.71885,0.0849687,-0.253923
2.62529,0.340501,0.0616008
2.73048,0.0853324,0.0318034
2.6546,0.213118,-0.217406
2.58152,0.464024,0.0763336
2.68694,0.215715,0.0470517
2.55375,0.459032,-0.16629
2.72206,0.0850691,-0.158603
2.6374,0.342071,0.154882
2.62316,0.340224,-0.123214
2.67173,0.214493,-0.14047
2.68639,0.215671,0.22001
2.56473,0.461007,-0.106165
2.56421,0.451216,-0.0454461
2.72678,0.0752131,-0.0317569
2.57243,0.452663,0.0151807
2.68409,0.205587,-0.0156457
2.72312,0.0751122,-0.254295
2.62652,0.330876,0.0616008
2.73477,0.0754337,0.03185
2.66331,0.203995,-0.218057
2.5832,0.454558,0.0763336
2.55935,0.450361,-0.166545
2.71437,0.0748708,-0.158138
2.63864,0.332402,0.154882
2.62835,0.331106,-0.123401
2.67648,0.205004,-0.140679
2.69511,0.206431,0.22066
2.57428,0.452988,-0.10649
2.62652,0.330876,-0.0616008
2.63229,0.322738,0
2.73101,0.0662679,-0.0318034
2.6554,0.194535,-0.338904
2.5818,0.445491,0.0152272
2.68875,0.196978,-0.0156689
2.71937,0.0659855,-0.253923
2.62761,0.322165,0.0616008
2.73501,0.066365,0.03185
2.67193,0.195746,-0.218708
2.58863,0.44667,0.0764499
2.69636,0.197536,0.0471913
2.56476,0.44255,-0.166801
2.72658,0.0661603,-0.158836
2.63973,0.32365,0.154882
2.61357,0.320444,-0.122656
2.67316,0.195836,-0.14047
2.69578,0.197493,0.22066
2.57183,0.44377,-0.106327
2.63158,0.322651,-0.0616939
2.57116,0.434419,-0.0455159
2.62546,0.312603,0
2.73123,0.0567351,-0.0318034
2.5794,0.43581,0.015204
2.69341,0.18787,-0.0156922
2.72755,0.0566587,-0.254667
2.63666,0.313937,0.0617869
2.73522,0.0568181,0.03185
2.67259,0.186418,-0.218708
2.59412,0.438298,0.0765663
2.56629,0.433595,-0.166801
2.73877,0.0568917,-0.159533
2.65274,0.315851,0.15558
2.70318,0.188552,0.110398
2.62261,0.312264,-0.123028
2.67781,0.186782,-0.140679
2.66108,0.316844,0.329047
2.70043,0.18836,0.220986
2.58124,0.436122,-0.106653
2.63666,0.313937,-0.0617869
2.57661,0.426093,-0.0455857
2.63448,0.304354,0
2.73541,0.0472693,-0.03185
2.66065,0.176254,-0.339409
2.58485,0.427456,0.0152272
2.69405,0.178467,-0.0156922
2.73171,0.0472056,-0.255039
2.64171,0.305189,0.06188
2.7434,0.0474076,0.0319431
2.67323,0.177087,-0.218708
2.59169,0.428587,0.0764499
2.70167,0.178971,0.0472611
2.57173,0.425285,-0.167057
2.73496,0.0472616,-0.159301
2.65382,0.306589,0.15558
2.70781,0.179378,0.110561
2.63559,0.304483,-0.123587
2.68642,0.177961,-0.141098
2.66611,0.308008,0.329535
2.6971,0.178668,0.22066
2.57487,0.425805,-0.106327
2.57801,0.417546,-0.0455857
2.64342,0.296507,0
2.73955,0.0382533,-0.0318966
2.66518,0.167679,-0.339914
2.5902,0.419521,0.0152505
2.69862,0.169782,-0.0157154
2.73584,0.0382015,-0.25541
2.64668,0.296872,0.061973
2.74755,0.0383649,0.0319897
2.6738,0.168221,-0.218708
2.59704,0.420629,0.0765663
2.70224,0.17001,0.0472611
2.57312,0.416754,-0.167057
2.73909,0.0382469,-0.159533
2.65086,0.297341,0.155347
2.70839,0.170397,0.110561
2.64453,0.296631,-0.123959
2.68699,0.169051,-0.141098
2.67106,0.299607,0.330022
2.70165,0.169973,0.220986
2.57626,0.417263,-0.106327
2.64271,0.296427,-0.06188
2.69012,0.159824,-0.0784281
2.64047,0.286848,0
2.74366,0.028734,-0.0319431
2.59165,0.410478,0.0152505
2.6952,0.160126,-0.0156922
2.7479,0.0287784,-0.256526
2.65168,0.288066,0.0620661
2.75566,0.0288596,0.0320828
2.68233,0.159361,-0.219359
2.60244,0.412188,0.0766826
2.71081,0.161053,0.0474007
2.58245,0.40902,-0.167569
2.73921,0.0286873,-0.159533
2.65188,0.288087,0.155347
2.64555,0.2874,-0.123959
2.69554,0.160146,-0.141516
2.71019,0.161016,0.221637
2.58165,0.408895,-0.10649
2.64373,0.287202,-0.06188
2.58481,0.400151,-0.0456555
2.64941,0.278464,0
2.74775,0.0191838,-0.0319897
2.60493,0.403264,0.0153202
2.70373,0.151163,-0.0157387
2.74799,0.0191855,-0.256526
2.64471,0.277971,0.06188
2.75175,0.0192118,0.0320363
2.68685,0.150219,-0.219684
2.60782,0.403712,0.076799
2.71135,0.151589,0.0474007
2.58386,0.400003,-0.167569
2.74728,0.0191806,-0.159999
2.66081,0.279663,0.155813
2.71351,0.151709,0.110724
2.63859,0.277328,-0.123587
2.70007,0.150958,-0.141726
2.71074,0.151554,0.221637
2.58701,0.400491,-0.106653
2.65267,0.278807,-0.0620661
2.6424,0.268405,0
2.7558,0.0096195,-0.0320828
2.60632,0.394168,0.0153202
2.70824,0.141933,-0.0157619
2.75202,0.00960631,-0.256897
2.6576,0.269949,0.0621591
2.7558,0.0096195,0.0320828
2.69134,0.141047,-0.22001
2.60921,0.394606,0.076799
2.58129,0.390383,-0.167313
2.75132,0.00960387,-0.160231
2.66177,0.270373,0.155813
2.722,0.142654,0.111049
2.64352,0.268519,-0.123773
2.69659,0.141322,-0.141516
2.71125,0.14209,0.221637
2.59235,0.392055,-0.106816
2.65362,0.269545,-0.0620661
2.65527,0.260352,0
2.75581,4.92778e-07,-0.0320828
2.67916,0.131033,-0.341429
2.61559,0.386237,0.0153667
2.71671,0.13287,-0.0158084
2.75204,4.92102e-07,-0.256897
2.65455,0.260281,0.0620661
2.75981,4.93493e-07,0.0321294
2.68784,0.131458,-0.219684
2.61453,0.386081,0.0769154
2.59054,0.382538,-0.167825
2.75932,4.93406e-07,-0.160696
2.67065,0.26186,0.156278
2.72648,0.133347,0.111212
2.65239,0.26007,-0.124145
2.70106,0.132104,-0.141726
2.71571,0.132821,0.221962
2.58975,0.382421,-0.106653
2.65853,0.260671,-0.0621591
2.66417,0.25137,0
2.60907,0.375509,0.0153202
2.71718,0.122912,-0.0158084
2.75998,-0.0101148,-0.257641
2.65947,0.250926,0.0621591
2.76379,-0.0101288,0.032176
2.69228,0.121786,-0.22001
2.61197,0.375926,0.076799
2.7248,0.123257,0.0476102
2.7633,-0.010127,-0.160929
2.67556,0.252445,0.15651
2.6573,0.250722,-0.124331
2.70951,0.122565,-0.142144
2.72016,0.123047,0.222288
2.59509,0.373496,-0.106816
2.66345,0.251302,-0.0622522
2.66503,0.242068,0
2.61433,0.366955,0.0153435
2.71759,0.113426,-0.0158084
2.7679,-0.0198066,-0.258385
2.66829,0.242364,0.0623452
2.77174,-0.0198342,0.0322691
2.70464,0.112885,-0.220986
2.61722,0.367361,0.0769154
2.72521,0.113744,0.0476102
2.76325,-0.0197734,-0.160929
2.67643,0.243103,0.15651
2.73135,0.114,0.111375
2.66612,0.242167,-0.124703
2.71391,0.113272,-0.142354
2.72854,0.113883,0.222939
2.60033,0.36499,-0.106979
2.66033,0.241641,-0.0621591
2.67379,0.233927,0
2.77166,-0.0290249,-0.0322691
2.61553,0.358284,0.0153435
2.72994,0.104875,-0.0158782
2.7718,-0.0290263,-0.258756
2.66908,0.233515,0.0623452
2.77966,-0.0291087,0.0323622
2.71297,0.104223,-0.221637
2.62635,0.359766,0.0771481
2.77515,-0.0290614,-0.161626
2.67722,0.234227,0.15651
2.73172,0.104943,0.111375
2.65895,0.232629,-0.124331
2.72225,0.104579,-0.142773
2.7289,0.104835,0.222939
2.60549,0.356908,-0.107142
2.66908,0.233515,-0.0623452
2.66662,0.223922,0
2.77954,-0.0388121,-0.0323622
2.62469,0.350209,0.0153899
2.73029,0.095344,-0.0158782
2.7677,-0.0386467,-0.258385
2.66988,0.224196,0.0623452
2.77554,-0.0387562,0.0323156
2.71331,0.0947512,-0.221637
2.62363,0.350067,0.0770317
2.73791,0.0956102,0.0478196
2.59958,0.346858,-0.16808
2.77503,-0.038749,-0.161626
2.68598,0.225548,0.156975
2.73606,0.0955455,0.111538
2.71462,0.0947967,-0.142354
2.73324,0.0954469,0.223264
2.60672,0.34781,-0.107142
2.66589,0.223861,-0.0622522
2.67137,0.214934,0
2.77539,-0.0484438,-0.0323156
2.6259,0.341046,0.0153899
2.73061,0.0858135,-0.0158782
2.77551,-0.0484459,-0.259128
2.6826,0.215838,0.0626244
2.78739,-0.0486533,0.0324553
2.71761,0.0854052,-0.221962
2.6288,0.341422,0.0771481
2.74223,0.0861787,0.0478894
2.61265,0.339325,-0.168848
2.77887,-0.0485046,-0.161859
2.69073,0.216492,0.157208
2.74437,0.086246,0.111864
2.67644,0.215342,-0.125076
2.71892,0.0854464,-0.142563
2.73355,0.0859061,0.223264
2.61188,0.339225,-0.107304
2.67463,0.215196,-0.0624383
2.68407,0.206528,0
2.7832,-0.0582997,-0.0324088
2.62708,0.331877,0.0153899
2.73889,0.076504,-0.0159246
2.77532,-0.0581347,-0.259128
2.68334,0.206472,0.0626244
2.7952,-0.058551,0.0325485
2.65764,0.204494,-0.186389
2.71391,0.0758064,-0.221637
2.62601,0.331742,0.0770317
2.74251,0.0766053,0.0478894
2.78267,-0.0582887,-0.162092
2.69545,0.207404,0.15744
2.74465,0.0766651,0.111864
2.68116,0.206304,-0.125262
2.7232,0.0760659,-0.142773
2.73782,0.0764743,0.22359
2.61305,0.330105,-0.107304
2.67537,0.205858,-0.0624383
2.72603,0.0666234,-0.079359
2.69775,0.0659322,-0.539715
2.68876,0.197451,0
2.78698,-0.0681117,-0.0324553
2.63616,0.32368,0.0154364
2.73914,0.0669436,-0.0159246
2.69202,0.19769,0.0628105
2.79897,-0.0684049,0.032595
2.66231,0.195509,-0.186668
2.71814,0.0664306,-0.221962
2.63509,0.323549,0.0772645
2.75076,0.0672277,0.048029
2.78245,-0.0680011,-0.162092
2.69616,0.197994,0.15744
2.68585,0.197237,-0.125448
2.73143,0.0667554,-0.143191
2.74604,0.0671124,0.22424
2.67607,0.196519,-0.0624383
2.72625,0.0571066,-0.079359
2.68943,0.188063,0
2.79872,-0.0781754,-0.032595
2.6333,0.314002,0.0154132
2.74735,0.0575487,-0.0159711
2.78679,-0.0778423,-0.260243
2.69269,0.188291,0.0628105
2.80272,-0.0782871,0.0326416
2.66696,0.186492,-0.186947
2.72633,0.0571084,-0.222613
2.6362,0.314348,0.0772645
2.75498,0.0577084,0.0480988
2.61606,0.311946,-0.168848
2.79018,-0.077937,-0.162557
2.75311,0.0576693,0.112189
2.68652,0.18786,-0.125448
2.73964,0.0573871,-0.14361
2.75025,0.0576093,0.224566
2.68472,0.187734,-0.0626244
2.69001,0.179614,0
2.80645,-0.0872154,-0.0326882
2.71764,0.0483859,-0.345975
2.63825,0.306189,0.0154364
2.74752,0.0489179,-0.0159711
2.78653,-0.0865964,-0.260243
2.69327,0.179832,0.0628105
2.81045,-0.0873397,0.0327347
2.73447,0.0486855,-0.223264
2.64115,0.306526,0.0773808
2.62099,0.304187,-0.169104
2.79392,-0.0868257,-0.162789
2.70937,0.180906,0.158138
2.75728,0.0490916,0.112352
2.68311,0.179153,-0.125262
2.73981,0.0487805,-0.14361
2.7544,0.0490404,0.224891
2.68529,0.179299,-0.0626244
2.73857,0.0387191,-0.0797081
2.69464,0.170006,0
2.80212,-0.0973615,-0.0326416
2.7178,0.0384255,-0.345975
2.64333,0.296965,0.0154597
2.75568,0.0389611,-0.0160176
2.67121,0.168527,-0.288305
2.79814,-0.0972232,-0.261359
2.7019,0.170463,0.0629966
2.80612,-0.0975004,0.0326882
2.73463,0.0386635,-0.223264
2.64225,0.296844,0.0773808
2.80156,-0.097342,-0.163254
2.714,0.171227,0.158371
2.76143,0.0390424,0.112515
2.69172,0.169822,-0.125634
2.74795,0.0388519,-0.144029
2.75456,0.0389453,0.224891
2.68593,0.169456,-0.0626244
2.74268,0.0296813,-0.0798244
2.71017,0.0293295,-0.542068
2.69918,0.161308,0
2.80578,-0.106805,-0.0326882
2.64032,0.287765,0.0154364
2.75579,0.0298233,-0.0160176
2.67175,0.159669,-0.288305
2.80178,-0.106653,-0.261731
2.71043,0.16198,0.0631827
2.81777,-0.107261,0.0328279
2.68464,0.160439,-0.188063
2.74272,0.0296817,-0.223915
2.6472,0.288514,0.0774972
2.80122,-0.106631,-0.163254
2.76954,0.029972,0.112841
2.75206,0.0297829,-0.144238
2.76265,0.0298974,0.225542
2.69047,0.160787,-0.0627174
2.75076,0.0201653,-0.0800572
2.70772,0.152334,0
2.81738,-0.117097,-0.0328279
2.72593,0.0199833,-0.346985
2.64926,0.279385,0.0154829
2.75588,0.0202028,-0.0160176
2.80537,-0.116598,-0.262102
2.71098,0.152517,0.0631827
2.82137,-0.117263,0.0328744
2.68519,0.151066,-0.188063
2.74679,0.0201362,-0.22424
2.64421,0.278852,0.0773808
2.7675,0.020288,0.0483083
2.63198,0.277561,-0.169615
2.80482,-0.116575,-0.163487
2.76963,0.0203036,0.112841
2.7008,0.151944,-0.126006
2.76274,0.0202531,0.225542
2.69102,0.151394,-0.0627174
2.74682,0.0100691,-0.0799408
2.726,0.00999274,-0.545206
2.70826,0.142409,0
2.81693,-0.127422,-0.0328279
2.65425,0.270078,0.0155062
2.75994,0.0101172,-0.0160409
2.8089,-0.127059,-0.262474
2.70753,0.142371,0.0630896
2.82492,-0.127783,0.032921
2.68572,0.141224,-0.188063
2.75482,0.0100984,-0.224891
2.65317,0.269969,0.0776135
2.81235,-0.127215,-0.163952
2.76968,0.0101529,0.112841
2.70134,0.142045,-0.126006
2.77076,0.0101569,0.226193
2.63619,0.268241,-0.107956
2.69555,0.141741,-0.0628105
2.75483,0.000962274,-0.0801735
2.72209,0.000950837,-0.544422
2.71271,0.133624,0
2.82049,-0.136957,-0.0328744
2.73791,0.000956362,-0.3485
2.65115,0.260883,0.0154829
2.76395,0.000965459,-0.0160641
2.80847,-0.136374,-0.262474
2.71597,0.133784,0.0632757
2.82448,-0.137151,0.032921
2.66201,0.261951,0.0778463
2.7737,0.000968863,0.113003
2.75222,0.000961362,-0.144238
2.77477,0.000969237,0.226519
2.70399,0.133194,-0.0629966
2.75482,-0.00865463,-0.0801735
2.726,-0.00856409,-0.545206
2.71316,0.124153,0
2.81999,-0.146802,-0.0328744
2.66399,0.252759,0.0155527
2.77594,-0.00872098,-0.0161339
2.68564,0.122893,-0.28959
2.81593,-0.146591,-0.263218
2.82798,-0.147218,0.0329675
2.75881,-0.00866717,-0.225217
2.65893,0.252279,0.0777299
2.82339,-0.146979,-0.16465
2.73251,0.125038,0.159301
2.78168,-0.00873901,0.113329
2.76419,-0.00868408,-0.144866
2.77476,-0.00871726,0.226519
2.71642,0.124302,-0.0632757
2.65259,0.241872,-0.0464932
2.76676,-0.0188325,-0.0805226
2.73772,-0.0186348,-0.547559
2.71759,0.114377,0
2.82343,-0.157359,-0.032921
2.74181,-0.0186627,-0.349005
2.66092,0.242631,0.0155294
2.77589,-0.0188946,-0.0161339
2.69004,0.113217,-0.290019
2.82333,-0.157354,-0.263961
2.72885,0.11485,0.0635549
2.83141,-0.157804,0.0330141
2.703,0.113762,-0.18918
2.76673,-0.0188323,-0.225868
2.65983,0.242533,0.0777299
2.78351,-0.0189465,0.0485875
2.82682,-0.157548,-0.164882
2.73694,0.115191,0.159533
2.78562,-0.0189609,0.113492
2.71864,0.114421,-0.126751
2.78268,-0.0189408,0.22717
2.71686,0.114346,-0.0632757
2.73764,-0.0277141,-0.547559
2.72595,0.105673,0
2.83886,-0.167665,-0.0331072
2.74967,-0.0278359,-0.350016
2.66569,0.234155,0.0155527
2.77181,-0.02806,-0.0161106
2.82279,-0.166716,-0.263961
2.72921,0.1058,0.0635549
2.84285,-0.167901,0.0331538
2.70336,0.104798,-0.18918
2.77064,-0.0280481,-0.226193
2.66461,0.23406,0.0778463
2.83026,-0.167158,-0.165115
2.74129,0.106268,0.159766
2.78659,-0.0282096,0.227495
2.65158,0.232916,-0.108444
2.71722,0.105335,-0.0632757
2.74145,-0.0373229,-0.548344
2.7263,0.0961578,0
2.83826,-0.177573,-0.0331072
2.76146,-0.0375953,-0.351531
2.67048,0.225185,0.0155759
2.7797,-0.0378436,-0.0161571
2.82616,-0.176816,-0.264333
2.73356,0.0964137,0.0636479
2.84624,-0.178073,0.0332004
2.71169,0.0956423,-0.189738
2.77053,-0.0377187,-0.226193
2.67338,0.22543,0.078079
2.82966,-0.177035,-0.165115
2.79342,-0.0380305,0.113818
2.72335,0.0960537,-0.126937
2.79046,-0.0379901,0.227821
2.72557,0.0961318,-0.0634618
2.6669,0.215511,-0.0467026
2.7413,-0.0468915,-0.548344
2.72662,0.0866413,0
2.8456,-0.188006,-0.0332004
2.75735,-0.0471659,-0.351026
2.67523,0.216185,0.0155992
2.70299,0.0858903,-0.291304
2.83348,-0.187205,-0.265077
2.74187,0.0871258,0.0638341
2.85358,-0.188533,0.0332935
2.71201,0.0861767,-0.189738
2.77835,-0.0475252,-0.226844
2.67415,0.216097,0.078079
2.79727,-0.0478489,0.11398
2.73166,0.0868012,-0.127309
2.79828,-0.0478662,0.228471
2.66111,0.215044,-0.10877
2.72988,0.0867448,-0.0635549
2.66767,0.205736,-0.0467026
2.77423,-0.0576258,-0.0807553
2.74895,-0.0571009,-0.549913
2.73492,0.0768725,0
2.8409,-0.198156,-0.0331538
2.77302,-0.0576008,-0.353046
2.68398,0.206994,0.0156457
2.70726,0.0760951,-0.291732
2.83675,-0.197865,-0.265448
2.74617,0.0771887,0.0639271
2.85287,-0.19899,0.0332935
2.71629,0.0763489,-0.190017
2.78214,-0.0577902,-0.22717
2.67891,0.206603,0.0781954
2.84028,-0.198112,-0.165813
2.80507,-0.0582664,0.114306
2.79809,-0.0581214,0.228471
2.73818,0.076964,-0.063741
2.68027,0.198237,-0.0469121
2.78602,-0.0666299,-0.0811044
2.7566,-0.0659263,-0.551482
2.73915,0.0683778,0
2.84426,-0.207373,-0.0332004
2.76489,-0.0661246,-0.352036
2.68063,0.198264,0.0156224
2.79915,-0.0669439,-0.0162734
2.84405,-0.207358,-0.266192
2.85622,-0.208245,0.0333401
2.72051,0.0679125,-0.190296
2.78195,-0.0665324,-0.22717
2.67954,0.198183,0.0781954
2.80677,-0.0671261,0.0490064
2.84362,-0.207326,-0.166045
2.80586,-0.0671043,0.229122
2.67447,0.197808,-0.109258
2.7424,0.0684591,-0.0638341
2.78577,-0.076354,-0.0811044
2.75636,-0.0755477,-0.551482
2.73937,0.0588166,0
2.8475,-0.217604,-0.0332469
2.77258,-0.0759923,-0.353046
2.6853,0.189187,0.0156457
2.8029,-0.0768234,-0.0162966
2.84728,-0.217587,-0.266564
2.7327,0.0586733,-0.191133
2.78568,-0.0763515,-0.227495
2.68421,0.18911,0.0783117
2.80652,-0.0769225,0.0490064
2.84686,-0.217555,-0.166278
2.7404,0.0588386,-0.127681
2.8096,-0.0770069,0.229448
2.67514,0.188472,-0.109258
2.74263,0.0588865,-0.0638341
2.68159,0.179521,-0.0469121
2.76392,-0.085411,-0.553051
2.74356,0.0493259,0
2.8547,-0.228179,-0.0333401
2.78023,-0.0859151,-0.354056
2.68993,0.18008,0.0156689
2.80661,-0.0867304,-0.0163199
2.84651,-0.227524,-0.266564
2.75481,0.0495282,0.0641132
2.87065,-0.229454,0.0335263
2.73288,0.0491341,-0.191133
2.79337,-0.0863212,-0.228146
2.68485,0.17974,0.0783117
2.67252,0.178914,-0.171662
2.85405,-0.228127,-0.166743
2.81632,-0.0870303,0.114795
2.74458,0.0493443,-0.127868
2.81728,-0.08706,0.230099
2.67977,0.1794,-0.109421
2.74681,0.0493845,-0.0639271
2.74771,0.0398068,0
2.86186,-0.238808,-0.0334332
2.77991,-0.0956194,-0.354056
2.69055,0.170689,0.0156689
2.81029,-0.0966643,-0.0163431
2.8576,-0.238453,-0.267679
2.76296,0.0400277,0.0642993
2.86983,-0.239473,0.0335263
2.79704,-0.0962084,-0.228471
2.69344,0.170873,0.0785444
2.6811,0.17009,-0.172174
2.86119,-0.238752,-0.167208
2.82493,-0.0971677,0.23075
2.68437,0.170298,-0.109584
2.74697,0.039796,-0.0639271
2.69076,0.161275,-0.0470517
2.8008,-0.106127,-0.0815699
2.76717,-0.104853,-0.553835
2.75583,0.0303032,0
2.85702,-0.24845,-0.0333866
2.78353,-0.105473,-0.354561
2.69512,0.161536,0.0156922
2.72805,0.0299977,-0.293874
2.86072,-0.248771,-0.268051
2.87695,-0.250182,0.0336195
2.74114,0.0301416,-0.191691
2.80067,-0.106122,-0.228797
2.69801,0.161709,0.0786608
2.68168,0.16073,-0.172174
2.8683,-0.24943,-0.167673
2.82762,-0.107144,0.115283
2.75285,0.0302704,-0.12824
2.78293,0.0306012,0.341722
2.8166,-0.106726,0.230099
2.68495,0.160926,-0.109584
2.75509,0.030295,-0.0641132
2.6953,0.152106,-0.0471215
2.80441,-0.116069,-0.0816862
2.74792,0.0206233,0
2.86411,-0.259142,-0.0334798
2.79107,-0.115517,-0.355571
2.69567,0.152127,0.0156922
2.82154,-0.116778,-0.0164128
2.72814,0.0204749,-0.293874
2.8638,-0.259114,-0.268423
2.77117,0.0207978,0.0644854
2.88402,-0.260944,0.0337126
2.74522,0.020603,-0.19197
2.80825,-0.116227,-0.229448
2.70255,0.152516,0.0787772
2.68222,0.151368,-0.172174
2.86343,-0.259081,-0.16744
2.75294,0.0206609,-0.12824
2.82418,-0.116887,0.23075
2.68949,0.151778,-0.109747
2.81597,-0.126395,-0.0820353
2.75598,0.0110633,0
2.87115,-0.269887,-0.0335729
2.79065,-0.125259,-0.355571
2.82511,-0.126805,-0.0164361
2.73217,0.0109677,-0.294303
2.89106,-0.271758,0.0338057
2.74527,0.0110203,-0.19197
2.70706,0.143292,0.0788935
2.69071,0.142427,-0.172685
2.87046,-0.269822,-0.167906
2.76098,0.0110834,-0.128612
2.8357,-0.127281,0.231726
2.69798,0.142812,-0.110073
2.76323,0.0110924,-0.0642993
2.70034,0.132541,-0.0471913
2.81147,-0.137012,-0.0819189
2.764,0.000482411,0
2.88601,-0.282468,-0.0337591
2.79808,-0.136359,-0.356581
2.7047,0.132755,0.0157387
2.87768,-0.281652,-0.26991
2.77925,0.000485072,0.0646715
2.89397,-0.283247,0.0338523
2.75328,0.000480539,-0.192528
2.81926,-0.137392,-0.230424
2.71558,0.133289,0.0791263
2.69522,0.13229,-0.172941
2.88133,-0.282009,-0.168603
2.83827,-0.138318,0.115772
2.765,0.000482586,-0.128798
2.83519,-0.138168,0.231726
2.7025,0.132647,-0.110235
2.77125,0.000483676,-0.0644854
2.70873,0.124424,-0.0473309
2.81502,-0.146051,-0.0820353
2.88909,-0.291935,-0.0338057
2.8016,-0.145355,-0.357087
2.7051,0.124257,0.0157387
2.74014,-0.00813017,-0.295159
2.87678,-0.290691,-0.26991
2.89307,-0.292337,0.0338523
2.74927,-0.00815728,-0.192249
2.8228,-0.146455,-0.23075
2.71599,0.124757,0.0791263
2.69961,0.124005,-0.173197
2.757,-0.0081802,-0.128426
2.795,-0.00829295,0.343184
2.84271,-0.147487,0.232377
2.70291,0.124156,-0.110235
2.71314,0.115138,-0.0474007
2.82248,-0.156319,-0.082268
2.76794,-0.0178748,0
2.88805,-0.302018,-0.0338057
2.81296,-0.155791,-0.358602
2.70952,0.114984,0.0157619
2.88367,-0.301559,-0.270653
2.78719,-0.0179991,0.0648576
2.89601,-0.30285,0.0338988
2.75721,-0.0178055,-0.192807
2.82227,-0.156307,-0.23075
2.71241,0.115106,0.0790099
2.70401,0.11475,-0.173453
2.84927,-0.157802,0.11626
2.76894,-0.0178813,-0.128984
2.83177,-0.156833,-0.148634
2.79892,-0.0180749,0.343672
2.84616,-0.15763,0.232702
2.71131,0.11506,-0.110561
2.71753,0.105822,-0.0474705
2.82191,-0.16617,-0.082268
2.77186,-0.0275765,0
2.89494,-0.312957,-0.0338988
2.80844,-0.165376,-0.358097
2.74797,-0.0273387,-0.296016
2.79111,-0.0277679,0.0649507
2.76511,-0.0275093,-0.193365
2.82569,-0.166392,-0.231075
2.72079,0.105949,0.0792426
2.84663,-0.167626,0.0497743
2.70839,0.105466,-0.173709
2.79513,-0.0278079,0.162789
2.76886,-0.0275466,-0.128984
2.85355,-0.168033,0.233353
2.71169,0.105595,-0.110561
2.71788,0.0963353,-0.0474705
2.8293,-0.176517,-0.0825008
2.77975,-0.0373594,0
2.8978,-0.323504,-0.0339454
2.81576,-0.175673,-0.359107
2.72224,0.09649,0.0158317
2.84642,-0.177585,-0.0165756
2.90973,-0.324835,0.0340851
2.77298,-0.0372684,-0.193923
2.72114,0.0964508,0.0792426
2.71273,0.0961527,-0.173965
2.90103,-0.323865,-0.169998
2.78073,-0.0373726,-0.129543
2.81064,-0.0377745,0.345134
2.84897,-0.177744,0.233028
2.71604,0.0962701,-0.110724
2.783,-0.037403,-0.0647646
2.7182,0.0868475,-0.0474705
2.7836,-0.04713,0
2.9046,-0.334533,-0.0340385
2.81513,-0.1855,-0.359107
2.85376,-0.188046,-0.0166221
2.89222,-0.333107,-0.271768
2.79884,-0.0473881,0.0651368
2.91255,-0.335448,0.0341317
2.76884,-0.0468801,-0.193644
2.84037,-0.187164,-0.232377
2.73744,0.0874624,0.0797081
2.71305,0.0866829,-0.173965
2.85942,-0.188419,0.116748
2.7726,-0.0469437,-0.12917
2.81049,-0.0475852,0.345134
2.86026,-0.188474,0.234004
2.71636,0.0867888,-0.110724
2.73448,0.0778137,-0.0477498
2.83598,-0.196819,-0.0827335
2.77942,-0.0567646,0
2.91136,-0.345613,-0.0341317
2.8303,-0.196425,-0.361127
2.72685,0.0775967,0.0158549
2.85708,-0.198283,-0.0166453
2.90342,-0.34467,0.0340385
2.76866,-0.0565449,-0.193644
2.8397,-0.197077,-0.232377
2.73773,0.0779064,0.0797081
2.86068,-0.198533,0.0500535
2.71732,0.0773256,-0.17422
2.80666,-0.0573209,0.163487
2.86273,-0.198676,0.116911
2.77641,-0.0567032,-0.129357
2.84524,-0.197462,-0.149472
2.81427,-0.0574765,0.345621
2.85959,-0.198457,0.234004
2.73263,0.0777611,-0.111375
2.73472,0.0687455,-0.0477498
2.78721,-0.0661711,0
2.91814,-0.356234,-0.0342248
2.83359,-0.206097,-0.361632
2.73109,0.0686543,0.0158782
2.8604,-0.208047,-0.0166686
2.91814,-0.356234,0.0342248
2.77644,-0.0659152,-0.194202
2.84301,-0.206782,-0.232702
2.73398,0.0687268,0.0795917
2.72954,0.0686152,-0.174988
2.87003,-0.208748,0.117237
2.7842,-0.0660994,-0.129729
2.85254,-0.207475,-0.14989
2.81804,-0.0669029,0.346109
2.85891,-0.207939,0.234004
2.72488,0.0684981,-0.111049
2.73094,0.0591125,-0.04768
2.84653,-0.21703,-0.0830826
2.79496,-0.0761177,0
2.92481,-0.367416,-0.0343179
2.8289,-0.215685,-0.361127
2.92878,-0.367914,0.0343645
2.78018,-0.075715,-0.194481
2.74619,0.0594426,0.0799408
2.72976,0.0590869,-0.174988
2.81818,-0.0767499,0.164185
2.78794,-0.0759264,-0.129915
2.82572,-0.0769554,0.347084
2.86612,-0.218523,0.234655
2.73709,0.0592455,-0.111538
2.73914,0.0492465,-0.0478196
2.85369,-0.228098,-0.0833153
2.80266,-0.0866083,0
2.92741,-0.378646,-0.0343645
2.836,-0.226685,-0.362137
2.73951,0.0492532,0.0159246
2.86681,-0.229147,-0.0167151
2.93535,-0.379672,0.0344576
2.78387,-0.0860276,-0.19476
2.85735,-0.228391,-0.234004
2.75039,0.0494488,0.0800572
2.73395,0.0491532,-0.175244
2.81788,-0.0870785,0.164185
2.79164,-0.0862677,-0.130101
2.83336,-0.0875569,0.348059
2.74128,0.0492851,-0.111701
2.74329,0.0397428,-0.0478894
2.80634,-0.0965284,0
2.934,-0.389916,-0.0344576
2.8431,-0.237243,-0.363147
2.74767,0.0398061,0.0159711
2.87396,-0.239818,-0.0167616
2.81757,-0.0969147,0.0656021
2.94193,-0.39097,0.0345507
2.78754,-0.0958818,-0.195039
2.75055,0.0398479,0.0800572
2.7341,0.0396096,-0.175244
2.82155,-0.0970515,0.164417
2.8796,-0.240288,0.117725
2.79132,-0.0960118,-0.130101
2.86609,-0.239161,-0.150728
2.837,-0.0975831,0.348546
2.74943,0.0398317,-0.112026
2.75541,0.0302986,-0.0480988
2.85999,-0.248708,-0.083548
2.80599,-0.106324,0
2.94055,-0.401237,-0.0345507
2.84621,-0.247509,-0.363652
2.74779,0.0302147,0.0159711
2.82121,-0.106901,0.0656951
2.93659,-0.400696,0.0345042
2.78719,-0.105612,-0.195039
2.76266,0.0303783,0.0804062
2.7462,0.0301973,-0.176011
2.82917,-0.107202,0.164882
2.88272,-0.250684,0.117888
2.80295,-0.106209,-0.130659
2.86922,-0.24951,-0.150937
2.82871,-0.107185,0.347571
2.75355,0.0302781,-0.112189
2.7595,0.0211918,-0.0481686
2.86313,-0.25855,-0.0836644
2.81761,-0.116122,0
2.94317,-0.41154,-0.0345973
2.85328,-0.25766,-0.364663
2.75987,0.0211947,0.0160409
2.95109,-0.412648,0.0346904
2.75875,0.0211861,0.0802899
2.88781,-0.260778,0.050612
2.75028,0.021121,-0.176267
2.88983,-0.260961,0.118214
2.79859,-0.115338,-0.130473
2.75763,0.0211775,-0.112352
2.75956,0.0115593,-0.0481686
2.86619,-0.268916,-0.0837807
2.80919,-0.1256,0
2.94963,-0.422946,-0.0346904
2.75593,0.0115441,0.0160176
2.88727,-0.270894,-0.0168546
2.8324,-0.126637,0.0659743
2.95359,-0.423514,0.034737
2.7708,0.0116064,0.080639
2.89086,-0.271231,0.0506818
2.75433,0.0115374,-0.176523
2.83636,-0.126814,0.165347
2.80615,-0.125464,-0.130846
2.75769,0.0115515,-0.112352
2.76358,0.00192937,-0.0482385
2.8732,-0.279694,-0.0840135
2.81673,-0.13579,0
2.75995,0.00192684,0.0160409
2.88631,-0.280971,-0.0168546
2.83594,-0.136716,0.0660673
2.95605,-0.434403,0.0347836
2.8019,-0.135075,-0.196155
2.77083,0.00193443,0.080639
2.75834,0.00192571,-0.176779
2.84387,-0.137099,0.165813
2.80969,-0.13545,-0.131032
2.77157,-0.00773971,-0.0483781
2.88016,-0.290525,-0.0842462
2.82023,-0.145828,0
2.79066,-0.144299,-0.434741
2.77194,-0.00774076,0.0161106
2.89327,-0.291847,-0.016901
2.83544,-0.146614,0.0660673
2.95452,-0.444719,0.0347836
2.80539,-0.145061,-0.196434
2.90084,-0.29261,0.0508912
2.76232,-0.0077139,-0.177034
2.84338,-0.147025,0.165813
2.90285,-0.292813,0.118865
2.8092,-0.145257,-0.131032
2.77152,-0.0174142,-0.0483781
2.8831,-0.300992,-0.0843626
2.80198,-0.154693,-0.436586
2.7719,-0.0174166,0.0161106
2.90019,-0.302775,-0.0169475
2.83891,-0.156732,0.0661604
2.78677,-0.01751,0.0811044
2.77026,-0.0174063,-0.177546
2.84285,-0.156949,0.165813
2.81665,-0.155503,-0.131404
2.89229,-0.301951,-0.152402
2.77544,-0.027612,-0.0484479
2.89391,-0.312846,-0.0847116
2.8271,-0.166475,0
2.78782,-0.0277352,0.0162036
2.8463,-0.167606,0.0663465
2.78268,-0.0276841,0.080988
2.77417,-0.0275994,-0.177802
2.82005,-0.16606,-0.13159
2.77756,-0.0276331,-0.113166
2.78733,-0.0369747,-0.0486573
2.90477,-0.323769,-0.0850607
2.83452,-0.176346,0
2.77971,-0.0368736,0.0161571
2.90993,-0.324344,-0.0170173
2.84573,-0.177043,0.0663465
2.79057,-0.0370178,0.0812208
2.91351,-0.324743,0.0511705
2.77007,-0.0367458,-0.177546
2.91948,-0.325409,0.119679
2.83145,-0.176155,-0.132148
2.77745,-0.0368437,-0.113166
2.78718,-0.0467041,-0.0486573
2.90363,-0.333907,-0.0850607
2.83788,-0.186502,0
2.81203,-0.184803,-0.438431
2.78756,-0.0467104,0.0162036
2.91275,-0.334957,-0.0170405
2.85706,-0.187763,0.0666256
2.79043,-0.0467584,0.0812208
2.77791,-0.0465487,-0.178058
2.853,-0.187496,0.16651
2.9223,-0.336054,0.119842
2.83082,-0.186038,-0.132148
2.7853,-0.0466725,-0.113492
2.791,-0.0565138,-0.0487271
2.90641,-0.344511,-0.0851771
2.84519,-0.196959,0
2.81926,-0.195164,-0.439661
2.79138,-0.0565215,0.0162269
2.8524,-0.197458,0.0665326
2.80224,-0.0567414,0.0815699
2.78571,-0.0564067,-0.178569
2.8603,-0.198005,0.166975
2.92905,-0.347194,0.120168
2.84211,-0.196746,-0.132707
2.78911,-0.0564756,-0.113655
2.7988,-0.0659573,-0.0488667
2.91716,-0.355599,-0.0855262
2.84851,-0.206683,0
2.80317,-0.0660605,0.0162966
2.82816,-0.205206,-0.305441
2.85572,-0.207205,0.0666256
2.78551,-0.0656442,-0.178569
2.84543,-0.206459,-0.132893
2.79291,-0.0658185,-0.113818
2.80253,-0.0763238,-0.0489365
2.91981,-0.366787,-0.0856425
2.85172,-0.217426,0
2.83532,-0.216175,-0.306298
2.86291,-0.218279,0.0668117
2.80977,-0.0765209,0.0818026
2.78924,-0.0759618,-0.178825
2.85262,-0.217494,-0.133265
2.79664,-0.0761634,-0.11398
2.86291,-0.218279,-0.0668117
2.80225,-0.086106,-0.0489365
2.92644,-0.378001,-0.0858753
2.85493,-0.227697,0
2.80663,-0.0862405,0.0163199
2.83455,-0.226071,-0.306298
2.87011,-0.228907,0.0669978
2.84002,-0.226508,-0.199224
2.81348,-0.0864511,0.0819189
2.78896,-0.0856976,-0.178825
2.79636,-0.085925,-0.11398
2.80195,-0.0953982,-0.0489365
2.92913,-0.388228,-0.0859916
2.87011,-0.238488,0
2.81032,-0.0956833,0.0163431
2.84171,-0.236128,-0.307154
2.8773,-0.239085,0.067184
2.85119,-0.236915,-0.200062
2.81717,-0.0959165,0.0820353
2.79664,-0.0952174,-0.179337
2.88117,-0.239407,0.168371
2.867,-0.238229,-0.13401
2.80405,-0.0954696,-0.114306
2.8056,-0.105328,-0.0490064
2.9238,-0.397912,-0.0858753
2.87324,-0.24885,0
2.81797,-0.105793,0.0163896
2.84483,-0.246389,-0.307583
2.87645,-0.249128,0.067184
2.85829,-0.247555,-0.20062
2.82082,-0.1059,0.0821517
2.80028,-0.105129,-0.179593
2.86217,-0.247891,-0.133824
2.80769,-0.105407,-0.114469
2.87247,-0.248783,-0.0670909
2.8172,-0.115613,-0.0492158
2.93823,-0.410327,-0.0863407
2.88033,-0.259596,0
2.85584,-0.257389,-0.308868
2.88353,-0.259885,0.0673701
2.82842,-0.116073,0.0823844
2.80388,-0.115066,-0.179849
2.87323,-0.258956,-0.134382
2.8113,-0.115371,-0.114632
2.87955,-0.259526,-0.067277
2.81678,-0.125446,-0.0492158
2.9447,-0.421715,-0.0865734
2.87542,-0.269276,0
2.85096,-0.266985,-0.30844
2.8826,-0.269949,0.0673701
2.86047,-0.267876,-0.200899
2.828,-0.125946,0.0823844
2.95341,-0.422963,0.052078
2.80745,-0.125031,-0.180104
2.81088,-0.125183,-0.114632
2.82431,-0.135661,-0.0493554
2.94716,-0.432571,-0.0866898
2.89039,-0.280858,0
2.8207,-0.135488,0.0164128
2.86189,-0.278089,-0.309725
2.89757,-0.281556,0.0677423
2.87143,-0.279017,-0.201736
2.83154,-0.136008,0.0825008
2.81099,-0.135021,-0.18036
2.81043,-0.134994,-0.114632
2.88562,-0.280396,-0.0674631
2.81983,-0.145314,-0.0492856
2.94959,-0.443451,-0.0868062
2.89735,-0.291748,0
2.83619,-0.146157,0.0165058
2.86486,-0.288476,-0.310153
2.90054,-0.292069,0.0678353
2.87441,-0.289438,-0.202015
2.83504,-0.146097,0.0826171
2.81448,-0.145038,-0.180616
2.82191,-0.145421,-0.11512
2.88861,-0.290867,-0.0675562
2.83128,-0.155815,-0.049495
2.95593,-0.454961,-0.0870389
2.90029,-0.302274,0
2.87965,-0.300123,-0.311867
2.88132,-0.300297,-0.202573
2.8385,-0.156212,0.0827335
2.81396,-0.154862,-0.180616
2.82139,-0.15527,-0.11512
2.89553,-0.301778,-0.0677423
2.82673,-0.165463,-0.0494252
2.95827,-0.465898,-0.0871552
2.89922,-0.312396,0
2.84309,-0.166421,0.0165523
2.91036,-0.313597,0.0681145
2.88025,-0.310353,-0.202573
2.84592,-0.166587,0.0829662
2.82536,-0.165383,-0.181384
2.82881,-0.165585,-0.115446
2.83013,-0.175577,-0.049495
2.96057,-0.476857,-0.0872716
2.90209,-0.322957,0
2.85047,-0.176839,0.0165988
2.88708,-0.321287,-0.203131
2.84532,-0.17652,0.0829662
2.82875,-0.175491,-0.181639
2.82821,-0.175458,-0.115446
2.90527,-0.323312,-0.0680214
2.82956,-0.184467,-0.049495
2.90503,-0.332527,0
2.85389,-0.186054,0.0166221
2.92014,-0.334256,0.0683936
2.90192,-0.332171,-0.204247
2.84874,-0.185718,0.0830826
2.82818,-0.184377,-0.181639
2.90585,-0.332622,-0.136243
2.83562,-0.184863,-0.115772
2.83681,-0.195882,-0.0496346
2.91962,-0.34556,0
2.85715,-0.197286,0.0166453
2.90062,-0.343311,-0.204247
2.852,-0.19693,0.0831989
2.83144,-0.19551,-0.181895
2.84287,-0.1963,-0.116097
2.91486,-0.344996,-0.0683006
2.8401,-0.206072,-0.0497045
2.85644,-0.207258,0.0166453
2.92555,-0.356621,0.0685797
2.90337,-0.353917,-0.204526
2.85129,-0.206884,0.0831989
2.84666,-0.206548,-0.182919
2.9073,-0.354397,-0.136429
2.84216,-0.206222,-0.116097
2.91761,-0.355653,-0.0683936
2.84741,-0.215598,-0.0498441
