1.87114,0.669964,-0.0462471
1.87234,0.767903,-0.0353237
1.83058,0.549201,-0.0556211
1.85512,0.656932,0
1.79376,0.443912,-0.0215127
1.8357,0.550738,-0.24395
1.8837,0.77256,0.0118331
1.83516,0.550574,-0.0111356
1.85195,0.655809,-0.211624
1.81705,0.449674,-0.174735
1.87723,0.664764,0.0463402
1.80929,0.447755,0.021699
1.8506,0.655332,-0.137281
1.84056,0.552195,-0.156871
1.87553,0.769212,0.0589956
1.83874,0.551649,0.0335086
1.82186,0.450865,-0.109301
1.86327,0.65982,0.115115
1.82984,0.548979,0.0778323
1.86064,0.658889,-0.0919455
1.84415,0.553272,-0.100904
1.81383,0.544175,0.154593
1.86969,0.662094,-0.0461541
1.87117,0.760184,-0.0352539
1.82473,0.540855,-0.0553884
1.84974,0.648131,0
1.80688,0.440805,-0.0216524
1.82991,0.542391,-0.24294
1.88254,0.764803,0.0118098
1.83697,0.544485,-0.0111356
1.84285,0.645719,-0.210339
1.8224,0.44459,-0.175107
1.87943,0.658535,0.0463402
1.81465,0.442701,0.0217455
1.849,0.647872,-0.137002
1.83856,0.544955,-0.156545
1.87437,0.761483,0.0588792
1.84056,0.545548,0.0335086
1.81559,0.442928,-0.108836
1.86545,0.653637,0.115115
1.83165,0.542907,0.0778323
1.86659,0.654036,-0.0921316
1.84215,0.546018,-0.100694
1.81562,0.538157,0.154593
1.8699,0.75967,-0.0822287
1.86433,0.653245,-0.045968
1.86626,0.750989,-0.0351142
1.82651,0.534801,-0.0553884
1.85188,0.641994,0
1.80056,0.432941,-0.0215593
1.83551,0.537436,-0.243445
1.87765,0.755571,0.0117633
1.83493,0.537267,-0.0111124
1.84498,0.639604,-0.210339
1.82386,0.438544,-0.175107
1.87027,0.648369,0.046061
1.81222,0.435746,0.021699
1.85491,0.643044,-0.137281
1.83653,0.537735,-0.15622
1.87688,0.755263,0.0588792
1.84236,0.539442,0.0335086
1.86643,0.751056,-0.128938
1.79763,0.432237,-0.107673
1.86006,0.644832,0.11465
1.82193,0.533461,0.0773438
1.85742,0.643916,-0.0915733
1.84778,0.541029,-0.100904
1.86433,0.646312,0.242276
1.81357,0.531013,0.154267
1.865,0.750481,-0.0819031
1.86649,0.64706,-0.045968
1.82077,0.525884,-0.0551557
1.85043,0.633905,0
1.79824,0.425417,-0.0215127
1.82984,0.528502,-0.242435
1.88412,0.750163,0.0117866
1.8292,0.528317,-0.0110659
1.84355,0.631548,-0.20991
1.80995,0.428189,-0.17362
1.86885,0.640214,0.045968
1.80602,0.427259,0.0216059
1.84592,0.632361,-0.136444
1.84232,0.532106,-0.156545
1.87592,0.7469,0.0587629
1.84048,0.531575,0.0334388
1.87288,0.745686,-0.129194
1.80698,0.427484,-0.108139
1.86619,0.639304,0.114883
1.82004,0.52567,0.077181
1.85221,0.634514,-0.091201
1.84208,0.532036,-0.100485
1.81168,0.523256,0.153942
1.86774,0.74364,-0.0819031
1.8575,0.636326,-0.0456888
1.86042,0.733215,-0.0349048
1.81875,0.518428,-0.0550393
1.84885,0.626159,0
1.79582,0.41823,-0.0214662
1.8393,0.524286,-0.243445
1.87928,0.740647,0.0117401
1.82334,0.519736,-0.0110194
1.80756,0.420964,-0.173248
1.8635,0.63112,0.0457819
1.80361,0.420044,0.0215593
1.84056,0.623354,-0.135886
1.83266,0.522393,-0.155569
1.87108,0.737414,0.0585302
1.83463,0.522954,0.0332992
1.86433,0.734753,-0.128427
1.80846,0.421173,-0.108139
1.85706,0.628942,0.114185
1.81417,0.517122,0.0768554
1.85441,0.628044,-0.091201
1.83624,0.523412,-0.100066
1.86515,0.63168,0.241789
1.80966,0.515835,0.153616
1.86288,0.734184,-0.0815774
1.82786,0.521024,0.346541
1.85592,0.628555,-0.0455958
1.86297,0.726718,-0.0349048
1.8167,0.510995,-0.0549229
1.84343,0.617163,0
1.79337,0.411066,-0.0214196
1.82966,0.514641,-0.24193
1.87068,0.729724,0.0116703
1.82514,0.513369,-0.0110194
1.81678,0.416433,-0.173991
1.86948,0.625883,0.0458749
1.80896,0.414641,0.0216059
1.85029,0.61946,-0.136444
1.83447,0.515994,-0.155569
1.86619,0.727974,0.0582974
1.82105,0.512217,0.03302
1.86316,0.726791,-0.128171
1.80992,0.41486,-0.108139
1.86304,0.623725,0.114418
1.81597,0.510788,0.0768554
1.84901,0.619031,-0.0908288
1.83036,0.514837,-0.0996477
1.86358,0.623906,0.241301
1.80377,0.507358,0.152965
1.86171,0.726226,-0.0814146
1.82967,0.514641,0.346541
1.86189,0.623343,-0.0456888
1.85791,0.717653,-0.0347652
1.82224,0.506037,-0.0550393
1.8254,0.506916,-0.378899
1.84927,0.612303,0
1.79862,0.405997,-0.0214662
1.82371,0.506447,-0.24092
1.86936,0.722074,0.0116471
1.82298,0.506243,-0.0109961
1.83486,0.607531,-0.208197
1.81038,0.408652,-0.173248
1.86775,0.618422,0.0457819
1.80643,0.407758,0.0215593
1.84476,0.610812,-0.135886
1.82849,0.507773,-0.154918
1.86487,0.72034,0.0581811
1.82659,0.507245,0.0330898
1.85811,0.717731,-0.127659
1.7996,0.406217,-0.107441
1.8613,0.616288,0.114185
1.8215,0.505832,0.0770182
1.85485,0.614152,-0.0910149
1.83591,0.509833,-0.099857
1.86187,0.616475,0.240814
1.80544,0.501373,0.152965
1.85665,0.717168,-0.0810889
1.8124,0.503306,0.342953
1.84877,0.612137,-0.0453166
1.86053,0.710839,-0.0347652
1.80866,0.495133,-0.0545738
1.83103,0.501258,-0.379683
1.8439,0.603035,0
1.804,0.400269,-0.0215127
1.82173,0.498712,-0.240415
1.86825,0.713791,0.0116238
1.82097,0.498502,-0.0109729
1.83329,0.599566,-0.207768
1.80409,0.400289,-0.172504
1.8548,0.606601,0.0454097
1.8001,0.399402,0.0214662
1.8432,0.602806,-0.135607
1.83034,0.501069,-0.154918
1.86376,0.712074,0.0580647
1.82843,0.500547,0.0330898
1.86446,0.712341,-0.127915
1.80107,0.399619,-0.107441
1.85216,0.605739,0.113487
1.81178,0.495987,0.0765297
1.8457,0.603624,-0.0904565
1.83777,0.503101,-0.099857
1.86411,0.609647,0.240814
1.80727,0.494753,0.152965
1.85554,0.708932,-0.0809261
1.81424,0.49666,0.342953
1.8472,0.604115,-0.0452235
1.85552,0.701511,-0.0346256
1.81037,0.488816,-0.0545738
1.83656,0.495885,-0.380468
1.84218,0.595364,0
1.80148,0.393116,-0.0214662
1.83909,0.594365,-0.300691
1.82346,0.492349,-0.240415
1.86699,0.70585,0.0116006
1.8227,0.492143,-0.0109729
1.83159,0.59194,-0.20734
1.80159,0.393139,-0.172132
1.8569,0.600122,0.0454097
1.79757,0.392263,0.0214196
1.84149,0.595141,-0.135328
1.82823,0.493637,-0.154593
1.86623,0.705563,0.0580647
1.83017,0.494161,0.0330898
1.8632,0.704417,-0.127659
1.80636,0.39418,-0.107673
1.85807,0.600497,0.11372
1.8135,0.489659,0.0765297
1.84019,0.594719,-0.0900843
1.82794,0.493559,-0.099229
1.85867,0.600694,0.239839
1.80514,0.487401,0.15264
1.858,0.70245,-0.0809261
1.81596,0.490324,0.342953
1.84929,0.597663,-0.0452235
1.85409,0.693953,-0.0345558
1.80812,0.481781,-0.0544575
1.83061,0.487773,-0.378899
1.84034,0.588035,0
1.79495,0.385461,-0.021373
1.81742,0.484257,-0.239405
1.86558,0.698253,0.0115773
1.81659,0.484036,-0.0109264
1.83354,0.585863,-0.20734
1.80288,0.387163,-0.172132
1.85508,0.592744,0.0453166
1.79495,0.385461,0.021373
1.84346,0.589031,-0.135328
1.8183,0.484492,-0.153616
1.85733,0.695166,0.0577156
1.82407,0.48603,0.0329501
1.86179,0.696835,-0.127403
1.80375,0.38735,-0.107441
1.85244,0.591902,0.113255
1.81511,0.483643,0.0765297
1.84976,0.591046,-0.0904565
1.82571,0.486466,-0.0990196
1.85309,0.59211,0.238864
1.80674,0.481413,0.15264
1.85283,0.693483,-0.0806004
1.81758,0.484299,0.342953
1.85127,0.591527,-0.0452235
1.85275,0.686087,-0.034486
1.80593,0.47445,-0.0543411
1.82092,0.478389,-0.376545
1.83856,0.580403,0
1.79238,0.378366,-0.0213265
1.82802,0.577073,-0.298231
1.81142,0.475893,-0.238394
1.85675,0.687569,0.0115076
1.8144,0.476675,-0.0109032
1.83557,0.579459,-0.20734
1.80032,0.380044,-0.171761
1.85332,0.585061,0.0452235
1.8002,0.380018,0.0214196
1.8455,0.582592,-0.135328
1.81998,0.478142,-0.153616
1.85974,0.688678,0.0577156
1.82189,0.478643,0.0328803
1.85672,0.687559,-0.126892
1.80509,0.381051,-0.107441
1.85069,0.584229,0.113022
1.80906,0.475273,0.076204
1.83657,0.579774,-0.089712
1.82353,0.479075,-0.0988103
1.85893,0.586833,0.239351
1.8007,0.473077,0.151989
1.85149,0.685623,-0.0804376
1.81545,0.476952,0.342236
1.85332,0.585061,-0.0452235
1.84774,0.676542,-0.0343463
1.80765,0.467828,-0.0543411
1.83026,0.473678,-0.378114
1.8445,0.574851,0
1.78983,0.370983,-0.0212799
1.81315,0.469251,-0.238394
1.8555,0.679384,0.0114843
1.81226,0.46902,-0.0108799
1.83009,0.570361,-0.206483
1.79781,0.372635,-0.171389
1.85545,0.578265,0.0452235
1.79375,0.371795,0.0213265
1.84,0.57345,-0.134769
1.814,0.469471,-0.152965
1.85475,0.679108,0.0574829
1.81976,0.470961,0.0328105
1.85548,0.679377,-0.126636
1.79084,0.371191,-0.106511
1.83757,0.57269,0.112092
1.80692,0.467638,0.0760412
1.84631,0.575417,-0.0900843
1.82141,0.471388,-0.0986009
1.85349,0.577654,0.238376
1.80242,0.466474,0.151989
1.85024,0.677459,-0.0802748
1.80195,0.466351,0.339366
1.844,0.574695,-0.0449444
1.85385,0.671451,-0.0344161
1.80927,0.461516,-0.0543411
1.8281,0.466317,-0.37733
1.83885,0.566055,0
1.79504,0.365531,-0.0213265
1.8321,0.563978,-0.298231
1.81093,0.461938,-0.237889
1.85786,0.672904,0.0114843
1.81389,0.462692,-0.0108799
1.82827,0.5628,-0.206055
1.79519,0.365563,-0.171017
1.84599,0.568255,0.0449444
1.80679,0.367926,0.0214662
1.83818,0.56585,-0.13449
1.82335,0.465107,-0.153616
1.85711,0.67263,0.0574829
1.81364,0.462629,0.0326709
1.85784,0.672897,-0.126636
1.78821,0.364141,-0.106278
1.84337,0.567448,0.112325
1.80467,0.46034,0.0758784
1.84067,0.566618,-0.089712
1.82691,0.466015,-0.0988103
1.8555,0.571181,0.238376
1.80018,0.459195,0.151663
1.84884,0.669635,-0.0801119
1.80738,0.461031,0.340083
1.83453,0.564726,-0.0446652
1.85242,0.663626,-0.0343463
1.79924,0.452273,-0.053992
1.8183,0.457064,-0.374976
1.82933,0.556142,0
1.7963,0.359263,-0.0213265
1.82649,0.55528,-0.297001
1.81638,0.456581,-0.238394
1.85643,0.665065,0.0114611
1.81161,0.455382,-0.0108567
1.83022,0.556414,-0.206055
1.79646,0.359294,-0.171017
1.84797,0.561808,0.0449444
1.79238,0.358478,0.0212799
1.83633,0.55827,-0.134211
1.8211,0.457767,-0.153291
1.85191,0.663446,0.0572502
1.80749,0.454345,0.0325313
1.85642,0.665061,-0.12638
1.7973,0.359463,-0.106743
1.8377,0.558686,0.111859
1.80239,0.453063,0.0757155
1.83882,0.559027,-0.0895259
1.81691,0.456713,-0.0981823
1.84608,0.561235,0.236914
1.80177,0.452908,0.151663
1.85493,0.664525,-0.0802748
1.80897,0.454719,0.340083
1.83649,0.558318,-0.0446652
1.85095,0.65582,-0.0342765
1.81245,0.448872,-0.0543411
1.81989,0.450714,-0.374976
1.83126,0.549753,0
1.7897,0.351449,-0.0212333
1.82085,0.546627,-0.295772
1.81411,0.449284,-0.237889
1.85874,0.65858,0.0114611
1.80931,0.448093,-0.0108334
1.83216,0.550021,-0.206055
1.78989,0.351486,-0.170274
1.84226,0.553053,0.0447583
1.79362,0.352219,0.0212799
1.8268,0.548414,-0.133374
1.81108,0.448532,-0.152314
1.85045,0.655642,0.0571338
1.81294,0.448994,0.0326011
1.85497,0.657243,-0.126124
1.79071,0.351647,-0.106278
1.83581,0.551119,0.111627
1.80784,0.447729,0.0758784
1.84459,0.553753,-0.089712
1.81849,0.450367,-0.0981823
1.84423,0.553646,0.236427
1.7956,0.444698,0.151012
1.8497,0.655376,-0.0799491
1.81055,0.448401,0.340083
1.83843,0.551904,-0.0446652
1.84568,0.64671,-0.0341369
1.79459,0.437805,-0.0537593
1.81764,0.443429,-0.374192
1.82933,0.542221,0
1.78698,0.344443,-0.0211868
1.82275,0.540268,-0.295772
1.80025,0.439187,-0.235869
1.84593,0.646798,0.0113681
1.81475,0.442723,-0.0108567
1.83025,0.542493,-0.205626
1.7911,0.345236,-0.170274
1.84417,0.54662,0.0447583
1.79484,0.345957,0.0212799
1.83635,0.544302,-0.133932
1.80876,0.441263,-0.151989
1.84518,0.646535,0.0569011
1.80673,0.440767,0.0324615
1.84595,0.646804,-0.125357
1.79192,0.345395,-0.106278
1.8339,0.543573,0.111394
1.80551,0.440469,0.0757155
1.83884,0.54504,-0.0893398
1.81617,0.443071,-0.0979729
1.84234,0.546077,0.235939
1.79714,0.438428,0.151012
1.84443,0.646272,-0.0796234
1.80828,0.441146,0.339366
1.83651,0.544347,-0.0445722
1.84404,0.639276,-0.0340671
1.8038,0.433722,-0.053992
1.81147,0.435566,-0.372623
1.83112,0.536152,0
1.78419,0.337771,-0.0211402
1.81694,0.532,-0.294542
1.80941,0.435071,-0.236879
1.84807,0.640673,0.0113681
1.80843,0.434833,-0.0108102
1.82822,0.535303,-0.205198
1.78832,0.338554,-0.169902
1.84598,0.540502,0.0447583
1.78419,0.337771,0.0211402
1.83049,0.535967,-0.133374
1.80246,0.433399,-0.151338
1.84354,0.639103,0.0567847
1.79652,0.431969,0.032252
1.84431,0.639372,-0.125101
1.78129,0.337223,-0.10558
1.83186,0.536367,0.111162
1.80696,0.43448,0.0757155
1.82914,0.535571,-0.0887814
1.80986,0.435178,-0.0975542
1.84414,0.539965,0.235939
1.79083,0.430602,0.150362
1.84279,0.638844,-0.0794606
1.80208,0.433308,0.337931
1.82679,0.534883,-0.044293
1.83869,0.630242,-0.0339275
1.78974,0.423737,-0.0535266
1.8168,0.430143,-0.373407
1.82914,0.528646,0
1.78535,0.331541,-0.0211402
1.81879,0.525654,-0.294542
1.8032,0.426923,-0.235869
1.84651,0.632921,0.0113449
1.80993,0.428517,-0.0108102
1.82626,0.527814,-0.20477
1.78166,0.330855,-0.169158
1.84017,0.531834,0.0445722
1.78535,0.331541,0.0211402
1.83235,0.529574,-0.133374
1.81172,0.428941,-0.151989
1.84576,0.632664,0.0567847
1.8058,0.427538,0.0323917
1.84276,0.631636,-0.124845
1.78638,0.331731,-0.105813
1.82221,0.526643,0.110464
1.80068,0.426328,0.0753899
1.82716,0.528073,-0.0885953
1.81137,0.428858,-0.0975542
1.8422,0.532422,0.235452
1.7962,0.425267,0.150687
1.84501,0.632407,-0.0794606
1.79593,0.425201,0.336496
1.82864,0.528503,-0.044293
1.8372,0.622216,-0.0338577
1.79518,0.418082,-0.0536429
1.8069,0.420813,-0.371054
1.82722,0.520842,0
1.79049,0.325711,-0.0211868
1.8207,0.518985,-0.294542
1.80862,0.421211,-0.236374
1.84503,0.624866,0.0113216
1.8076,0.420974,-0.0107869
1.82436,0.520027,-0.204341
1.78286,0.324323,-0.169158
1.84211,0.525086,0.0445722
1.78656,0.324995,0.0211402
1.82277,0.519573,-0.132537
1.80552,0.420489,-0.151338
1.84049,0.62333,0.056552
1.80735,0.420917,0.0323917
1.84884,0.626158,-0.125101
1.78758,0.325182,-0.105813
1.83181,0.52215,0.110929
1.80224,0.419725,0.0753899
1.83292,0.522468,-0.0887814
1.80515,0.420404,-0.0971355
1.83651,0.52349,0.234477
1.78998,0.416872,0.150036
1.84731,0.625641,-0.0794606
1.79747,0.418616,0.336496
1.82672,0.520701,-0.0442
1.83914,0.616441,-0.0338577
1.78869,0.410651,-0.0534102
1.81204,0.416012,-0.371838
1.82499,0.514015,0
1.77576,0.317271,-0.0210005
1.81471,0.51112,-0.293312
1.80606,0.41464,-0.235869
1.84698,0.619067,0.0113216
1.80891,0.415293,-0.0107869
1.82981,0.515371,-0.20477
1.78387,0.318721,-0.169158
1.83605,0.517128,0.0443861
1.78757,0.319381,0.0211402
1.82055,0.512763,-0.132258
1.80683,0.414815,-0.151338
1.83106,0.613733,0.0562029
1.80477,0.414342,0.0323219
1.84701,0.619079,-0.124845
1.7886,0.319565,-0.105813
1.82575,0.514228,0.110464
1.79965,0.413167,0.0752271
1.82302,0.513458,-0.088223
1.80646,0.414731,-0.0971355
1.8305,0.515565,0.233502
1.7874,0.410355,0.149711
1.79878,0.412968,0.336496
1.82835,0.51496,-0.0442
1.8338,0.607181,-0.033718
1.79018,0.404091,-0.0534102
1.8059,0.407639,-0.370269
1.82301,0.506251,0
1.78479,0.312137,-0.0210936
1.82038,0.505521,-0.293927
1.79983,0.406269,-0.234859
1.83784,0.60852,0.0112519
1.80652,0.407779,-0.0107637
1.82402,0.506532,-0.203913
1.78503,0.312179,-0.169158
1.83793,0.510394,0.0443861
1.78479,0.312137,0.0210936
1.81857,0.505018,-0.131979
1.80445,0.407311,-0.151012
1.82951,0.60576,0.0560866
1.79847,0.405962,0.0321822
1.8379,0.608539,-0.124078
1.78976,0.313006,-0.105813
1.82378,0.506463,0.110232
1.80115,0.406567,0.0752271
1.82104,0.505703,-0.0880369
1.80018,0.406347,-0.0967169
1.83238,0.508851,0.233502
1.785,0.402922,0.149385
1.83635,0.608026,-0.0788093
1.80412,0.407237,0.337213
1.83023,0.508254,-0.0442
1.8283,0.598289,-0.0335784
1.78768,0.396974,-0.0532939
1.80348,0.400484,-0.369485
1.82091,0.498829,0
1.78587,0.305906,-0.0210936
1.81833,0.498121,-0.293312
1.79736,0.399125,-0.234354
1.83235,0.599615,0.0112054
1.80012,0.399737,-0.0107172
1.81427,0.497011,-0.202628
1.78611,0.305948,-0.169158
1.83584,0.50292,0.044293
1.77404,0.30388,0.020954
1.82032,0.498668,-0.131979
1.79807,0.399283,-0.150362
1.83161,0.599371,0.0560866
1.79597,0.398816,0.0321124
1.83622,0.60088,-0.123822
1.78297,0.30541,-0.105348
1.82168,0.49904,0.109999
1.79866,0.399413,0.0750642
1.81894,0.498289,-0.0878508
1.79768,0.399196,-0.0965075
1.82265,0.499306,0.232039
1.79029,0.397554,0.149711
1.83466,0.600371,-0.0786465
1.794,0.398379,0.335061
1.82042,0.498694,-0.0439208
1.83408,0.593454,-0.0336482
1.78508,0.39019,-0.0531775
1.80863,0.395338,-0.370269
1.81869,0.491743,0
1.77898,0.298658,-0.0210005
1.81997,0.492088,-0.293312
1.79868,0.393162,-0.234354
1.83433,0.593534,0.0112054
1.80534,0.394619,-0.0107404
1.82359,0.493067,-0.203484
1.7714,0.297385,-0.167671
1.82592,0.493698,0.0440139
1.77898,0.298658,0.0210005
1.82197,0.492628,-0.131979
1.79549,0.392466,-0.150036
1.82598,0.590831,0.0558538
1.79338,0.392004,0.0320426
1.83441,0.593558,-0.123566
1.78397,0.299495,-0.105348
1.81947,0.491954,0.109766
1.79997,0.393445,0.0750642
1.81672,0.49121,-0.0876646
1.8068,0.394938,-0.0969262
1.82813,0.494295,0.232527
1.7877,0.390763,0.149385
1.83665,0.594283,-0.0786465
1.79532,0.392427,0.335061
1.81434,0.490566,-0.0437347
1.83625,0.586728,-0.0336482
1.77868,0.381966,-0.0529448
1.8024,0.38706,-0.368701
1.81662,0.484045,0
1.77217,0.29084,-0.0209074
1.81412,0.483379,-0.292082
1.80011,0.386567,-0.234354
1.82888,0.584373,0.0111589
1.80287,0.38716,-0.0107172
1.81386,0.483309,-0.202199
1.77248,0.290891,-0.167671
1.82385,0.485973,0.0439208
1.78401,0.292783,0.0210471
1.80834,0.481838,-0.130863
1.79692,0.385883,-0.150036
1.83575,0.586569,0.0560866
1.7948,0.385428,0.0320426
1.83277,0.585616,-0.12331
1.78112,0.292308,-0.105115
1.8174,0.484254,0.109534
1.7975,0.386007,0.0749014
1.81851,0.484549,-0.0876646
1.80043,0.386636,-0.0965075
1.82226,0.485548,0.231552
1.78523,0.383372,0.14906
1.835,0.586331,-0.0784836
1.79289,0.385019,0.334344
1.81613,0.483914,-0.0437347
1.82303,0.575498,-0.033369
1.77609,0.374929,-0.0528284
1.79606,0.379145,-0.367132
1.81056,0.475667,0
1.76923,0.284018,-0.0208608
1.81197,0.476039,-0.291467
1.79756,0.379461,-0.233849
1.82709,0.576781,0.0111356
1.80029,0.380038,-0.0106939
1.81169,0.475963,-0.201771
1.77742,0.285333,-0.168043
1.82554,0.479603,0.0439208
1.77318,0.284652,0.0209074
1.81387,0.476536,-0.131142
1.79045,0.377961,-0.149385
1.83016,0.57775,0.0558538
1.80005,0.379986,0.0321124
1.8348,0.579215,-0.12331
1.78607,0.286721,-0.105348
1.81908,0.477906,0.109534
1.79883,0.379729,0.0749014
1.82019,0.478198,-0.0876646
1.79004,0.377873,-0.0958795
1.82778,0.480192,0.232039
1.78655,0.377137,0.14906
1.82561,0.576312,-0.0779952
1.79423,0.378757,0.334344
1.8178,0.477571,-0.0437347
1.83648,0.572703,-0.0335784
1.7813,0.369538,-0.0529448
1.7897,0.371279,-0.365563
1.80834,0.468341,0
1.77416,0.27846,-0.0209074
1.81362,0.46971,-0.291467
1.7911,0.371572,-0.232839
1.81764,0.566826,0.0110659
1.80161,0.373751,-0.0106939
1.80564,0.467641,-0.200914
1.7784,0.279126,-0.168043
1.8272,0.473227,0.0439208
1.77811,0.27908,0.020954
1.81166,0.469201,-0.130863
1.78786,0.370898,-0.14906
1.82071,0.567786,0.0555047
1.78962,0.371263,0.031903
1.833,0.571617,-0.123054
1.78706,0.280485,-0.105348
1.82461,0.472555,0.109766
1.80015,0.373447,0.0749014
1.81025,0.468835,-0.0871063
1.79526,0.372434,-0.0960888
1.82176,0.471818,0.231064
1.78005,0.369279,0.148409
1.82379,0.568746,-0.0778323
1.80325,0.37409,0.335779
1.81559,0.470219,-0.0436417
1.82308,0.561898,-0.0332992
1.7786,0.36283,-0.0528284
1.79476,0.366127,-0.366347
1.80988,0.462342,0
1.77112,0.271968,-0.0208608
1.81134,0.462716,-0.290852
1.79622,0.366424,-0.233344
1.82715,0.563152,0.0111124
1.79892,0.366975,-0.0106707
1.81103,0.462636,-0.201342
1.77538,0.272623,-0.167671
1.82489,0.466176,0.0438278
1.77903,0.273183,0.020954
1.80547,0.461216,-0.130305
1.79299,0.365765,-0.149385
1.81495,0.559391,0.055272
1.79084,0.365327,0.031903
1.83107,0.56436,-0.122798
1.77614,0.272739,-0.10465
1.81069,0.462548,0.108836
1.80137,0.367476,0.0749014
1.81953,0.464808,-0.0874785
1.79648,0.366479,-0.0960888
1.81562,0.463809,0.230089
1.77736,0.362577,0.148083
1.82567,0.562695,-0.0778323
1.78905,0.364963,0.332909
1.81326,0.463207,-0.0435486
1.82121,0.554367,-0.0332294
1.77202,0.355049,-0.0525957
1.81536,0.456998,0
1.76415,0.264598,-0.0207677
1.80911,0.455426,-0.290237
1.78581,0.357813,-0.231828
1.82145,0.554442,0.0110659
1.80411,0.36148,-0.0106939
1.80106,0.453399,-0.200057
1.77238,0.265834,-0.167299
1.81099,0.455898,0.0434555
1.76415,0.264598,0.0207677
1.80707,0.454911,-0.130305
1.78643,0.357938,-0.148734
1.82836,0.556545,0.0556211
1.78818,0.358288,0.0318332
1.82921,0.556803,-0.122543
1.77708,0.266538,-0.10465
1.80455,0.454276,0.108371
1.79481,0.359616,0.0745757
1.80952,0.455528,-0.0869201
1.78992,0.358636,-0.0956701
1.81338,0.4565,0.229602
1.77471,0.355588,0.147758
1.82762,0.556319,-0.0778323
1.79032,0.358716,0.332909
1.81099,0.455898,-0.0434555
1.82303,0.548324,-0.0332294
1.77318,0.34917,-0.0525957
1.80134,0.447121,0
1.77293,0.259907,-0.0208608
1.81061,0.449423,-0.290237
1.79088,0.352655,-0.232334
1.81945,0.547246,0.0110426
1.79353,0.353176,-0.0106242
1.80642,0.448382,-0.200486
1.76537,0.258799,-0.166556
1.81249,0.44989,0.0434555
1.76897,0.259326,0.0208143
1.79308,0.445071,-0.129189
1.78761,0.352011,-0.148734
1.82254,0.548175,0.0553884
1.79328,0.353129,0.031903
1.82722,0.549584,-0.122287
1.774,0.260064,-0.104418
1.81379,0.450213,0.108836
1.79207,0.35289,0.0744129
1.81102,0.449524,-0.0869201
1.7911,0.352698,-0.0956701
1.81103,0.449527,0.229114
1.77979,0.350471,0.148083
1.82946,0.550255,-0.0778323
1.80861,0.448927,-0.0433625
1.8212,0.540501,-0.0331596
1.77053,0.341911,-0.0524793
1.79908,0.439567,0
1.76991,0.252841,-0.0208143
1.80073,0.43997,-0.288393
1.78827,0.345337,-0.231828
1.82528,0.541712,0.0110659
1.79088,0.345842,-0.0106009
1.81191,0.442702,-0.200914
1.76631,0.252327,-0.166556
1.81413,0.443244,0.0434555
1.76595,0.252276,0.0207677
1.79857,0.439443,-0.129468
1.78106,0.343946,-0.148083
1.8207,0.540355,0.055272
1.79064,0.345796,0.0318332
1.82157,0.540612,-0.121775
1.77099,0.252996,-0.104185
1.80767,0.441666,0.108371
1.79335,0.346319,0.0744129
1.81266,0.442884,-0.0869201
1.78846,0.345374,-0.0954608
1.80881,0.441944,0.228627
1.77323,0.342434,0.147432
1.81613,0.538998,-0.077181
1.81413,0.443244,-0.0434555
1.81923,0.533016,-0.0330898
1.77564,0.336473,-0.0525957
1.79671,0.432348,0
1.76682,0.246109,-0.0207677
1.8061,0.434606,-0.289008
1.78166,0.337615,-0.230818
1.81948,0.533088,0.0110194
1.79994,0.341078,-0.0106474
1.80571,0.434513,-0.200057
1.76718,0.24616,-0.166556
1.81178,0.435973,0.0433625
1.76682,0.246109,0.0207677
1.8001,0.433162,-0.129468
1.78617,0.338468,-0.148409
1.8149,0.531747,0.0550393
1.78791,0.338798,0.0317634
1.81962,0.533128,-0.121519
1.77582,0.247363,-0.104418
1.81697,0.437222,0.108836
1.79062,0.339313,0.0742501
1.81808,0.437488,-0.0871063
1.78573,0.338385,-0.0952514
1.8142,0.436556,0.229114
1.77442,0.336241,0.147432
1.82184,0.533779,-0.0773438
1.81178,0.435973,-0.0433625
1.81331,0.524757,-0.0329501
1.78067,0.331315,-0.052712
1.80203,0.427311,0
1.77159,0.240788,-0.0208143
1.80368,0.427703,-0.288393
1.77887,0.330979,-0.230313
1.8174,0.52594,0.0109961
1.79319,0.333644,-0.0106009
1.80714,0.428523,-0.200057
1.77193,0.240835,-0.166928
1.81321,0.429963,0.0433625
1.76763,0.240249,0.0207677
1.79764,0.42627,-0.129189
1.78336,0.331814,-0.148083
1.80898,0.523503,0.0548066
1.78902,0.332867,0.0317634
1.82138,0.527091,-0.121519
1.77267,0.240935,-0.104185
1.80675,0.42843,0.108139
1.79174,0.333373,0.0742501
1.81174,0.429613,-0.086734
1.78684,0.332462,-0.0952514
1.80405,0.42779,0.227652
1.77944,0.331085,0.147758
1.81976,0.526624,-0.077181
1.80543,0.428118,-0.0431764
1.80753,0.515912,-0.0328105
1.77401,0.323352,-0.0524793
1.79579,0.418886,0
1.76453,0.233245,-0.0207211
1.80524,0.42109,-0.288393
1.78007,0.324458,-0.230313
1.81162,0.51708,0.0109496
1.79047,0.326353,-0.0105777
1.80096,0.42009,-0.199201
1.75306,0.23173,-0.165069
1.80699,0.421498,0.0431764
1.7685,0.23377,0.0207677
1.80308,0.420585,-0.129468
1.78849,0.325991,-0.148409
1.81857,0.519064,0.0550393
1.78629,0.325591,0.0316936
1.81946,0.519317,-0.121264
1.77354,0.234437,-0.104185
1.80442,0.420899,0.107906
1.78115,0.324654,0.0737616
1.80552,0.421155,-0.0863618
1.78805,0.325911,-0.0952514
1.80947,0.422077,0.228139
1.7728,0.323131,0.147107
1.81783,0.518854,-0.0770182
1.8031,0.420589,-0.0430833
1.80547,0.508515,-0.0327407
1.76725,0.315751,-0.0522466
1.79724,0.412614,0
1.76137,0.226574,-0.0206746
1.80285,0.413901,-0.287778
1.78119,0.318242,-0.230313
1.81726,0.511837,0.0109729
1.78766,0.319397,-0.0105544
1.79466,0.412021,-0.198344
1.76176,0.226625,-0.165812
1.80845,0.415187,0.0431764
1.7574,0.226064,0.020628
1.79287,0.411609,-0.128631
1.78176,0.318343,-0.147758
1.80883,0.509461,0.0546902
1.78348,0.31865,0.0316238
1.81357,0.510798,-0.120752
1.77039,0.227734,-0.103953
1.7981,0.41281,0.107441
1.78227,0.318435,0.0737616
1.80309,0.413956,-0.0861756
1.78524,0.318964,-0.0950421
1.8032,0.413981,0.227164
1.77784,0.317642,0.147432
1.81964,0.512505,-0.0770182
1.80066,0.413398,-0.0429903
1.80338,0.501139,-0.0326709
1.77228,0.31027,-0.052363
1.79477,0.405457,0
1.76612,0.220921,-0.0207211
1.80428,0.407605,-0.287778
1.78229,0.312022,-0.230313
1.81519,0.50442,0.0109496
1.7927,0.313845,-0.0105777
1.79609,0.405755,-0.198344
1.75859,0.21998,-0.16544
1.80209,0.40711,0.0429903
1.76215,0.220425,0.0206746
1.79429,0.405349,-0.128631
1.77501,0.310747,-0.147107
1.80289,0.501003,0.0544575
1.78458,0.312423,0.0316238
1.81919,0.505533,-0.121008
1.76721,0.221058,-0.10372
1.79563,0.405652,0.107208
1.78731,0.312901,0.0739244
1.80452,0.40766,-0.0861756
1.78634,0.312731,-0.0950421
1.79688,0.405935,0.22619
1.76323,0.308685,0.146131
1.81371,0.50401,-0.0766925
1.80599,0.407991,-0.0430833
1.80889,0.496213,-0.0327407
1.76936,0.303714,-0.0522466
1.80001,0.400371,0
1.75493,0.213613,-0.0205814
1.79405,0.399045,-0.285933
1.7755,0.304767,-0.229303
1.80913,0.496281,0.0109032
1.79374,0.307898,-0.0105777
1.79742,0.399796,-0.198344
1.76326,0.214627,-0.165812
1.80343,0.401131,0.0429903
1.76287,0.214579,0.0206746
1.78784,0.397663,-0.128073
1.77996,0.305533,-0.147432
1.8084,0.496079,0.0545738
1.78167,0.305826,0.031554
1.80931,0.496329,-0.12024
1.76793,0.215196,-0.10372
1.80476,0.401428,0.107673
1.78046,0.305619,0.0735988
1.79806,0.399938,-0.0858034
1.78343,0.30613,-0.0948328
1.8021,0.400835,0.226677
1.76424,0.302835,0.146131
1.81152,0.496935,-0.0765297
1.80343,0.401131,-0.0429903
1.79903,0.486763,-0.0325313
1.77436,0.298199,-0.052363
1.79749,0.393231,0
1.76361,0.208425,-0.0206746
1.79929,0.393625,-0.286548
1.77655,0.298568,-0.229303
1.81085,0.489963,0.0109032
1.78297,0.299646,-0.0105079
1.79104,0.39182,-0.197487
1.76005,0.208004,-0.16544
1.80482,0.394834,0.0429903
1.75963,0.207955,0.020628
1.78921,0.391421,-0.128073
1.78102,0.299319,-0.147432
1.8024,0.487675,0.0543411
1.78272,0.299606,0.031554
1.80718,0.488968,-0.119984
1.76074,0.208086,-0.103255
1.79055,0.391713,0.106743
1.78152,0.299403,0.0735988
1.79945,0.393659,-0.0858034
1.78055,0.299241,-0.0946234
1.79961,0.393694,0.22619
1.76529,0.296676,0.146131
1.80553,0.488521,-0.076204
1.80091,0.39398,-0.0428972
1.79685,0.47945,-0.0324615
1.76749,0.290706,-0.0521302
1.79494,0.386114,0
1.75638,0.201357,-0.0205814
1.80065,0.387343,-0.286548
1.77758,0.292365,-0.229303
1.80869,0.482608,0.0108799
1.78795,0.29407,-0.0105312
1.78851,0.384729,-0.197059
1.76076,0.20186,-0.16544
1.80227,0.387691,0.0428972
1.76432,0.202268,0.0206746
1.79057,0.385173,-0.128073
1.77418,0.291806,-0.146782
1.80023,0.48035,0.0542248
1.77981,0.292732,0.0314841
1.80502,0.481628,-0.119729
1.75749,0.201485,-0.103022
1.7919,0.385461,0.106743
1.77861,0.292534,0.0734359
1.78909,0.384855,-0.085245
1.78159,0.293024,-0.0946234
1.80097,0.38741,0.22619
1.76631,0.290512,0.146131
1.81108,0.483247,-0.0763669
1.79836,0.38685,-0.0428042
1.79843,0.473488,-0.0324615
1.7645,0.284207,-0.0520139
1.78447,0.377674,0
1.75306,0.195088,-0.0205349
1.80193,0.381369,-0.286548
1.77854,0.286469,-0.229303
1.81415,0.477626,0.0109032
1.78891,0.288139,-0.0105312
1.79366,0.379619,-0.197487
1.75351,0.195138,-0.164697
1.79573,0.380056,0.0427111
1.75703,0.195531,0.0205814
1.79184,0.379233,-0.128073
1.7712,0.285287,-0.146456
1.80181,0.474378,0.0542248
1.78472,0.287464,0.031554
1.8066,0.475639,-0.119729
1.76609,0.196538,-0.103487
1.79317,0.379516,0.106743
1.77562,0.285998,0.0732731
1.79427,0.379747,-0.0854311
1.7786,0.286479,-0.0944141
1.79448,0.379791,0.225215
1.7594,0.283385,0.14548
1.80494,0.475203,-0.0760412
1.79964,0.380884,-0.0428042
1.79628,0.465889,-0.0323917
1.76553,0.277738,-0.0520139
1.77801,0.369503,0
1.74979,0.188234,-0.0204883
1.7917,0.372349,-0.284703
1.77958,0.279948,-0.229303
1.80814,0.468964,0.0108567
1.78205,0.280337,-0.0104847
1.79115,0.372233,-0.197059
1.75421,0.188709,-0.164697
1.80102,0.374285,0.0428042
1.75376,0.188661,0.0205349
1.7854,0.371039,-0.127515
1.77224,0.278793,-0.146456
1.79967,0.466766,0.0541084
1.78181,0.280299,0.0314841
1.80833,0.469014,-0.119729
1.76283,0.189636,-0.103255
1.79064,0.372128,0.106511
1.77666,0.279488,0.0732731
1.79565,0.373168,-0.0854311
1.7757,0.279337,-0.0942047
1.79586,0.373211,0.225215
1.75648,0.276314,0.145154
1.80281,0.46758,-0.0758784
1.80494,0.375099,-0.0428972
1.79782,0.45993,-0.0323917
1.76249,0.271273,-0.0518975
1.78706,0.365207,0
1.74244,0.181601,-0.0203952
1.78518,0.364823,-0.283473
1.77266,0.272838,-0.228293
1.80194,0.460983,0.0108102
1.78297,0.274426,-0.0104847
1.78068,0.363903,-0.195773
1.75086,0.182479,-0.164325
1.79833,0.36751,0.0427111
1.74244,0.181601,0.0203952
1.78271,0.364317,-0.127236
1.77315,0.272914,-0.146456
1.79733,0.459805,0.053992
1.77878,0.273781,0.0314143
1.80215,0.461037,-0.119217
1.75947,0.183376,-0.103022
1.79187,0.366188,0.106511
1.77363,0.272987,0.0731103
1.78904,0.365611,-0.0850589
1.77661,0.273447,-0.0942047
1.7893,0.365664,0.22424
1.75739,0.270489,0.145154
1.7966,0.459618,-0.0755527
1.79833,0.36751,-0.0427111
1.76343,0.26512,-0.0518975
1.78833,0.358967,0
1.73113,0.174316,-0.0202555
1.78645,0.358589,-0.283473
1.76967,0.266059,-0.227788
1.80741,0.455669,0.0108334
1.77997,0.267606,-0.0104614
1.78584,0.358468,-0.196202
1.75942,0.177164,-0.165069
1.79961,0.361231,0.0427111
1.75103,0.17632,0.0204883
1.78006,0.357307,-0.126957
1.77015,0.266131,-0.146131
1.79505,0.452551,0.0538757
1.78368,0.268165,0.0314841
1.796,0.452792,-0.118705
1.7601,0.177234,-0.103022
1.78922,0.359146,0.106278
1.77852,0.267389,0.0732731
1.79031,0.359365,-0.0850589
1.78151,0.267838,-0.0944141
1.78668,0.358635,0.223752
1.75438,0.26376,0.144829
1.80207,0.454322,-0.0757155
1.79569,0.360444,-0.0426181
1.79322,0.445439,-0.032252
1.75643,0.257801,-0.0516648
1.78172,0.351175,0
1.74765,0.169819,-0.0204417
1.78769,0.352351,-0.283473
1.77844,0.261032,-0.228798
1.80511,0.448392,0.0108102
1.77693,0.26081,-0.0104382
1.77928,0.350693,-0.195345
1.79693,0.354173,0.0426181
1.75163,0.170206,0.0204883
1.78913,0.352634,-0.127515
1.77107,0.25995,-0.146131
1.79662,0.446282,0.0538757
1.7846,0.261937,0.0314841
1.80532,0.448444,-0.119217
1.76071,0.171088,-0.103022
1.79046,0.352898,0.106278
1.76758,0.259438,0.0727846
1.78371,0.351567,-0.0846866
1.77453,0.260457,-0.0939954
1.78792,0.352396,0.223752
1.75529,0.257634,0.144829
1.79977,0.447065,-0.0755527
1.79693,0.354173,-0.0426181
1.78707,0.436964,-0.0321124
1.76132,0.251928,-0.0517812
1.77907,0.343884,0
1.7403,0.162668,-0.0203486
1.79285,0.346547,-0.284088
1.77546,0.253951,-0.228293
1.80674,0.441773,0.0108102
1.78184,0.254862,-0.0104614
1.78836,0.34568,-0.196202
1.79429,0.346826,0.042525
1.74428,0.163041,0.0203952
1.77865,0.343803,-0.126678
1.76806,0.252893,-0.145805
1.79047,0.437795,0.0536429
1.77368,0.253695,0.0312747
1.80307,0.440876,-0.118961
1.76133,0.164634,-0.103022
1.78782,0.345575,0.106046
1.76852,0.252958,0.0727846
1.78499,0.345028,-0.0846866
1.77151,0.253386,-0.093786
1.7814,0.344334,0.222777
1.75622,0.251199,0.144829
1.80139,0.440465,-0.0755527
1.79429,0.346826,-0.042525
1.75819,0.245533,-0.0516648
1.77234,0.336489,0
1.74879,0.157614,-0.0204417
1.78234,0.338387,-0.282244
1.76843,0.246963,-0.227283
1.80431,0.434842,0.0107869
1.77079,0.247292,-0.0103917
1.78168,0.338263,-0.195345
1.7915,0.340128,0.042432
1.74083,0.156896,0.0203486
1.77586,0.337158,-0.126399
1.761,0.245925,-0.145154
1.78803,0.430918,0.0535266
1.77847,0.248365,0.0313445
1.79677,0.433024,-0.118449
1.76186,0.158792,-0.103022
1.78896,0.339644,0.106046
1.76935,0.247091,0.0727846
1.78612,0.339106,-0.0846866
1.77235,0.24751,-0.093786
1.78643,0.339165,0.223265
1.7452,0.243719,0.143852
1.79507,0.432616,-0.0752271
1.79543,0.340874,-0.042525
1.78612,0.423865,-0.0320426
1.75903,0.239393,-0.0516648
1.77744,0.331033,0
1.74535,0.151163,-0.0203952
1.77962,0.33144,-0.281629
1.76928,0.240788,-0.227283
1.80192,0.427617,0.0107637
1.7756,0.241648,-0.0104149
1.77112,0.329857,-0.19406
1.79661,0.334604,0.042525
1.73738,0.150473,0.020302
1.77703,0.330957,-0.126399
1.76184,0.239776,-0.145154
1.78563,0.423751,0.0534102
1.7714,0.241076,0.0312049
1.7905,0.424905,-0.117938
1.75843,0.152296,-0.10279
1.79013,0.333397,0.106046
1.76624,0.240374,0.0726218
1.78337,0.332137,-0.0845005
1.76924,0.240783,-0.0935767
1.78761,0.332927,0.223265
1.74604,0.237626,0.143852
1.7888,0.424501,-0.0749014
1.79268,0.333872,-0.042432
1.75986,0.233253,-0.0516648
1.77858,0.324827,0
1.74586,0.145071,-0.0203952
1.78466,0.325937,-0.282244
1.76618,0.234091,-0.226778
1.79951,0.420416,0.0107404
1.77247,0.234925,-0.0103917
1.76835,0.322959,-0.193631
1.79777,0.328332,0.042525
1.74586,0.145071,0.0203952
1.77425,0.324036,-0.12612
1.76267,0.233626,-0.145154
1.79099,0.418426,0.0535266
1.76826,0.234367,0.0311351
1.78808,0.417746,-0.117682
1.75497,0.145827,-0.102557
1.7795,0.324995,0.105348
1.77499,0.235259,0.0729474
1.78452,0.325911,-0.0845005
1.77403,0.235131,-0.093786
1.79266,0.327399,0.223752
1.74686,0.23153,0.143852
1.79416,0.419165,-0.0750642
1.79384,0.327613,-0.042432
1.78124,0.409594,-0.031903
1.75273,0.226085,-0.0514321
1.77577,0.317912,0
1.75035,0.139293,-0.0204417
1.78578,0.319705,-0.282244
1.79707,0.413235,0.0107172
1.76931,0.228224,-0.0103685
1.77338,0.317485,-0.19406
1.79103,0.320644,0.0423389
1.74636,0.138975,0.0203952
1.7793,0.318544,-0.126399
1.76347,0.227471,-0.145154
1.78855,0.411275,0.0534102
1.77304,0.228705,0.0312049
1.78564,0.410607,-0.117426
1.75945,0.140017,-0.10279
1.78456,0.319485,0.10558
1.75995,0.227016,0.0722961
1.78171,0.318976,-0.0843144
1.77484,0.228937,-0.093786
1.78989,0.32044,0.223265
1.74766,0.225431,0.143852
1.78782,0.411108,-0.0747386
1.7871,0.31994,-0.0422459
1.78265,0.403374,-0.031903
1.74954,0.219468,-0.0513157
1.77293,0.31102,0
1.73487,0.131969,-0.0202555
1.783,0.312787,-0.281629
1.7946,0.406077,0.0106939
1.76613,0.221549,-0.0103452
1.77448,0.311293,-0.19406
1.7882,0.3137,0.0422459
1.73487,0.131969,0.0202555
1.77647,0.311642,-0.12612
1.76426,0.221314,-0.145154
1.79387,0.405912,0.0535266
1.77383,0.222514,0.0312049
1.79096,0.405253,-0.117682
1.74798,0.132966,-0.102092
1.78173,0.312564,0.105348
1.76073,0.220872,0.0722961
1.77494,0.311374,-0.0839422
1.7677,0.221746,-0.0933674
1.78317,0.312818,0.22229
1.75239,0.219826,0.144178
1.79314,0.405747,-0.0749014
1.79214,0.314391,-0.0423389
1.78405,0.397149,-0.031903
1.75427,0.213843,-0.0514321
1.76612,0.303474,0
1.73931,0.126201,-0.020302
1.77629,0.305222,-0.280399
1.79601,0.39981,0.0106939
1.77086,0.215866,-0.0103685
1.77556,0.305097,-0.19406
1.78929,0.307456,0.0422459
1.73133,0.125622,0.0202089
1.76968,0.304087,-0.125562
1.76106,0.214672,-0.144829
1.78357,0.397041,0.0531775
1.77062,0.215837,0.0311351
1.79236,0.398998,-0.117682
1.7564,0.127441,-0.102557
1.78281,0.306342,0.105348
1.76149,0.214724,0.0722961
1.77602,0.305176,-0.0839422
1.7645,0.215091,-0.093158
1.77643,0.305247,0.221315
1.74128,0.21226,0.143201
1.78675,0.397748,-0.0745757
1.78929,0.307456,-0.0422459
1.78152,0.390063,-0.0318332
1.76294,0.208658,-0.0516648
1.76322,0.296644,0
1.73974,0.120129,-0.020302
1.77344,0.298363,-0.279784
1.78958,0.391827,0.0106474
1.76763,0.209213,-0.0103452
1.77269,0.298237,-0.193631
1.79035,0.301208,0.0422459
1.73176,0.119578,0.0202089
1.77073,0.297907,-0.125562
1.75784,0.208054,-0.144503
1.78104,0.389957,0.0530611
1.76342,0.208714,0.0309955
1.77814,0.389324,-0.116659
1.74488,0.120484,-0.10186
1.78387,0.300117,0.105348
1.75429,0.207634,0.0719705
1.77707,0.298974,-0.0839422
1.76524,0.20893,-0.093158
1.77748,0.299043,0.221315
1.74201,0.20618,0.143201
1.78812,0.391508,-0.0745757
1.79035,0.301208,-0.0422459
1.77896,0.383,-0.0317634
1.74777,0.200679,-0.0511993
1.76819,0.291137,0
1.74015,0.114055,-0.020302
1.77057,0.291529,-0.279169
1.79093,0.385578,0.0106474
1.75643,0.201673,-0.0102755
1.76587,0.290755,-0.192775
1.79139,0.294957,0.0422459
1.73217,0.113532,0.0202089
1.76782,0.291076,-0.125283
1.75856,0.201917,-0.144503
1.7863,0.38458,0.0531775
1.76811,0.203014,0.0310653
1.78339,0.383955,-0.116914
1.77308,0.291942,0.10465
1.76295,0.202421,0.0722961
1.77416,0.29212,-0.083756
1.76199,0.202311,-0.0929487
1.77068,0.291547,0.22034
1.74668,0.200553,0.143527
1.78166,0.383582,-0.0742501
1.7835,0.293657,-0.0420598
1.77631,0.376271,-0.0316936
1.74843,0.194882,-0.0511993
1.76915,0.285272,0
1.74052,0.108285,-0.020302
1.79611,0.380466,0.0106707
1.76106,0.196291,-0.0102987
1.76683,0.284898,-0.192775
1.78446,0.287742,0.0420598
1.72854,0.107539,0.0201624
1.76878,0.285213,-0.125283
1.75922,0.196085,-0.144503
1.77974,0.376997,0.0529448
1.7648,0.196707,0.0309955
1.78075,0.377212,-0.116659
1.77798,0.286697,0.104883
1.75169,0.195246,0.0718077
1.77512,0.286236,-0.083756
1.76662,0.19691,-0.093158
1.77556,0.286306,0.220827
1.73941,0.193877,0.142876
1.78293,0.377672,-0.0742501
1.78446,0.287742,-0.0420598
1.76972,0.368746,-0.031554
1.74509,0.188653,-0.051083
1.75823,0.277533,0
1.73288,0.102042,-0.0202089
1.79345,0.373691,0.0106474
1.76171,0.190449,-0.0102987
1.7599,0.277797,-0.191918
1.78936,0.282446,0.0421528
1.73288,0.102042,0.0202089
1.76971,0.279345,-0.125283
1.75589,0.189821,-0.144178
1.78489,0.371908,0.0530611
1.76544,0.190853,0.0309955
1.78199,0.371304,-0.116659
1.78287,0.281422,0.105115
1.7563,0.189865,0.0719705
1.76817,0.279101,-0.0833838
1.76329,0.190621,-0.0929487
1.77258,0.279797,0.22034
1.74004,0.188107,0.142876
1.78417,0.371757,-0.0742501
1.78541,0.281822,-0.0420598
1.77099,0.362566,-0.031554
1.74176,0.182144,-0.0509666
1.75919,0.271393,0
1.72524,0.0955492,-0.0201158
1.79474,0.367428,0.0106474
1.7544,0.183466,-0.0102522
1.76479,0.272258,-0.192346
1.78638,0.275588,0.0420598
1.73722,0.0962127,0.0202555
1.76279,0.271949,-0.124725
1.75258,0.183275,-0.143852
1.78226,0.364873,0.0529448
1.7661,0.184689,0.0309955
1.77937,0.36428,-0.116403
1.77989,0.274587,0.104883
1.75298,0.183317,0.0718077
1.76913,0.272927,-0.0833838
1.75997,0.184049,-0.0927393
1.76962,0.273002,0.219852
1.73276,0.181202,0.142225
1.77763,0.363924,-0.0739244
1.78638,0.275588,-0.0420598
1.76839,0.355285,-0.0314841
1.75037,0.176562,-0.0511993
1.75622,0.264349,0
1.72158,0.0890191,-0.0200692
1.78431,0.358485,0.0105777
1.75506,0.177035,-0.0102522
1.76185,0.265196,-0.191918
1.78738,0.269039,0.0420598
1.72558,0.0892256,0.0201158
1.76378,0.265486,-0.124725
1.75324,0.176851,-0.143852
1.77575,0.356764,0.052712
1.75881,0.177412,0.0308559
1.77678,0.35697,-0.116147
1.78089,0.268062,0.104883
1.74966,0.17649,0.0716448
1.76222,0.265252,-0.0830115
1.75666,0.177196,-0.09253
1.77453,0.267106,0.22034
1.77111,0.355832,-0.0735988
1.78342,0.268444,-0.0419667
1.76563,0.348644,-0.0314143
1.75095,0.170757,-0.0511993
1.76104,0.259106,0
1.73385,0.0838898,-0.0202089
1.78157,0.351791,0.0105544
1.75166,0.170826,-0.010229
1.75091,0.257616,-0.190633
1.78826,0.263111,0.0420598
1.72986,0.0836966,0.0201624
1.7607,0.259056,-0.124446
1.74985,0.17065,-0.143527
1.78477,0.352423,0.0529448
1.7554,0.171191,0.030786
1.77404,0.350303,-0.115891
1.77782,0.261574,0.10465
1.75024,0.170687,0.0716448
1.77099,0.26057,-0.0833838
1.76122,0.171758,-0.0927393
1.77541,0.26122,0.22034
1.78012,0.351505,-0.0739244
1.78035,0.261946,-0.0418737
1.76684,0.342479,-0.0314143
1.73959,0.163521,-0.0508503
1.76589,0.253526,0
1.72614,0.0774787,-0.0201158
1.78279,0.34557,0.0105544
1.75623,0.165085,-0.0102522
1.75574,0.252068,-0.191061
1.78125,0.255731,0.0418737
1.73014,0.077658,0.0201624
1.75764,0.252341,-0.124167
1.7544,0.164914,-0.143852
1.77814,0.344669,0.052712
1.75201,0.164689,0.0307162
1.77525,0.344109,-0.115891
1.77081,0.254232,0.104185
1.74684,0.164203,0.071482
1.76003,0.252684,-0.0828254
1.76181,0.16561,-0.0927393
1.77238,0.254457,0.219852
1.77741,0.344529,-0.0737616
1.77729,0.255162,-0.0417806
1.77195,0.337057,-0.0314841
1.74812,0.158168,-0.051083
1.75885,0.246251,0
1.73839,0.0719486,-0.0202555
1.78005,0.338597,0.0105312
1.75679,0.158953,-0.0102522
1.75661,0.245937,-0.191061
1.77817,0.248956,0.0417806
1.72241,0.071287,0.0200692
1.75851,0.246204,-0.124167
1.76688,0.159866,-0.144829
1.78326,0.339207,0.0528284
1.76054,0.159292,0.0308559
1.77644,0.33791,-0.115891
1.77564,0.248603,0.104418
1.74741,0.158104,0.071482
1.7609,0.246538,-0.0828254
1.75839,0.159098,-0.09253
1.76933,0.247718,0.219365
1.77861,0.338322,-0.0737616
1.77817,0.248956,-0.0417806
1.76132,0.328668,-0.0312747
1.74467,0.151718,-0.0509666
1.75573,0.239568,0
1.72664,0.0654252,-0.0201158
1.78516,0.333115,0.0105544
1.74937,0.152127,-0.0102057
1.75745,0.239804,-0.191061
1.78299,0.243288,0.0418737
1.71865,0.0651223,0.0200227
1.75541,0.239524,-0.123888
1.77657,0.331513,0.0525957
1.76108,0.153145,0.0308559
1.76976,0.330242,-0.115379
1.77254,0.241862,0.104185
1.74397,0.151657,0.0713192
1.76175,0.240389,-0.0828254
1.75496,0.152613,-0.0923206
1.76799,0.329912,-0.0732731
1.77507,0.242207,-0.0416875
1.76645,0.32293,-0.0313445
1.74123,0.144991,-0.0508503
1.7566,0.233132,0
1.72287,0.0589599,-0.0200692
1.77849,0.325132,0.0105079
1.75789,0.146378,-0.0102522
1.75438,0.232838,-0.190633
1.77991,0.236226,0.0417806
1.72687,0.0590967,0.0201158
1.75627,0.233089,-0.123888
1.77777,0.324999,0.0525957
1.75366,0.146026,0.0307162
1.77096,0.323754,-0.115379
1.76946,0.234839,0.103953
1.74053,0.144933,0.0711563
1.75866,0.233405,-0.0826393
1.75949,0.146511,-0.09253
1.76919,0.32343,-0.0732731
1.77198,0.235173,-0.0415945
1.76751,0.317071,-0.0313445
1.74569,0.139535,-0.0509666
1.75339,0.226793,0
1.71906,0.0531231,-0.0200227
1.7835,0.319939,0.0105312
1.75039,0.139911,-0.0102057
1.74725,0.225999,-0.189776
1.78068,0.230322,0.0417806
1.71506,0.0529996,0.0199761
1.75704,0.227264,-0.123888
1.77097,0.317691,0.052363
1.73819,0.138936,0.030437
1.76416,0.31647,-0.114868
1.76231,0.227946,0.103487
1.741,0.13916,0.0711563
1.75942,0.227572,-0.0826393
1.75598,0.140358,-0.0923206
1.77418,0.318268,-0.0734359
1.77275,0.229296,-0.0415945
1.75685,0.308515,-0.0311351
1.73822,0.132528,-0.0507339
1.75024,0.219866,0
1.71925,0.0468217,-0.0200227
1.78072,0.312707,0.0105079
1.74291,0.132886,-0.0101592
1.75202,0.220088,-0.190204
1.77754,0.223295,0.0416875
1.75786,0.220822,-0.123888
1.76818,0.310506,0.0522466
1.74268,0.132868,0.0305068
1.76924,0.310692,-0.115124
1.76313,0.221485,0.103487
1.73751,0.132474,0.0709935
1.75231,0.220126,-0.082267
1.7525,0.133617,-0.0921113
1.7714,0.311071,-0.0732731
1.77358,0.222797,-0.0415945
1.76185,0.303059,-0.0312049
1.74266,0.12675,-0.0508503
1.75497,0.21424,0
1.7234,0.0409154,-0.0200692
1.77786,0.305812,0.0104847
1.74735,0.127092,-0.0101825
1.75277,0.213972,-0.190204
1.77831,0.21709,0.0416875
1.7507,0.213718,-0.123329
1.77714,0.305688,0.0524793
1.75111,0.127365,0.0306464
1.76638,0.303838,-0.114868
1.76389,0.215329,0.103487
1.73398,0.126119,0.0708307
1.75704,0.214492,-0.0824532
1.75296,0.127499,-0.0921113
1.76854,0.304209,-0.0731103
1.77434,0.216605,-0.0415945
1.7628,0.297522,-0.0312049
1.73507,0.120719,-0.0506175
1.75166,0.208253,0
1.70752,0.035171,-0.019883
1.77487,0.299559,0.0104614
1.74376,0.121323,-0.0101592
1.74949,0.207994,-0.189776
1.77502,0.211029,0.0415945
1.75532,0.208688,-0.123608
1.7702,0.298772,0.0522466
1.74751,0.121585,0.0305766
1.76339,0.297622,-0.114612
1.76456,0.209786,0.103487
1.73835,0.120947,0.0709935
1.75373,0.208499,-0.082267
1.74936,0.121714,-0.0919019
1.76554,0.297985,-0.0729474
1.76707,0.210085,-0.0414084
1.76393,0.290751,-0.0312049
1.73552,0.114056,-0.0506175
1.74848,0.201069,0
1.71964,0.0288158,-0.0200227
1.776,0.292742,0.0104614
1.74421,0.114627,-0.0101592
1.77581,0.204213,0.0415945
1.75215,0.201491,-0.123329
1.76739,0.291323,0.0521302
1.74796,0.114874,0.0305766
1.76058,0.2902,-0.114356
1.76139,0.202554,0.103255
1.73083,0.113748,0.0706678
1.75452,0.201764,-0.082267
1.74982,0.114996,-0.0919019
1.76273,0.290554,-0.0727846
1.77184,0.203756,-0.0415014
1.76483,0.285209,-0.0312049
1.73188,0.108354,-0.0505012
1.75308,0.19602,0
1.77297,0.286523,0.0104382
1.73658,0.108648,-0.0101127
1.7685,0.197744,0.0414084
1.75674,0.196429,-0.123608
1.76041,0.284493,0.0518975
1.74831,0.109383,0.0305766
1.76149,0.284668,-0.114356
1.76995,0.197907,0.10372
1.75515,0.196252,-0.082267
1.74618,0.109249,-0.0916926
1.75969,0.284378,-0.0726218
1.7685,0.197744,-0.0414084
1.75396,0.277173,-0.0309955
1.73225,0.102308,-0.0505012
1.7458,0.189038,0
1.77396,0.280332,0.0104382
1.74094,0.102821,-0.010136
1.76918,0.191569,0.0414084
1.74948,0.189436,-0.12305
1.76929,0.279594,0.0521302
1.74469,0.103043,0.0305068
1.76247,0.278517,-0.114356
1.75475,0.190007,0.10279
1.75185,0.189693,-0.0820809
1.75453,0.103624,-0.0921113
1.76462,0.278857,-0.0727846
1.7493,0.189417,-0.0409431
1.75492,0.271049,-0.0309955
1.7286,0.096039,-0.0503848
1.74644,0.182943,0
1.77492,0.274139,0.0104382
1.74528,0.0969656,-0.0101592
1.76586,0.184976,0.0413153
1.75013,0.183329,-0.12305
1.7663,0.272807,0.0520139
1.74105,0.0967306,0.030437
1.76343,0.272364,-0.114356
1.75938,0.184297,0.103022
1.7525,0.183577,-0.0820809
1.76163,0.272086,-0.0726218
1.76188,0.18456,-0.0412223
1.75595,0.264309,-0.0309955
1.73295,0.0896078,-0.0505012
1.74713,0.176236,0
1.77201,0.266727,0.0104149
1.74164,0.0900573,-0.010136
1.76258,0.177794,0.0412223
1.74685,0.176207,-0.122771
1.76338,0.265428,0.0518975
1.74141,0.0900451,0.030437
1.76052,0.264997,-0.1141
1.76007,0.177541,0.103022
1.74922,0.176446,-0.0818948
1.75871,0.264725,-0.072459
1.75064,0.17659,-0.0409431
1.76073,0.259374,-0.0310653
1.73322,0.0841626,-0.0505012
1.73972,0.169968,0
1.76097,0.259409,0.0103452
1.73792,0.0843909,-0.0101127
1.76711,0.172644,0.0413153
1.74739,0.170718,-0.122771
1.76025,0.259304,0.0517812
1.73769,0.0843794,0.0303672
1.75344,0.258301,-0.113589
1.76062,0.17201,0.103022
1.74181,0.170172,-0.0815225
1.75558,0.258616,-0.0722961
1.76313,0.172255,-0.0412223
1.75375,0.251782,-0.0309257
1.72553,0.0774505,-0.0502684
1.74431,0.163964,0
1.75795,0.252384,0.010322
1.73422,0.0778407,-0.0100895
1.74403,0.163938,-0.122492
1.76119,0.25285,0.0517812
1.73799,0.0780095,0.0303672
1.75438,0.251872,-0.113589
1.75726,0.165182,0.10279
1.7464,0.164161,-0.0817087
1.76047,0.252747,-0.072459
1.7518,0.164669,-0.0409431
1.7467,0.24455,-0.030786
1.72579,0.0714272,-0.0502684
1.74886,0.158235,0
1.75882,0.246247,0.010322
1.73049,0.0716216,-0.0100662
1.75635,0.158913,0.0410362
1.74857,0.15821,-0.122771
1.76206,0.246701,0.0517812
1.73425,0.0717773,0.0302974
1.75524,0.245747,-0.113589
1.75385,0.158687,0.102557
1.74298,0.157704,-0.0815225
1.75739,0.246047,-0.0722961
1.75237,0.158553,-0.0409431
1.75542,0.239839,-0.0309257
1.72602,0.0657042,-0.0502684
1.7414,0.151741,0
1.76359,0.240955,0.0103452
1.73471,0.0660352,-0.0100895
1.76085,0.153436,0.0411292
1.74909,0.152411,-0.122771
1.76287,0.240857,0.0517812
1.71849,0.0654177,0.0300181
1.75209,0.239385,-0.113333
1.75437,0.152871,0.102557
1.73952,0.151577,-0.0813364
1.75819,0.240218,-0.0722961
1.75288,0.152741,-0.0409431
1.75625,0.23371,-0.0309257
1.72224,0.0595402,-0.0501521
1.73793,0.145328,0
1.76442,0.234797,0.0103452
1.73094,0.0598409,-0.0100662
1.76137,0.147288,0.0411292
1.74563,0.145971,-0.122492
1.75577,0.233646,0.0515484
1.75292,0.233267,-0.113333
1.74295,0.145747,0.10186
1.74402,0.145836,-0.0815225
1.7511,0.233024,-0.0719705
1.7534,0.146621,-0.0409431
1.75709,0.227272,-0.0309257
1.74244,0.139276,0
1.75336,0.226789,0.0102755
1.72715,0.0533731,-0.010043
1.7619,0.140831,0.0411292
1.74615,0.139573,-0.122492
1.75265,0.226697,0.0514321
1.7498,0.226329,-0.113077
1.74746,0.139677,0.102092
1.74056,0.139125,-0.0813364
1.7559,0.227118,-0.0721333
1.74994,0.139875,-0.0408501
1.74589,0.220249,-0.0307162
1.74287,0.133802,0
1.75407,0.22128,0.0102755
1.7313,0.0480582,-0.0100662
1.75835,0.13499,0.0410362
1.74939,0.22069,0.0513157
1.75447,0.22133,-0.113333
1.74497,0.133962,-0.0815225
1.75661,0.221601,-0.0721333
1.74639,0.134071,-0.040757
1.74268,0.213666,-0.0306464
1.73934,0.127424,0
1.75086,0.214669,0.0102522
1.71946,0.0417229,-0.00999649
1.75083,0.128266,0.0408501
1.75412,0.215068,0.0514321
1.75127,0.214719,-0.113077
1.73745,0.127286,-0.0811503
1.7534,0.214981,-0.0719705
1.74286,0.127682,-0.040664
1.74345,0.207278,-0.0306464
1.7358,0.120771,0
1.75163,0.20825,0.0102522
1.72361,0.0355032,-0.0100197
1.75129,0.121849,0.0408501
1.75092,0.208166,0.0513157
1.74808,0.207828,-0.112821
1.73392,0.12064,-0.0809642
1.75815,0.209025,-0.0721333
1.74331,0.121294,-0.040664
