2.32259,0.879173,-0.260097
2.33726,0.868369,-0.261139
2.3525,0.858431,-0.17015
2.34348,0.854353,-0.261243
2.35617,0.842636,-0.262076
2.36411,0.829151,-0.262389
2.36633,0.813659,-0.262076
2.33516,0.882892,-0.193717
2.37694,0.80103,-0.262701
2.4108,0.798899,-0.0804353
2.38814,0.789309,-0.170896
2.38747,0.788301,-0.263326
2.35204,0.774282,-0.35127
2.42327,0.78656,-0.0806886
2.39769,0.776177,-0.171235
2.38943,0.772719,-0.263014
2.33985,0.850929,-0.28473
2.36523,0.762569,-0.352534
2.43471,0.773796,-0.0809101
2.39791,0.759244,-0.263431
2.34877,0.837892,-0.285185
2.37836,0.750724,-0.353798
2.43751,0.758248,-0.0808468
2.41275,0.748469,-0.171642
2.31902,0.908331,-0.216933
2.40823,0.746283,-0.264056
2.35574,0.82412,-0.285412
2.38671,0.737286,-0.35436
2.44403,0.74386,-0.0809101
2.41825,0.73394,-0.171709
2.32548,0.894443,-0.21702
2.41181,0.731204,-0.263951
2.35981,0.809328,-0.285298
2.39308,0.7232,-0.354641
2.4495,0.729135,-0.0809418
2.39438,0.807496,-0.103654
2.42462,0.719656,-0.171845
2.42007,0.717522,-0.264368
2.36662,0.795466,-0.285526
2.40127,0.709625,-0.355203
2.37085,0.698386,-0.443236
2.45873,0.715487,-0.0811001
2.40783,0.79561,-0.104023
2.43187,0.705599,-0.172048
2.38418,0.786181,-0.1948
2.4292,0.704044,-0.264889
2.37428,0.781862,-0.285866
2.40939,0.695977,-0.355765
2.37887,0.684915,-0.443942
2.46596,0.701207,-0.081195
2.40981,0.779898,-0.1039
2.44287,0.692569,-0.172523
2.3918,0.772456,-0.195032
2.34624,0.853189,-0.217454
2.43634,0.689938,-0.265201
2.38187,0.768194,-0.286207
2.41742,0.682256,-0.356327
2.38682,0.671371,-0.444648
2.48468,0.69097,0.0123783
2.47599,0.687668,-0.081385
2.44707,0.677567,-0.172523
2.39935,0.758667,-0.195264
2.35518,0.840115,-0.217801
2.44341,0.675771,-0.265514
2.39317,0.755659,-0.287003
2.34838,0.836534,-0.309008
2.42443,0.668199,-0.356748
2.39374,0.657495,-0.445178
2.49274,0.676759,0.0123975
2.48016,0.672463,-0.081385
2.42397,0.751747,-0.104105
2.39514,0.838776,-0.128291
2.45793,0.664362,-0.172997
2.40682,0.744815,-0.195496
2.36217,0.826306,-0.217974
2.45231,0.662062,-0.266035
2.39587,0.740374,-0.286775
2.35534,0.822763,-0.309254
2.43422,0.654854,-0.357591
2.40534,0.644834,-0.44659
2.50167,0.662732,0.0124215
2.48811,0.658255,-0.0815116
2.43141,0.73773,-0.104228
2.39929,0.82374,-0.12824
2.46582,0.650285,-0.173268
2.41707,0.731767,-0.19596
2.37474,0.814382,-0.218669
2.32878,0.893595,-0.241452
2.39751,0.724796,-0.286435
2.36504,0.809903,-0.309869
2.37696,0.716954,-0.3757
2.41211,0.63081,-0.44712
2.50957,0.64837,0.0124407
2.49694,0.644224,-0.0816699
2.43876,0.72365,-0.104351
2.40904,0.810595,-0.128493
2.46879,0.634894,-0.173201
2.4196,0.716356,-0.195805
2.38346,0.801065,-0.219016
2.33702,0.880341,-0.241741
2.40573,0.711199,-0.286889
2.37278,0.796324,-0.310238
2.38701,0.704034,-0.376598
2.41879,0.616728,-0.447649
2.53436,0.63953,0.107083
2.51835,0.63418,0.0124647
2.50569,0.63011,-0.0818281
2.47651,0.620704,-0.173472
2.39212,0.787672,-0.219363
2.34331,0.86633,-0.241837
2.411,0.6967,-0.287003
2.37197,0.77989,-0.3095
2.45258,0.611614,-0.358574
2.39698,0.691018,-0.377495
2.42253,0.601875,-0.447649
2.52608,0.619669,0.0124839
2.51339,0.615675,-0.0819548
2.36772,0.861031,-0.151976
2.48706,0.607154,-0.173946
2.43684,0.689051,-0.196502
2.4026,0.774814,-0.219883
2.34858,0.851936,-0.241837
2.42288,0.684053,-0.287912
2.38143,0.766842,-0.310115
2.45918,0.597255,-0.358995
2.40689,0.677905,-0.378393
2.43,0.587925,-0.448355
2.53178,0.604622,0.0124935
2.52199,0.6014,-0.082113
2.42545,0.766718,-0.128594
2.37672,0.847829,-0.152217
2.44198,0.674352,-0.196579
2.40636,0.759757,-0.219797
2.35282,0.837175,-0.241741
2.48985,0.59089,-0.268014
2.4299,0.669966,-0.288252
2.3842,0.751618,-0.309869
2.46761,0.583293,-0.359697
2.411,0.663124,-0.378393
2.36925,0.746086,-0.400354
2.4374,0.573906,-0.449061
2.54128,0.590434,0.0125223
2.45167,0.759899,-0.0365129
2.52952,0.586818,-0.0822397
2.43297,0.752706,-0.128745
2.37905,0.832241,-0.152036
2.50307,0.57861,-0.174556
2.4557,0.66195,-0.197353
2.41288,0.745566,-0.21997
2.36637,0.825674,-0.242608
2.49633,0.576273,-0.268326
2.44164,0.657109,-0.289161
2.39351,0.738438,-0.310484
2.46825,0.567476,-0.359276
2.41598,0.648575,-0.378543
2.36906,0.730081,-0.399558
2.44183,0.559159,-0.449238
2.45725,0.745132,-0.0365271
2.53503,0.571726,-0.082303
2.38695,0.818599,-0.152217
2.51534,0.565209,-0.175167
2.45779,0.646362,-0.197198
2.42694,0.733629,-0.220838
2.3714,0.811139,-0.242608
2.44947,0.643124,-0.289616
2.39895,0.724024,-0.310607
2.3532,0.804227,-0.332786
2.47555,0.553184,-0.359838
2.42757,0.635742,-0.37974
2.37539,0.716101,-0.399876
2.45194,0.545663,-0.450474
2.46944,0.732315,-0.0366409
2.54434,0.557444,-0.0824929
2.49084,0.640362,-0.105499
2.39665,0.805527,-0.152518
2.51583,0.549127,-0.174963
2.46944,0.633251,-0.197817
2.42566,0.71703,-0.220317
2.37727,0.796889,-0.242705
2.45915,0.629561,-0.290298
2.41001,0.711257,-0.311468
2.36185,0.791032,-0.333317
2.48374,0.539034,-0.36054
2.43429,0.621569,-0.380189
2.38637,0.703466,-0.40099
2.45525,0.530608,-0.450474
2.5158,0.632026,-0.0123597
2.54869,0.542029,-0.0825245
2.45409,0.710016,-0.129149
2.41008,0.793616,-0.15306
2.52306,0.534506,-0.175234
2.47811,0.619295,-0.198204
2.43002,0.702133,-0.220317
2.38968,0.784772,-0.243475
2.46104,0.613979,-0.29007
2.41718,0.697282,-0.311837
2.36948,0.777452,-0.333715
2.49281,0.525008,-0.361383
2.39728,0.690724,-0.402104
2.46424,0.516744,-0.451533
2.58688,0.535794,0.108229
2.56774,0.53052,0.0125846
2.51574,0.615627,-0.0123407
2.55589,0.527188,-0.0826512
2.46513,0.696847,-0.129503
2.41681,0.779426,-0.15318
2.52824,0.519417,-0.17537
2.48283,0.604314,-0.198281
2.44003,0.688833,-0.220838
2.40014,0.771923,-0.244053
2.46862,0.599805,-0.290525
2.42237,0.682706,-0.31196
2.37893,0.764415,-0.334378
2.50277,0.511089,-0.362366
2.44366,0.592115,-0.380488
2.40527,0.677071,-0.402741
2.47218,0.502595,-0.452415
2.596,0.521091,0.108475
2.58075,0.516718,0.0126326
2.5292,0.602496,-0.0123883
2.56103,0.511888,-0.0827145
2.50415,0.594867,-0.105581
2.46936,0.681708,-0.129503
2.42155,0.764582,-0.15318
2.49134,0.590218,-0.198668
2.4471,0.674643,-0.221098
2.40673,0.757779,-0.244246
2.47612,0.585561,-0.290979
2.43226,0.66941,-0.312698
2.38641,0.750696,-0.334776
2.50878,0.496299,-0.362787
2.44821,0.577337,-0.380637
2.41795,0.664655,-0.404173
2.47715,0.487797,-0.452768
2.38457,0.653779,-0.49178
2.60601,0.506486,0.108762
2.55098,0.591683,0.0826618
2.51297,0.680051,0.0577601
2.5878,0.501634,0.0126518
2.53382,0.587192,-0.0123931
2.57296,0.497873,-0.0829994
2.51749,0.58174,-0.105991
2.47832,0.667843,-0.129755
2.42524,0.749415,-0.15312
2.49783,0.575591,-0.1989
2.45408,0.660392,-0.221359
2.41228,0.743291,-0.244342
2.48063,0.570579,-0.291093
2.44111,0.655761,-0.313313
2.39476,0.737205,-0.335306
2.5108,0.48071,-0.362647
2.45845,0.563851,-0.381685
2.42389,0.650318,-0.404491
2.4888,0.474246,-0.454357
2.39043,0.639642,-0.49217
2.51709,0.664619,0.0577601
2.53933,0.572073,-0.0124026
2.58186,0.483179,-0.0831893
2.52686,0.567596,-0.106236
2.48527,0.653385,-0.129907
2.43743,0.736831,-0.153602
2.51202,0.562651,-0.199751
2.46194,0.646333,-0.221706
2.42061,0.729624,-0.244728
2.54713,0.473828,-0.271347
2.48894,0.556432,-0.291661
2.45085,0.64228,-0.314051
2.40209,0.723355,-0.335704
2.52052,0.466556,-0.36363
2.46283,0.548971,-0.381834
2.37375,0.714371,-0.424486
2.49554,0.45968,-0.455063
2.39621,0.625458,-0.49256
2.52693,0.650658,0.0578932
2.60262,0.471445,0.012695
2.58379,0.46715,-0.0831576
2.53322,0.55272,-0.106359
2.49503,0.639612,-0.130209
2.44,0.721295,-0.153481
2.56085,0.460925,-0.176794
2.51543,0.547227,-0.199751
2.46779,0.631709,-0.221879
2.42982,0.716165,-0.24521
2.55195,0.458542,-0.271555
2.49522,0.541782,-0.292002
2.45859,0.628212,-0.314543
2.52626,0.451605,-0.364051
2.43551,0.621501,-0.405127
2.38377,0.701462,-0.425499
2.50897,0.446255,-0.457005
2.6811,0.471873,0.310842
2.62572,0.46033,0.109212
2.53573,0.636357,0.0580041
2.59744,0.453177,-0.0835058
2.54243,0.538408,-0.106605
2.50085,0.624775,-0.13031
2.44533,0.706587,-0.153541
2.57444,0.447082,-0.177539
2.51971,0.531988,-0.199828
2.47838,0.618243,-0.222487
2.43416,0.701242,-0.24521
2.50044,0.526871,-0.292229
2.46529,0.613834,-0.314912
2.4184,0.696016,-0.336765
2.52996,0.436264,-0.364192
2.43928,0.606545,-0.405127
2.39371,0.688457,-0.426512
2.51166,0.430852,-0.457005
2.68199,0.455081,0.310615
2.6344,0.44521,0.109457
2.54347,0.621736,0.0580929
2.49111,0.704455,0.0322172
2.61708,0.440966,0.0127382
2.56902,0.529271,-0.0124979
2.60609,0.438226,-0.0836958
2.55058,0.523803,-0.10681
2.45539,0.693197,-0.153903
2.58501,0.432594,-0.178081
2.52391,0.516718,-0.199906
2.44321,0.687642,-0.245691
2.57014,0.429321,-0.27291
2.51044,0.512911,-0.293024
2.4719,0.599397,-0.315281
2.42549,0.681969,-0.337163
2.54333,0.422517,-0.365737
2.48705,0.506505,-0.384079
2.44296,0.591566,-0.405127
2.40074,0.674556,-0.427018
2.51911,0.416234,-0.457887
2.72547,0.445711,0.41717
2.643,0.429999,0.109703
2.55113,0.607043,0.0581816
2.50792,0.692617,0.032379
2.62763,0.426181,0.0127766
2.57614,0.514281,-0.0125169
2.61267,0.422865,-0.0838224
2.55571,0.508533,-0.106892
2.46826,0.680505,-0.154445
2.5886,0.416883,-0.178149
2.52996,0.501804,-0.200138
2.44835,0.672901,-0.245788
2.57567,0.414016,-0.273222
2.51939,0.498655,-0.293706
2.47843,0.584902,-0.31565
2.55761,0.408778,-0.367422
2.49205,0.491618,-0.384378
2.45135,0.577698,-0.405923
2.52356,0.401079,-0.45824
2.73303,0.429747,0.417917
2.56454,0.593633,0.0584034
2.63415,0.410666,0.0127958
2.61818,0.407287,-0.0839174
2.56761,0.494542,-0.107261
2.52166,0.580878,-0.130815
2.59407,0.40145,-0.178353
2.53887,0.487398,-0.200602
2.45531,0.65864,-0.246077
2.58209,0.398812,-0.273639
2.5302,0.484682,-0.294615
2.48004,0.56924,-0.315404
2.56007,0.393077,-0.367422
2.49988,0.477245,-0.385126
2.45484,0.562646,-0.405923
2.42121,0.648359,-0.429212
2.5289,0.386032,-0.45877
2.73171,0.412379,0.41732
2.59155,0.583772,0.15494
2.56716,0.577667,0.0583812
2.52203,0.663315,0.0324536
2.64255,0.395383,0.0128246
2.58619,0.483364,-0.012536
2.62557,0.391953,-0.0840756
2.57452,0.47951,-0.107425
2.47739,0.650418,-0.154505
2.60142,0.386258,-0.178692
2.54769,0.472903,-0.201066
2.59138,0.383981,-0.274368
2.53215,0.468967,-0.294501
2.48542,0.554444,-0.31565
2.57027,0.378516,-0.368546
2.50762,0.462794,-0.385874
2.46018,0.548002,-0.406241
2.53901,0.371649,-0.460182
2.66764,0.484264,0.283288
2.59703,0.568287,0.155056
2.57749,0.563399,0.0585365
2.65483,0.38058,0.0128726
2.63683,0.377109,-0.0843605
2.57545,0.46335,-0.107343
2.4794,0.63471,-0.154384
2.61362,0.371693,-0.179369
2.56232,0.459373,-0.201994
2.60058,0.369052,-0.275097
2.53987,0.454296,-0.29507
2.49459,0.540444,-0.316388
2.5794,0.363705,-0.369529
2.51528,0.448266,-0.386622
2.46928,0.534149,-0.407196
2.4328,0.619572,-0.429887
2.66664,0.4672,0.282873
2.60828,0.554,0.155522
2.58384,0.548195,0.058603
2.66108,0.364827,0.0128918
2.58907,0.449419,-0.107794
2.48324,0.619485,-0.154384
2.62474,0.356859,-0.17998
2.57099,0.444661,-0.202459
2.60674,0.353623,-0.275514
2.55045,0.440054,-0.295979
2.50272,0.526148,-0.317003
2.58257,0.348004,-0.36967
2.47251,0.518987,-0.407196
2.55021,0.341377,-0.461418
2.6724,0.451325,0.283185
2.55306,0.622551,0.128432
2.59009,0.532935,0.0586696
2.66624,0.348881,0.0129062
2.65811,0.346921,-0.0848987
2.59572,0.434183,-0.107958
2.49476,0.606121,-0.154866
2.63579,0.341902,-0.18059
2.58154,0.430189,-0.203078
2.5368,0.518234,-0.225524
2.48815,0.602401,-0.247811
2.60688,0.337366,-0.275305
2.55114,0.424071,-0.295751
2.50979,0.511575,-0.317496
2.58858,0.332656,-0.370231
2.48823,0.506366,-0.409265
2.44693,0.591291,-0.431069
2.56495,0.327343,-0.463712
2.68003,0.435717,0.283704
2.62467,0.523905,0.156104
2.56946,0.609873,0.129067
2.59625,0.517619,0.0587361
2.6723,0.333009,0.0129254
2.66515,0.331221,-0.0850569
2.61018,0.420153,-0.10845
2.50232,0.591721,-0.155107
2.6319,0.324989,-0.180183
2.58806,0.414972,-0.203387
2.53994,0.502659,-0.225524
2.61581,0.322216,-0.276034
2.56743,0.410606,-0.297342
2.51872,0.497319,-0.318234
2.60139,0.318088,-0.371776
2.54068,0.404692,-0.389316
2.49226,0.49128,-0.409424
2.45339,0.576943,-0.431575
2.5757,0.312666,-0.465301
2.66648,0.416308,0.183275
2.62882,0.50798,0.156163
2.58191,0.596117,0.129506
2.60232,0.502247,0.0588027
2.67926,0.317194,0.0129494
2.67309,0.315565,-0.0852469
2.61666,0.404741,-0.108614
2.52049,0.579712,-0.15601
2.63979,0.309532,-0.18059
2.59352,0.39954,-0.203619
2.54591,0.487627,-0.225784
2.62663,0.307199,-0.276972
2.57481,0.395599,-0.29791
2.61116,0.303033,-0.3729
2.54605,0.389543,-0.389764
2.49522,0.475978,-0.409424
2.45977,0.562537,-0.432082
2.59126,0.298433,-0.467772
2.7298,0.410757,0.390424
2.66348,0.498995,0.257251
2.63581,0.492574,0.156395
2.58552,0.580264,0.129506
2.5662,0.574845,0.0327274
2.67597,0.299268,-0.0852785
2.62107,0.388971,-0.108696
2.52985,0.565543,-0.156371
2.65651,0.29498,-0.181607
2.60282,0.384639,-0.204161
2.55571,0.473266,-0.226391
2.63835,0.292171,-0.278014
2.5821,0.380517,-0.298478
2.48653,0.553079,-0.340877
2.61789,0.287546,-0.373602
2.55915,0.375493,-0.39141
2.50587,0.462091,-0.410697
2.46125,0.547006,-0.431744
2.7063,0.389002,0.285679
2.66649,0.482642,0.257251
2.63977,0.476569,0.156454
2.59391,0.565452,0.12975
2.62305,0.472936,0.0591354
2.57456,0.560152,0.0327896
2.69488,0.285556,0.013007
2.64119,0.377102,-0.0127123
2.68571,0.283683,-0.0855318
2.6234,0.372881,-0.108696
2.53717,0.550856,-0.156612
2.66621,0.279506,-0.182149
2.61205,0.369639,-0.204702
2.58931,0.365361,-0.299046
2.54211,0.453488,-0.320079
2.49665,0.539277,-0.341806
2.62748,0.272294,-0.374726
2.57218,0.361296,-0.393056
2.51837,0.448438,-0.412288
2.46745,0.532518,-0.43225
2.60452,0.267618,-0.469537
2.67234,0.466786,0.257534
2.64756,0.461219,0.156745
2.62984,0.457518,0.0592241
2.58089,0.544963,0.0328269
2.70355,0.26971,0.0130406
2.64741,0.361429,-0.0127314
2.69436,0.267891,-0.0857534
2.53757,0.534661,-0.156432
2.67085,0.263435,-0.182352
2.61822,0.354139,-0.205012
2.59248,0.349599,-0.29916
2.55071,0.438891,-0.320817
2.57337,0.345375,-0.392906
2.53275,0.434982,-0.414197
2.4726,0.517772,-0.432588
2.61101,0.252104,-0.47042
2.55497,0.241429,-0.660551
2.72172,0.357185,0.286822
2.68105,0.451372,0.258101
2.65625,0.445957,0.157094
2.63753,0.442199,0.059335
2.593,0.530922,0.0329389
2.71212,0.253768,0.0130742
2.70789,0.252467,-0.0861332
2.6367,0.341816,-0.109065
2.54765,0.520479,-0.156853
2.67937,0.247685,-0.182827
2.62331,0.33845,-0.205244
2.59557,0.333812,-0.299273
2.55825,0.424043,-0.321432
2.58525,0.330834,-0.394403
2.53732,0.419755,-0.414516
2.47959,0.503375,-0.433263
2.61937,0.236699,-0.471656
2.73077,0.341342,0.287549
2.68966,0.435868,0.258668
2.70968,0.338274,0.185443
2.67076,0.431561,0.157793
2.64908,0.427441,0.0595347
2.59621,0.515002,0.0329389
2.72259,0.237906,0.0131174
2.54884,0.504449,-0.156733
2.68084,0.23124,-0.182827
2.63622,0.323684,-0.206095
2.60841,0.319207,-0.300523
2.56766,0.409432,-0.322293
2.51199,0.494379,-0.342601
2.59115,0.315443,-0.395001
2.53888,0.404024,-0.414356
2.49037,0.489672,-0.434613
2.62372,0.22087,-0.472185
2.57222,0.211246,-0.66429
2.69622,0.419969,0.259046
2.63668,0.508479,0.228886
2.68224,0.416544,0.158317
2.65955,0.412404,0.0597121
2.73497,0.222086,0.0131702
2.72473,0.220346,-0.0865764
2.61481,0.402615,-0.133744
2.56071,0.490491,-0.157275
2.68818,0.215264,-0.183233
2.64311,0.30808,-0.206482
2.59758,0.399034,-0.228908
2.62513,0.304916,-0.302228
2.57405,0.39427,-0.322785
2.52179,0.480254,-0.34353
2.6009,0.300445,-0.396198
2.54326,0.388736,-0.414675
2.49914,0.475488,-0.435626
2.63385,0.205456,-0.473774
2.57218,0.295627,-0.489593
2.58892,0.196633,-0.668278
2.72372,0.408803,0.36265
2.7017,0.403859,0.25933
2.65248,0.494665,0.22999
2.72354,0.306111,0.186121
2.68178,0.399637,0.158142
2.66302,0.396224,0.0597343
2.72903,0.203846,-0.0866714
2.66042,0.295208,-0.109802
2.62217,0.387293,-0.133996
2.5725,0.476405,-0.157816
2.6984,0.199428,-0.183844
2.64396,0.291747,-0.206404
2.55578,0.471186,-0.251569
2.6309,0.289237,-0.302682
2.53054,0.465848,-0.344326
2.61252,0.285555,-0.397694
2.54755,0.37341,-0.414993
2.51074,0.461749,-0.437145
2.64586,0.190067,-0.475716
2.57883,0.28037,-0.490522
2.60623,0.185162,-0.568822
2.60264,0.18162,-0.671519
2.73501,0.393353,0.363825
2.70708,0.387698,0.259613
2.6643,0.479971,0.230755
2.68912,0.38388,0.158433
2.67134,0.380723,0.0598674
2.73322,0.187303,-0.0867663
2.66914,0.279608,-0.110089
2.6334,0.372455,-0.13445
2.58226,0.461842,-0.158238
2.65462,0.276448,-0.2071
2.61215,0.36852,-0.229776
2.6346,0.273293,-0.302909
2.53726,0.451006,-0.344856
2.61717,0.269824,-0.398143
2.51449,0.446507,-0.437314
2.65189,0.174151,-0.476598
2.59223,0.265744,-0.492752
2.6066,0.165832,-0.672267
2.71829,0.372296,0.260464
2.70033,0.368588,0.158957
2.6766,0.36473,0.0599339
2.7393,0.170839,-0.0869246
2.67776,0.263911,-0.110376
2.6386,0.356691,-0.134602
2.58406,0.445819,-0.158178
2.66123,0.26064,-0.207487
2.64809,0.25828,-0.304273
2.53998,0.435429,-0.344856
2.62567,0.254428,-0.399191
2.56368,0.343694,-0.416902
2.52204,0.431902,-0.438158
2.59577,0.250022,-0.493123
2.57312,0.245891,-0.588543
2.61627,0.150335,-0.67451
2.74553,0.360536,0.364608
2.72842,0.356642,0.26122
2.67883,0.448721,0.231519
2.71244,0.353301,0.15954
2.68771,0.34946,0.0601336
2.75028,0.154589,-0.0872411
2.68928,0.248394,-0.110786
2.59462,0.431264,-0.158659
2.66973,0.244944,-0.208029
2.62734,0.337834,-0.23073
2.66051,0.243021,-0.305523
2.55727,0.422258,-0.346846
2.6321,0.238759,-0.399939
2.57847,0.329584,-0.418971
2.53534,0.418183,-0.440014
2.67054,0.142487,-0.479599
2.58721,0.231226,-0.591429
2.61714,0.134279,-0.67451
2.55475,0.226798,-0.68618
2.76146,0.345405,0.366436
2.70941,0.438711,0.33443
2.73648,0.340632,0.261787
2.68743,0.433227,0.232029
2.71852,0.337143,0.159773
2.69774,0.333945,0.060311
2.75517,0.137911,-0.0873678
2.69772,0.232489,-0.111073
2.60116,0.415966,-0.1589
2.67714,0.229068,-0.208493
2.62936,0.321707,-0.23073
2.55981,0.406559,-0.346846
2.63943,0.223104,-0.400836
2.58927,0.314829,-0.420403
2.53883,0.402773,-0.440183
2.66645,0.125866,-0.478716
2.59441,0.215832,-0.592761
2.61502,0.118087,-0.673762
2.57342,0.212549,-0.690832
2.72728,0.425471,0.439258
2.7714,0.329391,0.36748
2.715,0.422536,0.334793
2.74742,0.324887,0.262638
2.6989,0.418102,0.232793
2.73045,0.321624,0.160355
2.70173,0.317619,0.0603554
2.68739,0.31446,-0.03849
2.76095,0.121222,-0.087526
2.70607,0.216489,-0.11136
2.66456,0.310374,-0.135612
2.6086,0.400756,-0.159201
2.68844,0.213426,-0.209267
2.64316,0.306946,-0.231771
2.64666,0.207367,-0.401734
2.60096,0.300067,-0.421994
2.54905,0.388375,-0.441533
2.67405,0.109785,-0.479952
2.61953,0.203723,-0.496839
2.56462,0.294152,-0.513433
2.64583,0.106545,-0.576481
2.5986,0.200134,-0.593427
2.62537,0.102417,-0.676255
2.58142,0.19727,-0.692641
2.73179,0.409022,0.439572
2.77042,0.312047,0.367088
2.71852,0.406016,0.334914
2.74936,0.308023,0.262638
2.73932,0.305639,0.160762
2.71157,0.30192,0.0605328
2.69623,0.298735,-0.0385896
2.76764,0.104505,-0.087716
2.71133,0.200175,-0.111524
2.67336,0.294785,-0.135965
2.612,0.384888,-0.159262
2.69467,0.19729,-0.209653
2.65292,0.291593,-0.232465
2.73817,0.100425,-0.286972
2.65874,0.191907,-0.40338
2.60668,0.284531,-0.422631
2.55139,0.372727,-0.441533
2.69041,0.0939249,-0.482776
2.62661,0.188067,-0.497954
2.57613,0.279468,-0.515383
2.61048,0.184943,-0.595869
2.63756,0.0866876,-0.679246
2.5874,0.181765,-0.693933
2.52787,0.272089,-0.707239
2.72587,0.39003,0.335519
2.7512,0.291147,0.262638
2.7471,0.289453,0.161112
2.72232,0.286218,0.0607324
2.77222,0.0876474,-0.0878426
2.68009,0.278893,-0.136218
2.62222,0.369969,-0.159743
2.69881,0.180952,-0.209885
2.65862,0.275721,-0.232813
2.60914,0.365989,-0.255037
2.73973,0.0836525,-0.287076
2.63965,0.27259,-0.328936
2.66677,0.176046,-0.404427
2.61721,0.269441,-0.424063
2.54777,0.356246,-0.440521
2.69291,0.0774717,-0.483129
2.64046,0.172781,-0.50037
2.57877,0.263755,-0.515579
2.61254,0.168985,-0.596092
2.63998,0.0705539,-0.679745
2.59425,0.166257,-0.695484
2.5477,0.258421,-0.712331
2.78686,0.279311,0.368785
2.73707,0.374509,0.336607
2.76185,0.275149,0.263488
2.72391,0.370772,0.234322
2.75379,0.273084,0.161403
2.72104,0.269213,0.0606659
2.68572,0.262832,-0.13642
2.63136,0.354807,-0.160165
2.70485,0.164692,-0.210272
2.66324,0.259693,-0.233073
2.61528,0.350501,-0.255423
2.74914,0.0670585,-0.288013
2.69944,0.163275,-0.309272
2.64523,0.256771,-0.329428
2.67569,0.160152,-0.405624
2.6198,0.253472,-0.424222
2.56065,0.342042,-0.442377
2.69924,0.0610804,-0.484188
2.64736,0.156925,-0.501485
2.5862,0.24849,-0.516749
2.62326,0.153521,-0.598312
2.56646,0.245463,-0.612827
2.64908,0.0545334,-0.681988
2.60583,0.15095,-0.698327
2.55691,0.243514,-0.714475
2.81222,0.264434,0.371918
2.74325,0.358221,0.337091
2.76943,0.258753,0.264055
2.72515,0.353923,0.234237
2.76337,0.256921,0.161869
2.74056,0.254174,0.0610652
2.72019,0.2508,-0.0388598
2.73252,0.151229,-0.112261
2.69524,0.247077,-0.136823
2.64042,0.339545,-0.160586
2.71576,0.148637,-0.211046
2.6747,0.244252,-0.233941
2.6164,0.334321,-0.255326
2.76342,0.050443,-0.289472
2.70238,0.146817,-0.309499
2.65367,0.241165,-0.330289
2.68453,0.144155,-0.406821
2.62425,0.23766,-0.4247
2.56857,0.327071,-0.44339
2.70547,0.0446145,-0.485248
2.65121,0.140835,-0.502042
2.59354,0.233144,-0.517919
2.62415,0.137423,-0.598312
2.57179,0.230058,-0.613752
2.65711,0.0383898,-0.683982
2.61539,0.135408,-0.700653
2.56411,0.228334,-0.716083
2.49868,0.317153,-0.728614
2.81675,0.247434,0.37231
2.75919,0.343097,0.338784
2.77692,0.242274,0.264622
2.76588,0.240047,0.161927
2.75103,0.238129,0.0612648
2.70367,0.23113,-0.137177
2.65038,0.324308,-0.161068
2.71961,0.132116,-0.211278
2.68508,0.228597,-0.234722
2.76865,0.0335462,-0.289992
2.71513,0.130806,-0.310863
2.75029,0.0308753,-0.390176
2.69129,0.127962,-0.407719
2.63452,0.2223,-0.426132
2.58521,0.313082,-0.445922
2.71455,0.0281049,-0.486836
2.65301,0.124611,-0.502228
2.63274,0.121679,-0.600088
2.58091,0.214919,-0.615602
2.66407,0.0221417,-0.685727
2.62196,0.119622,-0.702204
2.57507,0.213392,-0.718763
2.5168,0.303772,-0.733338
2.81228,0.229661,0.371527
2.76715,0.326859,0.33951
2.7471,0.322546,0.235766
2.76631,0.222991,0.161869
2.74945,0.221004,0.0611982
2.71002,0.214931,-0.137429
2.66124,0.309075,-0.16161
2.72933,0.115807,-0.211974
2.69339,0.212666,-0.235329
2.64008,0.30447,-0.257253
2.77179,0.0165753,-0.290305
2.72085,0.114353,-0.311431
2.69992,0.111774,-0.408916
2.64863,0.207132,-0.4282
2.59393,0.298001,-0.447103
2.72451,0.0114897,-0.488601
2.61185,0.202513,-0.521041
2.64123,0.105834,-0.601864
2.59285,0.199901,-0.618146
2.62361,0.103569,-0.702462
2.57729,0.197661,-0.719031
2.52625,0.289197,-0.735561
2.82748,0.213446,0.373354
2.76812,0.309764,0.339389
2.80351,0.209963,0.26689
2.74903,0.305684,0.235766
2.77858,0.206828,0.162509
2.76272,0.205018,0.0614644
2.74528,0.20223,-0.0391585
2.78576,-0.000434548,-0.291763
2.7215,0.0976555,-0.311431
2.62693,0.285935,-0.35361
2.7663,-0.00289385,-0.392423
2.70945,0.0955187,-0.410263
2.60257,0.282825,-0.448285
2.73044,-0.00523909,-0.489661
2.66809,0.0925218,-0.504829
2.62674,0.18746,-0.523772
2.6467,0.0897915,-0.602974
2.59403,0.183988,-0.618146
2.6271,0.0875657,-0.703237
2.58422,0.18225,-0.720639
2.53848,0.274829,-0.738618
2.78379,0.294234,0.341082
2.75977,0.289747,0.23653
2.78876,0.190387,0.163033
2.82455,-0.0147155,-0.089457
2.74749,0.0828155,-0.213289
2.65352,0.273068,-0.258217
2.79068,-0.0175589,-0.292284
2.72304,0.0809844,-0.311544
2.76821,-0.0198817,-0.392704
2.71592,0.0790646,-0.41116
2.73527,-0.0220323,-0.490543
2.67744,0.0764012,-0.506501
2.63762,0.171978,-0.525722
2.655,0.0737666,-0.60475
2.55253,0.26101,-0.638119
2.63145,0.0715495,-0.704271
2.59202,0.166823,-0.722515
2.78949,0.27754,0.341566
2.76844,0.273493,0.237125
2.79486,0.173582,0.163324
2.78,0.172026,0.0617971
2.72873,0.267311,0.0341211
2.73644,0.166406,-0.138591
2.6794,0.261298,-0.162393
2.71375,0.164076,-0.236804
2.66307,0.257547,-0.258988
2.79649,-0.0347561,-0.292909
2.73838,0.0646263,-0.313249
2.77794,-0.0369987,-0.394108
2.7203,0.0624894,-0.411759
2.74296,-0.0389269,-0.491955
2.63471,0.155559,-0.524942
2.57892,0.24841,-0.542296
2.66222,0.0576222,-0.606304
2.64149,0.0556053,-0.706856
2.59876,0.151252,-0.724123
2.7951,0.260788,0.34205
2.77105,0.256593,0.23721
2.79786,0.156541,0.163441
2.781,0.154965,0.0617971
2.76951,0.152821,-0.0394573
2.74439,0.149994,-0.138944
2.68791,0.245488,-0.162814
2.72068,0.147745,-0.237325
2.80119,-0.0520067,-0.29343
2.75164,0.0480481,-0.314726
2.70039,0.145462,-0.335209
2.78459,-0.0541779,-0.395091
2.72558,0.04588,-0.412507
2.62206,0.236198,-0.450816
2.75153,-0.0559367,-0.493544
2.69586,0.0438266,-0.509846
2.6415,0.1397,-0.526112
2.6752,0.0414825,-0.60919
2.56617,0.230622,-0.640774
2.6083,0.135754,-0.726535
2.80357,0.244236,0.342897
2.8287,0.142148,0.268875
2.78052,0.240272,0.237889
2.80675,0.139768,0.163907
2.76548,0.237806,0.135657
2.79288,0.138442,0.0620411
2.77239,0.135923,-0.0394857
2.75324,0.133539,-0.139348
2.81076,-0.0694391,-0.294471
2.75685,0.0312197,-0.315294
2.79608,-0.0715668,-0.396777
2.73767,0.0292822,-0.414302
2.68628,0.127331,-0.433451
2.62445,0.220188,-0.450985
2.75802,-0.073001,-0.49478
2.70296,0.0273539,-0.511146
2.6472,0.123719,-0.527088
2.59348,0.217726,-0.544754
2.58011,0.215924,-0.643911
2.6139,0.119968,-0.727875
2.81194,0.227589,0.343743
2.78989,0.223844,0.238568
2.82451,0.123284,0.164896
2.79468,0.121346,0.0620633
2.77517,0.118995,-0.0395141
2.75401,0.116643,-0.139348
2.70962,0.213978,-0.163958
2.73622,0.114933,-0.23854
2.82023,-0.0869909,-0.295513
2.75997,0.0143188,-0.315635
2.71585,0.11289,-0.336931
2.80054,-0.0888789,-0.397479
2.74868,0.0125332,-0.415948
2.69786,0.111293,-0.435202
2.64049,0.205226,-0.453517
2.60257,0.202416,-0.546393
2.68916,0.00869468,-0.612298
2.58913,0.200689,-0.645842
2.62132,0.104195,-0.729751
2.81625,0.210553,0.344106
2.79717,0.207163,0.239078
2.82421,0.105913,0.164838
2.78513,0.205098,0.136486
2.79837,0.104308,0.0621299
2.78684,0.102368,-0.0396706
2.76565,0.10014,-0.139903
2.71686,0.197783,-0.164319
2.74085,0.0982842,-0.238887
2.8256,-0.104514,-0.296138
2.77193,-0.0026276,-0.316998
2.72641,0.0965752,-0.338162
2.81082,-0.106473,-0.399024
2.75266,-0.00433888,-0.416547
2.70145,0.0948412,-0.435679
2.65153,0.189724,-0.455205
2.7756,-0.107565,-0.498133
2.69501,-0.00782284,-0.61363
2.59031,0.184798,-0.645842
2.6248,0.0882059,-0.730555
2.80932,0.190738,0.240012
2.83379,0.0888636,0.165362
2.76757,0.185623,0.0345193
2.79541,0.0855113,-0.0397844
2.77221,0.0833486,-0.140206
2.70906,0.180511,-0.163778
2.74937,0.0817015,-0.239581
2.84081,-0.122536,-0.297805
2.78677,-0.0197414,-0.318702
2.72993,0.0799315,-0.338531
2.81704,-0.124023,-0.400007
2.7595,-0.0212822,-0.417594
2.65953,0.173901,-0.456386
2.78177,-0.124903,-0.499369
2.67746,0.0757762,-0.532745
2.63107,0.0722574,-0.732163
2.58628,0.168069,-0.749733
2.81541,0.173804,0.240437
2.84226,0.0716754,0.165828
2.80338,0.171883,0.137268
2.77464,0.169003,0.034594
2.80088,0.0684795,-0.0398555
2.78165,0.0665521,-0.140661
2.72207,0.164608,-0.1645
2.75978,0.065065,-0.240449
2.84497,-0.140209,-0.298326
2.78659,-0.0368403,-0.318702
2.73632,0.0633173,-0.339269
2.8271,-0.141851,-0.401552
2.75833,-0.0382001,-0.417444
2.72018,0.0620887,-0.438543
2.6867,0.0595418,-0.534501
2.62442,0.155577,-0.550286
2.63725,0.0562354,-0.733771
2.59206,0.152479,-0.751122
2.81842,0.156636,0.240607
2.85163,0.0544057,0.166352
2.81137,0.155063,0.137609
2.78661,0.152576,0.0347309
2.81324,0.051512,-0.0400262
2.784,0.0495185,-0.140762
2.731,0.148336,-0.164982
2.77109,0.0483211,-0.241403
2.85299,-0.158158,-0.299263
2.79029,-0.0540147,-0.319157
2.7446,0.0466613,-0.340253
2.84101,-0.160031,-0.403659
2.72643,0.0454956,-0.439498
2.69388,0.0431654,-0.535866
2.63314,0.139887,-0.551925
2.66832,0.0415913,-0.634334
2.61072,0.13801,-0.650186
2.60158,0.137026,-0.753623
2.81626,0.138006,0.137804
2.78849,0.135523,0.0347433
2.81651,0.0342858,-0.0400689
2.79424,0.0325515,-0.141266
2.73286,0.131624,-0.165042
2.77432,0.0313509,-0.241663
2.86487,-0.176456,-0.300617
2.74682,0.0298414,-0.340499
2.85084,-0.178139,-0.405204
2.78137,-0.0726659,-0.421035
2.7385,0.0288907,-0.441407
2.68394,0.125935,-0.460099
2.70096,0.0267031,-0.537232
2.67339,0.0252639,-0.63549
2.61197,0.121507,-0.756402
2.82304,0.12098,0.138097
2.79127,0.118496,0.0347682
2.83366,0.0171061,-0.0403107
2.79838,0.0154278,-0.141468
2.74159,0.115188,-0.165524
2.77844,0.014348,-0.242011
2.73687,0.112789,-0.265154
2.88259,-0.195308,-0.302596
2.8063,-0.0887859,-0.321088
2.75985,0.0130477,-0.342098
2.85365,-0.195899,-0.405766
2.78681,-0.089922,-0.421933
2.73468,0.0120696,-0.440771
2.61554,0.105594,-0.757236
2.83371,0.104022,0.138586
2.79794,0.101584,0.0348429
2.83671,-0.000281588,-0.0403534
2.75522,0.0988293,-0.166306
2.78844,-0.00271017,-0.242878
2.73851,0.0960286,-0.26525
2.88332,-0.213139,-0.302805
2.76087,-0.00388803,-0.342221
2.86621,-0.21444,-0.407732
2.79213,-0.107248,-0.422831
2.74359,-0.00472562,-0.442203
2.70006,0.0935007,-0.462631
2.6219,0.0897406,-0.758903
2.83629,0.0866936,0.138683
2.80251,0.0845351,0.0348926
2.83766,-0.0176936,-0.0403676
2.79797,0.083323,-0.0663093
2.81534,-0.0190286,-0.142327
2.76076,0.0820701,-0.166608
2.79036,-0.0198338,-0.243052
2.74502,0.0793963,-0.265828
2.88691,-0.231223,-0.303325
2.83477,-0.124525,-0.324497
2.76972,-0.0208957,-0.343328
2.87471,-0.232821,-0.409137
2.80031,-0.124774,-0.424177
2.75042,-0.0216142,-0.443317
2.70255,0.0769879,-0.462969
2.62721,0.073786,-0.760293
2.84276,0.0694352,0.138976
2.81397,0.0676018,0.0350295
2.82216,-0.036393,-0.14268
2.76421,0.0651994,-0.166788
2.80314,-0.0371263,-0.24418
2.75341,0.0627331,-0.266599
2.91418,-0.251412,-0.306346
2.83495,-0.141966,-0.324611
2.77649,-0.0379851,-0.344189
2.87915,-0.250972,-0.409979
2.81233,-0.142605,-0.426122
2.76011,-0.0386282,-0.444908
2.71086,0.0605801,-0.464319
2.6535,0.0587423,-0.660082
2.63241,0.0577698,-0.761682
2.85212,0.0521554,0.139415
2.86422,-0.0530143,-0.0407516
2.78152,0.0485334,-0.167812
2.80884,-0.0544412,-0.244701
2.91753,-0.269746,-0.306867
2.79605,-0.0554138,-0.346649
2.74714,0.0450079,-0.36767
2.88347,-0.269185,-0.410822
2.82719,-0.160756,-0.428516
2.76376,-0.0556426,-0.445545
2.72497,0.0441691,-0.466682
2.6606,0.0425683,-0.661771
2.63656,0.0416773,-0.762794
2.85538,0.0346905,0.139562
2.82959,0.0332411,0.0352162
2.87084,-0.0707603,-0.0408512
2.84746,-0.0716759,-0.143993
2.78676,0.0315219,-0.168113
2.82438,-0.0720815,-0.246089
2.92473,-0.288521,-0.307804
2.80062,-0.0726978,-0.347265
2.74836,0.0281611,-0.367802
2.838,-0.178847,-0.430312
2.7762,-0.0729368,-0.447613
2.72815,0.0274779,-0.467188
2.64061,0.025536,-0.763905
2.86753,0.0172417,0.140148
2.87735,-0.0885895,-0.0409508
2.83617,0.0148255,-0.0671856
2.85695,-0.0894588,-0.144498
2.79588,0.0144685,-0.168655
2.83285,-0.089694,-0.24687
2.77799,0.0121456,-0.268912
2.93873,-0.308121,-0.309471
2.86258,-0.19623,-0.328133
2.81301,-0.0902946,-0.348864
2.75442,0.0113214,-0.368598
2.84868,-0.197076,-0.432107
2.78458,-0.0902577,-0.449045
2.72827,0.0107377,-0.467188
2.67257,0.00995879,-0.664667
2.88974,-0.106723,-0.0411357
2.8432,-0.00258351,-0.0673513
2.85834,-0.107062,-0.144599
2.79891,-0.00268982,-0.168835
2.83424,-0.10715,-0.247043
2.78996,-0.00492113,-0.270068
2.9526,-0.327903,-0.311138
2.87321,-0.214679,-0.329496
2.82431,-0.108008,-0.35034
2.76931,-0.00560972,-0.370588
2.86122,-0.215592,-0.434202
2.79581,-0.107798,-0.450955
2.73518,-0.00601797,-0.46837
2.68326,-0.00646571,-0.667322
2.90102,-0.124968,-0.0413064
2.84613,-0.0200501,-0.0674224
2.80683,-0.0199202,-0.169317
2.84945,-0.125238,-0.248432
2.79485,-0.0220792,-0.27055
2.89561,-0.234228,-0.332223
2.82359,-0.125336,-0.35034
2.78012,-0.0226908,-0.372047
2.86674,-0.233706,-0.435249
2.80398,-0.125348,-0.452387
2.74593,-0.022891,-0.470226
2.90719,-0.14311,-0.0414059
2.85595,-0.0376451,-0.0676592
2.88474,-0.14352,-0.146012
2.86057,-0.143318,-0.249473
2.80461,-0.0393674,-0.271513
2.90104,-0.252594,-0.333018
2.82673,-0.142859,-0.350832
2.78191,-0.0397772,-0.372312
2.87215,-0.251896,-0.436297
2.81893,-0.143353,-0.454933
2.7556,-0.039882,-0.471914
2.91923,-0.161664,-0.0415908
2.86066,-0.0552647,-0.0677776
2.8878,-0.16144,-0.146214
2.86461,-0.161147,-0.249907
2.81228,-0.056736,-0.272284
2.9123,-0.271589,-0.334496
2.8367,-0.160819,-0.352185
2.79648,-0.0571497,-0.374302
2.818,-0.160647,-0.454933
2.75727,-0.0568299,-0.472252
2.92517,-0.180003,-0.0416904
2.87626,-0.0732234,-0.0681565
2.87947,-0.179714,-0.251295
2.8268,-0.0743835,-0.273729
2.92343,-0.290731,-0.335973
2.80202,-0.0744655,-0.375097
2.82386,-0.17837,-0.456047
2.77165,-0.0741424,-0.474783
2.87975,-0.0909968,-0.0682513
2.89323,-0.198401,-0.252597
2.8243,-0.0916625,-0.273536
2.86026,-0.197394,-0.355383
2.81637,-0.0921432,-0.377087
2.84438,-0.197196,-0.459547
2.78198,-0.091504,-0.47664
2.88813,-0.109004,-0.0684644
2.95873,-0.329754,-0.231006
2.90388,-0.217041,-0.253638
2.83364,-0.109374,-0.2745
2.93742,-0.328572,-0.338018
2.87779,-0.216354,-0.357721
2.82071,-0.109615,-0.37775
2.84902,-0.215091,-0.460502
2.78925,-0.10888,-0.47799
2.90439,-0.127469,-0.068867
2.93573,-0.236512,-0.14889
2.91242,-0.235658,-0.254506
2.84186,-0.127159,-0.275367
2.89224,-0.235295,-0.359689
2.8279,-0.127277,-0.378811
2.84765,-0.232568,-0.460502
2.80133,-0.126571,-0.480184
2.91653,-0.145937,-0.0691748
2.9382,-0.254867,-0.149092
2.91886,-0.254215,-0.2552
2.85793,-0.145454,-0.277005
2.8937,-0.253297,-0.360058
2.83598,-0.145082,-0.380005
2.80837,-0.144161,-0.481535
2.92856,-0.164559,-0.0694827
2.92617,-0.272953,-0.255981
2.86294,-0.163328,-0.277583
2.89704,-0.27151,-0.360673
2.84295,-0.162934,-0.381066
2.81039,-0.16156,-0.482041
2.92949,-0.182649,-0.0695301
2.89211,-0.180471,-0.174796
2.93435,-0.291889,-0.256849
2.88573,-0.182398,-0.279895
2.90717,-0.290465,-0.362149
2.84487,-0.180563,-0.381464
2.82016,-0.17949,-0.483898
2.9343,-0.201031,-0.0696722
2.9019,-0.198964,-0.175459
2.94043,-0.310725,-0.257543
2.8925,-0.200652,-0.280666
2.86051,-0.199186,-0.383719
2.82491,-0.197202,-0.48491
2.95233,-0.330312,-0.258758
2.89022,-0.218322,-0.28057
2.87505,-0.217933,-0.385841
2.92312,-0.236492,-0.176904
2.90668,-0.237511,-0.282304
2.88255,-0.236299,-0.387035
2.93056,-0.255202,-0.177446
2.91905,-0.256561,-0.283653
2.88894,-0.254677,-0.388096
2.93888,-0.274106,-0.178048
2.92931,-0.275586,-0.284809
2.89621,-0.273237,-0.38929
2.92658,-0.293456,-0.284713
2.90138,-0.291696,-0.390218
2.94748,-0.332134,-0.287122
