1.82323,0.124936,-0.042525
1.78415,0.203593,-0.0313445
1.86298,0.0295908,-0.0542248
1.85502,0.0294645,-0.371054
1.83614,0.11906,0
1.91083,-0.0630553,-0.0222578
1.82221,0.118156,-0.284088
1.86075,0.0295554,-0.236879
1.79631,0.204981,0.0105079
1.86773,0.0296663,-0.0108567
1.81765,0.11786,-0.196202
1.89871,-0.0626553,-0.177337
1.83565,0.119027,0.0428042
1.89884,-0.0626596,0.0221181
1.81574,0.117737,-0.127236
1.87353,0.0297584,-0.152965
1.78764,0.203991,0.052363
1.87548,0.0297894,0.0327407
1.78473,0.20366,-0.115124
1.90773,-0.0629529,-0.111162
1.82507,0.118341,0.106511
1.85822,0.0295153,0.0757155
1.83017,0.118672,-0.0854311
1.85722,0.0294993,-0.0973449
1.82246,0.118172,0.22424
1.8536,0.0294418,0.151338
1.78691,0.203908,-0.0732731
1.82767,0.11851,-0.0426181
1.7928,0.198244,-0.0314841
1.87506,0.0232375,-0.0545738
1.86296,0.0230875,-0.372623
1.84054,0.112896,0
1.9146,-0.0698695,-0.0223043
1.81866,0.111554,-0.283473
1.86481,0.0231105,-0.237384
1.80099,0.19915,0.0105312
1.87182,0.0231974,-0.0108799
1.81805,0.111516,-0.196202
1.8945,-0.0691361,-0.176966
1.83605,0.11262,0.0428042
1.9026,-0.0694319,0.0221646
1.82411,0.111888,-0.127794
1.87362,0.0232197,-0.152965
1.78436,0.197312,0.0522466
1.87957,0.0232934,0.0328105
1.78543,0.19743,-0.115124
1.91149,-0.0697561,-0.111394
1.82946,0.112216,0.106743
1.85832,0.02303,0.0757155
1.83855,0.112773,-0.0858034
1.86929,0.023166,-0.0979729
1.83078,0.112297,0.225215
1.85369,0.0229727,0.151338
1.78761,0.197671,-0.0732731
1.83206,0.112375,-0.0427111
1.78549,0.191445,-0.0313445
1.87913,0.0170552,-0.0546902
1.86303,0.0169091,-0.372623
1.83691,0.106559,0
1.92235,-0.0765369,-0.0223974
1.82297,0.105751,-0.284088
1.86488,0.0169259,-0.237384
1.79369,0.192324,0.0104847
1.86389,0.016917,-0.0108334
1.81444,0.105256,-0.195773
1.89824,-0.075577,-0.177337
1.84041,0.106762,0.0428972
1.90236,-0.0757413,0.0221646
1.83244,0.1063,-0.128352
1.87369,0.0170059,-0.152965
1.79296,0.192245,0.0524793
1.88364,0.0170962,0.0328803
1.78608,0.191508,-0.115124
1.90725,-0.0759361,-0.111162
1.82185,0.105685,0.106278
1.86637,0.0169395,0.0760412
1.84689,0.107138,-0.0861756
1.87335,0.0170028,-0.0981823
1.83907,0.106685,0.22619
1.85774,0.0168612,0.151663
1.78826,0.191741,-0.0732731
1.82444,0.105836,-0.042525
1.79016,0.185312,-0.0314143
1.87118,0.0101249,-0.0544575
1.87092,0.0101235,-0.374192
1.84528,0.10026,0
1.92205,-0.0835818,-0.0223974
1.82334,0.0990687,-0.284088
1.87286,0.010134,-0.238394
1.80632,0.186984,0.0105544
1.86794,0.0101074,-0.0108567
1.82672,0.0992523,-0.197059
1.90193,-0.0827065,-0.177709
1.84079,0.100016,0.0428972
1.91007,-0.0830605,0.0222578
1.8368,0.0997998,-0.128631
1.87374,0.0101388,-0.152965
1.79365,0.185673,0.0524793
1.87969,0.010171,0.0328105
1.79074,0.185371,-0.115379
1.91893,-0.083446,-0.111859
1.83019,0.0994409,0.106743
1.86642,0.0100992,0.0760412
1.83929,0.0999351,-0.0858034
1.8774,0.0101586,-0.0983916
1.83549,0.0997285,0.225702
1.85779,0.0100525,0.151663
1.79292,0.185598,-0.0734359
1.8328,0.0995825,-0.0427111
1.79478,0.179459,-0.0314841
1.8712,0.00359273,-0.0544575
1.87094,0.00359223,-0.374192
1.84162,0.0936151,0
1.92575,-0.0904787,-0.022444
1.83157,0.0931043,-0.285318
1.87685,0.00360357,-0.238899
1.80696,0.180677,0.0105544
1.87597,0.00360187,-0.0109032
1.81911,0.092471,-0.196202
1.90163,-0.0893455,-0.177709
1.84911,0.0939958,0.0430833
1.91376,-0.0899156,0.0223043
1.82917,0.0929819,-0.128073
1.88572,0.0036206,-0.153942
1.80225,0.180206,0.052712
1.87571,0.00360138,0.0327407
1.79137,0.179119,-0.115379
1.92262,-0.0903318,-0.112092
1.8425,0.0936594,0.107441
1.86645,0.00358359,0.0760412
1.83564,0.0933108,-0.0856173
1.87343,0.00359699,-0.0981823
1.83583,0.0933204,0.225702
1.86978,0.00358998,0.15264
1.79754,0.179735,-0.0735988
1.83713,0.0933867,-0.0428042
1.79931,0.174205,-0.031554
1.8792,-0.00229526,-0.0546902
1.87095,-0.00228517,-0.374192
1.83791,0.0876388,0
1.92945,-0.0967281,-0.0224906
1.83186,0.0873501,-0.285318
1.88479,-0.00230208,-0.23991
1.8115,0.175385,0.0105777
1.87997,-0.00229619,-0.0109264
1.83529,0.0875136,-0.197915
1.90929,-0.0957176,-0.178453
1.8494,0.0881865,0.0430833
1.90947,-0.0957267,0.0222578
1.84539,0.0879955,-0.129189
1.88573,-0.00230322,-0.153942
1.79882,0.174158,0.0525957
1.88771,-0.00230565,0.0329501
1.79987,0.17426,-0.115891
1.92631,-0.096571,-0.112325
1.84278,0.087871,0.107441
1.87045,-0.00228456,0.076204
1.8439,0.0879245,-0.0859895
1.88142,-0.00229796,-0.0986009
1.84404,0.0879311,0.226677
1.86579,-0.00227888,0.152314
1.79412,0.173702,-0.0734359
1.83342,0.0874246,-0.0427111
1.80395,0.167665,-0.0316238
1.88318,-0.00953154,-0.0548066
1.87877,-0.00950922,-0.375761
1.85022,0.0811062,0
1.92507,-0.103921,-0.022444
1.83218,0.0803152,-0.285318
1.87286,-0.00947934,-0.238394
1.81216,0.168428,0.0105777
1.88794,-0.00955566,-0.0109729
1.84355,0.0808139,-0.198772
1.91289,-0.103263,-0.178824
1.84173,0.080734,0.0428972
1.91708,-0.10349,0.0223509
1.84572,0.0809086,-0.129189
1.8857,-0.00954432,-0.153942
1.79948,0.16725,0.0525957
1.88769,-0.00955436,0.0329501
1.79656,0.166978,-0.115635
1.9339,-0.104398,-0.11279
1.85108,0.0811439,0.107906
1.87442,-0.00948721,0.0763669
1.84822,0.0810184,-0.0861756
1.88539,-0.00954272,-0.0988103
1.84436,0.0808494,0.226677
1.86577,-0.00944342,0.152314
1.79477,0.166812,-0.0734359
1.83774,0.0805589,-0.0428042
1.80054,0.161011,-0.031554
1.89113,-0.016173,-0.0550393
1.87872,-0.0160669,-0.375761
1.8505,0.0746476,0
1.93268,-0.111099,-0.0225371
1.83245,0.0739196,-0.285318
1.88076,-0.0160843,-0.239405
1.80875,0.161746,0.0105544
1.8799,-0.0160769,-0.0109264
1.8319,0.0738977,-0.197487
1.91251,-0.109939,-0.178824
1.85399,0.0747886,0.0431764
1.9207,-0.11041,0.0223974
1.84997,0.0746266,-0.129468
1.88566,-0.0161262,-0.153942
1.80005,0.160968,0.0525957
1.89164,-0.0161774,0.03302
1.79713,0.160706,-0.115635
1.92157,-0.11046,-0.112092
1.83939,0.0741994,0.107208
1.88237,-0.0160981,0.0766925
1.84849,0.0745668,-0.0861756
1.88135,-0.0160893,-0.0986009
1.84464,0.0744113,0.226677
1.86573,-0.0159557,0.152314
1.80728,0.161614,-0.0739244
1.842,0.0743051,-0.0428972
1.80104,0.155353,-0.031554
1.87908,-0.0219743,-0.0546902
1.89043,-0.0221071,-0.378114
1.85871,0.0691306,0
1.9403,-0.117654,-0.0226303
1.84057,0.0684557,-0.286548
1.8926,-0.0221325,-0.24092
1.81722,0.156749,0.0106009
1.88784,-0.0220768,-0.0109729
1.84008,0.0684373,-0.198344
1.91216,-0.115948,-0.178824
1.85022,0.0688146,0.0430833
1.92833,-0.116928,0.0224906
1.84621,0.0686655,-0.129189
1.88958,-0.0220972,-0.154267
1.80453,0.155655,0.052712
1.89158,-0.0221206,0.03302
1.8016,0.155402,-0.115891
1.93317,-0.117222,-0.11279
1.8436,0.0685684,0.107441
1.87831,-0.0219654,0.0765297
1.85271,0.0689072,-0.0863618
1.89327,-0.0221404,-0.099229
1.85676,0.0690579,0.228139
1.87364,-0.0219108,0.152965
1.81176,0.156279,-0.0740873
1.84223,0.0685173,-0.0428972
1.80555,0.149395,-0.0316238
1.88299,-0.0285946,-0.0548066
1.8825,-0.0285872,-0.376545
1.85894,0.0626415,0
1.94787,-0.124939,-0.0227234
1.8408,0.06203,-0.286548
1.88854,-0.028679,-0.240415
1.81776,0.150405,0.0106009
1.88775,-0.028667,-0.0109729
1.84428,0.0621473,-0.198772
1.91969,-0.123132,-0.179568
1.85844,0.0626246,0.0432694
1.92392,-0.123403,0.022444
1.85043,0.0623545,-0.129468
1.89348,-0.028754,-0.154593
1.80905,0.149684,0.0528284
1.89949,-0.0288453,0.0331596
1.80611,0.149441,-0.116147
1.93673,-0.124225,-0.113022
1.85181,0.0624011,0.107906
1.88622,-0.0286437,0.0768554
1.85693,0.0625737,-0.0865479
1.89318,-0.0287495,-0.099229
1.85302,0.062442,0.227652
1.88152,-0.0285724,0.153616
1.8123,0.149953,-0.0740873
1.84645,0.0622205,-0.0429903
1.81805,0.143722,-0.0318332
1.89086,-0.0356462,-0.0550393
1.88238,-0.0354863,-0.376545
1.85516,0.0557081,0
1.9434,-0.131806,-0.0226768
1.84101,0.0552831,-0.286548
1.90429,-0.0358994,-0.242435
1.82627,0.144372,0.0106474
1.89163,-0.0356607,-0.0109961
1.84847,0.055507,-0.199201
1.9232,-0.130436,-0.17994
1.87065,0.0561731,0.0435486
1.92345,-0.130453,0.022444
1.85463,0.0556921,-0.129747
1.88938,-0.0356182,-0.154267
1.8056,0.142738,0.052712
1.89937,-0.0358067,0.0331596
1.81062,0.143135,-0.116403
1.94025,-0.131592,-0.113255
1.86001,0.0558535,0.108371
1.8821,-0.0354811,0.0766925
1.85715,0.0557677,-0.0865479
1.89706,-0.035763,-0.0994383
1.84927,0.0555312,0.227164
1.87742,-0.0353928,0.153291
1.80885,0.142995,-0.0739244
1.85066,0.055573,-0.0430833
1.81458,0.136758,-0.0317634
1.89871,-0.042756,-0.055272
1.89792,-0.0427381,-0.379683
1.86335,0.0491194,0
1.94291,-0.138928,-0.0226768
1.84911,0.0487438,-0.287778
1.90018,-0.042789,-0.24193
1.8228,0.137377,0.0106242
1.90349,-0.0428634,-0.0110659
1.84866,0.0487321,-0.199201
1.92271,-0.137484,-0.17994
1.86685,0.0492115,0.0434555
1.93892,-0.138643,0.0226303
1.8628,0.0491049,-0.130305
1.90119,-0.0428117,-0.155243
1.80611,0.13612,0.052712
1.89523,-0.0426775,0.0330898
1.81114,0.136498,-0.116403
1.93975,-0.138703,-0.113255
1.8602,0.0490363,0.108371
1.88596,-0.0424687,0.0768554
1.85734,0.0489609,-0.0865479
1.89292,-0.0426255,-0.099229
1.8574,0.0489625,0.228139
1.87728,-0.0422732,0.153291
1.81335,0.136665,-0.0740873
1.85086,0.04879,-0.0430833
1.81504,0.130422,-0.0317634
1.90655,-0.0495917,-0.0555047
1.89384,-0.0492612,-0.378899
1.86751,0.0427059,0
1.9464,-0.146009,-0.0227234
1.84926,0.0422886,-0.287778
1.89606,-0.0493188,-0.241425
1.82327,0.131013,0.0106242
1.89133,-0.0491959,-0.0109961
1.84484,0.0421875,-0.198772
1.92619,-0.144493,-0.180312
1.86701,0.0426943,0.0434555
1.9464,-0.146009,0.0227234
1.86695,0.0426931,-0.130584
1.90502,-0.0495519,-0.155569
1.81455,0.130387,0.0529448
1.89907,-0.0493972,0.0331596
1.81558,0.130461,-0.116659
1.93926,-0.145473,-0.113255
1.86036,0.0425424,0.108371
1.88979,-0.0491559,0.0770182
1.86149,0.0425683,-0.086734
1.89276,-0.0492331,-0.099229
1.86153,0.0425691,0.228627
1.87712,-0.0488262,0.153291
1.82179,0.130907,-0.0744129
1.85501,0.0424201,-0.0431764
1.81948,0.124359,-0.0318332
1.89437,-0.0558928,-0.0551557
1.89758,-0.0559873,-0.379683
1.87165,0.0362643,0
1.94986,-0.153115,-0.02277
1.8573,0.0359864,-0.289008
1.89984,-0.056054,-0.24193
1.82371,0.124648,0.0106242
1.89914,-0.0560335,-0.0110426
1.84498,0.0357475,-0.198772
1.92567,-0.151216,-0.180312
1.86714,0.036177,0.0434555
1.94189,-0.152489,0.0226768
1.86709,0.0361759,-0.130584
1.90085,-0.0560838,-0.155243
1.81898,0.124325,0.0530611
1.91088,-0.0563797,0.033369
1.81603,0.124123,-0.116659
1.9467,-0.152867,-0.11372
1.8605,0.0360482,0.108371
1.8936,-0.0558701,0.077181
1.86563,0.0361476,-0.0869201
1.90456,-0.0561932,-0.099857
1.86564,0.0361478,0.229114
1.88889,-0.055731,0.154267
1.82223,0.124547,-0.0744129
1.85915,0.0360221,-0.0432694
1.82387,0.118584,-0.031903
1.90217,-0.0624368,-0.0553884
1.89346,-0.0621509,-0.378899
1.86776,0.0299932,0
1.95732,-0.160233,-0.0228631
1.85741,0.0298271,-0.289008
1.91154,-0.0627443,-0.243445
1.8321,0.119119,0.0106707
1.90694,-0.0625934,-0.0110891
1.85702,0.0298207,-0.200057
1.92913,-0.157926,-0.180683
1.87125,0.0300493,0.0435486
1.94536,-0.159254,0.0227234
1.8672,0.0299843,-0.130584
1.90463,-0.0625177,-0.155569
1.82338,0.118552,0.0531775
1.91068,-0.0627161,0.033369
1.82041,0.118359,-0.116914
1.94618,-0.159321,-0.11372
1.86859,0.0300066,0.108836
1.89341,-0.0621492,0.077181
1.86973,0.0300249,-0.0871063
1.90436,-0.0625087,-0.099857
1.86178,0.0298972,0.228627
1.89667,-0.0622561,0.154918
1.82264,0.118504,-0.0744129
1.85926,0.0298567,-0.0432694
1.83226,0.112708,-0.0320426
1.90993,-0.0693664,-0.0556211
1.89715,-0.0689023,-0.379683
1.86785,0.0234734,0
1.94878,-0.166384,-0.02277
1.85751,0.0233433,-0.289008
1.91131,-0.0694164,-0.243445
1.83251,0.112723,0.0106707
1.91471,-0.0695398,-0.0111356
1.85711,0.0233384,-0.200057
1.92857,-0.164659,-0.180683
1.87934,0.0236178,0.0437347
1.94878,-0.166384,0.02277
1.86729,0.0234663,-0.130584
1.90839,-0.0693104,-0.155894
1.81979,0.111941,0.0530611
1.92244,-0.0698207,0.0335784
1.82082,0.112004,-0.116914
1.94959,-0.166453,-0.113952
1.87268,0.023534,0.109069
1.90117,-0.0690482,0.0775067
1.86982,0.0234981,-0.0871063
1.90812,-0.0693007,-0.100066
1.86584,0.0234481,0.229114
1.88448,-0.0684422,0.153942
1.82304,0.112141,-0.0744129
1.86735,0.023467,-0.0434555
1.83264,0.106311,-0.0320426
1.90968,-0.0760329,-0.0556211
1.90082,-0.0756802,-0.380468
1.87592,0.0170258,0
1.96014,-0.174248,-0.0229097
1.85758,0.0168593,-0.289008
1.91105,-0.0760877,-0.243445
1.83289,0.106326,0.0106707
1.91445,-0.076223,-0.0111356
1.86513,0.0169279,-0.200914
1.93592,-0.172095,-0.181427
1.88741,0.0171301,0.0439208
1.95217,-0.17354,0.0228165
1.87534,0.0170205,-0.131142
1.91212,-0.0761301,-0.15622
1.82017,0.105588,0.0530611
1.91419,-0.0762126,0.0334388
1.8212,0.105647,-0.116914
1.95298,-0.173611,-0.114185
1.87275,0.016997,0.109069
1.90092,-0.0756841,0.0775067
1.87389,0.0170074,-0.0872924
1.91186,-0.0761198,-0.100276
1.86988,0.016971,0.229602
1.89618,-0.0754957,0.154918
1.8314,0.106239,-0.0747386
1.86342,0.0169123,-0.0433625
1.83298,0.100233,-0.0320426
1.91341,-0.0825375,-0.0557375
1.91231,-0.0824903,-0.382821
1.87597,0.0108049,0
1.95955,-0.180747,-0.0229097
1.85762,0.0106993,-0.289008
1.91872,-0.0827666,-0.244455
1.83722,0.100465,0.0106939
1.91419,-0.0825711,-0.0111356
1.86916,0.0107657,-0.201342
1.94327,-0.179245,-0.18217
1.88746,0.0108711,0.0439208
1.95158,-0.180012,0.0228165
1.87938,0.0108246,-0.131421
1.91186,-0.0824705,-0.15622
1.82849,0.0999879,0.0532939
1.91792,-0.0827323,0.0335086
1.82552,0.0998254,-0.11717
1.94841,-0.17972,-0.113952
1.8688,0.0107637,0.108836
1.90864,-0.0823318,0.0778323
1.88193,0.0108393,-0.0876646
1.9116,-0.0824593,-0.100276
1.8739,0.010793,0.230089
1.89991,-0.0819551,0.155243
1.83174,0.100166,-0.0747386
1.86346,0.0107329,-0.0433625
1.83733,0.0937182,-0.0321124
1.91309,-0.08955,-0.0557375
1.884,0.00394584,0
1.95887,-0.187928,-0.0229097
1.86555,0.00390722,-0.290237
1.9184,-0.0897985,-0.244455
1.83758,0.0937309,0.0106939
1.91787,-0.0897734,-0.0111589
1.86521,0.00390649,-0.200914
1.93863,-0.185986,-0.181799
1.88349,0.00394477,0.0438278
1.95091,-0.187164,0.0228165
1.87542,0.00392787,-0.131142
1.91951,-0.0898501,-0.156871
1.82885,0.0932854,0.0532939
1.9256,-0.0901353,0.0336482
1.82986,0.0933372,-0.117426
1.95569,-0.187623,-0.114418
1.88081,0.00393917,0.109534
1.90433,-0.0891399,0.0776695
1.87796,0.0039332,-0.0874785
1.92325,-0.0900254,-0.100904
1.88583,0.00394969,0.231552
1.89959,-0.088918,0.155243
1.84008,0.0938584,-0.0750642
1.87149,0.00391965,-0.0435486
1.84164,0.0874939,-0.0321822
1.91277,-0.0962274,-0.0557375
1.876,-0.00261939,0
1.9582,-0.194764,-0.0229097
1.86556,-0.00260481,-0.290237
1.92204,-0.0966938,-0.24496
1.84189,0.0875058,0.0107172
1.92553,-0.0968694,-0.0112054
1.86123,-0.00259877,-0.200486
1.9459,-0.19354,-0.182542
1.88749,-0.00263543,0.0439208
1.95422,-0.194369,0.0228631
1.87941,-0.00262415,-0.131421
1.91918,-0.0965499,-0.156871
1.83316,0.0870907,0.0534102
1.93725,-0.0974591,0.0338577
1.83018,0.0869492,-0.117426
1.95105,-0.194053,-0.114185
1.8848,-0.00263169,0.109766
1.91998,-0.0965899,0.0783208
1.88196,-0.00262771,-0.0876646
1.91894,-0.0965376,-0.100694
1.88187,-0.00262758,0.231064
1.8364,0.0872451,-0.0749014
1.87149,-0.0026131,-0.0435486
1.84191,0.0817078,-0.0321822
1.91645,-0.102449,-0.0558538
1.88398,-0.00854929,0
1.96554,-0.201732,-0.0230028
1.86554,-0.00846561,-0.290237
1.92569,-0.102943,-0.245465
1.84216,0.0817189,0.0107172
1.92921,-0.103132,-0.0112286
1.86917,-0.00848208,-0.201342
1.94528,-0.199653,-0.182542
1.89547,-0.00860142,0.0441069
1.96156,-0.201324,0.0229562
1.8754,-0.00851036,-0.131142
1.91887,-0.102579,-0.156871
1.82943,0.0811541,0.0532939
1.93295,-0.103331,0.0337879
1.8424,0.0817299,-0.118194
1.95838,-0.200997,-0.11465
1.88079,-0.00853483,0.109534
1.91168,-0.102195,0.0779952
1.88594,-0.00855817,-0.0878508
1.92261,-0.102779,-0.100904
1.88582,-0.00855763,0.231552
1.84066,0.0816525,-0.0750642
1.87547,-0.00851069,-0.0436417
1.85019,0.0752815,-0.0323219
1.91606,-0.109473,-0.0558538
1.89194,-0.01552,0
1.96479,-0.208935,-0.0230028
1.86945,-0.0153355,-0.290852
1.9253,-0.110001,-0.245465
1.83845,0.0748039,0.0106939
1.92483,-0.109974,-0.0112054
1.87708,-0.0153981,-0.202199
1.95246,-0.207623,-0.183286
1.89542,-0.0155486,0.0441069
1.96081,-0.208512,0.0229562
1.89132,-0.0155149,-0.132258
1.92644,-0.110066,-0.157522
1.8417,0.074936,0.0536429
1.93655,-0.110643,0.0338577
1.84269,0.0749766,-0.118194
1.96557,-0.209018,-0.115115
1.89273,-0.0155265,0.110232
1.92327,-0.109884,0.0784836
1.88989,-0.0155032,-0.0880369
1.92222,-0.109825,-0.100904
1.88974,-0.015502,0.232039
1.84095,0.0749056,-0.0750642
1.87943,-0.0154174,-0.0437347
1.84245,0.0685254,-0.0321822
1.92764,-0.116887,-0.0562029
1.89187,-0.022124,0
1.972,-0.216666,-0.0230959
1.87729,-0.0219534,-0.292082
1.92887,-0.116961,-0.245971
1.84269,0.0685347,0.0107172
1.92843,-0.116934,-0.0112286
1.86906,-0.0218572,-0.201342
1.95568,-0.214872,-0.183657
1.89536,-0.0221648,0.0441069
1.96802,-0.216229,0.0230493
1.88726,-0.0220701,-0.131979
1.92206,-0.116548,-0.157196
1.84195,0.0685069,0.0536429
1.94014,-0.117644,0.0339275
1.84294,0.0685439,-0.118194
1.96483,-0.215878,-0.115115
1.89266,-0.0221333,0.110232
1.92287,-0.116597,0.0784836
1.88583,-0.0220533,-0.0878508
1.9298,-0.117018,-0.101322
1.90159,-0.0222376,0.233502
1.84919,0.0687761,-0.0753899
1.87536,-0.021931,-0.0436417
1.85067,0.0623631,-0.0323219
1.91525,-0.122847,-0.0558538
1.89178,-0.0287277,0
1.97918,-0.224449,-0.023189
1.8851,-0.0286263,-0.293312
1.92845,-0.123693,-0.245971
1.84692,0.0622368,0.0107404
1.932,-0.123921,-0.0112519
1.87693,-0.0285021,-0.202199
1.95096,-0.221249,-0.183286
1.89127,-0.0287199,0.0440139
1.96328,-0.222646,0.0230028
1.89515,-0.0287789,-0.132537
1.92562,-0.123512,-0.157522
1.84617,0.0622115,0.0537593
1.93972,-0.124416,0.0339275
1.84317,0.0621104,-0.118194
1.96406,-0.222735,-0.115115
1.89257,-0.0287398,0.110232
1.92245,-0.123309,0.0784836
1.88973,-0.0286966,-0.0880369
1.92938,-0.123753,-0.101322
1.84942,0.0623209,-0.0753899
1.87927,-0.0285378,-0.0437347
1.85487,0.0560234,-0.0323917
1.92279,-0.130071,-0.0560866
1.88767,-0.0352564,0
1.98236,-0.231821,-0.0232356
1.88104,-0.0351325,-0.292697
1.93196,-0.130692,-0.246476
1.84713,0.0557894,0.0107404
1.93554,-0.130934,-0.0112751
1.87681,-0.0350536,-0.202199
1.95413,-0.22852,-0.183657
1.89915,-0.0354709,0.0442
1.96647,-0.229963,0.0230493
1.89105,-0.0353195,-0.132258
1.92916,-0.130502,-0.157847
1.85037,0.0558875,0.0538757
1.94725,-0.131726,0.0340671
1.85136,0.0559172,-0.118705
1.96724,-0.230053,-0.115348
1.89646,-0.0354205,0.110464
1.92201,-0.130018,0.0784836
1.89761,-0.0354421,-0.0884091
1.92894,-0.130487,-0.101322
1.84962,0.0558648,-0.0753899
1.89516,-0.0353962,-0.0441069
1.85905,0.0496551,-0.0324615
1.92631,-0.137066,-0.0562029
1.90353,-0.0422,0
1.97359,-0.237783,-0.0231425
1.88091,-0.0416984,-0.292697
1.93149,-0.137435,-0.246476
1.85531,0.049555,0.0107869
1.93507,-0.13769,-0.0112751
1.88463,-0.041781,-0.203056
1.96123,-0.236293,-0.184401
1.90702,-0.0422772,0.0443861
1.95771,-0.235869,0.0229562
1.89491,-0.0420088,-0.132537
1.93267,-0.137518,-0.158173
1.84256,0.0492146,0.0536429
1.95077,-0.138806,0.0341369
1.85952,0.0496676,-0.119217
1.97435,-0.237874,-0.115813
1.89233,-0.0419516,0.110232
1.92952,-0.137294,0.0788093
1.89748,-0.0420657,-0.0884091
1.93246,-0.137503,-0.101532
1.84981,0.0494081,-0.0753899
1.90302,-0.0421886,-0.044293
1.86721,0.0433512,-0.0326011
1.92981,-0.144087,-0.0563193
1.90337,-0.0488443,0
1.97672,-0.245163,-0.023189
1.8847,-0.0483651,-0.293312
1.931,-0.144176,-0.246476
1.85547,0.0430785,0.0107869
1.94256,-0.145039,-0.0113216
1.8805,-0.0482573,-0.202628
1.96434,-0.243628,-0.184773
1.90686,-0.0489337,0.0443861
1.89874,-0.0487253,-0.132816
1.93615,-0.144561,-0.158498
1.84672,0.0428754,0.0537593
1.94629,-0.145317,0.0340671
1.8517,0.042991,-0.118705
1.97351,-0.244764,-0.115813
1.91213,-0.049069,0.111394
1.93301,-0.144326,0.0789721
1.90131,-0.0487914,-0.0885953
1.93993,-0.144843,-0.10195
1.85796,0.0431363,-0.0757155
2.01135,-0.249458,-0.0707762
1.90286,-0.0488311,-0.044293
1.85135,0.0368408,-0.0323219
1.93729,-0.151107,-0.056552
1.9032,-0.0551559,0
1.9759,-0.251716,-0.023189
1.88453,-0.0546147,-0.293312
1.93447,-0.150887,-0.246981
1.8556,0.0369253,0.0107869
1.93409,-0.150858,-0.0112751
1.88033,-0.054493,-0.202628
1.96748,-0.250644,-0.185145
1.91468,-0.0554885,0.0445722
1.89856,-0.0550215,-0.132816
1.93169,-0.15067,-0.158173
1.85085,0.0368308,0.0538757
1.95377,-0.152392,0.0342067
1.85582,0.0369298,-0.118961
1.96873,-0.250803,-0.11558
1.90796,-0.0552939,0.111162
1.94049,-0.151357,0.0792978
1.90513,-0.0552119,-0.0887814
1.93546,-0.150964,-0.101741
1.85809,0.0369749,-0.0757155
1.89869,-0.0550251,-0.0442
1.85947,0.0301848,-0.0324615
1.93274,-0.157881,-0.0564356
1.90299,-0.0621311,0
1.97893,-0.259476,-0.0232356
1.89222,-0.0617795,-0.294542
1.94181,-0.158622,-0.247991
1.85972,0.0301889,0.0108102
1.9415,-0.158597,-0.0113216
1.88409,-0.0615142,-0.203056
1.91446,-0.0625057,0.0445722
1.89835,-0.0619797,-0.132816
1.9351,-0.158074,-0.158498
1.85897,0.0301766,0.0541084
1.95718,-0.159878,0.0342765
1.85994,0.0301924,-0.119217
1.97571,-0.259055,-0.116045
1.90376,-0.0621563,0.110929
1.93594,-0.158143,0.079135
1.90092,-0.0620638,-0.0885953
1.93887,-0.158382,-0.10195
1.85821,0.0301644,-0.0757155
1.89448,-0.0618533,-0.0441069
1.85957,0.0236938,-0.0324615
1.93218,-0.164627,-0.0564356
1.89876,-0.0686289,0
1.9899,-0.267984,-0.0233753
1.89199,-0.0683842,-0.294542
1.9452,-0.165737,-0.248496
1.86382,0.023748,0.0108334
1.94891,-0.166052,-0.0113681
1.88387,-0.0680905,-0.203056
1.91423,-0.0691881,0.0445722
1.89812,-0.0686058,-0.132816
1.94645,-0.165843,-0.159474
1.85506,0.0236365,0.053992
1.95661,-0.166709,0.0342765
1.86003,0.0236998,-0.119217
1.97875,-0.266483,-0.116278
1.90353,-0.0688013,0.110929
1.93538,-0.1649,0.079135
1.8967,-0.0685545,-0.0884091
1.93831,-0.165149,-0.10195
1.8703,0.0238305,-0.076204
1.90624,-0.0688992,-0.0443861
1.86764,0.0172766,-0.0326011
1.94354,-0.172431,-0.0567847
1.9105,-0.0757317,0
1.98103,-0.273833,-0.0232822
1.89174,-0.074988,-0.294542
1.95252,-0.173227,-0.249506
1.87189,0.0173159,0.0108799
1.9523,-0.173208,-0.0113914
1.88759,-0.0748235,-0.203484
1.92197,-0.0761864,0.0447583
1.90983,-0.0757052,-0.133653
1.93792,-0.171932,-0.158823
1.85514,0.0171609,0.053992
1.96,-0.173891,0.0343463
1.86809,0.0172808,-0.119729
1.98572,-0.274482,-0.116743
1.91525,-0.0759199,0.111627
1.91242,-0.0758079,-0.0891536
1.94568,-0.17262,-0.102369
1.86637,0.0172649,-0.0760412
1.90998,-0.0757112,-0.0444791
1.87568,0.0108033,-0.0327407
1.93894,-0.178847,-0.0566684
1.91022,-0.0824001,0
1.89541,-0.0817613,-0.295157
1.94795,-0.179677,-0.249001
1.86394,0.0107357,0.0108334
1.95567,-0.180389,-0.0114146
1.89129,-0.0815834,-0.203913
1.92169,-0.0828948,0.0447583
1.90956,-0.0823713,-0.133653
1.94127,-0.179061,-0.159149
1.87118,0.0107773,0.0544575
1.95938,-0.180732,0.0343463
1.86814,0.0107598,-0.119729
1.99266,-0.282533,-0.117208
1.91896,-0.082777,0.111859
1.91215,-0.082483,-0.0891536
1.95302,-0.180145,-0.102788
1.87042,0.010773,-0.076204
2.02648,-0.287329,-0.0714742
1.9177,-0.0827225,-0.0446652
1.86771,0.00456369,-0.0326011
1.9463,-0.186036,-0.0569011
1.91793,-0.0891054,0
1.90303,-0.0884131,-0.296387
1.95524,-0.186891,-0.250011
1.87196,0.00457409,0.0108799
1.95506,-0.186873,-0.0114146
1.92141,-0.0892669,0.0447583
1.90927,-0.0887032,-0.133653
1.94464,-0.185877,-0.159474
1.86321,0.00455269,0.0542248
1.96275,-0.187609,0.0344161
1.86816,0.0045648,-0.119729
1.97986,-0.287418,-0.116511
1.91868,-0.08914,0.111859
1.91985,-0.0891944,-0.0895259
1.95241,-0.18662,-0.102788
1.88243,0.00459967,-0.0766925
1.91342,-0.0888957,-0.0445722
1.87571,-0.00163687,-0.0327407
1.9417,-0.192096,-0.0567847
1.92162,-0.0956639,0
1.89878,-0.0945268,-0.295772
1.95461,-0.193373,-0.250011
1.87597,-0.00163709,0.0109032
1.95443,-0.193355,-0.0114146
1.89071,-0.094125,-0.203913
1.92509,-0.0958369,0.0448513
1.91295,-0.0952325,-0.133932
1.94798,-0.192717,-0.1598
1.87121,-0.00163294,0.0544575
1.96212,-0.194117,0.0344161
1.87615,-0.00163725,-0.12024
1.98679,-0.295156,-0.116976
1.91837,-0.0955021,0.111859
1.91156,-0.095163,-0.0891536
1.95178,-0.193093,-0.102788
1.87844,-0.00163925,-0.0765297
1.91711,-0.0954392,-0.0446652
1.87969,-0.00852983,-0.0328105
1.94496,-0.199619,-0.0569011
1.91327,-0.102279,0
1.91026,-0.102118,-0.297616
1.87995,-0.00853099,0.0109264
1.96564,-0.201742,-0.0114843
1.89829,-0.101479,-0.20477
1.92074,-0.102679,0.0447583
1.91259,-0.102243,-0.133932
1.95519,-0.20067,-0.160451
1.87119,-0.00849123,0.0544575
1.96537,-0.201715,0.034486
1.88012,-0.00853178,-0.120496
1.98964,-0.303037,-0.117208
1.92598,-0.102959,0.112325
1.91918,-0.102595,-0.0895259
1.95503,-0.200654,-0.102997
1.89041,-0.00857847,-0.0770182
1.92473,-0.102892,-0.0448513
1.88365,-0.0151232,-0.0328803
1.94822,-0.206829,-0.0570174
1.92089,-0.109412,0
1.90595,-0.108561,-0.297001
1.87991,-0.0150932,0.0109264
1.96095,-0.20818,-0.0114611
1.89793,-0.108104,-0.20477
1.93634,-0.110292,0.0451305
1.91621,-0.109146,-0.134211
1.95448,-0.207494,-0.160451
1.87115,-0.0150229,0.0544575
1.97261,-0.209419,0.0346256
1.88008,-0.0150946,-0.120496
1.9296,-0.109908,0.112557
1.91881,-0.109294,-0.0895259
1.95035,-0.207055,-0.102788
1.88238,-0.015113,-0.0766925
1.92037,-0.109383,-0.0447583
1.88759,-0.0217444,-0.0329501
1.95146,-0.214065,-0.0571338
1.92049,-0.116117,0
1.91345,-0.115691,-0.298231
1.88384,-0.0217013,0.0109496
1.96816,-0.215896,-0.0115076
1.93993,-0.117292,0.0452235
1.92378,-0.116315,-0.134769
1.95374,-0.214315,-0.160451
1.87508,-0.0216003,0.0545738
1.96392,-0.215431,0.034486
1.87603,-0.0216112,-0.12024
1.93717,-0.117125,0.113022
1.9224,-0.116232,-0.089712
1.95756,-0.214733,-0.103207
1.89031,-0.0217757,-0.0770182
1.92796,-0.116568,-0.0449444
1.87951,-0.0278851,-0.0328105
1.95074,-0.220535,-0.0571338
1.92808,-0.122994,0
1.917,-0.122287,-0.298846
1.88376,-0.0279482,0.0109496
1.95948,-0.221523,-0.0114611
1.93953,-0.123724,0.0452235
1.92338,-0.122694,-0.134769
1.96094,-0.221688,-0.161102
1.883,-0.0279368,0.0548066
1.95127,-0.220595,0.0342765
1.87994,-0.0278915,-0.120496
1.93279,-0.123294,0.11279
1.92599,-0.122861,-0.0898981
1.95683,-0.221223,-0.103207
1.89022,-0.0280441,-0.0770182
1.92756,-0.122961,-0.0449444
1.89139,-0.0349956,-0.03302
1.95389,-0.228147,-0.0572502
1.93161,-0.130329,0
1.92048,-0.129578,-0.299461
1.88765,-0.0349263,0.0109729
1.96661,-0.229631,-0.0115076
1.90859,-0.128776,-0.206055
1.93109,-0.130294,0.0450374
1.92292,-0.129743,-0.134769
1.96408,-0.229336,-0.161427
1.89088,-0.0349861,0.0550393
1.8878,-0.0349293,-0.121008
1.93233,-0.130377,0.11279
1.92553,-0.129919,-0.0898981
1.95998,-0.228857,-0.103416
1.8941,-0.0350458,-0.077181
1.93109,-0.130294,-0.0450374
1.89525,-0.0416855,-0.0330898
1.95308,-0.234966,-0.0572502
1.92715,-0.136788,0
1.92001,-0.136281,-0.299461
1.89551,-0.0416911,0.0110194
1.97373,-0.23745,-0.0115541
1.92004,-0.136283,-0.20734
1.94259,-0.137883,0.0453166
1.91848,-0.136172,-0.13449
1.97118,-0.237143,-0.162078
1.89474,-0.0416742,0.0551557
1.89166,-0.0416065,-0.121264
1.93982,-0.137687,0.113255
1.92905,-0.136922,-0.0900843
1.95917,-0.235697,-0.103416
1.89797,-0.0417452,-0.0773438
1.93062,-0.137034,-0.0450374
1.8991,-0.0480714,-0.0331596
1.9642,-0.242913,-0.0575993
1.93467,-0.14377,0
1.91561,-0.142354,-0.298846
1.89136,-0.0478754,0.0109961
1.98088,-0.244976,-0.0116006
1.91561,-0.142354,-0.206912
1.93813,-0.144028,0.0452235
1.92995,-0.14342,-0.135328
1.96643,-0.243189,-0.161753
1.8866,-0.0477548,0.0549229
1.8955,-0.0479803,-0.121519
1.9246,-0.143023,-0.0898981
1.96234,-0.242683,-0.103625
1.89382,-0.0479377,-0.077181
1.94212,-0.144324,-0.0453166
1.90692,-0.0549305,-0.0332992
1.96334,-0.249768,-0.0575993
1.93415,-0.150523,0
1.89518,-0.0545924,0.0110194
1.98001,-0.251889,-0.0116006
1.92303,-0.149657,-0.207768
1.94958,-0.151723,0.0455027
1.93342,-0.150466,-0.135607
1.96952,-0.250555,-0.162078
1.89441,-0.0545702,0.0551557
1.89532,-0.0545965,-0.121519
1.93604,-0.15067,-0.0904565
1.97337,-0.251044,-0.104253
1.89764,-0.0546632,-0.0773438
1.9416,-0.151103,-0.0453166
1.90672,-0.0615865,-0.0332992
1.96642,-0.257138,-0.0577156
1.92963,-0.156949,0
1.90298,-0.0614657,0.0110659
1.97912,-0.258799,-0.0116006
1.94903,-0.158528,0.0455027
1.93288,-0.157214,-0.135607
1.98445,-0.259496,-0.16338
1.89821,-0.0613117,0.055272
1.9031,-0.0614698,-0.122031
1.9355,-0.157427,-0.0904565
1.96456,-0.256895,-0.103835
1.90542,-0.0615449,-0.0776695
1.94106,-0.157879,-0.0453166
1.91049,-0.0683849,-0.033369
1.96947,-0.264533,-0.057832
1.94501,-0.165037,0
1.90675,-0.0682511,0.0110891
1.92194,-0.163079,-0.207768
1.95245,-0.165668,0.0455958
1.94027,-0.164635,-0.136165
1.97563,-0.26536,-0.162729
1.89798,-0.0679373,0.055272
1.89889,-0.0679697,-0.121775
1.93494,-0.164182,-0.0904565
1.97948,-0.265878,-0.104672
1.90919,-0.0683386,-0.0778323
1.94448,-0.164992,-0.0454097
1.91423,-0.0752103,-0.0334388
1.96854,-0.271406,-0.057832
1.93645,-0.171121,0
1.91049,-0.0750635,0.0111124
1.92928,-0.170487,-0.208625
1.95585,-0.172834,0.0456888
1.93571,-0.171055,-0.135886
1.90572,-0.074876,0.0555047
1.9106,-0.0750678,-0.122543
1.9463,-0.171991,-0.0910149
1.97854,-0.272786,-0.104672
1.90894,-0.0750026,-0.0778323
1.94788,-0.17213,-0.0455027
1.91396,-0.0818918,-0.0334388
1.97154,-0.278836,-0.0579483
1.93585,-0.177879,0
1.91022,-0.0817319,0.0111124
1.93263,-0.177584,-0.209053
1.9632,-0.180392,0.0458749
1.9351,-0.177811,-0.135886
1.90944,-0.0816987,0.0556211
1.91033,-0.0817366,-0.122543
1.94568,-0.178783,-0.0910149
1.97758,-0.279691,-0.104672
1.90867,-0.0816656,-0.0778323
1.95523,-0.179661,-0.0456888
1.91769,-0.0880878,-0.0335086
1.97857,-0.286173,-0.0581811
1.94324,-0.184717,0
1.90995,-0.0877326,0.0111124
1.93998,-0.184407,-0.20991
1.96262,-0.186559,0.0458749
1.94645,-0.185022,-0.136723
1.90918,-0.087697,0.0556211
1.90608,-0.0875545,-0.122287
1.94511,-0.184895,-0.0910149
1.98064,-0.286474,-0.104881
1.9124,-0.0878448,-0.0779952
1.95466,-0.185802,-0.0456888
1.91337,-0.0945837,-0.0334388
1.94656,-0.191891,0
1.90964,-0.0943991,0.0111124
1.96594,-0.193801,0.045968
1.94579,-0.191815,-0.136723
1.90487,-0.0941633,0.0555047
1.91373,-0.0946016,-0.122798
1.95241,-0.192468,-0.0913871
1.98753,-0.294557,-0.1053
1.92006,-0.0949144,-0.0783208
1.954,-0.192624,-0.0456888
1.91702,-0.101474,-0.0335086
1.98443,-0.301179,-0.0584138
1.94986,-0.199091,0
1.92128,-0.101699,0.0111821
1.93865,-0.197946,-0.20991
1.96525,-0.200662,0.045968
1.95702,-0.199822,-0.13756
1.9165,-0.101446,0.0558538
1.92136,-0.101703,-0.12331
1.95173,-0.199282,-0.0913871
1.99439,-0.302692,-0.105719
1.91573,-0.101405,-0.078158
1.95331,-0.199444,-0.0456888
1.92061,-0.10906,-0.0335784
1.94511,-0.206155,0
1.92487,-0.109302,0.0112054
1.94578,-0.206227,-0.210767
1.96446,-0.208207,0.045968
1.94434,-0.206074,-0.136723
1.92408,-0.109257,0.0560866
1.92494,-0.109306,-0.123566
1.95095,-0.206774,-0.0913871
1.98927,-0.309733,-0.105509
1.9233,-0.109213,-0.0784836
1.95651,-0.207364,-0.0457819
1.92423,-0.115669,-0.0336482
1.94839,-0.213039,0
1.9205,-0.115444,0.0111821
1.94904,-0.213111,-0.211195
1.94761,-0.212954,-0.137002
1.92371,-0.115637,0.0560866
1.92457,-0.115689,-0.123566
1.96217,-0.214545,-0.0919455
1.92293,-0.11559,-0.0784836
1.95979,-0.214285,-0.0458749
1.93182,-0.122555,-0.0337879
1.9596,-0.220843,0
1.9241,-0.122066,0.0112054
1.96018,-0.220909,-0.212481
1.95879,-0.220752,-0.137839
1.92332,-0.122016,0.0560866
1.92418,-0.12207,-0.123566
1.96541,-0.221499,-0.0921316
1.92254,-0.121966,-0.0784836
1.96304,-0.221231,-0.045968
1.93136,-0.129635,-0.0337879
1.9548,-0.227561,0
1.92364,-0.129117,0.0112054
1.95796,-0.22793,-0.137839
1.92685,-0.129332,0.0562029
1.92372,-0.129122,-0.123566
1.96062,-0.228239,-0.0919455
1.92606,-0.12928,-0.0786465
1.96221,-0.228424,-0.045968
1.93488,-0.136658,-0.0338577
1.96194,-0.235336,0
1.93515,-0.136676,0.0112751
1.96508,-0.235713,-0.138397
1.93037,-0.136339,0.0563193
1.93122,-0.136399,-0.124078
1.96378,-0.235557,-0.0921316
1.93358,-0.136565,-0.0789721
1.96538,-0.235749,-0.046061
1.93841,-0.143368,-0.0339275
1.93468,-0.143093,0.0112751
1.96429,-0.242228,-0.138397
1.9339,-0.143035,0.0564356
1.93474,-0.143097,-0.124333
1.96299,-0.242068,-0.0921316
1.9371,-0.143271,-0.079135
1.97252,-0.243244,-0.0462471
1.94188,-0.150443,-0.0339973
1.95632,-0.248182,0
1.94215,-0.150463,0.0113216
1.96739,-0.249586,-0.138676
1.93339,-0.149784,0.0564356
1.9382,-0.150158,-0.124589
1.97006,-0.249924,-0.0925039
1.93659,-0.150032,-0.079135
1.97166,-0.250127,-0.0462471
1.93733,-0.157236,-0.0339275
1.94158,-0.15758,0.0113216
1.97437,-0.257828,-0.139234
1.93681,-0.157193,0.056552
1.93366,-0.156938,-0.124333
1.96517,-0.256626,-0.0923178
1.94001,-0.157452,-0.0792978
1.97866,-0.258388,-0.0464332
1.94082,-0.163657,-0.0339973
1.94905,-0.164351,0.0113681
1.9696,-0.2635,-0.138955
1.94826,-0.164285,0.0569011
1.94111,-0.163682,-0.124845
1.98811,-0.265977,-0.0934345
1.9395,-0.163546,-0.0792978
1.97388,-0.264072,-0.0463402
1.94023,-0.170431,-0.0339973
1.94846,-0.171154,0.0113681
1.97657,-0.27146,-0.139513
1.94369,-0.170735,0.0567847
1.94451,-0.170806,-0.125101
1.9753,-0.271284,-0.0928761
1.9429,-0.170665,-0.0794606
1.9769,-0.271505,-0.0464332
1.94753,-0.17861,-0.0341369
1.95178,-0.178999,0.0113914
1.97947,-0.279605,-0.139792
1.95098,-0.178927,0.0570174
1.94384,-0.178271,-0.125101
1.9782,-0.279426,-0.0930622
1.94621,-0.178489,-0.0796234
1.97585,-0.279094,-0.0464332
1.95088,-0.185786,-0.0342067
1.96309,-0.186949,0.0114611
1.94637,-0.185357,0.0569011
1.95115,-0.185812,-0.125613
1.97721,-0.286329,-0.0930622
1.9416,-0.184903,-0.0794606
1.98277,-0.287135,-0.0466193
1.95426,-0.192306,-0.0342765
1.95055,-0.19194,0.0113914
1.94659,-0.19155,-0.125357
1.98816,-0.294295,-0.0936206
1.94896,-0.191784,-0.0797863
1.98186,-0.293363,-0.0466193
1.9496,-0.198721,-0.0342067
1.95782,-0.199559,0.0114378
1.94988,-0.198749,-0.125613
1.99502,-0.302431,-0.0939929
1.94828,-0.198586,-0.0797863
1.95678,-0.207047,-0.0343463
1.96898,-0.208338,0.0115076
1.95307,-0.206654,-0.125868
1.98989,-0.309475,-0.0938067
1.95148,-0.206486,-0.0799491
1.96407,-0.21406,-0.034486
1.96831,-0.214522,0.0115076
1.95638,-0.213222,-0.126124
1.95877,-0.213482,-0.0802748
1.95934,-0.220467,-0.0344161
1.9755,-0.222286,0.0115541
1.95959,-0.220496,-0.12638
1.95007,-0.219424,-0.0799491
1.96646,-0.228571,-0.0345558
1.96673,-0.228602,0.0115076
1.9548,-0.227216,-0.126124
1.96116,-0.227954,-0.0804376
1.96565,-0.235433,-0.0345558
1.97783,-0.236892,0.0115773
1.96192,-0.234987,-0.126636
1.96829,-0.235749,-0.0807633
1.96486,-0.24195,-0.0345558
1.9651,-0.24198,-0.126892
1.96749,-0.242275,-0.0807633
1.9759,-0.250316,-0.0347652
1.97216,-0.249841,-0.127403
1.9706,-0.249644,-0.0809261
1.97502,-0.257211,-0.0347652
1.97127,-0.256724,-0.127403
1.97765,-0.257553,-0.0812517
1.98199,-0.26551,-0.0349048
1.97032,-0.263947,-0.127403
1.97669,-0.2648,-0.0812517
1.98105,-0.272427,-0.0349048
1.9773,-0.271911,-0.127915
1.97971,-0.272243,-0.0814146
1.98019,-0.278649,-0.0349048
1.98039,-0.278678,-0.128171
1.9828,-0.279018,-0.0815774
1.98725,-0.287076,-0.128683
1.98572,-0.286855,-0.0817402
1.98081,-0.292853,-0.0815774
1.99163,-0.301561,-0.0820659
1.99446,-0.309471,-0.0822287
1.65499,0.472374,-0.100232
1.66987,0.463724,-0.100929
1.67148,0.457893,-0.100929
1.67299,0.452348,-0.100929
1.68235,0.448268,-0.101394
1.68391,0.442394,-0.101394
1.6815,0.435805,-0.101162
1.68309,0.429639,-0.101162
1.6807,0.422787,-0.100929
1.67772,0.415816,-0.161351
1.68604,0.417878,-0.101162
1.69123,0.413528,-0.101394
1.68826,0.406251,-0.162094
1.69661,0.408261,-0.101627
1.70857,0.404835,-0.0204417
1.68967,0.400355,-0.162094
1.69414,0.401415,-0.101394
1.71387,0.399777,-0.0204883
1.68718,0.39355,-0.161723
1.69553,0.395499,-0.101394
1.71129,0.393196,-0.0204417
1.69624,0.389737,-0.162466
1.70851,0.392558,-0.102092
1.65324,0.46595,-0.0900178
1.70882,0.386039,-0.0203952
1.70542,0.385271,-0.16321
1.70215,0.384532,-0.101627
1.71796,0.381808,-0.0204883
1.69898,0.377589,-0.162466
1.68673,0.374866,0.0201158
1.70738,0.379455,-0.10186
1.71922,0.376108,-0.0204883
1.708,0.373655,-0.16321
1.70863,0.373791,-0.10186
1.67345,0.452785,-0.0908552
1.7245,0.370646,-0.0205349
1.70547,0.366556,-0.162838
1.71668,0.368965,0.0204417
1.69109,0.450914,-0.142876
1.70999,0.367526,-0.10186
1.67896,0.447678,-0.0910646
1.7297,0.36545,-0.0205814
1.71064,0.361423,-0.16321
1.7023,0.359662,0.0202555
1.71517,0.36238,-0.102092
1.67665,0.440798,-0.0908552
1.68364,0.436358,-0.0506175
1.72704,0.358596,-0.0205349
1.72748,0.358688,-0.164697
1.72704,0.358596,0.0205349
1.72033,0.357202,-0.102325
1.68204,0.435945,-0.0910646
1.72822,0.352869,-0.0205349
1.72086,0.351365,-0.163953
1.73214,0.353669,0.0205814
1.6802,0.429527,-0.141574
1.72151,0.351497,-0.102325
1.67961,0.429376,-0.0908552
1.68269,0.423912,-0.0505012
1.72552,0.346047,-0.0204883
1.72989,0.346922,-0.164697
1.73337,0.34762,0.0205814
1.68942,0.425607,-0.142225
1.71881,0.3447,-0.102092
1.69272,0.426438,-0.0914833
1.73849,0.342339,-0.020628
1.71546,0.337803,-0.16321
1.73849,0.342339,0.020628
1.68702,0.418746,-0.1419
1.73567,0.341783,-0.103022
1.69419,0.420526,-0.0914833
1.68554,0.412448,-0.0505012
1.73962,0.336573,-0.020628
1.7283,0.334382,-0.164325
1.73962,0.336573,0.020628
1.69228,0.414098,-0.142225
1.72895,0.334509,-0.102557
1.68782,0.413007,-0.0910646
1.6987,0.409076,-0.0508503
1.74084,0.330194,-0.020628
1.72951,0.328045,-0.164325
1.74084,0.330194,0.020628
1.68603,0.406025,-0.141574
1.73409,0.328914,-0.10279
1.69709,0.408688,-0.0914833
1.69623,0.402222,-0.0507339
1.74198,0.324117,-0.020628
1.73456,0.322735,-0.164697
1.74592,0.324848,0.0206746
1.6952,0.401978,-0.142225
1.73915,0.32359,-0.103022
1.6985,0.402763,-0.0914833
1.69373,0.395389,-0.0506175
1.74704,0.318751,-0.0206746
1.74351,0.318108,-0.16544
1.75097,0.319469,0.0207211
1.69659,0.396058,-0.142225
1.73242,0.316084,-0.102557
1.6999,0.396831,-0.0914833
1.6951,0.389474,-0.0506175
1.74814,0.312651,-0.0206746
1.73677,0.310617,-0.164697
1.74814,0.312651,0.0206746
1.70573,0.391918,-0.142876
1.7453,0.312143,-0.103255
1.70517,0.391789,-0.0916926
1.69644,0.383555,-0.0506175
1.74922,0.306547,-0.0206746
1.72054,0.389004,-0.0102522
1.74569,0.305928,-0.16544
1.74922,0.306547,0.0206746
1.66078,0.461823,-0.120539
1.7032,0.385083,-0.142551
1.75425,0.307428,-0.10372
1.70263,0.384954,-0.0914833
1.70161,0.378797,-0.0507339
1.74629,0.300068,-0.020628
1.72182,0.383296,-0.0102522
1.75062,0.300812,-0.165812
1.74629,0.300068,0.020628
1.70447,0.379433,-0.142551
1.74739,0.300257,-0.103255
1.67226,0.459048,-0.080778
1.7039,0.379306,-0.0914833
1.70683,0.373709,-0.0508503
1.75521,0.295297,-0.0207211
1.75559,0.29536,-0.166184
1.75916,0.29596,0.0207677
1.70968,0.374333,-0.142876
1.76024,0.296142,-0.103953
1.66999,0.452163,-0.0805919
1.70911,0.37421,-0.0916926
1.71203,0.368591,-0.0509666
1.76018,0.289818,-0.0207677
1.72446,0.371267,-0.0102522
1.75661,0.289231,-0.166184
1.76018,0.289818,0.0207677
1.67315,0.446756,-0.121097
1.71097,0.368364,-0.142876
1.75732,0.289348,-0.10372
1.6677,0.4453,-0.0804058
1.71041,0.368242,-0.0916926
1.70548,0.360957,-0.0507339
1.76513,0.284308,-0.0208143
1.72574,0.365244,-0.0102522
1.74974,0.28183,-0.16544
1.76118,0.283672,0.0207677
1.67856,0.441928,-0.121376
1.71615,0.363214,-0.143201
1.75438,0.282576,-0.103487
1.66925,0.439476,-0.0804058
1.71559,0.363096,-0.0919019
1.71456,0.356629,-0.0509666
1.76611,0.278144,-0.0208143
1.72487,0.358773,-0.224252
1.75465,0.27634,-0.165812
1.76611,0.278144,0.0208143
1.67623,0.435064,-0.121097
1.71741,0.357221,-0.143201
1.73069,0.359983,0.0308559
1.7593,0.277072,-0.10372
1.6785,0.435654,-0.080778
1.71685,0.357105,-0.0919019
1.7158,0.350642,-0.0509666
1.76312,0.27137,-0.0207677
1.72611,0.35275,-0.224252
1.77135,0.272637,-0.167299
1.76707,0.271978,0.0208143
1.67774,0.42921,-0.121097
1.72255,0.352022,-0.143527
1.73585,0.354741,0.0309257
1.7642,0.271537,-0.103953
1.68389,0.430782,-0.0809642
1.71808,0.35111,-0.0919019
1.71695,0.344951,-0.0509666
1.76401,0.265522,-0.0207677
1.72338,0.346243,-0.223747
1.76831,0.266169,-0.166928
1.76796,0.266117,0.0208143
1.67915,0.423645,-0.121097
1.7198,0.345523,-0.143201
1.77299,0.266874,-0.104418
1.6853,0.425196,-0.0809642
1.72315,0.346198,-0.0921113
1.71808,0.339255,-0.0509666
1.76884,0.260253,-0.0208143
1.72841,0.341294,-0.224252
1.76918,0.260303,-0.166928
1.77675,0.261417,0.0209074
1.68829,0.42,-0.121655
1.72094,0.339818,-0.143201
1.73817,0.343221,0.0309257
1.76991,0.260411,-0.104185
1.68283,0.41864,-0.080778
1.72821,0.341255,-0.0923206
1.72318,0.334016,-0.051083
1.77765,0.255213,-0.0209074
1.73738,0.336769,-0.225263
1.74352,0.337958,-0.010322
1.77008,0.254125,-0.166928
1.77765,0.255213,0.0209074
1.69363,0.415054,-0.121934
1.72602,0.334567,-0.143527
1.77477,0.254798,-0.104418
1.73033,0.335402,0.0718077
1.68428,0.412763,-0.080778
1.72939,0.33522,-0.0923206
1.68953,0.414051,-0.0404779
1.7244,0.327698,-0.051083
1.73471,0.329658,-0.224757
1.74474,0.331565,-0.010322
1.771,0.247636,-0.166928
1.77461,0.248142,0.0208608
1.68738,0.406973,-0.121376
1.73507,0.329727,-0.144178
1.77569,0.248292,-0.104418
1.6819,0.405651,-0.0805919
1.72669,0.328134,-0.0921113
1.69881,0.409731,-0.040664
1.72553,0.321678,-0.051083
1.77943,0.242488,-0.0209074
1.73975,0.324329,-0.225263
1.77974,0.24253,-0.167671
1.7834,0.243028,0.020954
1.69267,0.402003,-0.121655
1.73621,0.32367,-0.144178
1.78841,0.243711,-0.105115
1.69496,0.402548,-0.0811503
1.73175,0.322838,-0.0923206
1.70413,0.404724,-0.040757
1.73052,0.316674,-0.0511993
1.77626,0.236058,-0.0208608
1.73691,0.317843,-0.224757
1.78448,0.237151,-0.168043
1.78023,0.236585,0.0209074
1.69788,0.397297,-0.121934
1.7412,0.318628,-0.144503
1.75066,0.320359,0.0310653
1.78921,0.237779,-0.105115
1.74554,0.319423,0.0722961
1.70018,0.397835,-0.0813364
1.74067,0.318531,-0.0927393
1.70546,0.39907,-0.040757
1.73949,0.312043,-0.0514321
1.78104,0.230369,-0.0209074
1.74582,0.313179,-0.225768
1.7853,0.23092,-0.168043
1.78501,0.230882,0.020954
1.70314,0.392263,-0.122213
1.7423,0.312548,-0.144503
1.75177,0.314246,0.0310653
1.79003,0.231531,-0.105115
1.74665,0.313327,0.0722961
1.70545,0.392795,-0.0815225
1.73784,0.311747,-0.09253
1.70684,0.393114,-0.040757
1.73274,0.304282,-0.0511993
1.78981,0.224837,-0.0210005
1.74305,0.306093,-0.225263
1.75314,0.307865,-0.0103452
1.68727,0.3821,-0.186349
1.78614,0.224375,-0.168043
1.78981,0.224837,0.0210005
1.70068,0.385137,-0.121934
1.74736,0.30685,-0.144829
1.75685,0.308515,0.0311351
1.66126,0.462583,-0.110519
1.78294,0.223974,-0.10465
1.74385,0.306233,0.0721333
1.70298,0.385659,-0.0813364
1.74684,0.306758,-0.0929487
1.70047,0.385089,-0.0405709
1.74162,0.299892,-0.0514321
1.7061,0.380422,0
1.79055,0.218901,-0.0210005
1.74796,0.300984,-0.225768
1.7581,0.302729,-0.0103685
1.69629,0.378234,-0.187206
1.79082,0.218935,-0.168415
1.79055,0.218901,0.0210005
1.70195,0.379495,-0.121934
1.74837,0.301054,-0.144829
1.66279,0.457072,-0.110519
1.79557,0.219514,-0.105348
1.75667,0.302483,0.0726218
1.70425,0.38001,-0.0813364
1.73997,0.299608,-0.09253
1.71345,0.38206,-0.0408501
1.74266,0.29381,-0.0514321
1.71133,0.375321,0
1.7913,0.212649,-0.0210005
1.74901,0.294881,-0.225768
1.69371,0.371458,-0.186777
1.79158,0.212682,-0.168415
1.7913,0.212649,0.0210005
1.70326,0.373552,-0.121934
1.74941,0.294949,-0.144829
1.7589,0.29655,0.0311351
1.66822,0.452309,-0.110774
1.80029,0.213716,-0.10558
1.75771,0.296349,0.0726218
1.70557,0.374058,-0.0813364
1.74888,0.29486,-0.0929487
1.71868,0.376932,-0.0409431
1.73978,0.28677,-0.0513157
1.71269,0.369045,0
1.79207,0.206081,-0.0210005
1.75007,0.288468,-0.225768
1.69506,0.365247,-0.186777
1.80026,0.207023,-0.169158
1.71632,0.369827,-0.122771
1.75441,0.289183,-0.145154
1.76393,0.290751,0.0312049
1.66987,0.446191,-0.110774
1.80106,0.207115,-0.10558
1.76273,0.290554,0.0727846
1.71474,0.369487,-0.0817087
1.74995,0.288448,-0.0929487
1.66805,0.445704,-0.0703422
1.72005,0.37063,-0.0409431
1.75261,0.282606,-0.0516648
1.71397,0.363065,0
1.80073,0.200711,-0.0210936
1.75107,0.282357,-0.225768
1.69244,0.358505,-0.186349
1.80097,0.200738,-0.169158
1.8047,0.201154,0.0211402
1.7137,0.363008,-0.122492
1.75935,0.283692,-0.14548
1.67142,0.44036,-0.110774
1.80177,0.200828,-0.10558
1.71602,0.3635,-0.0817087
1.75489,0.282974,-0.093158
1.67732,0.441916,-0.0706678
1.71742,0.363796,-0.0408501
1.74954,0.276474,-0.0515484
1.71902,0.358495,0
1.80135,0.195053,-0.0210936
1.75979,0.278093,-0.226778
1.77001,0.279708,-0.0104149
1.69745,0.353997,-0.186777
1.80159,0.195079,-0.169158
1.80532,0.195483,0.0211402
1.71874,0.358436,-0.122771
1.76023,0.278163,-0.14548
1.76977,0.27967,0.0312747
1.67279,0.435106,-0.110774
1.80636,0.195596,-0.105813
1.76462,0.278857,0.0727846
1.70933,0.356475,-0.0813364
1.76366,0.278706,-0.0935767
1.74448,0.275674,0.144178
1.67484,0.435637,-0.070505
1.71072,0.356765,-0.040664
1.74664,0.269145,-0.0514321
1.71254,0.350289,0
1.76476,0.271939,-0.227283
1.77107,0.27291,-0.0104149
1.6988,0.347477,-0.186777
1.80629,0.188574,-0.16953
1.80208,0.188135,0.0210936
1.7201,0.351834,-0.122771
1.76916,0.272617,-0.146131
1.77083,0.272873,0.0312747
1.67832,0.42967,-0.11103
1.8071,0.188659,-0.105813
1.76963,0.272688,0.0729474
1.7146,0.35071,-0.0815225
1.75288,0.270107,-0.0929487
1.68424,0.431186,-0.0708307
1.72775,0.3534,-0.0410362
1.69836,0.429121,-0.0305766
1.75538,0.26485,-0.0516648
1.71756,0.345697,0
1.80267,0.182473,-0.0210936
1.76561,0.266393,-0.227283
1.77587,0.267942,-0.0104382
1.71548,0.345278,-0.188491
1.81083,0.1833,-0.169902
1.81062,0.183279,0.0211868
1.7212,0.346429,-0.122771
1.76213,0.265868,-0.14548
1.77167,0.267309,0.0312747
1.67966,0.424396,-0.11103
1.81563,0.183785,-0.106278
1.77443,0.267724,0.0731103
1.72353,0.346899,-0.0818948
1.76557,0.266387,-0.0935767
1.67784,0.423935,-0.070505
1.72885,0.34797,-0.0410362
1.76421,0.259886,-0.0518975
1.72268,0.340474,0
1.80727,0.176568,-0.0211402
1.7626,0.25965,-0.226778
1.71277,0.338516,-0.188062
1.81939,0.177752,-0.170645
1.81125,0.176957,0.0211868
1.72631,0.341192,-0.12305
1.77488,0.261458,-0.146456
1.7726,0.261122,0.0312747
1.67726,0.417565,-0.110774
1.76744,0.260363,0.0727846
1.71689,0.339331,-0.0815225
1.77044,0.260804,-0.093786
1.76699,0.260296,0.145805
1.67931,0.418075,-0.070505
1.73398,0.342708,-0.0411292
1.76515,0.253419,-0.0518975
1.73177,0.335681,0
1.81587,0.170692,-0.0212333
1.76747,0.253752,-0.227283
1.71009,0.33148,-0.187634
1.82003,0.171082,-0.170645
1.81189,0.170317,0.0211868
1.72755,0.334863,-0.12305
1.77188,0.254385,-0.146131
1.7775,0.255192,0.0313445
1.68265,0.412366,-0.11103
1.82087,0.171162,-0.106511
1.73381,0.336078,-0.082267
1.76743,0.253746,-0.0935767
1.77188,0.254385,0.146131
1.68471,0.412869,-0.0706678
1.72737,0.334829,-0.0409431
1.6911,0.408495,-0.0303672
1.76994,0.248118,-0.0520139
1.75572,0.246126,-0.35458
1.72501,0.328439,0
1.77616,0.248991,-0.228293
1.78254,0.249885,-0.0104614
1.71509,0.32655,-0.188062
1.82059,0.165046,-0.170645
1.81643,0.164669,0.0212333
1.72865,0.329132,-0.12305
1.78061,0.249614,-0.146782
1.77834,0.249296,0.0313445
1.68789,0.40772,-0.111286
1.82143,0.165122,-0.106511
1.77318,0.248572,0.0729474
1.72707,0.328831,-0.0818948
1.77222,0.248438,-0.093786
1.77271,0.248507,0.146131
1.68607,0.40728,-0.0706678
1.74419,0.33209,-0.0413153
1.6964,0.403514,-0.030437
1.75891,0.240314,-0.0516648
1.73008,0.32315,0
1.82496,0.159021,-0.0213265
1.77702,0.242789,-0.228293
1.7834,0.243661,-0.0104614
1.71231,0.319831,-0.187634
1.82512,0.159035,-0.171017
1.74533,0.325999,0.0413153
1.81301,0.157979,0.0211868
1.72979,0.323095,-0.12305
1.78147,0.243397,-0.146782
1.68931,0.401826,-0.111286
1.78195,0.243463,0.0732731
1.73213,0.323534,-0.0820809
1.77703,0.24279,-0.0939954
1.77752,0.242857,0.146456
1.69137,0.402316,-0.0708307
1.7414,0.325265,-0.0412223
1.69787,0.397294,-0.030437
1.77167,0.235447,-0.0520139
1.76521,0.234589,-0.356149
1.73125,0.316807,0
1.82155,0.151999,-0.0212799
1.7779,0.236275,-0.228293
1.72521,0.315701,-0.188919
1.75045,0.320321,0.0414084
1.82155,0.151999,0.0212799
1.73096,0.316754,-0.12305
1.79025,0.237917,-0.147432
1.78404,0.237091,0.0314143
1.69465,0.396541,-0.111542
1.7868,0.237457,0.0734359
1.73724,0.317903,-0.082267
1.78187,0.236802,-0.0942047
1.76654,0.234765,0.14548
1.69283,0.396115,-0.0708307
1.74652,0.319601,-0.0413153
1.69925,0.391365,-0.030437
1.77248,0.229261,-0.0520139
1.7738,0.229433,-0.357718
1.73628,0.311469,0
1.7351,0.311256,-0.27425
1.78265,0.230577,-0.228798
1.70338,0.392316,0.0101592
1.73413,0.311082,-0.189776
1.83018,0.146289,-0.171389
1.82605,0.145959,0.0213265
1.73991,0.312119,-0.123608
1.79107,0.231666,-0.147432
1.69603,0.390624,-0.111542
1.78761,0.231219,0.0734359
1.74227,0.312542,-0.0824532
