2.7934,0.593757,0.0332469
2.82656,0.746811,0.0510308
2.79668,0.594453,-0.16651
2.82698,0.746921,-0.15324
2.79154,0.583184,-0.0332004
2.82566,0.736031,-0.0169708
2.81083,0.587214,-0.268051
2.79546,0.584002,0.0332469
2.82528,0.735931,0.050961
2.80264,0.585503,-0.166743
2.81797,0.734027,-0.152612
2.78974,0.572145,-0.0331538
2.82059,0.723682,-0.0169243
2.78974,0.572145,0.0331538
2.82021,0.723584,0.0508214
2.79695,0.573623,-0.166278
2.81443,0.722101,0.118377
2.82064,0.723695,-0.152612
2.84611,0.880476,-0.0693242
2.83831,0.867759,0
2.7877,0.5621,-0.0331072
2.82685,0.715305,-0.0169475
2.80315,0.565215,-0.266935
2.79162,0.56289,0.0331538
2.82139,0.713923,-0.237584
2.81096,0.711283,0.050612
2.80275,0.565133,-0.16651
2.81294,0.711782,0.118214
2.81528,0.712377,-0.152193
2.84137,0.868694,-0.0691381
2.84515,0.859002,0
2.78572,0.551588,-0.0330607
2.80993,0.700594,-0.0168313
2.80511,0.555426,-0.266935
2.78572,0.551588,0.0330607
2.82,0.703105,-0.237259
2.81343,0.701466,0.050612
2.79295,0.553019,-0.165813
2.81153,0.700992,0.118051
2.81388,0.701578,-0.151984
2.84056,0.857614,-0.069045
2.83678,0.845143,0
2.7838,0.540612,-0.0330141
2.81248,0.690291,-0.0168313
2.79149,0.542105,-0.265448
2.79165,0.542137,0.0331072
2.81482,0.690864,-0.236608
2.8121,0.690197,0.0505422
2.79104,0.542018,-0.16558
2.80631,0.688777,0.117725
2.81255,0.690308,-0.151774
2.83985,0.846056,-0.0689519
2.78951,0.532126,-0.0330607
2.81086,0.680019,-0.0168081
2.79718,0.53359,-0.26582
2.78558,0.531377,0.0330141
2.81709,0.681526,-0.236608
2.81048,0.679927,0.0504724
2.79674,0.533507,-0.165813
2.8047,0.678527,0.117563
2.8388,0.835504,-0.0688589
2.83479,0.823583,0
2.78742,0.521652,-0.0330141
2.81322,0.670205,-0.0168081
2.79511,0.523092,-0.265448
2.83018,0.822244,0.0685797
2.77955,0.52018,0.032921
2.80782,0.668918,-0.235632
2.81673,0.671041,0.0505422
2.79074,0.522274,-0.165347
2.80316,0.667808,0.1174
2.83786,0.824476,-0.0687658
2.82995,0.811477,0
2.78135,0.510474,-0.032921
2.81165,0.659467,-0.0167848
2.79692,0.513332,-0.265448
2.83688,0.813462,0.0686728
2.78135,0.510474,0.032921
2.81014,0.659112,-0.235632
2.81127,0.659377,0.0504026
2.79647,0.513249,-0.16558
2.83457,0.812801,-0.13736
2.81173,0.659486,-0.151356
2.83688,0.813462,-0.0686728
2.82892,0.800504,0
2.77918,0.500053,-0.0328744
2.80614,0.647848,-0.0167383
2.79086,0.502154,-0.264705
2.832,0.801376,0.0684867
2.78705,0.50147,0.0329675
2.80854,0.648401,-0.235306
2.80966,0.64866,0.0503327
2.79039,0.50207,-0.165115
2.80386,0.647322,0.117237
2.83355,0.801813,-0.137174
2.80234,0.646971,-0.150728
2.82816,0.800287,-0.0683936
2.82785,0.789549,0
2.78485,0.491044,-0.032921
2.80838,0.638049,-0.0167383
2.78867,0.491718,-0.264333
2.78485,0.491044,0.032921
2.81078,0.638594,-0.235306
2.808,0.637963,0.0502629
2.78819,0.491634,-0.164882
2.82863,0.789768,-0.136801
2.82708,0.789335,-0.0683006
2.82287,0.777548,0
2.77472,0.479277,-0.0327813
2.81059,0.628242,-0.0167383
2.78644,0.481302,-0.263961
2.82596,0.7784,0.0682075
2.77078,0.478596,0.0327347
2.80521,0.627039,-0.234655
2.80631,0.627284,0.0501931
2.78989,0.481897,-0.164882
2.82752,0.778828,-0.136615
2.79899,0.625648,-0.150309
2.82916,0.769727,0
2.77227,0.46989,-0.0327347
2.80083,0.616828,-0.0166686
2.78794,0.472546,-0.263961
2.82454,0.768468,0.0681145
2.77227,0.46989,0.0327347
2.83382,0.770994,-0.205363
2.80436,0.617605,0.0501233
2.78745,0.472463,-0.16465
2.79466,0.615468,0.116586
2.82995,0.769942,-0.136615
2.79704,0.615993,-0.1501
2.82839,0.769518,-0.0682075
2.8241,0.757772,0
2.76995,0.459555,-0.0326882
2.80688,0.607894,-0.0166918
2.78565,0.462159,-0.263589
2.81948,0.756531,0.0679284
2.77389,0.460209,0.0327347
2.79762,0.605889,-0.233679
2.80259,0.606965,0.0500535
2.82104,0.756951,-0.136057
2.79527,0.60538,-0.14989
2.81948,0.756531,-0.0679284
2.82299,0.746394,0
2.76766,0.44876,-0.0326416
2.79735,0.595106,-0.0166221
2.82223,0.746192,0.0679284
2.77951,0.45068,0.0327813
2.80372,0.596461,-0.234004
2.80088,0.595857,0.0499837
2.78682,0.451866,-0.164417
2.79117,0.593791,0.11626
2.82766,0.747629,-0.136243
2.79747,0.595131,-0.14989
2.82158,0.73602,0
2.77704,0.440834,-0.0327347
2.80802,0.58765,-0.365168
2.80322,0.586646,-0.0166453
2.78094,0.441453,-0.262846
2.77704,0.440834,0.0327347
2.82243,0.736241,-0.203968
2.80178,0.586344,-0.233679
2.79893,0.585747,0.0499139
2.78042,0.44137,-0.163952
2.81853,0.735223,-0.135685
2.80334,0.58667,-0.1501
2.84217,0.880887,-0.0519384
2.77065,0.429912,-0.0326416
2.80617,0.577046,-0.364663
2.79742,0.575247,-0.0165988
2.77459,0.430522,-0.262102
2.7667,0.429298,0.032595
2.82112,0.725392,-0.203689
2.796,0.574955,-0.233028
2.79704,0.575169,0.0498441
2.78194,0.431663,-0.163952
2.81721,0.724385,-0.135499
2.81562,0.723979,-0.0676492
2.84523,0.870959,-0.0519384
2.81502,0.713356,0
2.76027,0.418438,-0.0325019
2.80039,0.565675,-0.363652
2.79549,0.564686,-0.0165756
2.81038,0.71218,0.0674631
2.76818,0.419637,0.032595
2.81977,0.714559,-0.20341
2.79408,0.564402,-0.232702
2.79511,0.564609,0.0497743
2.78538,0.562644,0.115772
2.81584,0.713565,-0.135313
2.84059,0.858707,-0.0517987
2.81749,0.703524,0
2.76568,0.409386,-0.0325485
2.79456,0.554351,-0.362642
2.79744,0.554923,-0.0165756
2.80897,0.701397,0.0673701
2.76963,0.409971,0.032595
2.81837,0.703744,-0.203131
2.79604,0.554644,-0.232702
2.78922,0.553292,0.0496346
2.77699,0.41106,-0.163487
2.78733,0.552917,0.115772
2.81444,0.702762,-0.135126
2.78582,0.552618,-0.148843
2.81285,0.702365,-0.0674631
2.78253,0.541877,-0.0825008
2.81993,0.693686,0
2.77105,0.400302,-0.032595
2.79258,0.543835,-0.362137
2.78366,0.542097,-0.0164826
2.77895,0.401443,-0.262102
2.8114,0.691588,0.0673701
2.775,0.400873,0.0326416
2.81694,0.692949,-0.202852
2.79404,0.544119,-0.232377
2.83514,0.84627,0.086108
2.79113,0.543553,0.0496346
2.78532,0.542421,0.115609
2.81688,0.692935,-0.135126
2.79165,0.543654,-0.149053
2.81067,0.681012,0
2.76055,0.388952,-0.0324553
2.79447,0.534083,-0.362137
2.78553,0.532376,-0.0164826
2.77244,0.390628,-0.261359
2.76847,0.390068,0.0325485
2.81546,0.682172,-0.202573
2.79201,0.533614,-0.232052
2.78516,0.532304,0.049495
2.77583,0.391106,-0.163254
2.77935,0.531194,0.115283
2.81151,0.681215,-0.134754
2.78961,0.533155,-0.148843
2.80603,0.679886,-0.067184
2.77838,0.520966,-0.082268
2.76981,0.380403,-0.0325485
2.79631,0.524327,-0.362137
2.78738,0.522652,-0.0164826
2.7659,0.379866,-0.260615
2.75396,0.378227,0.0323622
2.80618,0.669563,-0.201736
2.79385,0.523867,-0.232052
2.787,0.522581,0.049495
2.80999,0.670471,-0.134568
2.7836,0.521944,-0.148425
2.80449,0.669161,-0.0670909
2.82924,0.812341,-0.0513799
2.80757,0.659545,0
2.75923,0.369141,-0.0324088
2.79032,0.513127,-0.361127
2.78525,0.512195,-0.0164593
2.77116,0.370736,-0.260987
2.75526,0.36861,0.0323622
2.8085,0.659763,-0.201736
2.7839,0.511947,-0.231075
2.78881,0.512849,0.049495
2.77906,0.511056,0.11512
2.80453,0.65883,-0.134196
2.77755,0.510779,-0.148006
2.80681,0.659366,-0.0670909
2.82821,0.801369,-0.0513101
2.80986,0.64974,0
2.75653,0.35899,-0.0323622
2.79209,0.503383,-0.361127
2.77915,0.501049,-0.0164128
2.75257,0.358473,0.0323156
2.78567,0.502226,-0.231075
2.78271,0.501691,0.0493554
2.78476,0.50206,0.115283
2.80681,0.649036,-0.134196
2.78325,0.501788,-0.148215
2.8091,0.649564,-0.0670909
2.8081,0.639529,0
2.76565,0.350853,-0.0324553
2.78593,0.492739,-0.360117
2.78079,0.491829,-0.0164128
2.75771,0.349846,0.0323622
2.80126,0.637971,-0.200899
2.7834,0.49229,-0.23075
2.78436,0.492459,0.0493554
2.76908,0.351288,-0.162557
2.77854,0.49143,0.114957
2.80505,0.638837,-0.13401
2.78096,0.491859,-0.148006
2.80344,0.638468,-0.0669048
2.80641,0.628851,0
2.75494,0.33973,-0.0323156
2.78764,0.483013,-0.360117
2.77067,0.480073,-0.0163431
2.76692,0.341207,-0.260243
2.75097,0.33924,0.0322691
2.79957,0.627319,-0.20062
2.7851,0.482573,-0.23075
2.78606,0.482739,0.0493554
2.76236,0.340645,-0.162092
2.77236,0.480365,0.114632
2.79947,0.627296,-0.133637
2.77873,0.481469,-0.147797
2.80565,0.628681,-0.0669048
2.7712,0.470207,-0.0818026
2.75611,0.330111,-0.0323156
2.78931,0.473279,-0.360117
2.77627,0.471067,-0.0163664
2.8002,0.617202,-0.308868
2.78677,0.472848,-0.23075
2.78378,0.472341,0.0492856
2.77008,0.470016,0.114469
2.78039,0.471766,-0.147797
2.80392,0.618022,-0.0668117
2.76888,0.459876,-0.0816862
2.75328,0.320027,-0.0322691
2.78703,0.46289,-0.359612
2.77395,0.460718,-0.0163431
2.79845,0.606581,-0.30844
2.74533,0.319103,0.032176
2.79998,0.606914,-0.200341
2.7766,0.461158,-0.229773
2.78147,0.461967,0.0492158
2.7717,0.460344,0.114469
2.79597,0.606044,-0.133265
2.77808,0.461404,-0.147587
2.80606,0.608231,-0.0668117
2.8223,0.747266,-0.050961
2.76652,0.449566,-0.0815699
2.8011,0.596926,0
2.74245,0.30907,-0.0321294
2.78471,0.452521,-0.359107
2.76765,0.449749,-0.0162966
2.76243,0.311321,-0.2595
2.74245,0.30907,0.0321294
2.77819,0.451462,-0.229773
2.77517,0.450971,0.0490762
2.79246,0.595084,0.166278
2.76935,0.450025,0.114306
2.79416,0.595447,-0.133079
2.77967,0.451703,-0.147587
2.80352,0.597442,0.351959
2.80034,0.596765,-0.0666256
2.77203,0.440533,-0.0816862
2.79534,0.585504,0
2.74749,0.299928,-0.032176
2.77843,0.441552,-0.358097
2.77315,0.440712,-0.0163199
2.74351,0.299494,0.0321294
2.80415,0.58735,-0.200341
2.77582,0.441136,-0.229448
2.77278,0.440652,0.0490064
2.7709,0.440354,0.114306
2.77729,0.44137,-0.147378
2.77097,0.440366,0.51156
2.80241,0.586985,-0.0666256
2.78953,0.574131,0
2.7525,0.290757,-0.0322225
2.77604,0.431242,-0.357592
2.76677,0.429802,-0.0162734
2.74852,0.290336,0.032176
2.79837,0.57595,-0.199783
2.77734,0.431444,-0.229448
2.77825,0.431586,0.0490762
2.752,0.290704,-0.161161
2.76057,0.428839,0.113818
2.77881,0.431673,-0.147378
2.79661,0.575588,-0.0664395
2.76317,0.41937,-0.0813371
2.74554,0.280333,-0.0321294
2.77753,0.421548,-0.357592
2.77221,0.420741,-0.0162966
2.78684,0.563444,0.0661604
2.74156,0.279927,0.0320828
2.77883,0.421746,-0.229448
2.77183,0.420684,0.0489365
2.75697,0.281501,-0.161394
2.7868,0.563434,0.16558
2.77635,0.42137,-0.147169
2.78238,0.562543,0.348546
2.76231,0.419239,0.509408
2.80252,0.566614,-0.0665326
2.76067,0.409138,-0.0812208
2.73854,0.269965,-0.0320363
2.77898,0.411852,-0.357592
2.76179,0.409304,-0.0162269
2.78879,0.553715,0.0661604
2.73456,0.269573,0.0319897
2.76845,0.410292,-0.228471
2.77328,0.411008,0.0489365
2.78874,0.553705,0.16558
2.75955,0.408972,0.113655
2.77385,0.411093,-0.146959
2.78822,0.553602,0.349034
2.75597,0.408442,0.507973
2.80056,0.556051,-0.0664395
2.80773,0.691204,-0.0504724
2.75812,0.398926,-0.0811044
2.78754,0.543358,0
2.73946,0.260403,-0.0320363
2.76077,0.399309,-0.355066
2.77508,0.401378,-0.0162966
2.78712,0.543276,-0.305869
2.78286,0.542446,0.0659743
2.73946,0.260403,0.0320363
2.76987,0.400625,-0.228471
2.76678,0.400179,0.0487969
2.78282,0.542439,0.165115
2.76096,0.399336,0.113655
2.77527,0.401407,-0.146959
2.77845,0.541586,0.347571
2.75348,0.398255,0.507255
2.76345,0.389854,-0.0812208
2.78942,0.533623,0
2.73637,0.250474,-0.0319897
2.77393,0.391331,-0.356581
2.76062,0.389453,-0.0162036
2.75248,0.251948,-0.258013
2.78473,0.532728,0.0659743
2.74036,0.250839,0.0320363
2.7673,0.390396,-0.228146
2.77212,0.391077,0.0488667
2.74386,0.251159,-0.160464
2.7847,0.532721,0.165115
2.75838,0.389137,0.113492
2.7727,0.391158,-0.14675
2.78032,0.531884,0.347571
2.75486,0.388641,0.507255
2.80045,0.535733,-0.0663465
2.77054,0.380995,-0.559327
2.7834,0.522408,0
2.73723,0.240921,-0.0319897
2.76349,0.380025,-0.355066
2.76592,0.38036,-0.0162269
2.73723,0.240921,0.0319897
2.78446,0.522608,-0.198108
2.76865,0.380735,-0.228146
2.76951,0.380854,0.0487969
2.74472,0.24158,-0.160464
2.78654,0.522998,0.165115
2.77009,0.380934,-0.146541
2.78216,0.522176,0.347571
2.7562,0.379023,0.507255
2.75422,0.368959,-0.0808717
2.77185,0.371321,-0.559327
2.78127,0.511964,0
2.73407,0.231028,-0.0319431
2.76873,0.370902,-0.355571
2.76327,0.370171,-0.0162036
2.78445,0.51255,0.0658812
2.73407,0.231028,0.0319431
2.76996,0.371067,-0.228146
2.77082,0.371183,0.0487969
2.74555,0.231997,-0.160464
2.78442,0.512544,0.164882
2.77141,0.371261,-0.146541
2.79232,0.513997,-0.0660673
2.75543,0.359824,-0.0808717
2.76918,0.36162,-0.558542
2.72685,0.221313,-0.03185
2.80179,0.648905,0.0167151
2.75655,0.35997,-0.0161571
2.7822,0.502603,0.0657882
2.73482,0.22196,0.0319431
2.7801,0.502223,-0.19755
2.76722,0.361364,-0.227821
2.76014,0.36044,0.0485875
2.74232,0.222569,-0.160231
2.78218,0.502598,0.16465
2.75431,0.359678,0.113166
2.7647,0.361035,-0.146122
2.75091,0.359234,0.50582
2.75282,0.348738,-0.0807553
2.77055,0.350984,-0.558542
2.77699,0.490657,0
2.72369,0.210532,-0.0318034
2.79068,0.493077,-0.44089
2.7595,0.349584,-0.354056
2.76188,0.349885,-0.0161804
2.78017,0.49122,0.0656951
2.73167,0.211149,0.0318966
2.77415,0.490156,-0.196992
2.76463,0.350234,-0.227495
2.75754,0.349335,0.0485177
2.78015,0.491216,0.164417
2.74774,0.348094,0.112841
2.77193,0.489763,0.345621
2.74446,0.347679,0.504385
2.79199,0.493307,-0.0659743
2.74994,0.339599,-0.080639
2.76385,0.341317,-0.556973
2.72434,0.201975,-0.0318034
2.78443,0.482957,-0.439661
2.75271,0.339941,-0.353046
2.75106,0.339737,-0.0161106
2.7817,0.482484,0.0656951
2.72833,0.202271,0.03185
2.76572,0.341548,-0.227495
2.75862,0.340671,0.0485177
2.73584,0.202828,-0.159766
2.77381,0.481116,0.163952
2.74882,0.339461,0.112841
2.76715,0.341725,-0.146122
2.74163,0.338573,0.503668
2.78564,0.483167,-0.0657882
2.74714,0.329522,-0.0805226
2.76113,0.331201,-0.556189
2.72902,0.192747,-0.03185
2.7822,0.472573,-0.439046
2.7657,0.331749,-0.354561
2.79671,0.616945,0.0166453
2.7562,0.330609,-0.0161339
2.74122,0.193609,-0.256526
2.77549,0.471432,0.065509
2.73301,0.193028,0.0318966
2.75582,0.330564,0.0484479
2.73653,0.193278,-0.159766
2.77548,0.471431,0.163952
2.74602,0.329388,0.112678
2.76729,0.470039,0.344647
2.7428,0.329002,0.503668
2.74827,0.31993,-0.0805226
2.76617,0.322014,-0.556973
2.72568,0.182951,-0.0318034
2.77994,0.462209,-0.438431
2.75896,0.321174,-0.353551
2.74939,0.32006,-0.0160874
2.77711,0.46174,0.065509
2.72169,0.182683,0.0317569
2.76012,0.321309,-0.226844
2.74901,0.320017,0.0483083
2.78104,0.462394,0.164185
2.74318,0.319338,0.112515
2.76154,0.321474,-0.145703
2.76499,0.459725,0.344159
2.74002,0.31897,0.50295
2.7454,0.309887,-0.0804062
2.76338,0.311917,-0.556189
2.72231,0.173182,-0.0317569
2.77373,0.451234,-0.437201
2.76006,0.311542,-0.353551
2.79313,0.595736,0.0165988
2.75446,0.31091,-0.0161106
2.77476,0.451402,0.0654159
2.7263,0.173436,0.0318034
2.77269,0.451065,-0.196434
2.76122,0.311673,-0.226844
2.75409,0.310868,0.0483781
2.73383,0.173915,-0.159533
2.7787,0.452043,0.163952
2.74428,0.309761,0.112515
2.76266,0.449434,0.343672
2.73721,0.308963,0.502233
2.7909,0.585083,-0.0497743
2.74646,0.300302,-0.0804062
2.75665,0.301417,-0.55462
2.71891,0.163439,-0.0317103
2.7493,0.300613,-0.352036
2.79127,0.585163,0.0165756
2.75553,0.301294,-0.0161106
2.77632,0.441714,0.0654159
2.72689,0.163919,0.0318034
2.76637,0.44013,-0.195876
2.75118,0.300819,0.0483083
2.73044,0.164132,-0.159301
2.77632,0.441714,0.16372
2.74535,0.300181,0.112515
2.76617,0.440099,-0.130473
2.75974,0.301755,-0.145494
2.76029,0.439164,0.343184
2.74749,0.290713,-0.0804062
2.76159,0.292204,-0.555404
2.75033,0.291013,-0.352036
2.74065,0.289989,-0.0160176
2.72345,0.154172,0.0317569
2.77183,0.431084,-0.196155
2.75937,0.291969,-0.226519
2.74426,0.290371,0.0481686
2.73099,0.154599,-0.159301
2.76601,0.430178,0.163022
2.73843,0.289754,0.112189
2.76374,0.429826,-0.130287
2.75681,0.291698,-0.145285
2.76573,0.430136,0.343672
2.77785,0.432019,-0.0654159
2.74054,0.280307,-0.0801735
2.75479,0.281765,-0.553835
2.76032,0.419431,0
2.71998,0.144453,-0.0317103
2.77049,0.420976,-0.435971
2.75133,0.281412,-0.352036
2.78745,0.564075,0.0165291
2.74165,0.280421,-0.0160176
2.73225,0.145105,-0.25541
2.77143,0.421119,0.0652298
2.71998,0.144453,0.0317103
2.76937,0.420807,-0.195876
2.7564,0.28193,-0.226193
2.74128,0.280383,0.0480988
2.72753,0.144854,-0.159068
2.76749,0.420521,0.163022
2.73545,0.279787,0.112026
2.76128,0.419577,-0.130101
2.74986,0.281261,-0.144866
2.75937,0.419286,0.342697
2.73246,0.279482,0.500798
2.7415,0.270739,-0.0801735
2.71248,0.134561,-0.0316172
2.76803,0.410722,-0.435356
2.75625,0.272195,-0.352541
2.78548,0.553561,0.0165058
2.74261,0.270849,-0.0160176
2.76497,0.410268,0.0650437
2.71648,0.134759,0.0316637
2.76293,0.409965,-0.195318
2.74224,0.270812,0.0480988
2.72802,0.135332,-0.159068
2.76499,0.410271,0.162789
2.73641,0.270236,0.112026
2.76272,0.409935,-0.130101
2.7548,0.272052,-0.145075
2.76081,0.409651,0.342697
2.73342,0.269941,0.500798
2.77684,0.412029,-0.0653229
2.73447,0.260409,-0.0799408
2.71293,0.125091,-0.0316172
2.75323,0.262196,-0.352036
2.7874,0.543834,0.0165058
2.74354,0.261273,-0.0160176
2.77034,0.401187,0.0651368
2.71693,0.125275,0.0316637
2.7604,0.399746,-0.195039
2.75433,0.262301,-0.225868
2.74317,0.261238,0.0480988
2.77036,0.401189,0.163022
2.73336,0.260303,0.111864
2.76018,0.399715,-0.129915
2.74778,0.261677,-0.144657
2.7583,0.399442,0.342209
2.73435,0.260398,0.500798
2.73536,0.250864,-0.0799408
2.75664,0.389384,0
2.70936,0.115452,-0.0315706
2.74227,0.251498,-0.350521
2.78142,0.532598,0.0164593
2.74444,0.251696,-0.0160176
2.77173,0.391516,0.0651368
2.71735,0.115792,0.0316637
2.76177,0.39011,-0.195039
2.75126,0.252323,-0.225542
2.7361,0.250932,0.0479592
2.72491,0.116114,-0.158836
2.76779,0.390959,0.162789
2.73425,0.250762,0.111864
2.76156,0.39008,-0.129915
2.74868,0.252085,-0.144657
2.75967,0.389813,0.342209
2.7274,0.250134,0.499363
2.77569,0.392075,-0.0652298
2.7402,0.241665,-0.0800572
2.75798,0.379758,0
2.71374,0.106149,-0.0316172
2.74313,0.241924,-0.350521
2.77933,0.522147,0.0164361
2.73733,0.241412,-0.0159711
2.76515,0.380746,0.0649507
2.71374,0.106149,0.0316172
2.75521,0.379377,-0.194481
2.74816,0.242366,-0.225217
2.73696,0.241379,0.0479592
2.7213,0.106445,-0.158603
2.76518,0.38075,0.162557
2.73113,0.240864,0.111701
2.76291,0.380437,-0.129915
2.74556,0.242138,-0.144447
2.75709,0.379635,0.341722
2.72434,0.240266,0.498645
2.77308,0.381837,-0.0651368
2.73306,0.231424,-0.0798244
2.75147,0.232983,-0.552266
2.75929,0.370129,0
2.7101,0.0965342,-0.0315706
2.74396,0.232347,-0.350521
2.78114,0.512442,0.0164361
2.73417,0.231518,-0.0159479
2.7625,0.370561,0.0648576
2.71809,0.0968189,0.0316637
2.76047,0.370289,-0.19476
2.7338,0.231487,0.0478894
2.72166,0.096946,-0.158603
2.76253,0.370565,0.162324
2.75234,0.369197,-0.129357
2.75839,0.37001,0.341722
2.72516,0.230755,0.498645
2.77043,0.371624,-0.0650437
2.72588,0.221235,-0.0795917
2.74836,0.223059,-0.551482
2.75263,0.359459,0
2.71042,0.0870729,-0.0315706
2.75518,0.359792,-0.432282
2.7408,0.222446,-0.350016
2.78291,0.502731,0.0164361
2.73496,0.221972,-0.0159479
2.75981,0.360397,0.0647646
2.70642,0.0869444,0.0315241
2.73858,0.222265,0.0479592
2.77726,0.50171,-0.180872
2.76381,0.360919,0.162324
2.72876,0.221468,0.111538
2.75757,0.360104,-0.129543
2.73922,0.222318,-0.144029
2.7518,0.35935,0.340747
2.72663,0.211718,-0.0795917
2.75387,0.349847,0
2.70271,0.0773815,-0.0314775
2.74156,0.212877,-0.350016
2.77283,0.490921,0.0163664
2.73572,0.212423,-0.0159479
2.76502,0.351265,0.0648576
2.71071,0.0776105,0.0315706
2.75903,0.350504,-0.194481
2.73136,0.212085,0.0478196
2.76109,0.350765,0.162092
2.7335,0.212251,0.111701
2.75881,0.350476,-0.129543
2.73998,0.212754,-0.144029
2.75303,0.349741,0.340747
2.72278,0.211419,0.497928
2.72337,0.201904,-0.0794753
2.74593,0.203576,-0.550697
2.75507,0.340233,0
2.70696,0.0680479,-0.0315241
2.74978,0.33958,-0.431052
2.73833,0.203013,-0.34951
2.77453,0.481239,0.0163664
2.73644,0.202873,-0.0159479
2.71096,0.0681484,0.0315706
2.75628,0.340382,-0.194202
2.7281,0.202254,0.0477498
2.7623,0.341126,0.162092
2.73024,0.202413,0.111538
2.76002,0.340844,-0.129543
2.74071,0.203189,-0.144029
2.7503,0.339643,0.340259
2.72402,0.192872,-0.0794753
2.75221,0.330619,0
2.70317,0.0589843,-0.0314775
2.73899,0.193932,-0.34951
2.72513,0.19295,-0.0158782
2.75941,0.331483,0.0646715
2.71117,0.0591588,0.0315706
2.75343,0.330765,-0.193923
2.72875,0.193207,0.0477498
2.77047,0.471078,-0.180104
2.75152,0.330536,0.161394
2.72691,0.193076,0.111375
2.7532,0.330737,-0.12917
2.74137,0.1941,-0.144029
2.75141,0.330522,0.340259
2.75941,0.331483,-0.0646715
2.74943,0.320067,0
2.70337,0.0490768,-0.0314775
2.74816,0.319919,-0.430437
2.73176,0.183361,-0.3485
2.77387,0.461203,0.0163431
2.72981,0.18323,-0.0159014
2.74869,0.31998,0.0643924
2.71137,0.049222,0.0315706
2.75859,0.321133,-0.194202
2.7407,0.18396,-0.22424
2.72545,0.182937,0.04768
2.71096,0.0492146,-0.157906
2.76065,0.321373,0.161859
2.71962,0.182545,0.111049
2.75042,0.320182,-0.128984
2.73807,0.183784,-0.143819
2.74866,0.319977,0.339772
2.75048,0.310947,0
2.69952,0.0400517,-0.0314309
2.73632,0.174553,-0.349005
2.72641,0.173921,-0.0158782
2.75371,0.311312,0.0644854
2.70352,0.0401111,0.0314775
2.75171,0.311086,-0.193644
2.76637,0.450532,0.0815699
2.73003,0.174152,0.0477498
2.76975,0.451083,-0.179849
2.75376,0.311318,0.161394
2.7242,0.17378,0.111212
2.75147,0.311059,-0.128984
2.74576,0.310413,0.339284
2.76919,0.450992,-0.114306
2.71366,0.173107,0.495776
2.76472,0.440363,-0.0488667
2.7219,0.164095,-0.079359
2.7436,0.300472,0
2.69564,0.0305823,-0.0313844
2.73691,0.164999,-0.349005
2.7651,0.440422,0.0162734
2.731,0.164643,-0.0159014
2.75875,0.302133,0.0645785
2.70364,0.0306731,0.0314775
2.74881,0.301044,-0.193365
2.72663,0.16438,0.04768
2.77131,0.441412,-0.179849
2.7208,0.164028,0.111049
2.74857,0.301017,-0.128798
2.74682,0.300826,0.339284
2.7668,0.440693,-0.114143
2.71425,0.163633,0.495776
2.75875,0.302133,-0.0645785
2.76229,0.430093,-0.0487969
2.74463,0.290893,0
2.70373,0.0212347,-0.0314775
2.72558,0.154769,-0.34749
2.77057,0.431382,0.0162966
2.73155,0.155108,-0.0159014
2.75184,0.291657,0.0643924
2.70373,0.0212347,0.0314775
2.74588,0.291026,-0.193086
2.73448,0.155274,-0.22359
2.7192,0.154407,0.0475404
2.76494,0.430506,-0.179337
2.70733,0.0212629,-0.157673
2.7519,0.291664,0.161161
2.72535,0.154756,0.111212
2.75358,0.291841,-0.128984
2.73184,0.155125,-0.143401
2.74391,0.290817,0.338797
2.76437,0.430417,-0.11398
2.71087,0.153934,0.495058
2.74165,0.280905,0
2.69179,0.0117463,-0.0313378
2.73007,0.145467,-0.347995
2.76415,0.420507,0.0162501
2.7201,0.144936,-0.0158317
2.7417,0.280911,-0.296873
2.69979,0.0117812,0.0314309
2.75085,0.281847,-0.193365
2.71973,0.144916,0.0475404
2.76248,0.420254,-0.179081
2.70339,0.0117969,-0.15744
2.74495,0.281244,0.160696
2.72188,0.145031,0.111049
2.75458,0.28223,-0.128984
2.74886,0.281644,0.339284
2.76586,0.420767,-0.11398
2.75284,0.282052,-0.0643924
2.76523,0.4108,-0.0487969
2.74261,0.271332,0
2.69982,0.00235636,-0.0314309
2.72263,0.135541,-0.346985
2.76164,0.410267,0.0162269
2.72059,0.135439,-0.0158317
2.74267,0.271338,-0.296873
2.74187,0.271259,0.0641132
2.69982,0.00235636,0.0314309
2.74387,0.271457,-0.192807
2.71622,0.135222,0.0474705
2.76788,0.411194,-0.179337
2.70342,0.0023595,-0.15744
2.74592,0.27166,0.160696
2.71838,0.135329,0.110887
2.74362,0.271432,-0.128426
2.73797,0.270873,0.337822
2.76731,0.411109,-0.11398
2.74983,0.272046,-0.0642993
2.76664,0.401145,-0.0487969
2.71195,0.125521,-0.0790099
2.73558,0.260998,0
2.69181,-0.00704624,-0.0313378
2.72705,0.12622,-0.34749
2.76306,0.400626,0.0162269
2.72104,0.125942,-0.0158317
2.73964,0.261385,-0.296445
2.74678,0.262067,0.0642063
2.70381,-0.00707765,0.0314775
2.7448,0.261878,-0.192807
2.75798,0.399889,0.0811044
2.72067,0.125925,0.0475404
2.76535,0.400958,-0.179081
2.70341,-0.00707661,-0.15744
2.7389,0.261315,0.160231
2.71484,0.125655,0.110724
2.74455,0.261854,-0.128426
2.72933,0.126326,-0.143191
2.73495,0.260938,0.337334
2.76082,0.4003,-0.113655
2.70447,0.125175,0.493623
2.75076,0.262446,-0.0642993
2.76407,0.390925,-0.0487271
2.74444,0.252179,0
2.69177,-0.0164431,-0.0313378
2.72748,0.1167,-0.34749
2.75652,0.389857,0.0161804
2.71747,0.116272,-0.0158084
2.73657,0.251456,-0.296016
2.74768,0.252476,0.0642063
2.69577,-0.0164675,0.0313844
2.7457,0.252295,-0.192807
2.72444,0.11657,-0.222613
2.7171,0.116256,0.0474705
2.76278,0.390743,-0.178825
2.70337,-0.016514,-0.15744
2.71526,0.116177,0.110724
2.74942,0.252637,-0.128612
2.73584,0.251389,0.337334
2.75824,0.3901,-0.113492
2.74768,0.252476,-0.0642063
2.75749,0.380181,-0.0485875
2.70876,0.106427,-0.0788935
2.7453,0.242597,0
2.69169,-0.0258397,-0.0313378
2.71994,0.106866,-0.34648
2.7539,0.379686,0.0161571
2.71786,0.106784,-0.0158084
2.73744,0.241901,-0.296016
2.74854,0.242883,0.0642063
2.69569,-0.0258781,0.0313844
2.74259,0.242357,-0.192528
2.72483,0.107058,-0.222613
2.71749,0.10677,0.0474705
2.75622,0.380005,-0.178314
2.74464,0.242538,0.160464
2.71565,0.106698,0.110724
2.74631,0.242685,-0.128426
2.7367,0.241837,0.337334
2.75563,0.379923,-0.113329
2.70135,0.106136,0.492906
2.75484,0.370021,-0.0485177
2.70512,0.0968286,-0.0787772
2.73418,0.231998,0
2.69559,-0.0352872,-0.0313844
2.7203,0.0973717,-0.34648
2.75125,0.369539,0.0161339
2.71422,0.0971541,-0.0157852
2.73034,0.231673,-0.295159
2.73742,0.232273,0.0639271
2.69959,-0.0353395,0.0314309
2.74739,0.23312,-0.192807
2.71385,0.0971409,0.0474007
2.75753,0.370382,-0.178314
2.6952,-0.0352821,-0.156975
2.74149,0.232619,0.160231
2.71601,0.0972182,0.110724
2.74316,0.23276,-0.12824
2.73753,0.232283,0.337334
2.7609,0.370835,-0.113492
2.7414,0.232612,-0.0640202
2.75215,0.359885,-0.0484479
2.74294,0.223102,0
2.69145,-0.0446294,-0.0313378
2.72062,0.0878761,-0.34648
2.75649,0.360452,0.0161571
2.71854,0.0878088,-0.0158084
2.73509,0.222463,-0.295588
2.73423,0.222393,0.0638341
2.69545,-0.0446957,0.0313844
2.74024,0.222882,-0.192249
2.71417,0.0876678,0.0474007
2.76276,0.361273,-0.178569
2.69506,-0.0446893,-0.156975
2.73034,0.222077,0.159533
2.70834,0.0874795,0.110398
2.74395,0.223184,-0.12824
2.73437,0.222404,0.336847
2.75821,0.360677,-0.113329
2.69809,0.0871484,0.492188
2.73821,0.222717,-0.0639271
2.75326,0.351236,-0.0484479
2.72486,0.0794437,-0.545206
2.73167,0.213547,0
2.69129,-0.0530854,-0.0313378
2.72088,0.0793278,-0.34648
2.7148,0.0791505,-0.0157852
2.73578,0.213869,-0.295588
2.74289,0.214425,0.0640202
2.69529,-0.0531642,0.0313844
2.73695,0.21396,-0.19197
2.72179,0.0793542,-0.222288
2.71044,0.0790233,0.0473309
2.75596,0.35158,-0.178058
2.69491,-0.0531567,-0.156975
2.73103,0.213497,0.159533
2.7086,0.0789698,0.110398
2.73667,0.213939,-0.127868
2.71911,0.0792762,-0.142563
2.72318,0.212884,0.335384
2.75537,0.351504,-0.113166
2.7389,0.214113,-0.0639271
2.75459,0.340662,-0.0484479
2.70199,0.068395,-0.0786608
2.73247,0.203058,0
2.68307,-0.0632297,-0.0312447
2.7172,0.06878,-0.345975
2.71508,0.0687265,-0.0157852
2.73658,0.203364,-0.295588
2.73571,0.203299,0.0638341
2.69507,-0.0635124,0.0313844
2.74173,0.203746,-0.192249
2.7141,0.0687016,-0.221637
2.71072,0.068616,0.0473309
2.76126,0.341486,-0.178314
2.73581,0.203306,0.159766
2.71288,0.0686707,0.110561
2.72002,0.202133,0.334897
2.75273,0.340432,-0.113003
2.6947,0.0682105,0.491471
2.7397,0.203595,-0.0639271
2.75576,0.331044,-0.0484479
2.73316,0.193518,0
2.68683,-0.0727039,-0.0312912
2.71346,0.0592075,-0.34547
2.71531,0.0592479,-0.0157852
2.73331,0.193528,-0.295159
2.73242,0.193465,0.063741
2.71831,0.0593134,-0.221962
2.70694,0.0590654,0.0472611
2.7545,0.330893,-0.177802
2.72853,0.19319,0.159301
2.70511,0.0590255,0.110235
2.72467,0.192916,0.335384
2.74993,0.330343,-0.112841
2.69492,0.0588031,0.491471
2.73641,0.193748,-0.0638341
2.74896,0.320497,-0.0483083
2.6984,0.0494567,-0.0785444
2.73382,0.183977,0
2.68257,-0.0819595,-0.0312447
2.70968,0.0496633,-0.344965
2.7115,0.0496967,-0.0157619
2.73,0.18372,-0.294731
2.7391,0.184332,-0.19197
2.70313,0.0495434,0.0471913
2.75564,0.321276,-0.177802
2.69018,-0.0821923,-0.156743
2.72521,0.183397,0.159068
2.71329,0.0497296,0.110561
2.73883,0.184314,-0.127868
2.72928,0.183672,0.335872
2.75107,0.320743,-0.112841
2.69118,0.0493242,0.490753
2.73308,0.183927,-0.063741
2.74598,0.311409,-0.0482385
2.69455,0.040919,-0.0784281
2.73039,0.175132,0
2.6823,-0.0903861,-0.0312447
2.7216,0.174568,-0.424288
2.70982,0.0411509,-0.344965
2.71164,0.0411785,-0.0157619
2.73056,0.175143,-0.294731
2.73364,0.17534,0.063741
2.69029,-0.0906555,0.0313378
2.73568,0.175471,-0.191691
2.70728,0.0411122,0.0472611
2.75664,0.312618,-0.177802
2.68592,-0.0905083,-0.15651
2.72577,0.174835,0.159068
2.70145,0.0410237,0.110073
2.72589,0.174843,0.335384
2.69472,0.0409216,0.22001
2.75603,0.312549,-0.113003
2.73364,0.17534,-0.063741
2.7471,0.301342,-0.0482385
2.69468,0.031042,-0.0784281
2.73101,0.165122,0
2.68195,-0.100217,-0.0312447
2.71392,0.0312636,-0.34547
2.73952,0.30051,0.0160176
2.71177,0.0312389,-0.0157619
2.73118,0.165133,-0.294731
2.72628,0.164836,0.0635549
2.68594,-0.100367,0.0312912
2.73233,0.165202,-0.191412
2.7108,0.0312277,-0.221311
2.70341,0.0311425,0.0471913
2.74983,0.301641,-0.17729
2.68956,-0.100502,-0.156743
2.72639,0.164843,0.159068
2.70158,0.0311215,0.110073
2.73204,0.165185,-0.127495
2.71462,0.164131,0.333922
2.75319,0.302009,-0.112841
2.69145,0.0310047,0.490753
2.73427,0.165319,-0.063741
2.74416,0.291329,-0.0481686
2.71416,0.0217918,-0.542853
2.72359,0.155134,0
2.67758,-0.109415,-0.0311981
2.71005,0.0217588,-0.344965
2.74055,0.290946,0.0160176
2.73174,0.155599,-0.294731
2.72684,0.155319,0.0635549
2.68158,-0.109578,0.0312447
2.73289,0.155664,-0.191412
2.70691,0.0217336,-0.220986
2.7075,0.0217384,0.0472611
2.75087,0.292041,-0.17729
2.72695,0.155326,0.159068
2.70167,0.0216916,0.110073
2.7326,0.155648,-0.127495
2.71518,0.154655,0.333922
2.7423,0.291132,-0.112352
2.68761,0.0215786,0.490036
2.73083,0.155547,-0.0636479
2.74113,0.281819,-0.0480988
2.69483,0.0127004,-0.0784281
2.73207,0.14653,0
2.67721,-0.118293,-0.0311981
2.70614,0.0127537,-0.34446
2.70392,0.0127433,-0.0157154
2.72827,0.146327,-0.294303
2.72734,0.146277,0.0635549
2.6852,-0.118646,0.0312912
2.7294,0.146387,-0.191133
2.69956,0.0127227,0.0471215
2.73991,0.281693,-0.176523
2.72745,0.146283,0.159068
2.69773,0.0127141,0.10991
2.72911,0.146372,-0.127309
2.71964,0.145863,0.33441
2.68703,0.0126636,0.219359
2.74723,0.282446,-0.112515
2.6916,0.0126852,0.490753
2.72734,0.146277,-0.0635549
2.73812,0.271853,-0.048029
2.69086,0.00328801,-0.0783117
2.72458,0.136591,0
2.67678,-0.127638,-0.0311981
2.7022,0.00330186,-0.343955
2.72082,0.136403,-0.293446
2.71985,0.136354,0.0633688
2.69559,0.00329378,0.0470517
2.74485,0.272521,-0.176779
2.72396,0.13656,0.158836
2.69776,0.00329644,0.10991
2.72013,0.136368,0.33441
2.68706,0.00328336,0.219359
2.74024,0.272064,-0.112189
2.71985,0.136354,-0.0633688
2.7391,0.261816,-0.048029
2.68685,-0.00656415,-0.0781954
2.72506,0.126605,0
2.68029,-0.137652,-0.0312447
2.71241,0.126017,-0.422443
2.73549,0.261471,0.0159711
2.69995,-0.00659613,-0.0156922
2.72131,0.126431,-0.293446
2.71633,0.1262,0.0632757
2.69558,-0.00658547,0.0470517
2.74583,0.26246,-0.176779
2.67992,-0.137634,-0.156278
2.72045,0.126391,0.158603
2.69775,-0.00659078,0.10991
2.71665,0.126214,0.333922
2.74122,0.262019,-0.112189
2.72033,0.126385,-0.0633688
2.74393,0.253098,-0.0480988
2.71747,0.117222,0
2.67981,-0.146541,-0.0312447
2.71676,0.117192,-0.423058
2.70215,-0.0155631,-0.343955
2.70391,-0.0155732,-0.0157154
2.72171,0.117405,-0.293446
2.72073,0.117363,0.0633688
2.67582,-0.146322,0.0311981
2.7268,0.117625,-0.190854
2.69155,-0.015502,0.0469819
2.74271,0.252985,-0.176523
2.67546,-0.146303,-0.156045
2.71687,0.117196,0.158371
2.69772,-0.0155376,0.10991
2.70025,-0.0155521,-0.141516
2.70912,0.116862,0.332947
2.68303,-0.015453,0.219033
2.74208,0.252927,-0.112189
2.72073,0.117363,-0.0633688
2.7448,0.243518,-0.0480988
2.68675,-0.0248542,-0.0781954
2.72186,0.107893,0
2.6713,-0.15543,-0.0311515
2.72923,0.242137,0.0159246
2.69984,-0.0249753,-0.0156922
2.7221,0.107903,-0.293446
2.71313,0.107548,0.0631827
2.72321,0.107947,-0.190575
2.70289,-0.0250035,-0.22066
2.69547,-0.0249349,0.0470517
2.74755,0.243762,-0.176779
2.67892,-0.155873,-0.156278
2.72125,0.107869,0.158603
2.69365,-0.024918,0.109747
2.71348,0.107561,0.333435
2.731,0.242293,-0.111701
2.72512,0.108023,-0.0634618
2.74169,0.233118,-0.048029
2.68664,-0.0347008,-0.0781954
2.67471,-0.165466,-0.0311981
2.698,-0.0348476,-0.34345
2.71351,0.0976033,0.0631827
2.67471,-0.165466,0.0311981
2.72358,0.0979656,-0.190575
2.68737,-0.0347102,0.0469121
2.73251,0.232338,-0.175755
2.67833,-0.165691,-0.156278
2.71364,0.0976081,0.158138
2.68954,-0.0347383,0.109584
2.70988,0.0974728,0.332947
2.67886,-0.0346004,0.218708
2.72789,0.231944,-0.111538
2.71751,0.097747,-0.0632757
2.73451,0.222897,-0.0478894
2.6825,-0.0440126,-0.078079
2.71857,0.088285,0
2.67411,-0.174801,-0.0311981
2.706,0.087877,-0.421213
2.70183,-0.0443297,-0.343955
2.69559,-0.0442273,-0.0156689
2.71486,0.0881645,-0.292589
2.71383,0.0881313,0.0631827
2.69123,-0.0441557,0.0469819
2.73729,0.223123,-0.176011
2.67375,-0.174778,-0.156045
2.70998,0.088006,0.157906
2.68941,-0.0441258,0.109584
2.71418,0.0881424,0.333435
2.73266,0.222746,-0.111701
2.71383,0.0881313,-0.0631827
2.73125,0.213516,-0.0478196
2.67834,-0.0528284,-0.0779626
2.66554,-0.183119,-0.031105
2.70628,0.0789036,-0.421213
2.69374,-0.053132,-0.342945
2.72364,0.212922,0.0158782
2.69543,-0.0531654,-0.0156689
2.70612,0.0788989,0.0629966
2.7202,0.0793094,-0.190296
2.68707,-0.0530005,0.0469121
2.73005,0.213423,-0.1755
2.67316,-0.183643,-0.156045
2.71025,0.0790195,0.157906
2.68925,-0.0530435,0.109584
2.71048,0.0790262,0.332947
2.67857,-0.0528328,0.218708
2.73339,0.213683,-0.111701
2.71011,0.0790154,-0.0630896
2.73198,0.203981,-0.0478196
2.67814,-0.062178,-0.0779626
2.66488,-0.192423,-0.031105
2.70259,0.0693544,-0.420598
2.69523,-0.0625746,-0.0156689
2.71539,0.069683,-0.292589
2.71037,0.0695542,0.0630896
2.72046,0.069813,-0.190296
2.69087,-0.0624733,0.0469819
2.73476,0.204188,-0.175755
2.6725,-0.192973,-0.156045
2.70253,0.0693529,0.15744
2.68904,-0.0624311,0.109584
2.70281,0.06936,0.331972
2.67837,-0.0621831,0.218708
2.73412,0.20414,-0.111701
2.70638,0.0694516,-0.0629966
2.73666,0.194726,-0.0478894
2.71133,0.0601084,0
2.66818,-0.202027,-0.0311515
2.6933,-0.0719378,-0.342945
2.71562,0.0602034,-0.292589
2.7106,0.0600921,0.0630896
2.71271,0.0601389,-0.189738
2.68263,-0.0716529,0.0468423
2.73546,0.19464,-0.175755
2.67181,-0.202301,-0.156045
2.71074,0.0600952,0.157906
2.68881,-0.0718178,0.109584
2.69509,0.0597484,0.330997
2.67415,-0.0714262,0.218382
2.72684,0.194027,-0.111375
2.7106,0.0600921,-0.0630896
2.72935,0.184632,-0.0477498
2.67764,-0.0808739,-0.0779626
2.70753,0.050569,0
2.66347,-0.211023,-0.031105
2.70301,0.0504846,-0.420598
2.69303,-0.0813387,-0.342945
2.71581,0.0507238,-0.292589
2.71079,0.05063,0.0630896
2.71689,0.0507439,-0.190017
2.68637,-0.0811373,0.0469121
2.72417,0.184282,-0.174988
2.70295,0.0504835,0.15744
2.68854,-0.0812031,0.109584
2.69529,0.0503404,0.330997
2.72351,0.184238,-0.111212
2.71079,0.05063,-0.0630896
2.71803,0.173862,-0.0475404
2.68133,-0.0908228,-0.078079
2.71169,0.0407051,0
2.66268,-0.220784,-0.031105
2.70317,0.0405772,-0.420598
2.68479,-0.09094,-0.341934
2.7184,0.173885,0.0158317
2.70803,0.0406501,-0.291732
2.70696,0.0406341,0.0629966
2.71307,0.0407258,-0.189738
2.67806,-0.090712,0.0467725
2.72483,0.174297,-0.174988
2.66632,-0.221085,-0.155813
2.69912,0.0405164,0.157208
2.68423,-0.0909212,0.109421
2.70339,0.0405805,0.331972
2.66958,-0.090425,0.218057
2.72816,0.174509,-0.111375
2.70696,0.0406341,-0.0629966
2.71856,0.165322,-0.0475404
2.67304,-0.0989501,-0.0778463
2.70781,0.0321384,0
2.69934,0.0320379,-0.419983
2.70814,0.0321424,-0.291732
2.69908,0.0320348,0.0628105
2.68575,-0.0994208,0.0469121
2.72935,0.165978,-0.175244
2.66163,-0.229118,-0.15558
2.69524,0.0319893,0.156975
2.68393,-0.0993535,0.109421
2.70887,0.032151,-0.126192
2.70351,0.0320874,0.331972
2.66929,-0.0988113,0.218057
2.7247,0.165695,-0.111212
2.70308,0.0320823,-0.0629035
2.72312,0.15606,-0.0476102
2.67268,-0.10828,-0.0778463
2.70391,0.0226527,0
2.66116,-0.238438,-0.031105
2.70338,0.0226483,-0.420598
2.71222,0.0227223,-0.292161
2.69917,0.0226131,0.0628105
2.66116,-0.238438,0.031105
2.68139,-0.108633,0.0468423
2.72593,0.156221,-0.174988
2.69933,0.0226144,0.157208
2.67958,-0.10856,0.109258
2.68772,0.0225171,0.330022
2.67291,-0.10829,0.218382
2.72526,0.156183,-0.111212
2.70717,0.0226801,-0.0629966
2.71571,0.145176,-0.0474705
2.66825,-0.118364,-0.0777299
2.70397,0.0122703,0
2.66022,-0.248655,-0.031105
2.6995,0.01225,-0.419983
2.68765,-0.119225,-0.342439
2.71208,0.144982,0.0157852
2.69524,0.0122307,0.0627174
2.67696,-0.118751,0.0467725
2.72651,0.145753,-0.174988
2.70339,0.0122677,0.15744
2.68313,-0.119025,0.109421
2.68779,0.0121969,0.330022
2.66451,-0.118199,0.217731
2.72185,0.145505,-0.111049
2.70724,0.0122851,-0.0629966
2.72019,0.135895,-0.0475404
2.67181,-0.127869,-0.0778463
2.7,0.00282744,0
2.65536,-0.257553,-0.0310584
2.69557,0.00282281,-0.419368
2.70435,0.00283201,-0.291304
2.69927,0.00282668,0.0628105
2.67653,-0.128095,0.0467725
2.71902,0.135837,-0.174476
2.69144,0.00281848,0.156743
2.6827,-0.12839,0.109421
2.69575,0.002823,0.330997
2.66408,-0.127499,0.217731
2.71436,0.135604,-0.110724
2.70727,0.00283505,-0.0629966
2.71262,0.126975,-0.0474007
2.67139,-0.136262,-0.0778463
2.65454,-0.265894,-0.0310584
2.69952,-0.00565386,-0.419983
2.68284,-0.136846,-0.341934
2.69127,-0.00563658,0.0626244
2.67212,-0.136299,0.0467026
2.71944,0.127294,-0.174476
2.67829,-0.136614,0.109258
2.69178,-0.00563765,0.33051
2.71477,0.127076,-0.110724
2.69926,-0.00565333,-0.0628105
2.71304,0.117505,-0.0474007
2.66292,-0.145151,-0.0776135
2.69996,-0.0150796,0
2.65757,-0.275571,-0.031105
2.69553,-0.0150548,-0.419368
2.67998,-0.146081,-0.0155992
2.70431,-0.0151039,-0.291304
2.69123,-0.0150308,0.0626244
2.65757,-0.275571,0.031105
2.70535,-0.0151097,-0.18918
2.67562,-0.145843,0.0467725
2.71588,0.117628,-0.17422
2.6874,-0.0150094,0.15651
2.66982,-0.145527,0.108933
2.69174,-0.0150337,0.33051
2.66317,-0.145165,0.217731
2.71919,0.117772,-0.110887
2.69123,-0.0150308,-0.0626244
2.71346,0.107561,-0.0474007
2.66237,-0.15491,-0.0776135
2.69188,-0.0249013,0
2.65654,-0.285309,-0.031105
2.69546,-0.0249343,-0.419368
2.70983,0.107417,0.0157619
2.67942,-0.155902,-0.0155992
2.70424,-0.0250156,-0.291304
2.69116,-0.0248946,0.0626244
2.65654,-0.285309,0.031105
2.6973,-0.0249514,-0.188622
2.67507,-0.155649,0.0467725
2.72028,0.107831,-0.174476
2.69532,-0.0249331,0.156975
2.67725,-0.155776,0.109258
2.67976,-0.0247891,0.329047
2.66262,-0.154925,0.217731
2.71961,0.107804,-0.110887
2.7138,0.0985619,-0.0474007
2.66184,-0.163738,-0.0776135
2.69579,-0.033878,0
2.64763,-0.293237,-0.0310118
2.69141,-0.033823,-0.418754
2.68706,-0.0337684,0.0625313
2.70119,-0.0339459,-0.188901
2.67801,-0.164733,-0.219033
2.67055,-0.164273,0.0467026
2.71264,0.09852,-0.173965
2.69123,-0.0338207,0.156743
2.67672,-0.164653,0.109258
2.68363,-0.0337253,0.329535
2.71596,0.0986402,-0.110724
2.69906,-0.0339191,-0.0628105
2.71014,0.0884841,-0.0473309
2.66122,-0.173493,-0.0776135
2.69564,-0.0437584,0
2.69127,-0.0436873,-0.418754
2.69492,-0.0437465,0.0627174
2.69706,-0.0437813,-0.188622
2.66593,-0.1738,0.0466328
2.70501,0.0883164,-0.173453
2.6831,-0.0435547,0.156278
2.67952,-0.0434966,0.329047
2.69492,-0.0437465,-0.0627174
2.70244,0.0787903,-0.0471913
2.6606,-0.182781,-0.0776135
2.69148,-0.0530888,0
2.69505,-0.0531592,-0.419368
2.67209,-0.183571,-0.340924
2.67365,-0.183678,-0.0155759
2.69075,-0.0530744,0.0626244
2.66531,-0.183105,0.0466328
2.70929,0.07899,-0.173709
2.65307,-0.313072,-0.15558
2.67894,-0.0528415,0.156045
2.67935,-0.0528497,0.329047
2.6529,-0.182252,0.21708
2.7086,0.07897,-0.110398
2.68675,-0.0529956,-0.0625313
2.7027,0.0693566,-0.0471913
2.69128,-0.0624835,0
2.6909,-0.0624747,-0.418754
2.69907,0.0692634,0.0156922
2.673,-0.19301,-0.0155759
2.69568,-0.0625856,-0.290447
2.68255,-0.0622809,0.0624383
2.66466,-0.192407,0.0466328
2.70556,0.0694299,-0.173453
2.67475,-0.0620997,0.155813
2.66684,-0.192565,0.108933
2.67915,-0.062202,0.329047
2.65225,-0.191511,0.21708
2.70886,0.0695147,-0.110398
2.69454,-0.0625594,-0.0627174
2.70291,0.0603937,-0.0471913
2.68705,-0.0713016,0
2.64725,-0.33067,-0.0310584
2.69462,-0.0715025,-0.419368
2.70328,0.0604019,0.0157154
2.67433,-0.0709641,0.0622522
2.69248,-0.0714454,-0.188342
2.66799,-0.201544,0.0467026
2.70577,0.0604576,-0.173453
2.68251,-0.071181,0.156278
2.6622,-0.201106,0.10877
2.67496,-0.0709808,0.32856
2.6516,-0.200306,0.21708
2.71307,0.0606207,-0.110561
2.70711,0.0510338,-0.0472611
2.6506,-0.209538,-0.0773808
2.68279,-0.0805607,0
2.64608,-0.339909,-0.0310584
2.68646,-0.0806708,-0.418139
2.69548,0.0508145,0.0156689
2.67807,-0.0804188,0.0623452
2.69221,-0.0808435,-0.188342
2.66328,-0.21054,0.0466328
2.70996,0.0510876,-0.173709
2.67426,-0.0803045,0.155813
2.66547,-0.210713,0.108933
2.70128,0.0509239,-0.110073
2.70728,0.0411114,-0.0472611
2.64982,-0.219252,-0.0773808
2.68248,-0.0903931,0
2.64481,-0.349605,-0.0310584
2.68614,-0.0905166,-0.418139
2.69964,0.0409955,0.0156922
2.66684,-0.22066,-0.0155527
2.6909,-0.0906768,-0.290019
2.68175,-0.0903686,0.0624383
2.6919,-0.0907104,-0.188342
2.66249,-0.2203,0.0466328
2.70214,0.0410335,-0.173197
2.67395,-0.0901057,0.155813
2.66468,-0.220481,0.108933
2.67439,-0.0901204,0.32856
2.6501,-0.219275,0.21708
2.70145,0.0410229,-0.110073
2.68974,-0.090638,-0.0626244
2.6994,0.0315675,-0.0471215
2.68215,-0.0997561,0
2.68581,-0.0998924,-0.418139
2.69057,-0.100069,-0.290019
2.68142,-0.0997291,0.0624383
2.65374,-0.228906,0.0464932
2.69828,0.0315543,-0.172941
2.66963,-0.0992905,0.15558
2.66389,-0.229781,0.108933
2.67009,-0.0993076,0.328072
2.64932,-0.228524,0.21708
2.69758,0.0315461,-0.10991
2.68542,-0.0998777,-0.0625313
2.6955,0.0221118,-0.0470517
2.68545,-0.109267,-0.418139
2.69186,0.022082,0.0156457
2.66907,-0.108601,0.0621591
2.68721,-0.109339,-0.188063
2.65691,-0.238525,0.046563
2.69837,0.0221354,-0.172941
2.66927,-0.108609,0.15558
2.65909,-0.238721,0.10877
2.66576,-0.108466,0.327585
2.6485,-0.23777,0.21708
2.70167,0.0221624,-0.110073
2.68505,-0.109251,-0.0625313
2.70755,0.0137043,-0.0472611
2.67743,-0.117367,0
2.63718,-0.375796,-0.0310118
2.69192,0.0136252,0.0156457
2.68685,-0.11778,-0.188063
2.66013,-0.247241,0.0466328
2.69843,0.0136581,-0.172941
2.6729,-0.117169,0.155813
2.65833,-0.247074,0.10877
2.65171,-0.246459,0.217406
2.70172,0.0136748,-0.110073
2.68469,-0.117686,-0.0625313
2.69959,0.00376933,-0.0471215
2.64654,-0.255766,-0.0773808
2.66899,-0.1268,0
2.63578,-0.385459,-0.0310118
2.69195,0.00375867,0.0156457
2.67226,-0.126956,0.0622522
2.65522,-0.256604,0.046563
2.70245,0.00377333,-0.173197
2.66846,-0.126775,0.15558
2.6574,-0.256815,0.10877
2.64285,-0.255409,0.216755
2.69376,0.0037612,-0.109747
2.69958,-0.00518283,-0.0471215
2.6417,-0.264143,-0.0772645
2.67654,-0.136056,0
2.68795,-0.00516049,0.0156224
2.67981,-0.136222,0.0624383
2.65038,-0.26501,0.0464932
2.69048,-0.00516534,-0.17243
2.66803,-0.135623,0.15558
2.65654,-0.265626,0.10877
2.66849,-0.135647,0.328072
2.68976,-0.00516397,-0.109584
2.68755,-0.0150103,-0.0469121
2.64072,-0.273823,-0.0772645
2.67603,-0.145865,0
2.63303,-0.403851,-0.0310118
2.68791,-0.0150123,0.0156224
2.6753,-0.145826,0.0623452
2.65337,-0.275135,0.046563
2.68645,-0.0150041,-0.172174
2.66353,-0.145184,0.155347
2.66797,-0.145426,0.328072
2.69772,-0.0150671,-0.10991
2.6753,-0.145826,-0.0623452
2.68748,-0.0243915,-0.0469121
2.67151,-0.154974,0
2.68784,-0.0243948,0.0156224
2.66679,-0.1547,0.0621591
2.64841,-0.283969,0.0464932
2.69436,-0.0244539,-0.172685
2.663,-0.15448,0.155347
2.6506,-0.284203,0.108607
2.68058,-0.1555,-0.125076
2.65952,-0.154279,0.327097
2.69365,-0.0244475,-0.109747
2.68338,-0.0337221,-0.0468423
2.63874,-0.292252,-0.0772645
2.67095,-0.164298,0
2.68774,-0.0337769,0.0156224
2.66624,-0.164008,0.0621591
2.65138,-0.293652,0.046563
2.69027,-0.0338087,-0.17243
2.66643,-0.16402,0.15558
2.64959,-0.293453,0.108607
2.68956,-0.0337997,-0.109584
2.67821,-0.164745,-0.0624383
2.69125,-0.0427474,-0.0469819
2.67039,-0.173155,0
2.62873,-0.430942,-0.0310118
2.68762,-0.0426896,0.0156224
2.66967,-0.173108,0.0622522
2.67583,-0.173507,-0.187505
2.69413,-0.0427931,-0.172685
2.66587,-0.172862,0.15558
2.69343,-0.0427819,-0.109747
2.68708,-0.0525328,-0.0469121
2.64855,-0.31207,-0.0776135
2.66176,-0.182394,0
2.68344,-0.0524618,0.0155992
2.67301,-0.183165,0.0623452
2.67518,-0.183314,-0.187505
2.64927,-0.312155,0.046563
2.68598,-0.0525113,-0.172174
2.68526,-0.0524973,-0.109421
2.68288,-0.06182,-0.0468423
2.64347,-0.320832,-0.0774972
2.66908,-0.192259,0
2.68324,-0.0618284,0.0155992
2.66437,-0.19192,0.0621591
2.64022,-0.320437,0.0464234
2.68178,-0.0617948,-0.171918
2.6566,-0.19136,0.155115
2.68905,-0.0619623,-0.109584
2.68666,-0.0708219,-0.0469121
2.67902,-0.0706206,0.0155759
2.65575,-0.200153,0.061973
2.64311,-0.329686,0.0464932
2.67757,-0.0705824,-0.171662
2.64529,-0.329957,0.108607
2.66953,-0.201191,-0.124703
2.68484,-0.0707739,-0.109421
2.6717,-0.201355,-0.0623452
2.6744,-0.0798416,-0.0467026
2.62933,-0.337292,-0.0771481
2.65575,-0.209479,0
2.68276,-0.0800911,0.0155992
2.65902,-0.209736,0.0620661
2.64195,-0.33891,0.0464932
2.67731,-0.0799285,-0.171662
2.68058,-0.0800261,-0.109258
2.6781,-0.0893098,-0.0467725
2.63607,-0.347513,-0.0773808
2.65899,-0.219076,0
2.68246,-0.0894552,0.0155992
2.66226,-0.219345,0.0621591
2.66842,-0.219853,-0.187226
2.64471,-0.348652,0.046563
2.68101,-0.0894066,-0.171918
2.65051,-0.218378,0.154882
2.64292,-0.348417,0.108607
2.67629,-0.0892493,-0.109096
2.67779,-0.0981902,-0.0467725
2.6349,-0.356252,-0.0773808
2.66224,-0.228234,0
2.67416,-0.0980569,0.0155527
2.65753,-0.227831,0.0620661
2.61528,-0.484714,0.0309653
2.66768,-0.228701,-0.187226
2.63958,-0.356885,0.0464932
2.67272,-0.0980041,-0.171406
2.65375,-0.227507,0.155115
2.67598,-0.0981237,-0.109096
2.67344,-0.107376,-0.0467026
2.62968,-0.364898,-0.0772645
2.66142,-0.237526,0
2.6778,-0.107551,0.0155759
2.6607,-0.237461,0.0621591
2.66289,-0.237656,-0.186947
2.63832,-0.366097,0.0464932
2.68361,-0.107785,-0.109421
2.67305,-0.116708,-0.0467026
2.62443,-0.373512,-0.0771481
2.66058,-0.246814,0
2.6774,-0.116898,0.0155759
2.64791,-0.245639,0.06188
2.67197,-0.116661,-0.171406
2.64415,-0.24529,0.15465
2.63128,-0.374487,0.108281
2.67523,-0.116803,-0.109096
2.66384,-0.247117,-0.0622522
2.67262,-0.126038,-0.0467026
2.62311,-0.382671,-0.0771481
2.65174,-0.255333,0
2.67698,-0.126243,0.0155759
2.65102,-0.255264,0.061973
2.65719,-0.255858,-0.186668
2.63569,-0.384506,0.0464932
2.67553,-0.126175,-0.171662
2.64328,-0.254518,0.15465
2.6788,-0.126329,-0.109258
2.66817,-0.135164,-0.0466328
2.62571,-0.392416,-0.0772645
2.65083,-0.264588,0
2.67652,-0.135587,0.0155759
2.65011,-0.264516,0.061973
2.63434,-0.393704,0.0464932
2.67507,-0.135513,-0.171662
2.64634,-0.26414,0.154882
2.67565,-0.145376,-0.0467725
2.63216,-0.403248,-0.0774972
2.65382,-0.274714,0
2.67201,-0.145179,0.0155527
2.6531,-0.274639,0.0620661
2.63288,-0.403357,0.0464932
2.67456,-0.145317,-0.171662
2.64139,-0.273427,0.15465
2.66984,-0.145061,-0.108933
2.66714,-0.154253,-0.0466328
2.62679,-0.411814,-0.0773808
2.65284,-0.283976,0
2.67149,-0.154505,0.0155527
2.64815,-0.283473,0.061973
2.63145,-0.412545,0.0464932
2.67005,-0.154422,-0.171406
2.64042,-0.282645,0.15465
2.66932,-0.15438,-0.108933
2.66661,-0.163097,-0.0466328
2.66697,-0.163119,0.0155294
2.63925,-0.291375,0.0617869
2.63007,-0.421269,0.0464932
2.66952,-0.163275,-0.171406
2.63549,-0.290961,0.154417
2.67278,-0.163474,-0.109096
2.66602,-0.172404,-0.0466328
2.61998,-0.429038,-0.0772645
2.64688,-0.301573,0
2.66639,-0.172427,0.0155294
2.64219,-0.301039,0.06188
2.62858,-0.430447,0.0464932
2.67292,-0.17285,-0.171662
2.63446,-0.300159,0.154417
2.6722,-0.172803,-0.109096
2.66541,-0.181709,-0.0466328
2.64581,-0.310811,0
2.66976,-0.182006,0.0155527
2.64509,-0.310727,0.061973
2.62706,-0.43962,0.0464932
2.66434,-0.181636,-0.17115
2.63737,-0.309819,0.15465
2.65962,-0.181314,-0.108607
2.66476,-0.191012,-0.0466328
2.64073,-0.319564,0
2.66512,-0.191038,0.0155294
2.64399,-0.319958,0.061973
2.62157,-0.448113,0.0464234
2.66369,-0.190935,-0.17115
2.63627,-0.319023,0.15465
2.65897,-0.190597,-0.108607
2.66407,-0.200313,-0.0466328
2.64357,-0.329274,0
2.66443,-0.20034,0.0155294
2.63889,-0.328691,0.06188
2.663,-0.200232,-0.17115
2.66626,-0.200477,-0.108933
2.65937,-0.209297,-0.046563
2.64241,-0.3385,0
2.66372,-0.209639,0.0155294
2.63773,-0.3379,0.06188
2.66229,-0.209527,-0.17115
2.63002,-0.336913,0.154417
2.66952,-0.210096,-0.109096
2.65468,-0.217788,-0.0464932
2.64524,-0.347782,0
2.667,-0.218798,0.0155527
2.63659,-0.346646,0.06188
2.64997,-0.217402,0.0773808
2.65362,-0.217701,-0.170639
2.66085,-0.218294,-0.10877
2.6539,-0.227053,-0.0464932
2.63211,-0.355408,0
2.66223,-0.227766,0.0155294
2.63933,-0.356382,0.061973
