2.09647,-0.052335,-0.109906
2.07581,0.0496442,0.254951
2.09353,0.0500679,0.56112
2.05957,0.042063,0
2.03114,0.0414823,-0.316064
2.07442,-0.0590307,-0.264153
2.10711,-0.0599611,-0.0122515
2.14423,-0.166119,-0.200759
2.04259,0.0417161,-0.142861
2.10283,-0.0598392,0.0367199
2.14194,-0.165942,-0.125115
2.06008,0.0420734,0.119999
2.1094,-0.0600261,0.0859738
2.10027,-0.0597663,-0.110115
2.07994,0.0424791,0.255438
2.08983,0.042681,0.560084
2.12411,-0.0604448,0.387437
2.07384,-0.0666223,-0.414984
2.06371,0.034581,0
2.1448,-0.174074,-0.0250516
2.07815,-0.0667608,-0.264658
2.10688,-0.0676837,-0.0122515
2.14757,-0.174299,-0.201131
2.14879,-0.174397,0.0250982
2.04671,0.0342962,-0.14314
2.10259,-0.0675461,0.0367199
2.1453,-0.174114,-0.125348
2.0682,0.0346563,0.120464
2.11316,-0.0678854,0.0861366
2.10403,-0.067592,-0.110324
2.07612,0.0347889,0.254951
2.1079,-0.0677164,0.172167
2.10156,0.0352153,0.56319
2.0118,0.125162,-0.0351841
2.01823,0.0267723,-0.56503
2.06967,-0.0737213,-0.4142
2.06382,0.0273771,0
2.14817,-0.181897,-0.0250982
2.03929,0.0270517,-0.317293
2.08584,-0.074297,-0.265668
2.11063,-0.07518,-0.0122748
2.044,0.0271142,-0.220192
2.14298,-0.181458,-0.200759
2.06726,0.0274228,0.0481082
2.15215,-0.182234,0.0251447
2.05081,0.0272046,-0.143419
2.11434,-0.0753122,0.0369293
2.14468,-0.181602,-0.125348
2.06831,0.0274368,0.120464
2.10891,-0.075119,0.0859738
2.0496,0.0271885,-0.0954819
2.08813,0.0276997,0.256413
2.11163,-0.0752158,0.172493
2.09781,0.027828,0.562155
2.02019,0.11896,-0.0353237
2.01831,0.0200795,-0.56503
2.07726,-0.0808894,-0.415769
2.0639,0.0205331,0
2.04332,0.0203284,-0.317908
2.09351,-0.0815223,-0.266678
2.11836,-0.08249,-0.0123213
2.04407,0.0203359,-0.220192
2.14634,-0.188912,-0.201131
2.0469,0.020364,-0.14314
2.156,-0.189763,-0.126045
2.07239,0.0206176,0.120697
2.11265,-0.0822675,0.0861366
2.1115,-0.0822229,-0.110743
2.08424,0.0207355,0.255926
2.11535,-0.082373,0.172818
2.10948,0.0209866,0.565261
2.13516,-0.0831441,0.389589
2.0206,0.111908,-0.0353237
2.06796,0.0133545,0
2.03152,0.0131192,-0.316064
2.09321,-0.0888295,-0.266678
2.11406,-0.0897143,-0.012298
2.05209,0.013252,-0.221048
2.14963,-0.196766,-0.201503
2.07939,0.0134283,0.0483873
2.05095,0.0132446,-0.143419
2.12177,-0.0900413,0.0370689
2.15532,-0.197288,-0.126045
2.08043,0.013435,0.121162
2.12033,-0.0899804,0.0864623
2.11519,-0.0897622,-0.110952
2.08827,0.0134857,0.256413
2.10954,0.013623,0.565261
2.13878,-0.0907635,0.390307
2.10487,-0.0970542,-0.0613228
2.08838,-0.0962937,-0.418122
2.07599,0.00579728,0
2.15809,-0.20552,-0.0252379
2.09287,-0.0965009,-0.266678
2.11771,-0.0976464,-0.0123213
2.15286,-0.205022,-0.201875
2.16207,-0.205899,0.0252844
2.05098,0.00572744,-0.143419
2.11073,-0.0973243,-0.172493
2.12542,-0.0980016,0.0371387
2.01716,0.104303,-0.12945
2.15061,-0.204807,-0.125813
2.07647,0.00579862,0.120929
2.12398,-0.0979353,0.0866251
2.09625,0.00585385,0.257388
2.10957,0.00589105,0.565261
2.02133,0.0977985,-0.0353237
2.09197,-0.103412,-0.418907
2.076,-0.00108699,0
2.16536,-0.21346,-0.025331
2.0965,-0.103637,-0.267184
2.12137,-0.104866,-0.0123445
2.06008,-0.00107866,-0.221905
2.16406,-0.213332,-0.20299
2.05897,-0.00107808,-0.143977
2.11438,-0.10452,-0.172818
2.13307,-0.105444,0.0372783
2.15787,-0.212721,-0.126278
2.07249,-0.00108515,0.120697
2.12364,-0.104978,0.0866251
2.12249,-0.104921,-0.111371
2.10023,-0.00109968,0.257876
2.02565,0.0909215,-0.0353935
2.02609,-0.0081333,-0.567187
2.09551,-0.110921,-0.419691
2.07998,-0.00834964,0
2.1646,-0.221017,-0.025331
2.05526,-0.00825039,-0.319753
2.10009,-0.111164,-0.267689
2.12499,-0.112482,-0.0123678
2.06007,-0.00826968,-0.221905
2.15537,-0.220075,-0.202246
2.08742,-0.00837948,0.0485734
2.05497,-0.00824921,-0.143698
2.13668,-0.113101,0.0373482
2.0258,0.0909282,-0.129962
2.16506,-0.221064,-0.126743
2.08046,-0.00835154,0.121162
2.12326,-0.11239,0.0866251
2.06974,-0.00830851,-0.0964125
2.1261,-0.112541,-0.11158
2.10418,-0.00844677,0.258363
2.07542,-0.00833132,-0.0482943
2.03396,0.0838259,-0.0355331
2.0299,-0.0155888,-0.568265
2.09509,-0.118601,-0.419691
2.07994,-0.0159731,0
2.05522,-0.0157832,-0.319753
2.10759,-0.119309,-0.268699
2.13255,-0.120722,-0.0124142
2.064,-0.0158507,-0.222334
2.15851,-0.228393,-0.202618
2.09137,-0.0160609,0.0486665
2.05492,-0.015781,-0.143698
2.0414,0.0841325,0.0594611
2.14025,-0.121157,0.037418
2.1682,-0.229418,-0.126976
2.12683,-0.120398,0.0867879
2.07769,-0.0159558,-0.0967847
2.12568,-0.120332,-0.11158
2.0962,-0.0160979,0.257388
2.12497,-0.0163189,0.569402
2.03424,0.0767255,-0.0355331
2.03369,-0.0227174,-0.569343
2.09466,-0.125913,-0.419691
2.08387,-0.023278,0
2.0591,-0.0230013,-0.320368
2.10716,-0.126665,-0.268699
2.12812,-0.127925,-0.012391
2.07188,-0.0231441,-0.22319
2.16958,-0.237225,-0.203733
2.0913,-0.0233611,0.0486665
2.07081,-0.0231322,-0.144814
2.1211,-0.127503,-0.173469
2.04568,0.0771568,0.0595774
2.13582,-0.128387,0.0373482
2.17136,-0.237419,-0.127208
2.08833,-0.0233279,0.121627
2.13437,-0.128301,0.0871136
2.08161,-0.0232528,-0.0969709
2.12923,-0.127991,-0.11179
2.10407,-0.0235036,0.258363
2.04247,0.0706107,-0.0356727
2.03746,-0.0291614,-0.570422
2.10208,-0.132989,-0.42126
2.08779,-0.0298818,0
2.06297,-0.0295266,-0.320983
2.11072,-0.133535,-0.269204
2.12771,-0.13461,-0.012391
2.0718,-0.029653,-0.22319
2.17278,-0.244485,-0.204105
2.07871,-0.0297519,-0.145372
2.12467,-0.134418,-0.173795
2.04192,0.0705916,0.0594611
2.1394,-0.135349,0.037418
2.03461,0.070339,-0.130473
2.17854,-0.245132,-0.127673
2.09623,-0.0300027,0.122092
2.13795,-0.135258,0.0872764
2.1328,-0.134932,-0.111999
2.11192,-0.0302273,0.259338
2.03473,0.0625221,-0.0355331
2.04118,-0.0370544,-0.5715
2.09565,-0.0380433,0
2.06284,-0.0374476,-0.320983
2.11811,-0.14217,-0.270214
2.13915,-0.143582,-0.0124607
2.07963,-0.0377523,-0.224047
2.17578,-0.253286,-0.204477
2.09909,-0.0381056,0.0488526
2.0706,-0.0375885,-0.144814
2.05416,0.0631191,0.0598101
2.14684,-0.144099,0.0375576
2.02688,0.062281,-0.129962
2.18155,-0.253957,-0.127906
2.09211,-0.037979,0.121859
2.1414,-0.143733,0.0874392
2.14024,-0.143655,-0.112418
2.11179,-0.0383362,0.259338
2.09109,-0.0379604,-0.0486665
2.03494,0.0554192,-0.0355331
2.04104,-0.0441792,-0.5715
2.09551,-0.0453583,0
2.18817,-0.262472,-0.0256569
2.06665,-0.0447336,-0.321598
2.12551,-0.150122,-0.271224
2.0552,0.0559711,0.0119493
2.14263,-0.15133,-0.012484
2.07948,-0.0450113,-0.224047
2.17884,-0.261354,-0.204849
2.10694,-0.0456056,0.0490387
2.07844,-0.0449887,-0.145372
2.05037,0.0558395,0.0596938
2.14633,-0.151592,0.0375576
2.04305,0.0556401,-0.130985
2.18461,-0.262046,-0.128138
2.09995,-0.0454544,0.122325
2.14089,-0.151207,0.0874392
2.08924,-0.0452227,-0.0973431
2.11561,-0.0457934,0.259825
2.09494,-0.045346,-0.0487595
2.0391,0.0491223,-0.0356029
2.04474,-0.0506865,-0.572578
2.1084,-0.155571,-0.422829
2.09136,-0.0518421,0
2.07045,-0.0513239,-0.322213
2.13295,-0.157382,-0.272234
2.14613,-0.158355,-0.0125072
2.07933,-0.051544,-0.224047
2.18196,-0.268684,-0.205221
2.09879,-0.0520263,0.0488526
2.08626,-0.0517158,-0.145931
2.05453,0.0494941,0.0598101
2.15382,-0.158922,0.0376972
2.03922,0.0491253,-0.130729
2.18378,-0.268908,-0.128138
2.10379,-0.0521503,0.122557
2.09309,-0.051885,-0.0975292
2.14721,-0.158435,-0.112836
2.11546,-0.0524396,0.259825
2.05125,0.0422513,-0.0358123
2.0484,-0.0579326,-0.573656
2.11567,-0.163534,-0.424398
2.09116,-0.059142,0
2.07816,-0.0587742,-0.323443
2.13238,-0.164827,-0.272234
2.14556,-0.165846,-0.0125072
2.18496,-0.2768,-0.205592
2.11458,-0.0598043,0.0492248
2.08607,-0.058998,-0.145931
2.14246,-0.165606,-0.175422
2.06269,0.0424868,0.0600429
2.15724,-0.166748,0.037767
2.04736,0.0421712,-0.131241
2.19075,-0.277533,-0.128604
2.11158,-0.0597193,0.123022
2.15179,-0.166327,0.0879277
2.09689,-0.0593039,-0.0977154
2.14664,-0.165929,-0.112836
2.11923,-0.0599358,0.260313
2.04986,0.0422227,-0.0835313
2.10259,-0.0594652,-0.0489456
2.0474,0.0343077,-0.0357425
2.05201,-0.0659212,-0.574735
2.12284,-0.172291,-0.425967
2.10292,-0.0675564,0
2.07792,-0.0667533,-0.323443
2.12382,-0.172371,-0.271224
2.05968,0.0345134,0.0119725
2.15687,-0.175053,-0.012577
2.09082,-0.0671678,-0.225332
2.18388,-0.285187,-0.205592
2.0938,-0.0672637,-0.146489
2.14181,-0.173831,-0.175422
2.05884,0.0344994,0.0599265
2.14861,-0.174383,0.0376274
2.04352,0.0342427,-0.130985
2.19363,-0.28646,-0.128836
2.11931,-0.0680832,0.123487
2.1591,-0.175235,0.0882534
2.10064,-0.0674832,-0.0979015
2.15395,-0.174816,-0.113255
2.12692,-0.0683276,0.261288
2.10634,-0.0676665,-0.0490387
2.05151,0.0272138,-0.0358123
2.14342,-0.181495,-0.0626028
2.06332,-0.0734949,-0.57797
2.12613,-0.180031,-0.426751
2.10666,-0.0750389,0
2.08557,-0.0742876,-0.324672
2.12716,-0.180119,-0.271729
2.06778,0.0274297,0.012019
2.15226,-0.182244,-0.0125537
2.0866,-0.0743242,-0.224904
2.18682,-0.293338,-0.205964
2.12208,-0.075588,0.0494109
2.09356,-0.074572,-0.146489
2.14913,-0.181979,-0.176073
2.05895,0.0273125,0.0599265
2.16393,-0.183231,0.0379066
2.19657,-0.294646,-0.129069
2.12305,-0.0756227,0.12372
2.16246,-0.183107,0.0884162
2.10438,-0.0749576,-0.0980876
2.13857,-0.0761755,0.26275
2.1021,-0.0748762,-0.0489456
2.05959,0.0201307,-0.035952
2.0515,-0.0802452,-0.574735
2.13331,-0.188141,-0.42832
2.11039,-0.0825484,0
2.08135,-0.0814127,-0.324057
2.13443,-0.18824,-0.272739
2.06787,0.0202116,0.012019
2.15958,-0.190458,-0.0126002
2.0903,-0.0817627,-0.225332
2.19368,-0.302056,-0.206708
2.1258,-0.0831513,0.049504
2.10126,-0.0821913,-0.147047
2.15246,-0.18983,-0.176398
2.06703,0.0202034,0.0601592
2.16726,-0.191135,0.0379764
2.05568,0.0200926,-0.131753
2.19949,-0.302856,-0.129301
2.1148,-0.0827209,0.123255
2.10012,-0.0821466,-0.0979015
2.16064,-0.190551,-0.113674
2.13433,-0.0834849,0.262263
2.10582,-0.0823697,-0.0490387
2.06364,0.0136868,-0.0360218
2.05894,-0.087015,-0.576891
2.12489,-0.194128,-0.426751
2.11411,-0.0893469,0
2.08898,-0.0882848,-0.325287
2.14173,-0.195666,-0.27375
2.07592,0.0137682,0.0120655
2.16296,-0.197606,-0.0126235
2.09401,-0.0884971,-0.225761
2.19272,-0.308947,-0.206708
2.12153,-0.0896604,0.0494109
2.097,-0.0886237,-0.146768
2.15979,-0.197317,-0.177049
2.06708,0.0137096,0.0601592
2.17461,-0.198671,0.0381161
2.20248,-0.310322,-0.129534
2.1265,-0.0898702,0.123952
2.10384,-0.0889126,-0.0980876
2.16003,-0.197338,-0.113674
2.13802,-0.0903573,0.26275
2.10555,-0.088985,-0.0490387
2.06768,0.00613493,-0.0360916
2.06245,-0.0947376,-0.57797
2.13198,-0.202658,-0.42832
2.11377,-0.0970949,0
2.0847,-0.0957594,-0.324672
2.141,-0.203515,-0.27375
2.06796,0.00613576,0.012019
2.17018,-0.206289,-0.01267
2.10161,-0.0965364,-0.226617
2.19551,-0.317551,-0.207079
2.12918,-0.0978026,0.049597
2.10464,-0.0966752,-0.147326
2.15905,-0.205231,-0.177049
2.06312,0.0061214,0.0600429
2.17387,-0.20664,0.0381161
2.06376,0.0061233,-0.132264
2.20528,-0.318964,-0.129766
2.13413,-0.09803,0.124418
2.16842,-0.206121,0.0887419
2.11547,-0.097173,-0.098646
2.16724,-0.20601,-0.114092
2.13768,-0.0981929,0.26275
2.07027,0.00614264,-0.0843455
2.1132,-0.0970686,-0.0492248
2.05969,-0.000718969,-0.035952
2.07752,-0.102334,-0.582283
2.1391,-0.210495,-0.429889
2.11344,-0.104104,0
2.08832,-0.102866,-0.325287
2.14426,-0.211002,-0.274255
2.07196,-0.000723255,0.0120423
2.17745,-0.214268,-0.0127165
2.10923,-0.103896,-0.227474
2.20232,-0.325997,-0.207823
2.13683,-0.105256,0.0497831
2.11227,-0.104047,-0.147884
2.16233,-0.21278,-0.177375
2.07112,-0.000722961,0.0602756
2.16919,-0.213456,0.0380462
2.06377,-0.000720393,-0.132264
2.20816,-0.32686,-0.129999
2.13778,-0.105303,0.12465
2.17568,-0.214094,0.0890675
2.11514,-0.104188,-0.098646
2.17052,-0.213587,-0.114302
2.13734,-0.105281,0.26275
2.07428,-0.000724063,-0.0845083
2.11686,-0.104272,-0.0493179
2.06943,-0.109541,-0.580126
2.12503,-0.112484,0
2.09187,-0.110729,-0.325902
2.14742,-0.219263,-0.27476
2.07595,-0.00833344,0.0120655
2.17267,-0.221841,-0.0126932
2.10883,-0.111626,-0.227474
2.20899,-0.335261,-0.208567
2.14042,-0.113299,0.0498762
2.22635,-0.337897,0.0262157
2.11586,-0.111999,-0.148163
2.16947,-0.221514,-0.178025
2.07111,-0.008314,0.0602756
2.18033,-0.222623,0.0382557
2.07173,-0.00831651,-0.132776
2.12941,-0.112715,0.124185
2.12272,-0.112362,-0.0990182
2.1737,-0.221946,-0.114511
2.14487,-0.113534,0.263725
2.07426,-0.00832667,-0.0845083
2.12046,-0.112242,-0.0494109
2.07163,-0.0155477,-0.0361614
2.07289,-0.116981,-0.581205
2.14924,-0.227032,-0.432243
2.12462,-0.119901,0
2.09936,-0.118475,-0.327132
2.15059,-0.227174,-0.275265
2.08791,-0.0156698,0.0121353
2.17586,-0.229844,-0.0127165
2.10446,-0.118763,-0.227046
2.14001,-0.120769,0.0498762
2.11944,-0.119609,-0.148442
2.17264,-0.229504,-0.178351
2.07506,-0.0155735,0.060392
2.18749,-0.231073,0.0383953
2.07568,-0.0155781,-0.133032
2.14096,-0.120823,0.124883
2.11833,-0.119546,-0.0988321
2.18086,-0.230372,-0.11493
2.14446,-0.12102,0.263725
2.12005,-0.119643,-0.0494109
2.07956,-0.0228668,-0.036301
2.08015,-0.124677,-0.583361
2.14844,-0.234533,-0.432243
2.12818,-0.127556,0
2.10288,-0.126039,-0.327747
2.16556,-0.236402,-0.277285
2.08384,-0.0229139,0.012112
2.17902,-0.237872,-0.0127397
2.11197,-0.126584,-0.227903
2.13958,-0.128239,0.0498762
2.11503,-0.126767,-0.148163
2.17183,-0.237087,-0.178351
2.18667,-0.238707,0.0383953
2.07562,-0.0228235,-0.133032
2.14451,-0.128534,0.125115
2.18519,-0.238546,0.089556
2.12588,-0.127417,-0.0992044
2.17607,-0.23755,-0.11472
2.1316,-0.12776,-0.0496901
2.07948,-0.0293998,-0.036301
2.09129,-0.131939,-0.586596
2.15159,-0.241719,-0.433027
2.16481,-0.243204,-0.277285
2.07976,-0.0294038,0.0120888
2.19018,-0.246056,-0.0128095
2.1195,-0.133719,-0.228759
2.21728,-0.359518,-0.209682
2.15114,-0.135715,0.0501553
2.12259,-0.133914,-0.148721
2.17107,-0.243909,-0.178351
2.18989,-0.246022,0.0384651
2.08352,-0.029457,-0.133543
2.1441,-0.135271,0.125115
2.12945,-0.134347,-0.0993905
2.18325,-0.245277,-0.115139
2.08206,-0.0294364,-0.084834
2.13917,-0.13496,-0.0498762
2.09135,-0.0372349,-0.0365104
2.09463,-0.13986,-0.587674
2.15069,-0.249604,-0.433027
2.13125,-0.142305,0
2.10198,-0.14035,-0.327747
2.16784,-0.251595,-0.27779
2.07964,-0.0370263,0.0120888
2.19324,-0.254543,-0.0128327
2.12296,-0.141752,-0.229188
2.15063,-0.143599,0.0501553
2.13004,-0.142224,-0.149279
2.17809,-0.252784,-0.179002
2.18897,-0.254047,0.0384651
2.0834,-0.0370932,-0.133543
2.15156,-0.143661,0.12558
2.13293,-0.142417,-0.0995766
2.18234,-0.253277,-0.115139
2.15498,-0.143889,0.265188
2.25577,-0.37425,-0.07985
2.13467,-0.142533,-0.0497831
2.08321,-0.0443645,-0.0363708
2.08645,-0.14663,-0.585518
2.15759,-0.258041,-0.434596
2.13473,-0.150024,0
2.10542,-0.147964,-0.328362
2.16301,-0.258689,-0.277285
2.08749,-0.0444557,0.0121353
2.18837,-0.261722,-0.0128095
2.11849,-0.148882,-0.228759
2.15809,-0.151665,0.0503414
2.1375,-0.150218,-0.149837
2.18115,-0.260858,-0.179327
2.19601,-0.262636,0.0386047
2.08724,-0.0444504,-0.133799
2.14706,-0.15089,0.125348
2.14039,-0.150422,-0.0999489
2.18937,-0.261842,-0.115558
2.15843,-0.151689,0.265675
2.09379,-0.0445898,-0.0853225
2.14214,-0.150544,-0.0499692
2.09105,-0.0514693,-0.0365104
2.09363,-0.154114,-0.587674
2.16451,-0.266152,-0.436165
2.1422,-0.15769,0
2.10886,-0.155235,-0.328977
2.17395,-0.267313,-0.2788
2.09133,-0.0514763,0.0121585
2.19543,-0.269954,-0.012856
2.12592,-0.156491,-0.229616
2.15758,-0.158821,0.0503414
2.13301,-0.157012,-0.149558
2.18423,-0.268577,-0.179653
2.20307,-0.270893,0.0387443
2.09108,-0.05147,-0.134055
2.15053,-0.158302,0.12558
2.13988,-0.157519,-0.0999489
2.19642,-0.270076,-0.115976
2.16583,-0.159429,0.26665
2.14561,-0.15794,-0.0500623
2.09884,-0.0593591,-0.0366501
2.15963,-0.27359,-0.43538
2.18083,-0.276277,-0.27981
2.09113,-0.059141,0.0121585
2.19839,-0.278501,-0.0128792
2.12929,-0.164588,-0.230044
2.15698,-0.166728,0.0503414
2.12844,-0.164522,-0.149279
2.19114,-0.277582,-0.180304
2.1579,-0.166799,0.126045
2.13929,-0.165361,-0.0999489
2.19938,-0.278626,-0.116186
2.15299,-0.16642,-0.0502484
2.10263,-0.0664451,-0.0367199
2.1626,-0.281256,-0.436165
2.14504,-0.172962,0
2.1799,-0.283507,-0.27981
2.09492,-0.0662015,0.0121818
2.20539,-0.286822,-0.0129257
2.13667,-0.172287,-0.230901
2.16439,-0.174523,0.0505275
2.13584,-0.17222,-0.149837
2.19021,-0.284847,-0.180304
2.20509,-0.286783,0.0388142
2.09864,-0.0663192,-0.134567
2.16529,-0.174596,0.126511
2.1467,-0.173096,-0.100321
2.19448,-0.285403,-0.115976
2.1604,-0.174201,-0.0504345
2.10638,-0.0739246,-0.0367897
2.16938,-0.289842,-0.437734
2.1789,-0.291115,-0.27981
2.20834,-0.295048,-0.0129489
2.13605,-0.179745,-0.230901
2.16775,-0.182412,0.0506206
2.1392,-0.180009,-0.150116
2.18525,-0.291963,-0.179978
2.09441,-0.0735044,-0.134311
2.17263,-0.182822,0.126976
2.1421,-0.180254,-0.100135
2.20535,-0.294648,-0.116605
2.27649,-0.418225,-0.0808272
2.15978,-0.181741,-0.0504345
2.0981,-0.0813345,-0.0366501
2.17996,-0.299393,-0.440087
2.18175,-0.299639,-0.280315
2.20724,-0.30314,-0.0129489
2.13142,-0.187224,-0.230473
2.25082,-0.422042,-0.213771
2.17105,-0.190706,0.0507136
2.1425,-0.188198,-0.150395
2.19601,-0.301597,-0.180955
2.21091,-0.303643,0.0389538
2.10211,-0.0814896,-0.134823
2.16399,-0.190086,0.126511
2.14938,-0.188803,-0.100507
2.20821,-0.303273,-0.116814
2.17918,-0.19142,0.2686
2.27887,-0.427303,-0.0809668
2.1591,-0.189656,-0.0504345
2.10981,-0.0887961,-0.0368595
2.15506,-0.196505,0
2.19253,-0.308531,-0.281831
2.21019,-0.311015,-0.0129722
2.1387,-0.195014,-0.23133
2.16642,-0.197541,0.0506206
2.14981,-0.196026,-0.150953
2.2029,-0.309989,-0.181606
2.10182,-0.08846,-0.134823
2.17527,-0.198348,0.127208
2.15273,-0.196292,-0.100693
2.20324,-0.310037,-0.116605
2.15846,-0.196815,-0.0504345
2.11348,-0.0963423,-0.0369293
2.19537,-0.316749,-0.282336
2.21701,-0.31987,-0.0130187
2.14197,-0.202853,-0.231758
2.17368,-0.205856,0.0508067
2.14514,-0.203153,-0.150674
2.20969,-0.318815,-0.182256
2.17457,-0.20594,0.127208
2.16572,-0.205102,-0.0506206
2.11713,-0.103915,-0.0369991
2.19425,-0.32441,-0.282336
2.22775,-0.329362,-0.0130884
2.14521,-0.210717,-0.232186
2.17295,-0.213443,0.0508067
2.15236,-0.21142,-0.151232
2.20462,-0.325943,-0.181931
2.22349,-0.328733,0.039233
2.17781,-0.21392,0.127441
2.20892,-0.32658,-0.117023
2.11969,-0.104041,-0.0864623
2.16897,-0.213052,-0.0507136
2.12474,-0.111725,-0.0371387
2.19703,-0.332662,-0.282841
2.14841,-0.218607,-0.232615
2.18413,-0.222241,0.0510859
2.15558,-0.219336,-0.151511
2.12071,-0.111513,-0.136102
2.18102,-0.221925,0.127673
2.1585,-0.219633,-0.101066
2.21567,-0.335484,-0.117442
2.1233,-0.111649,-0.0866251
2.17219,-0.221026,-0.0508067
2.12037,-0.118547,-0.0370689
2.19984,-0.340552,-0.283346
2.22941,-0.34513,-0.0131117
2.18338,-0.229482,0.0510859
2.21417,-0.342772,-0.182907
2.12432,-0.118768,-0.136357
2.21849,-0.343441,-0.117651
2.12691,-0.118913,-0.0867879
2.1794,-0.229064,-0.0509928
2.11994,-0.125948,-0.0370689
2.20647,-0.349471,-0.284356
2.16594,-0.235296,-0.152348
2.2169,-0.351122,-0.183233
2.12788,-0.126419,-0.136613
2.1874,-0.237628,0.128138
2.22123,-0.351808,-0.117861
2.13047,-0.126573,-0.0869508
2.17859,-0.236671,-0.0509928
2.12345,-0.133969,-0.0371387
2.14848,-0.24137,-0.336356
2.20909,-0.358191,-0.284861
2.18963,-0.245993,0.051272
2.21953,-0.359883,-0.183558
2.13138,-0.134469,-0.136869
2.13797,-0.134884,-0.0872764
2.17771,-0.244654,-0.0509928
2.13497,-0.141805,-0.0373482
2.21181,-0.366162,-0.285366
2.19277,-0.253713,0.051365
2.22226,-0.367893,-0.183884
2.13751,-0.141973,-0.0872764
2.19277,-0.253713,-0.051365
2.14244,-0.149814,-0.0374878
2.19982,-0.262312,0.0515511
2.13042,-0.148973,-0.136869
2.19585,-0.261839,-0.0514581
2.14188,-0.157666,-0.0374878
2.20281,-0.270861,0.0516442
2.13782,-0.157367,-0.137381
2.1909,-0.269397,-0.051365
2.1453,-0.165449,-0.0375576
2.14124,-0.165135,-0.137637
2.14784,-0.165644,-0.0877649
2.19392,-0.277545,-0.0514581
2.14474,-0.172562,-0.0375576
2.14466,-0.172555,-0.137892
2.15126,-0.173086,-0.0879277
2.20091,-0.285849,-0.0516442
2.16007,-0.181386,-0.0378368
2.17042,-0.289596,-0.34066
2.20783,-0.294588,0.0518303
2.14802,-0.180374,-0.138148
2.15462,-0.180929,-0.0880906
2.21179,-0.295116,-0.0519233
2.16341,-0.189273,-0.0379066
2.14738,-0.187871,-0.138148
2.15796,-0.188797,-0.0882534
2.21471,-0.303378,-0.0520164
2.2176,-0.311663,0.0521094
2.15466,-0.196089,-0.13866
2.16525,-0.197053,-0.0885791
2.20572,-0.309994,-0.0518303
2.15805,-0.203996,-0.0378368
2.18683,-0.315127,-0.343735
2.15793,-0.203985,-0.138916
2.16455,-0.20461,-0.0885791
2.22046,-0.319973,-0.0522025
2.1613,-0.211918,-0.0379066
2.18572,-0.322759,-0.343735
2.16118,-0.211906,-0.139172
2.17177,-0.212944,-0.0889047
2.16851,-0.220269,-0.0380462
2.16043,-0.219448,-0.139172
2.16704,-0.22012,-0.0887419
2.22212,-0.336065,-0.0522955
2.16781,-0.227081,-0.0380462
2.1637,-0.22665,-0.139427
2.17429,-0.22776,-0.0890675
2.23291,-0.344875,-0.0525747
2.2018,-0.348337,-0.346809
2.17079,-0.23544,-0.139939
2.18139,-0.236589,-0.0893932
2.22768,-0.352432,-0.0524816
2.20441,-0.357036,-0.347424
2.16991,-0.243395,-0.139939
2.18051,-0.244583,-0.0893932
2.20718,-0.364604,-0.348039
2.17707,-0.251125,-0.140451
2.17973,-0.251432,-0.0893932
2.17618,-0.258723,-0.140451
2.1828,-0.259511,-0.089556
2.1913,-0.268282,-0.0385349
2.18319,-0.267288,-0.140962
2.18585,-0.267614,-0.0897188
2.18224,-0.274907,-0.140962
2.18887,-0.275742,-0.0898817
2.18523,-0.283036,-0.141218
2.18818,-0.291188,-0.141474
2.19482,-0.292071,-0.0902073
2.19506,-0.299906,-0.141986
2.19774,-0.300272,-0.0903702
2.20082,-0.316359,-0.142497
1.72949,0.6949,-0.021699
1.74547,0.687205,-0.0218387
1.73295,0.675299,-0.0216524
1.74129,0.678553,-0.108836
1.73902,0.670686,-0.021699
1.74509,0.666037,-0.0217455
1.74136,0.664611,0.021699
1.73853,0.663532,-0.108371
1.75115,0.661355,-0.0217921
1.7483,0.660281,-0.108836
1.74584,0.652742,-0.021699
1.76082,0.658345,0.0218852
1.75048,0.654479,-0.108836
1.75197,0.647727,-0.0217455
1.75572,0.649114,0.0217921
1.75662,0.649444,-0.109069
1.75046,0.640233,-0.021699
1.76925,0.647102,0.0219318
1.7601,0.637148,-0.0217921
1.7526,0.634433,-0.173991
1.76762,0.639871,0.0218852
1.75724,0.636113,-0.108836
1.75855,0.629651,-0.0217455
1.76984,0.633696,0.0218852
1.75569,0.628629,-0.108604
1.76451,0.624844,-0.0217921
1.74948,0.619523,-0.173248
1.76451,0.624844,0.0217921
1.72223,0.706337,-0.0975542
1.7629,0.617359,-0.0217455
1.76291,0.617361,-0.174363
1.778,0.622647,0.0219318
1.76758,0.618996,-0.109069
1.76893,0.612202,-0.0217921
1.74071,0.69941,-0.0109032
1.76516,0.610896,-0.174363
1.77649,0.614818,0.0218852
1.76717,0.605039,-0.174363
1.77474,0.607628,0.0218387
1.76808,0.605348,-0.108836
1.72953,0.688264,-0.0975542
1.77306,0.600147,-0.0217921
1.76173,0.596313,-0.17362
1.77306,0.600147,0.0217921
1.77774,0.601733,-0.109301
1.73192,0.682222,-0.0975542
1.77514,0.593955,-0.0217921
1.74782,0.681448,-0.0109032
1.77513,0.593951,-0.174735
1.77893,0.595224,0.0218387
1.77983,0.595524,-0.109301
1.73057,0.674722,-0.0973449
1.781,0.58901,-0.0218387
1.7848,0.590266,0.0218852
1.7819,0.589307,-0.109301
1.73292,0.668676,-0.0973449
1.77545,0.580306,-0.174363
1.78685,0.584032,0.0218852
1.78395,0.583084,-0.109301
1.74643,0.666899,-0.0979729
1.78888,0.577791,-0.0218852
1.75112,0.661694,-0.0108799
1.78125,0.575329,-0.174735
1.79649,0.58025,0.0219784
1.7434,0.658777,0.0325313
1.78977,0.57808,-0.109534
1.74501,0.659386,-0.0977636
1.7984,0.57429,-0.0219784
1.7608,0.658686,-0.0109264
1.77936,0.568208,-0.174363
1.7984,0.57429,0.0219784
1.79168,0.572142,-0.109534
1.74719,0.653596,-0.0977636
1.79267,0.565914,-0.0218852
1.75922,0.651454,-0.0109032
1.78883,0.564702,-0.175107
1.79648,0.567118,0.0219318
1.79357,0.566197,-0.109534
1.74935,0.647798,-0.0977636
1.79091,0.55815,-0.0218387
1.76535,0.646378,-0.0109264
1.78328,0.555772,-0.174363
1.79855,0.56053,0.0219318
1.75204,0.641504,-0.152314
1.79944,0.560808,-0.109766
1.75171,0.641382,-0.0977636
1.79667,0.553072,-0.0218852
1.79663,0.553058,-0.175478
1.80814,0.556602,0.0220249
1.75052,0.634026,-0.151989
1.75984,0.6374,0.0326709
1.7577,0.636624,-0.0979729
1.79859,0.546798,-0.0218852
1.76982,0.634038,-0.0109264
1.79855,0.546785,-0.175478
1.81007,0.550288,0.0220249
1.75648,0.629258,-0.152314
1.76958,0.633952,0.0328105
1.79949,0.547071,-0.109534
1.75615,0.629138,-0.0977636
1.72152,0.71343,-0.0433625
1.80049,0.540516,-0.0218852
1.77203,0.627856,-0.0109264
1.79663,0.539358,-0.175107
1.81198,0.543966,0.0220249
1.75491,0.62179,-0.151989
1.77179,0.627771,0.0328105
1.80522,0.541934,-0.109766
1.76586,0.625672,-0.0981823
1.724,0.707416,-0.0433625
1.81004,0.536501,-0.0219784
1.77421,0.621667,-0.0109264
1.7985,0.533083,-0.175107
1.80237,0.534228,0.0218852
1.76083,0.61698,-0.152314
1.77774,0.622905,0.0328803
1.8071,0.53563,-0.109766
1.77654,0.622484,0.0766925
1.71765,0.697816,-0.0863618
1.76427,0.618184,-0.0979729
1.72646,0.701394,-0.0433625
1.80797,0.529372,-0.0219318
1.78004,0.61709,-0.0109496
1.80791,0.529354,-0.17585
1.81564,0.531619,0.0220249
1.76287,0.611137,-0.152314
1.77224,0.614386,0.0327407
1.72366,0.693608,-0.0865479
1.76631,0.612329,-0.0979729
1.80989,0.522741,-0.0219318
1.78229,0.610561,-0.0109496
1.80983,0.522724,-0.17585
1.81758,0.524961,0.0220249
1.76887,0.605963,-0.15264
1.78205,0.610478,0.0328803
1.72991,0.688763,-0.086734
1.77232,0.607145,-0.0981823
1.73503,0.690803,-0.0434555
1.8194,0.518613,-0.0220249
1.78062,0.603053,-0.0109264
1.8194,0.518613,0.0220249
1.77097,0.599785,-0.15264
1.78417,0.604254,0.0328803
1.81645,0.517771,-0.109999
1.79053,0.60641,0.0770182
1.73602,0.684186,-0.0869201
1.77821,0.602237,-0.0983916
1.73371,0.683276,-0.0433625
1.81341,0.51041,-0.0219318
1.80568,0.508235,-0.175107
1.82496,0.513661,0.0220715
1.73592,0.677507,-0.130305
1.77295,0.593909,-0.15264
1.78616,0.598335,0.0328803
1.822,0.512827,-0.110232
1.78874,0.5992,0.0768554
1.72711,0.674067,-0.0863618
1.77641,0.595068,-0.0981823
1.74342,0.680431,-0.0435486
1.81903,0.505147,-0.0219784
1.77043,0.586199,-0.237384
1.78848,0.592176,-0.0109496
1.81896,0.505126,-0.176222
1.82289,0.506217,0.0220249
1.77123,0.586463,-0.152314
1.78824,0.592096,0.0328803
1.79462,0.594208,0.0770182
1.73318,0.669474,-0.0865479
1.77848,0.588864,-0.0981823
1.74205,0.6729,-0.0434555
1.81702,0.497421,-0.0219318
1.79444,0.586861,-0.0109729
1.8208,0.498456,-0.176222
1.82859,0.500589,0.0220715
1.74445,0.666492,-0.130584
1.76958,0.578729,-0.151989
1.7942,0.586781,0.0329501
1.82562,0.499776,-0.110232
1.79678,0.587627,0.0770182
1.73936,0.664543,-0.086734
1.78062,0.582341,-0.0981823
1.74824,0.667938,-0.0435486
1.74355,0.659181,0
1.83033,0.494203,-0.0220715
1.82646,0.49316,0.0220249
1.73184,0.654754,-0.129468
1.77158,0.572548,-0.151989
1.78862,0.578055,0.0328105
1.83121,0.494441,-0.110464
1.80263,0.58258,0.077181
1.7454,0.65988,-0.0869201
1.78645,0.57735,-0.0983916
1.75311,0.656507,0
1.83187,0.48845,-0.0220715
1.77637,0.567938,-0.237384
1.79067,0.572511,-0.0109264
1.83187,0.48845,0.0220715
1.74136,0.652109,-0.130026
1.78097,0.569408,-0.15264
1.79424,0.573651,0.0328803
1.83275,0.488686,-0.110464
1.80445,0.576914,0.077181
1.75121,0.655796,-0.0871063
1.78445,0.570519,-0.0981823
1.75263,0.656329,-0.0435486
1.75561,0.64977,0
1.84147,0.483444,-0.0221646
1.77854,0.561112,-0.237384
1.80049,0.568037,-0.0109729
1.82592,0.479361,-0.176222
1.83373,0.481412,0.0220715
1.74385,0.645417,-0.130026
1.78694,0.563764,-0.152965
1.80024,0.56796,0.0329501
1.83075,0.480631,-0.110232
1.80284,0.568778,0.0770182
1.75371,0.649066,-0.0871063
1.79424,0.566066,-0.0986009
1.75889,0.650982,-0.0436417
1.75787,0.643638,0
1.8354,0.475009,-0.0220715
1.78428,0.556082,-0.237889
1.80628,0.562939,-0.0109961
1.83144,0.473983,-0.176594
1.8354,0.475009,0.0220715
1.74235,0.637954,-0.129747
1.79271,0.55871,-0.153291
1.80222,0.561673,0.0329501
1.84015,0.476239,-0.110697
1.80481,0.562482,0.0770182
1.74846,0.640193,-0.086734
1.79239,0.558612,-0.0983916
1.7574,0.643464,-0.0435486
1.75613,0.636748,0
1.83301,0.46825,-0.0220249
1.78601,0.550473,-0.237889
1.80422,0.556083,-0.0109729
1.83292,0.468226,-0.176594
1.78302,0.549552,-0.152314
1.80779,0.557186,0.03302
1.80657,0.556809,0.0770182
1.75422,0.636059,-0.0869201
1.79032,0.551801,-0.0981823
1.76317,0.639302,-0.0436417
1.75834,0.630615,0
1.84627,0.464779,-0.0221646
1.78033,0.541925,-0.236879
1.80997,0.550947,-0.0109961
1.83454,0.461826,-0.176594
1.76539,0.633144,0.0436417
1.84239,0.463802,0.0221181
1.75405,0.629079,-0.130305
1.78875,0.544486,-0.15264
1.8059,0.549708,0.0329501
1.81233,0.551664,0.077181
1.76019,0.631281,-0.0871063
1.79988,0.547875,-0.0986009
1.76539,0.633144,-0.0436417
1.84804,0.457686,-0.0221646
1.79,0.537367,-0.237889
1.80824,0.542844,-0.0109729
1.76404,0.625026,0.0435486
1.84416,0.456725,0.0221181
1.7527,0.621007,-0.130026
1.79464,0.53876,-0.152965
1.808,0.54277,0.0329501
1.84116,0.455983,-0.110464
1.81826,0.54585,0.0773438
1.76637,0.625852,-0.0872924
1.8058,0.542109,-0.0988103
1.77158,0.627697,-0.0437347
1.77046,0.620354,0
1.84963,0.451232,-0.0221646
1.79187,0.531115,-0.237889
1.81013,0.536528,-0.0109729
1.84174,0.449309,-0.176966
1.84963,0.451232,0.0221646
1.76238,0.617524,-0.130584
1.79651,0.532492,-0.152965
1.81372,0.537592,0.03302
1.84662,0.450499,-0.110697
1.81632,0.538364,0.077181
1.76477,0.618361,-0.0871063
1.80768,0.535802,-0.0988103
1.76998,0.620186,-0.0436417
1.76862,0.613479,0
1.85881,0.447291,-0.0222578
1.79733,0.526599,-0.238394
1.81948,0.533088,-0.0110194
1.76597,0.612557,-0.201342
1.84702,0.444453,-0.177337
1.85103,0.44542,0.0221646
1.75678,0.609369,-0.130026
1.802,0.527967,-0.153291
1.8154,0.531892,0.03302
1.818,0.532655,0.077181
1.77048,0.614123,-0.0872924
1.80552,0.528997,-0.0986009
1.77192,0.614623,-0.0436417
1.76708,0.605695,0
1.85265,0.438633,-0.0221646
1.80306,0.52111,-0.238899
1.85251,0.438599,-0.177709
1.85265,0.438633,0.0221646
1.76277,0.60422,-0.130305
1.80009,0.520252,-0.152965
1.82502,0.527456,0.0331596
1.81994,0.525989,0.077181
1.76894,0.606335,-0.0871063
1.81128,0.523486,-0.0988103
1.77676,0.602091,0
1.85417,0.432162,-0.0221646
1.79724,0.512636,-0.237889
1.73403,0.683752,0.0108334
1.8271,0.521152,-0.0110426
1.77628,0.601928,0.0436417
1.85807,0.43307,0.0222112
1.76865,0.599343,-0.130584
1.8019,0.513965,-0.152965
1.823,0.519984,0.0330898
1.82561,0.520729,0.0773438
1.77862,0.602721,-0.0874785
1.8131,0.517159,-0.0988103
1.78006,0.603211,-0.0437347
1.77505,0.594614,0
1.86347,0.427476,-0.0222578
1.80284,0.507434,-0.238394
1.82505,0.513687,-0.0110194
1.78216,0.596993,0.0437347
1.85567,0.425687,0.0221646
1.77073,0.593165,-0.130584
1.8152,0.510912,-0.153942
1.82481,0.513617,0.0330898
1.82742,0.514353,0.0773438
1.77313,0.59397,-0.0871063
1.81874,0.511909,-0.0990196
1.78216,0.596993,-0.0437347
1.77702,0.588724,0
1.86878,0.422175,-0.0223043
1.80833,0.502514,-0.238899
1.82675,0.507631,-0.0110194
1.75925,0.582836,-0.199629
1.86081,0.420376,-0.178081
1.86878,0.422175,0.0223043
1.77269,0.58729,-0.130584
1.8092,0.502755,-0.153291
1.83035,0.508633,0.0331596
1.86574,0.421489,-0.111394
1.82911,0.508289,0.0773438
1.77509,0.588086,-0.0871063
1.82427,0.506944,-0.099229
1.78033,0.589822,-0.0436417
1.86641,0.414456,-0.0222578
1.80634,0.494835,-0.238394
1.7411,0.665556,0.0108334
1.83245,0.50199,-0.0110426
1.76515,0.577622,-0.200057
1.86641,0.414456,0.0222578
1.77104,0.579548,-0.130305
1.81487,0.497174,-0.153616
1.83606,0.502979,0.0332294
1.83097,0.501582,0.0773438
1.78103,0.582819,-0.0872924
1.81842,0.498144,-0.0988103
1.78628,0.584537,-0.0437347
1.78499,0.577225,0
1.86784,0.40794,-0.0222578
1.81188,0.489563,-0.238899
1.74341,0.659476,0.0108334
1.83419,0.495592,-0.0110426
1.78451,0.577069,0.0436417
1.87566,0.409646,0.0223509
1.77305,0.573364,-0.130305
1.8089,0.488757,-0.152965
1.83781,0.496568,0.0332294
1.87261,0.408981,-0.111627
1.80477,0.583621,0.110464
1.83656,0.496232,0.0775067
1.78306,0.5766,-0.0872924
1.824,0.492837,-0.0990196
1.79212,0.57953,-0.0438278
1.81954,0.485503,-0.0548066
1.7906,0.572832,0
1.87694,0.40375,-0.0223509
1.81341,0.483867,-0.238899
1.83961,0.490857,-0.0110659
1.77652,0.568326,-0.200914
1.79012,0.572677,0.0437347
1.88476,0.405433,0.022444
1.77864,0.569005,-0.130584
1.82198,0.486154,-0.153942
1.83163,0.488728,0.0330898
1.80279,0.57673,0.110232
1.84197,0.491488,0.0776695
1.8294,0.488133,-0.099229
1.79393,0.573895,-0.0438278
1.79259,0.566579,0
1.87833,0.397198,-0.0223509
1.81509,0.477536,-0.238899
1.75149,0.649289,0.0108567
1.83744,0.483416,-0.0110426
1.79592,0.567631,0.0438278
1.88225,0.398025,0.0223974
1.78823,0.565199,-0.131142
1.82752,0.480807,-0.154267
1.84493,0.485386,0.0332992
1.84754,0.486074,0.0778323
1.83495,0.482761,-0.0994383
1.79592,0.567631,-0.0438278
1.80621,0.563264,0
1.87984,0.389982,-0.0223509
1.82459,0.472552,-0.23991
1.75397,0.642558,0.0108567
1.84703,0.478362,-0.0110891
1.79427,0.55954,0.0437347
1.88376,0.390794,0.0223974
1.79419,0.559516,-0.131421
1.83322,0.474785,-0.154593
1.84291,0.477295,0.0332294
1.87288,0.388538,-0.111394
1.84166,0.476972,0.0775067
1.789,0.557896,-0.0872924
1.83679,0.475712,-0.0994383
1.79809,0.560731,-0.0438278
1.7967,0.553423,0
1.88511,0.384216,-0.0223974
1.82239,0.465198,-0.239405
1.75997,0.637794,0.0108799
1.84869,0.471911,-0.0110891
1.80386,0.555628,0.0439208
1.87728,0.382618,0.0223043
1.78851,0.5509,-0.130863
1.83873,0.469369,-0.154918
1.84844,0.471848,0.0332992
1.80511,0.556013,0.109999
1.84331,0.47054,0.0775067
1.8307,0.467321,-0.0990196
1.80618,0.549792,0
1.88246,0.377177,-0.0223509
1.83161,0.46109,-0.240415
1.76207,0.631955,0.0108799
1.85412,0.466755,-0.0111124
1.78437,0.543155,-0.200914
1.79804,0.547314,0.0437347
1.8903,0.378749,0.022444
1.78651,0.543805,-0.130584
1.84027,0.463269,-0.154918
1.85387,0.466692,0.033369
1.88723,0.378134,-0.112092
1.80312,0.548862,0.109766
1.84486,0.464425,0.0775067
1.79658,0.546869,-0.0874785
1.83999,0.463198,-0.0994383
1.80186,0.548479,-0.0438278
1.82354,0.452294,-0.375761
1.80808,0.543484,0
1.88768,0.371376,-0.0223974
1.82936,0.453739,-0.23991
1.85574,0.460281,-0.0111124
1.79007,0.538069,-0.201342
1.81525,0.545639,0.0441069
1.89161,0.372148,0.022444
1.80368,0.54216,-0.1317
1.83414,0.454923,-0.154267
1.8516,0.459256,0.0332992
1.8165,0.546013,0.110464
1.85035,0.458945,0.0776695
1.84935,0.458696,-0.099857
1.8076,0.543337,-0.0439208
1.82511,0.445926,-0.375761
1.81381,0.538307,0
1.8929,0.365543,-0.022444
1.83093,0.44735,-0.23991
1.85345,0.45285,-0.0110891
1.80948,0.537024,0.0439208
1.89682,0.366301,0.0224906
1.80174,0.534725,-0.131421
1.83959,0.449464,-0.154593
1.85708,0.453738,0.033369
1.88982,0.364949,-0.112092
1.81074,0.537396,0.109999
1.85971,0.45438,0.0779952
1.80801,0.536587,-0.0878508
1.80948,0.537024,-0.0439208
1.81895,0.438034,-0.374192
1.81174,0.531163,0
1.89017,0.358518,-0.0223974
1.83627,0.442204,-0.240415
1.76849,0.613776,0.0108799
1.85883,0.447638,-0.0111124
1.90196,0.360754,0.0225371
1.8035,0.528747,-0.131421
1.84882,0.445228,-0.155243
1.85858,0.447577,0.033369
1.89495,0.359424,-0.112325
1.81634,0.532512,0.110232
1.85732,0.447274,0.0778323
1.80978,0.530588,-0.0878508
1.81125,0.53102,-0.0439208
1.82054,0.431364,-0.374192
1.81752,0.525631,0
1.90327,0.353781,-0.0225371
1.83787,0.435471,-0.240415
1.77072,0.607291,0.0108799
1.86046,0.440822,-0.0111124
1.79178,0.518189,-0.200914
1.89934,0.35305,0.0224906
1.80926,0.523242,-0.1317
1.85044,0.438449,-0.155243
1.8641,0.441684,0.0334388
1.90018,0.353206,-0.112557
1.82595,0.52807,0.110697
1.85895,0.440464,0.0778323
1.81171,0.523952,-0.0878508
1.85794,0.440225,-0.100066
1.81703,0.525489,-0.0440139
1.82968,0.426788,-0.375761
1.8155,0.518185,0
1.90449,0.347134,-0.0225371
1.80152,0.514195,-0.291467
1.83938,0.429053,-0.240415
1.77283,0.601105,0.0108799
1.80123,0.514113,-0.201771
1.81885,0.519143,0.0440139
1.90056,0.346417,0.0224906
1.81107,0.516923,-0.1317
1.84419,0.430175,-0.154593
1.86563,0.435174,0.0334388
1.82395,0.520597,0.110464
1.86826,0.435788,0.078158
1.85557,0.432829,-0.099857
1.8227,0.52024,-0.0441069
1.8349,0.421597,-0.376545
1.82491,0.514333,0
1.90169,0.340113,-0.0224906
1.80321,0.508219,-0.291467
1.84853,0.424728,-0.241425
1.86731,0.429044,-0.0111356
1.7991,0.507059,-0.201342
1.82056,0.513109,0.0440139
1.90169,0.340113,0.0224906
1.81662,0.511997,-0.131979
1.85727,0.426736,-0.155569
1.86316,0.42809,0.033369
1.90254,0.340264,-0.112557
1.82566,0.514546,0.110464
1.8658,0.428695,0.0779952
1.81908,0.512692,-0.0880369
1.86089,0.427569,-0.100066
1.85634,0.419706,-0.0553884
1.83254,0.414325,-0.375761
1.83054,0.509031,0
1.90287,0.333473,-0.0224906
1.80117,0.500863,-0.290852
1.84613,0.417399,-0.24092
1.8688,0.422523,-0.0111356
1.8262,0.507822,0.0441069
1.91469,0.335545,0.0226303
1.81071,0.503515,-0.131421
1.86263,0.42113,-0.155894
1.86855,0.422466,0.0334388
1.89978,0.332932,-0.112325
1.8236,0.507101,0.110232
1.87118,0.423062,0.078158
1.82471,0.50741,-0.088223
1.86627,0.421951,-0.100276
1.82234,0.506751,-0.0440139
1.8378,0.408777,-0.376545
1.82459,0.500522,0
1.90796,0.327505,-0.0225371
1.80672,0.495618,-0.291467
1.84758,0.410951,-0.24092
1.87417,0.416865,-0.0111589
1.80643,0.495539,-0.201771
1.8241,0.500386,0.0440139
1.91979,0.329535,0.0226768
1.86409,0.414625,-0.155894
1.87782,0.417677,0.0335784
1.83306,0.502844,0.110697
1.87264,0.416527,0.078158
1.86773,0.415434,-0.100276
1.82796,0.501444,-0.0441069
1.83915,0.402681,-0.376545
1.8301,0.495514,0
1.91693,0.322504,-0.0226303
1.81217,0.490657,-0.292082
1.85668,0.40652,-0.24193
1.78466,0.578149,0.0109032
1.87554,0.410649,-0.0111589
1.8119,0.490585,-0.202199
1.83347,0.496425,0.0442
1.91298,0.32184,0.0225837
1.81794,0.492221,-0.1317
1.87919,0.411448,0.0335784
1.91382,0.32198,-0.113022
1.83472,0.496763,0.110697
1.87792,0.41117,0.0783208
1.7756,0.575216,-0.0760412
1.82961,0.49538,-0.0441069
1.86063,0.400245,-0.0553884
1.84445,0.396763,-0.37733
1.83191,0.488804,0
1.90626,0.313529,-0.0224906
1.80631,0.481974,-0.290852
1.85816,0.399713,-0.24193
1.78676,0.571605,0.0109032
1.88094,0.404613,-0.0111821
1.81753,0.484967,-0.202628
1.83141,0.488671,0.0441069
1.91415,0.314827,0.0225837
1.82745,0.487613,-0.132258
1.87084,0.40244,-0.15622
1.8846,0.4054,0.0336482
1.84424,0.492095,0.111162
1.87941,0.404285,0.0783208
1.87449,0.403226,-0.100485
1.83528,0.489702,-0.0442
1.86593,0.394574,-0.0555047
1.84582,0.390321,-0.37733
1.84521,0.485459,0
1.92314,0.309414,-0.0226768
1.81563,0.477677,-0.292082
1.85178,0.391582,-0.24092
1.78875,0.565364,0.0109032
1.88234,0.398045,-0.0111821
1.82306,0.479631,-0.203056
1.84858,0.486345,0.0444791
1.92314,0.309414,0.0226768
1.87223,0.395907,-0.15622
1.87817,0.397163,0.0335086
1.84209,0.484637,0.110929
1.88081,0.397721,0.0783208
1.83697,0.483292,-0.0442
1.84717,0.383876,-0.37733
1.83915,0.477007,0
1.9242,0.302699,-0.0226768
1.81729,0.471337,-0.292082
1.8609,0.38673,-0.24193
1.79071,0.559117,0.0109032
1.88372,0.391472,-0.0111821
1.84252,0.477882,0.044293
1.93211,0.303943,0.02277
1.83467,0.475845,-0.132537
1.8736,0.389369,-0.15622
1.88738,0.392233,0.0336482
1.84763,0.479207,0.111162
1.8861,0.391967,0.0784836
1.83716,0.47649,-0.0884091
1.88117,0.390942,-0.100694
1.83478,0.475874,-0.0441069
1.85618,0.378995,-0.378899
1.84468,0.471574,0
1.9292,0.296588,-0.0227234
1.82275,0.465969,-0.292697
1.86613,0.381026,-0.242435
1.79647,0.554041,0.0109264
1.88899,0.385694,-0.0112054
1.82636,0.466892,-0.203056
1.92098,0.295324,-0.181427
1.8403,0.470456,0.0442
1.93711,0.297804,0.0228165
1.84018,0.470425,-0.132816
1.89266,0.386442,0.033718
1.84156,0.470776,0.110697
1.88354,0.384581,0.0783208
1.83881,0.470074,-0.0884091
1.83643,0.469466,-0.0441069
1.85365,0.371742,-0.378114
1.84243,0.464155,0
1.93814,0.29104,-0.0228165
1.82437,0.459604,-0.292697
1.86745,0.37451,-0.242435
1.7984,0.547767,0.0109264
1.88641,0.378312,-0.0111821
1.82798,0.460514,-0.203056
1.84581,0.465007,0.044293
1.92627,0.289259,0.0226768
1.83408,0.46205,-0.132258
1.88409,0.377847,-0.156871
1.89399,0.379833,0.033718
1.85868,0.468248,0.111627
1.88879,0.37879,0.0784836
1.87994,0.377014,-0.100485
1.79311,0.546158,-0.0763669
1.84581,0.465007,-0.044293
1.85487,0.365594,-0.378114
1.84784,0.459008,0
1.93118,0.28345,-0.0227234
1.82204,0.452599,-0.292082
1.87257,0.369083,-0.24294
1.8955,0.373601,-0.0112286
1.83722,0.456368,-0.203913
1.85123,0.459848,0.0443861
1.93513,0.284031,0.02277
1.83947,0.456928,-0.132537
1.87751,0.370056,-0.15622
1.89524,0.373551,0.033718
1.85247,0.460157,0.111162
1.89396,0.373298,0.0786465
1.84972,0.459474,-0.0887814
1.86875,0.4642,0.236427
1.79491,0.540209,-0.0763669
1.79801,0.534301,-0.0327407
1.86384,0.360606,-0.379683
1.85332,0.453505,0
1.93215,0.276707,-0.0227234
1.83129,0.448114,-0.293312
1.87775,0.363297,-0.243445
1.80208,0.535513,0.0109264
1.90072,0.367742,-0.0112519
1.8388,0.449951,-0.203913
1.86059,0.455283,0.0445722
1.93611,0.277274,0.02277
1.84881,0.4524,-0.133095
1.88271,0.364257,-0.156545
1.89654,0.366932,0.033718
1.86182,0.455585,0.111627
1.89525,0.366684,0.0786465
1.87036,0.457674,0.236427
1.8567,0.454333,-0.0444791
1.88158,0.357229,-0.0557375
1.86509,0.354098,-0.379683
1.86267,0.448907,0
1.93707,0.270514,-0.02277
1.829,0.440793,-0.292697
1.879,0.35674,-0.243445
1.81162,0.531471,0.0109729
1.89806,0.360358,-0.0112286
1.83263,0.441666,-0.203056
1.86217,0.448785,0.0445722
1.94499,0.27162,0.0228631
1.90173,0.361055,0.0337879
1.8634,0.449083,0.111627
1.90045,0.360811,0.0788093
1.8758,0.452072,0.236914
1.85439,0.446912,-0.0443861
1.87017,0.348304,-0.380468
1.86423,0.442403,0
1.94593,0.264829,-0.0228631
1.83822,0.436231,-0.293927
1.88024,0.350179,-0.243445
1.89931,0.353731,-0.0112286
1.84189,0.437103,-0.203913
1.85594,0.440436,0.0443861
1.94197,0.26429,0.0228165
1.90691,0.355148,0.0338577
1.87273,0.44442,0.112092
1.9017,0.354175,0.0788093
1.8851,0.447355,0.237889
1.80431,0.522494,-0.0765297
1.85594,0.440436,-0.0443861
1.88796,0.344802,-0.0558538
1.86751,0.341068,-0.379683
1.86186,0.434982,0
1.94288,0.257509,-0.0228165
1.83588,0.428912,-0.293312
1.88535,0.344326,-0.24395
1.81529,0.51881,0.0109729
1.90447,0.347817,-0.0112519
1.84341,0.430671,-0.203913
1.86136,0.434864,0.0444791
1.94288,0.257509,0.0228165
1.85344,0.433015,-0.133095
1.86649,0.436063,0.111627
1.90292,0.347535,0.0788093
1.87891,0.438965,0.236914
1.80997,0.517291,-0.0766925
1.92394,0.351373,0.356585
1.86136,0.434864,-0.0444791
1.80914,0.510231,-0.0328105
1.89309,0.338916,-0.0559702
1.87642,0.335931,-0.381252
1.86337,0.428482,0
1.94376,0.250727,-0.0228165
1.83737,0.422503,-0.293312
1.89435,0.339143,-0.24496
1.81708,0.512472,0.0109729
1.90961,0.341873,-0.0112751
1.84878,0.425126,-0.204341
1.87456,0.431054,0.0447583
1.94773,0.251239,0.0228631
1.89546,0.33934,-0.157196
1.91328,0.342532,0.0339275
1.80571,0.509264,-0.12024
1.87578,0.431336,0.112092
1.90806,0.341596,0.0789721
1.86525,0.428913,-0.0891536
1.90702,0.341411,-0.101532
1.88043,0.432405,0.236914
1.80792,0.509886,-0.0765297
1.9329,0.346043,0.35802
1.8982,0.332996,-0.0560866
1.88144,0.330056,-0.382037
1.9486,0.244438,-0.0228631
1.83883,0.416086,-0.293312
1.88771,0.331156,-0.24395
1.81886,0.506126,0.0109729
1.85025,0.418669,-0.204341
1.87605,0.424508,0.0447583
1.95256,0.244936,0.0229097
1.8642,0.421827,-0.133653
1.91841,0.336542,0.0339973
1.92105,0.337005,0.0794606
1.8858,0.426715,0.237402
1.80968,0.503572,-0.0765297
1.93409,0.339293,0.35802
1.87215,0.423625,-0.0446652
1.89929,0.326699,-0.0560866
1.88639,0.32448,-0.382821
1.87405,0.417527,0
1.95337,0.238459,-0.0229097
1.84792,0.411704,-0.294542
1.89662,0.326239,-0.24496
1.82053,0.500091,0.0109729
1.91189,0.328866,-0.0112751
1.84775,0.411666,-0.203913
1.88135,0.419153,0.0448513
1.96131,0.239428,0.0230028
1.91557,0.3295,0.0339275
1.88258,0.419426,0.112325
1.91034,0.328599,0.0789721
1.89108,0.421322,0.237889
1.8152,0.498626,-0.0766925
1.93521,0.332877,0.35802
1.86964,0.416544,-0.0445722
1.90048,0.319736,-0.0560866
1.89143,0.318215,-0.383605
1.87948,0.411511,0
1.96614,0.232709,-0.0230493
1.85328,0.405774,-0.295157
1.8978,0.319286,-0.24496
1.82621,0.49446,0.0109961
1.92097,0.323184,-0.0113216
1.85701,0.406593,-0.20477
1.87897,0.4114,0.0447583
1.96614,0.232709,0.0230493
1.92071,0.32314,0.0339973
1.8148,0.49137,-0.120496
1.8802,0.411669,0.112092
1.91153,0.321596,0.0789721
1.87354,0.410211,-0.0893398
1.88874,0.413539,0.237402
1.81701,0.49197,-0.0766925
1.93641,0.325783,0.35802
1.87506,0.410545,-0.0446652
1.88479,0.310336,-0.382037
1.87699,0.404106,0
1.959,0.224931,-0.0229562
1.85468,0.399302,-0.295157
1.82793,0.488082,0.0109961
1.92209,0.316476,-0.0113216
1.86231,0.400945,-0.205198
1.9546,0.224427,-0.183657
1.88039,0.404838,0.0447583
1.96297,0.225387,0.0230028
1.92972,0.317733,0.0341369
1.88943,0.406784,0.112557
1.91658,0.31557,0.079135
1.91554,0.315399,-0.101741
1.89405,0.407778,0.237889
1.82644,0.487686,-0.0770182
1.94919,0.320939,0.360173
1.87648,0.403996,-0.0446652
1.91056,0.307732,-0.0563193
1.88974,0.304379,-0.382821
1.87839,0.397552,0
1.96374,0.218534,-0.0230028
1.85993,0.393645,-0.295772
1.90782,0.307291,-0.245971
1.83349,0.482717,0.0110194
1.88571,0.3991,0.0448513
1.96772,0.218977,0.0230493
1.82204,0.479705,-0.120752
1.89084,0.400187,0.112557
1.92556,0.310149,0.0794606
1.89935,0.401987,0.238376
1.82427,0.48029,-0.0768554
1.94641,0.313507,0.359455
1.8818,0.398272,-0.0447583
1.82701,0.474878,-0.0329501
1.91546,0.302351,-0.0564356
1.88746,0.39328,0
1.97237,0.213223,-0.0230959
1.85729,0.386993,-0.295157
1.91269,0.301914,-0.246476
1.86493,0.388584,-0.205198
1.97635,0.213653,0.0231425
1.87896,0.391508,-0.134211
1.93178,0.304928,0.0341369
1.896,0.395058,0.11279
1.92653,0.304098,0.0794606
1.90449,0.396827,0.238864
1.82577,0.474556,-0.0768554
1.95516,0.308618,0.36089
1.92441,0.296883,-0.0566684
1.88882,0.386689,0
1.97708,0.206754,-0.0231425
1.8625,0.3813,-0.295772
1.83277,0.469554,0.0109961
1.9331,0.298223,-0.0113681
1.87406,0.383668,-0.206055
1.89615,0.388189,0.0450374
1.97311,0.206338,0.0230959
1.93284,0.298183,0.0341369
1.90128,0.389239,0.113022
1.93153,0.297981,0.0796234
1.90975,0.390974,0.239351
1.83516,0.470165,-0.077181
1.95234,0.301191,0.360173
1.8844,0.385783,-0.0447583
1.92153,0.289233,-0.056552
1.90053,0.286071,-0.38439
1.89415,0.380552,0
1.97783,0.199506,-0.0231425
1.86388,0.374472,-0.295772
1.93418,0.291137,-0.0113681
1.87546,0.376797,-0.206055
1.96544,0.198256,-0.184401
1.89364,0.380449,0.0449444
1.98181,0.199908,0.023189
1.94183,0.292288,0.0342765
1.82689,0.460917,-0.120752
1.93656,0.291495,0.0797863
1.91506,0.384754,0.239839
1.84074,0.464413,-0.0773438
1.95343,0.294034,0.360173
1.83584,0.456365,-0.03302
1.91857,0.281942,-0.0564356
1.90928,0.280576,-0.385959
1.89547,0.373938,0
1.87294,0.369493,-0.297001
1.91973,0.282111,-0.246981
1.84385,0.458357,0.0110426
1.93914,0.284964,-0.0113914
1.88066,0.371017,-0.206483
1.97008,0.19178,-0.184773
1.9028,0.375384,0.0451305
1.98249,0.192988,0.023189
1.83236,0.4555,-0.121008
1.94152,0.285314,0.0799491
1.9086,0.376529,0.238864
1.84235,0.457985,-0.0773438
1.95834,0.287785,0.36089
1.89495,0.373836,-0.0449444
1.84123,0.451227,-0.0330898
1.8967,0.36765,0
1.98711,0.186788,-0.0232356
1.86639,0.361776,-0.295772
1.84536,0.45224,0.0110426
1.94007,0.278533,-0.0113914
1.88188,0.364779,-0.206483
1.90011,0.368312,0.0450374
1.98312,0.186413,0.023189
1.83774,0.450372,-0.121264
1.90917,0.370068,0.113255
1.94641,0.279442,0.0801119
1.90984,0.370199,0.238864
1.83998,0.450922,-0.077181
1.96707,0.282408,0.362325
1.84668,0.445735,-0.0331596
1.92837,0.269985,-0.0566684
1.9019,0.361774,0
1.99173,0.18021,-0.0232822
1.87152,0.355997,-0.296387
1.92553,0.269588,-0.247486
1.945,0.272313,-0.0114146
1.88315,0.358207,-0.206483
1.99173,0.18021,0.0232822
1.8393,0.443954,-0.121264
1.94738,0.272646,0.0801119
1.92282,0.365755,0.240326
1.84543,0.445433,-0.0773438
1.96415,0.274994,0.361608
1.90138,0.361677,-0.0450374
1.94123,0.264535,-0.0570174
1.89928,0.354069,0
1.99238,0.172909,-0.0232822
1.88059,0.350584,-0.297616
1.93044,0.263065,-0.247991
1.84855,0.439024,0.0110426
1.94202,0.264643,-0.0113914
1.88054,0.350574,-0.206055
1.84091,0.43721,-0.121264
1.91569,0.357129,0.113487
1.95232,0.266047,0.0802748
1.92415,0.358705,0.240326
1.84705,0.438667,-0.0773438
1.96904,0.268325,0.362325
1.84967,0.433156,-0.0331596
1.94205,0.258436,-0.0570174
1.90825,0.349542,0
1.99291,0.166649,-0.0232822
1.88168,0.344675,-0.297616
1.95077,0.259596,-0.0114378
1.88554,0.345382,-0.206483
1.84228,0.431425,-0.121264
1.92073,0.351828,0.11372
1.94919,0.259385,0.0801119
1.8562,0.434685,-0.0776695
1.97378,0.262657,0.363043
1.90773,0.349447,-0.0451305
1.85117,0.426696,-0.0331596
1.93898,0.251141,-0.0569011
1.92158,0.248887,-0.387528
1.90946,0.342878,0
1.99747,0.160011,-0.0233287
1.88287,0.338104,-0.297616
1.85532,0.427652,0.0110659
1.95563,0.253298,-0.0114611
1.89065,0.3395,-0.206912
1.91288,0.343492,0.0452235
1.98949,0.159372,0.0232356
1.84766,0.425887,-0.121519
