1.60839,0.549107,-0.0395473
1.67707,0.475827,-0.0507339
1.65651,0.469996,-0.344382
1.61083,0.543356,0
1.77684,0.411524,-0.0212333
1.66435,0.472219,-0.220212
1.5451,0.606764,0.00964778
1.69314,0.480388,-0.010229
1.59403,0.537689,-0.181208
1.74987,0.405277,-0.167671
1.62555,0.548322,0.0399195
1.77295,0.410622,0.0211868
1.59934,0.539482,-0.118028
1.67988,0.476627,-0.142551
1.54075,0.605057,0.0481739
1.70061,0.482506,0.0308559
1.77007,0.409955,-0.105813
1.61945,0.546266,0.099534
1.69946,0.48218,0.0719705
1.6053,0.54149,-0.0789168
1.68701,0.478647,-0.0919019
1.6066,0.541931,-0.0394543
1.68257,0.471048,-0.0508503
1.66192,0.465268,-0.345166
1.61651,0.538995,0
1.78607,0.407096,-0.0213265
1.69481,0.474474,-0.010229
1.75904,0.400936,-0.168415
1.63504,0.545173,0.0401057
1.78217,0.406208,0.0212799
1.68922,0.472909,-0.143201
1.55031,0.602571,0.0484066
1.70613,0.477645,0.0309257
1.77928,0.405548,-0.106278
1.63272,0.544398,0.100232
1.70113,0.476244,0.0719705
1.61476,0.538411,-0.079289
1.61228,0.537584,-0.0395473
1.6748,0.462889,-0.34752
1.61829,0.533632,0
1.78741,0.401172,-0.0213265
1.67517,0.462993,-0.221222
1.5492,0.596233,0.00964778
1.70023,0.469917,-0.0102522
1.76036,0.395101,-0.168415
1.63684,0.539749,0.0401057
1.78741,0.401172,0.0213265
1.61056,0.531082,-0.118586
1.69077,0.467305,-0.143201
1.5523,0.597427,0.0484066
1.70385,0.470919,0.0308559
1.77282,0.397897,-0.105813
1.6383,0.540232,0.100464
1.7104,0.47273,0.0722961
1.62412,0.535556,-0.0796613
1.61405,0.532235,-0.0395473
1.6764,0.45704,-0.34752
1.62775,0.530458,0
1.7888,0.39493,-0.0213265
1.68444,0.45923,-0.222232
1.56248,0.595093,0.00971752
1.70572,0.465031,-0.0102755
1.76562,0.389812,-0.168786
1.63871,0.534031,0.0401057
1.79661,0.396654,0.0214196
1.61619,0.526693,-0.118865
1.70009,0.463497,-0.143852
1.55438,0.592005,0.0484066
1.72092,0.469176,0.0311351
1.78199,0.393427,-0.106278
1.64398,0.535747,0.100697
1.70433,0.464654,0.0719705
1.71163,0.466643,0.144829
1.6235,0.529075,-0.0397334
1.7105,0.459926,-0.0515484
1.68556,0.453223,-0.349089
1.6334,0.525999,0
1.79798,0.390381,-0.0214196
1.68986,0.454378,-0.222737
1.56455,0.589635,0.00971752
1.71892,0.462191,-0.0103452
1.77475,0.385337,-0.16953
1.64437,0.529534,0.0401987
1.79798,0.390381,0.0214196
1.62562,0.523495,-0.119423
1.70555,0.458596,-0.144178
1.56392,0.589396,0.0486394
1.72641,0.464205,0.0312049
1.77945,0.386358,-0.106046
1.64584,0.530005,0.100697
1.71366,0.460778,0.0722961
1.62782,0.524205,-0.0796613
1.71659,0.461565,-0.093158
1.7171,0.461701,0.145154
1.5558,0.586337,-0.0677369
1.62534,0.523405,-0.0397334
1.70823,0.452928,-0.0514321
1.68714,0.447336,-0.349089
1.63903,0.521507,0
1.79542,0.383267,-0.021373
1.69144,0.448476,-0.222737
1.57035,0.585567,0.00974077
1.71665,0.455162,-0.010322
1.77998,0.379971,-0.169902
1.65002,0.525003,0.0402918
1.79934,0.384102,0.0214196
1.62744,0.517816,-0.119423
1.70714,0.452639,-0.144178
1.79251,0.382644,-0.106743
1.65148,0.525467,0.100929
1.72685,0.457865,0.0727846
1.63345,0.51973,-0.0798474
1.72205,0.456593,-0.0933674
1.63097,0.518941,-0.0398265
1.7214,0.449996,-0.0517812
1.69248,0.442436,-0.349873
1.64848,0.518181,0
1.80458,0.37864,-0.0214662
1.69683,0.443573,-0.223242
1.56863,0.578698,0.00971752
1.73371,0.453214,-0.0104149
1.65566,0.52044,0.0403848
1.81241,0.380283,0.0215593
1.64065,0.515723,-0.12026
1.71642,0.448694,-0.144829
1.57174,0.579847,0.0487557
1.73348,0.453153,0.0312747
1.80165,0.378025,-0.107208
1.66473,0.523292,0.101627
1.74004,0.454868,0.0732731
1.64288,0.516422,-0.0802197
1.6404,0.515643,-0.0400126
1.71909,0.442987,-0.0516648
1.69781,0.437505,-0.350658
1.65409,0.513611,0
1.80981,0.373147,-0.0215127
1.70221,0.438637,-0.223747
1.5744,0.574591,0.00974077
1.73916,0.448158,-0.0104382
1.79429,0.369948,-0.171017
1.6651,0.517029,0.0405709
1.82156,0.37557,0.0216524
1.64244,0.509993,-0.12026
1.71798,0.4427,-0.144829
1.74279,0.449095,0.0314143
1.79514,0.370122,-0.106743
1.66655,0.517478,0.101627
1.73774,0.447794,0.0731103
1.64849,0.511869,-0.0804058
1.73293,0.446554,-0.093786
1.73342,0.44668,0.146131
1.57312,0.574124,-0.0682254
1.64219,0.509914,-0.0400126
1.7245,0.437968,-0.0517812
1.70313,0.432541,-0.351442
1.6597,0.509006,0
1.81502,0.367621,-0.0215593
1.71527,0.435623,-0.225263
1.58016,0.570449,0.00976402
1.74071,0.442084,-0.0104382
1.63495,0.501414,-0.184207
1.66308,0.510041,0.0404779
1.82286,0.369209,0.0216524
1.64421,0.504256,-0.12026
1.7311,0.439644,-0.145805
1.7521,0.444977,0.031554
1.80424,0.365438,-0.107208
1.67217,0.512828,0.10186
1.74317,0.442709,0.0732731
1.64262,0.503768,-0.0800335
1.73835,0.441486,-0.0939954
1.57511,0.568629,-0.0682254
1.7299,0.432916,-0.0518975
1.65764,0.50205,0
1.82414,0.362844,-0.0216524
1.72063,0.430596,-0.225768
1.5859,0.566276,0.00978726
1.75,0.437948,-0.0104847
1.64049,0.496857,-0.184635
1.80074,0.35819,-0.171389
1.6725,0.506551,0.040664
1.82021,0.362064,0.0216059
1.64978,0.499671,-0.120539
1.73649,0.434567,-0.146131
1.75365,0.438859,0.031554
1.80943,0.359918,-0.107441
1.67777,0.508146,0.102092
1.74858,0.437592,0.0734359
1.65967,0.502665,-0.080778
1.73601,0.434446,-0.093786
1.75196,0.438439,0.147432
1.57709,0.563128,-0.0682254
1.65336,0.500755,-0.0401987
1.70992,0.421579,-0.352227
1.66321,0.497407,0
1.82539,0.356474,-0.0216524
1.72597,0.425537,-0.226273
1.59541,0.5634,0.00983376
1.7554,0.432793,-0.0105079
1.65365,0.494546,-0.18592
1.8098,0.353428,-0.172132
1.67809,0.501855,0.040757
1.83324,0.358007,0.0217455
1.65916,0.496195,-0.121097
1.73413,0.427548,-0.145805
1.75905,0.433692,0.0316238
1.82243,0.355895,-0.108139
1.68336,0.50343,0.102325
1.75786,0.433399,0.0737616
1.66907,0.499158,-0.0811503
1.74527,0.430295,-0.0942047
1.75348,0.43232,0.147432
1.6666,0.498418,-0.0404779
1.74453,0.423659,-0.0522466
1.71519,0.416534,-0.353011
1.66494,0.491598,0
1.83055,0.350853,-0.021699
1.72745,0.41951,-0.226273
1.5936,0.556509,0.00981051
1.76468,0.428551,-0.0105544
1.81884,0.348608,-0.172876
1.68367,0.497127,0.0408501
1.83841,0.352359,0.0217921
1.66089,0.490401,-0.121097
1.74336,0.423374,-0.146456
1.76055,0.42755,0.0316238
1.82758,0.350283,-0.108371
1.69276,0.499813,0.10279
1.76325,0.428203,0.0739244
1.6708,0.493329,-0.0811503
1.75841,0.427029,-0.0948328
1.69822,0.501425,0.217415
1.75886,0.427138,0.147758
1.59607,0.557375,-0.0688767
1.67216,0.49373,-0.0405709
1.74586,0.418176,-0.0522466
1.72031,0.412056,-0.353796
1.67032,0.487485,0
1.83558,0.34584,-0.0217455
1.73262,0.415005,-0.226778
1.59912,0.552806,0.00983376
1.76213,0.422073,-0.0105312
1.82776,0.344367,-0.17362
1.84737,0.348062,0.0218852
1.67008,0.487416,-0.121655
1.75244,0.419752,-0.147107
1.76578,0.422948,0.0316936
1.8326,0.345279,-0.108604
1.68666,0.492255,0.102325
1.76458,0.422661,0.0739244
1.67618,0.489196,-0.0813364
1.76363,0.422432,-0.0950421
1.7036,0.497199,0.217902
1.76407,0.422538,0.148083
1.78715,0.428068,0.335061
1.66986,0.487354,-0.0404779
1.73333,0.408144,-0.356149
1.6914,0.486597,0
1.84869,0.340966,-0.0218852
1.60501,0.547954,0.00985701
1.77152,0.417137,-0.0105777
1.66638,0.479401,-0.186777
1.82515,0.336623,-0.173248
1.69478,0.487571,0.0410362
1.85656,0.342417,0.0219784
1.67577,0.482102,-0.121934
1.75403,0.41302,-0.147107
1.77517,0.417997,0.0318332
1.84569,0.340412,-0.109301
1.69621,0.487982,0.10279
1.77008,0.416798,0.0740873
1.67421,0.481652,-0.0811503
1.70931,0.491752,0.21839
1.77732,0.418502,0.14906
1.60371,0.547509,-0.0690396
1.79644,0.423006,0.336496
1.6871,0.48536,-0.0408501
1.73092,0.401207,-0.355365
1.68539,0.478507,0
1.85381,0.335224,-0.0219318
1.74334,0.404086,-0.227788
1.78076,0.412758,-0.0106242
1.83415,0.331669,-0.173991
1.70032,0.482746,0.0411292
1.85381,0.335224,0.0219318
1.67361,0.475161,-0.121655
1.76323,0.408696,-0.147758
1.59987,0.539971,-0.108216
1.8508,0.334679,-0.109534
1.70943,0.485332,0.103487
1.77542,0.411521,0.0742501
1.67972,0.476897,-0.0813364
1.77057,0.410396,-0.0952514
1.77877,0.412297,0.14906
1.6094,0.543187,-0.0692024
1.80941,0.419399,0.338648
1.68493,0.478377,-0.040757
1.76183,0.402544,-0.0525957
1.73982,0.397515,-0.356934
1.69459,0.475371,0
1.85485,0.329398,-0.0219318
1.75234,0.400375,-0.228798
1.6124,0.538566,0.00988025
1.78595,0.408053,-0.0106474
1.84303,0.327298,-0.174735
1.70953,0.479562,0.0413153
1.85879,0.330098,0.0219784
1.68277,0.472057,-0.122213
1.76062,0.402267,-0.147432
1.7896,0.408889,0.0320426
1.60534,0.536207,-0.108472
1.85184,0.328863,-0.109534
1.71479,0.481038,0.10372
1.7845,0.407722,0.0745757
1.68506,0.472697,-0.0815225
1.77574,0.405721,-0.0954608
1.72018,0.482551,0.219365
1.78394,0.407595,0.149385
1.61489,0.539394,-0.0693652
1.81839,0.415466,0.340083
1.69798,0.476322,-0.0410362
1.74885,0.393159,-0.358502
1.70395,0.471586,0
1.85993,0.323607,-0.0219784
1.7576,0.395126,-0.229303
1.79516,0.403571,-0.0106939
1.68265,0.465691,-0.188062
1.84808,0.321545,-0.175107
1.86781,0.324978,0.0220715
1.68441,0.46618,-0.122213
1.76591,0.396993,-0.147758
1.79102,0.402639,0.0320426
1.86084,0.323766,-0.109999
1.72031,0.476114,0.103953
1.79371,0.403243,0.0749014
1.69055,0.467878,-0.0817087
1.78494,0.401272,-0.0958795
1.72568,0.477602,0.219852
1.78924,0.40224,0.149711
1.61676,0.533754,-0.0693652
1.81983,0.409116,0.340083
1.70348,0.471458,-0.0411292
1.75411,0.387594,-0.359287
1.7018,0.464285,0
1.86505,0.317459,-0.0220249
1.76678,0.390394,-0.230313
1.79663,0.396989,-0.0106939
1.8571,0.316107,-0.17585
1.87293,0.318802,0.0221181
1.68996,0.461054,-0.122492
1.77513,0.392239,-0.148409
1.80029,0.397798,0.0321822
1.61294,0.525944,-0.108728
1.86595,0.317614,-0.110232
1.72589,0.470857,0.104185
1.79517,0.396667,0.0749014
1.69996,0.463782,-0.0820809
1.7864,0.394728,-0.0958795
1.73125,0.472319,0.22034
1.6263,0.530303,-0.0696909
1.82132,0.402444,0.340083
1.7052,0.465212,-0.0411292
1.75539,0.381774,-0.359287
1.7072,0.459679,0
1.87398,0.312588,-0.0221181
1.77195,0.385375,-0.230818
1.80576,0.392729,-0.0107404
1.6897,0.454967,-0.188491
1.86207,0.310601,-0.176222
1.87792,0.313247,0.0221646
1.69533,0.456484,-0.122771
1.78422,0.388044,-0.14906
1.79769,0.390975,0.0321124
1.61847,0.521816,-0.108984
1.87094,0.312081,-0.110464
1.72744,0.46513,0.104185
1.80038,0.39156,0.0750642
1.70149,0.458142,-0.0820809
1.7916,0.38965,-0.0960888
1.73664,0.467607,0.220827
1.80759,0.393128,0.151012
1.63566,0.527359,-0.0700165
1.83033,0.398074,0.341518
1.71446,0.461634,-0.0413153
1.76438,0.377284,-0.360856
1.70879,0.453716,0
1.87901,0.306689,-0.0221646
1.77328,0.379187,-0.230818
1.69896,0.451107,-0.189348
1.871,0.305382,-0.176966
1.72765,0.458724,0.0415945
1.70463,0.452611,-0.123329
1.78556,0.381813,-0.14906
1.81469,0.388043,0.0323917
1.62789,0.518587,-0.109495
1.87596,0.306191,-0.110697
1.80956,0.386944,0.0753899
1.7108,0.45425,-0.0824532
1.79686,0.384229,-0.0962982
1.73826,0.461542,0.220827
1.80895,0.386815,0.151012
1.63749,0.521646,-0.0700165
1.83171,0.391682,0.341518
1.71992,0.456672,-0.0414084
1.76953,0.37193,-0.36164
1.7181,0.449775,0
1.88402,0.300759,-0.0222112
1.78624,0.375444,-0.232334
1.70437,0.446181,-0.189776
1.87599,0.299477,-0.177337
1.89192,0.30202,0.0223043
1.71006,0.447669,-0.123608
1.78298,0.374758,-0.148734
1.81604,0.381706,0.0323917
1.62969,0.512901,-0.109495
1.88884,0.30153,-0.111394
1.74224,0.456093,0.104883
1.81872,0.38227,0.0757155
1.71238,0.448276,-0.0824532
1.8021,0.378776,-0.0965075
1.73986,0.455471,0.220827
1.81029,0.380499,0.151012
1.6393,0.515927,-0.0700165
1.84077,0.386905,0.342953
1.72924,0.452691,-0.0415945
1.77856,0.367027,-0.363209
1.89301,0.295083,-0.0223043
1.78761,0.368894,-0.232334
1.81375,0.374289,-0.0107637
1.706,0.439931,-0.189776
1.88494,0.293826,-0.178081
1.74638,0.450344,0.0419667
1.89696,0.295699,0.0223509
1.71942,0.44339,-0.124167
1.79606,0.370638,-0.149711
1.81742,0.375047,0.0323917
1.89388,0.295219,-0.111627
1.75163,0.451698,0.105348
1.82402,0.376409,0.0758784
1.72175,0.443992,-0.0828254
1.8113,0.373783,-0.0969262
1.75305,0.452065,0.22229
1.82339,0.376278,0.151989
1.645,0.511101,-0.0701794
1.84603,0.38095,0.343671
1.73476,0.447348,-0.0416875
1.69481,0.431057,-0.489549
1.79271,0.363754,-0.232839
1.8189,0.369069,-0.0107869
1.88984,0.288174,-0.178453
1.75174,0.445536,0.0420598
1.90584,0.290613,0.022444
1.72474,0.43867,-0.124446
1.82258,0.369814,0.0324615
1.89485,0.288938,-0.111627
1.74925,0.444903,0.105115
1.82918,0.371153,0.0760412
1.72321,0.43828,-0.0828254
1.80861,0.36698,-0.0967169
1.75454,0.44625,0.22229
1.64669,0.505643,-0.0701794
1.84728,0.374827,0.343671
1.73236,0.440608,-0.0415945
1.90689,0.283626,-0.022444
1.79792,0.357955,-0.233344
1.82809,0.363961,-0.0108334
1.71674,0.429942,-0.190633
1.89483,0.281831,-0.178824
1.74948,0.438141,0.0419667
1.91085,0.284214,0.0224906
1.73408,0.434284,-0.125004
1.80251,0.358868,-0.150036
1.82784,0.363912,0.0325313
1.65034,0.500153,-0.110519
1.9038,0.283165,-0.112092
1.75862,0.440429,0.10558
1.83052,0.364446,0.0760412
1.7248,0.431961,-0.0828254
1.81778,0.361908,-0.0971355
1.76387,0.441745,0.223265
1.8377,0.365874,0.152965
1.66383,0.504241,-0.0708307
1.8525,0.368822,0.344388
1.73784,0.435227,-0.0416875
1.91569,0.278786,-0.0225371
1.80293,0.353068,-0.233849
1.83707,0.359754,-0.0108799
1.8957,0.275877,-0.178824
1.75861,0.434562,0.0421528
1.72769,0.42692,-0.124446
1.80754,0.35397,-0.150362
1.8329,0.358937,0.0326011
1.65955,0.497257,-0.11103
1.91653,0.278908,-0.11279
1.75999,0.434902,0.10558
1.84343,0.360998,0.0765297
1.73391,0.428457,-0.0831977
1.81891,0.356196,-0.0971355
1.76525,0.436201,0.223265
1.83884,0.360099,0.152965
1.6654,0.499012,-0.0708307
1.85751,0.363757,0.345106
1.75085,0.432643,-0.0419667
1.66452,0.492105,-0.0302974
1.79501,0.34469,-0.365563
1.9167,0.271763,-0.0225371
1.81201,0.347954,-0.234859
1.84624,0.354527,-0.0109264
1.90853,0.270605,-0.17994
1.76797,0.430004,0.0423389
1.84599,0.354479,0.0328105
1.66136,0.491172,-0.11103
1.92545,0.273004,-0.113255
1.76933,0.430336,0.106046
1.85259,0.355747,0.0768554
1.73935,0.423044,-0.0833838
1.82805,0.351034,-0.0975542
1.77455,0.431605,0.22424
1.67105,0.494038,-0.0709935
1.86656,0.358431,0.346541
1.7602,0.428113,-0.0421528
1.68167,0.490479,-0.0305766
1.92561,0.26583,-0.0226303
1.81327,0.34131,-0.234859
1.84752,0.347758,-0.0109264
1.73276,0.414719,-0.191918
1.9174,0.264697,-0.180683
1.92957,0.266377,0.0226768
1.73853,0.416101,-0.125004
1.84727,0.347711,0.0328105
1.66315,0.485079,-0.11103
1.93039,0.26649,-0.113487
1.77867,0.425707,0.106511
1.85781,0.349693,0.0770182
1.74478,0.417596,-0.0835699
1.8411,0.346548,-0.0981823
1.77998,0.426022,0.224727
1.85318,0.348823,0.153942
1.67669,0.489028,-0.0711563
1.86787,0.351586,0.346541
1.75786,0.420728,-0.0420598
1.75576,0.414397,0
1.9304,0.260314,-0.0226768
1.84861,0.341952,-0.0109264
1.91822,0.258673,-0.180683
1.77474,0.418878,0.042432
1.93436,0.260849,0.0227234
1.7476,0.412471,-0.125562
1.82683,0.337923,-0.151663
1.6789,0.483955,0.0508503
1.85229,0.342633,0.0328803
1.6685,0.480958,-0.111286
1.92726,0.259891,-0.113255
1.77999,0.420117,0.106511
1.86676,0.345309,0.0773438
1.75386,0.413948,-0.0839422
1.84218,0.340763,-0.0981823
1.78518,0.42134,0.225215
1.85427,0.343,0.153942
1.67822,0.483759,-0.0711563
1.8767,0.347149,0.347976
1.76307,0.416122,-0.0421528
1.68103,0.478221,-0.0305068
1.76109,0.409171,0
1.94715,0.255656,-0.0228631
1.85373,0.336211,-0.0109496
1.93096,0.25353,-0.181799
1.7762,0.41268,0.042432
1.94319,0.255136,0.0228165
1.75292,0.407271,-0.125841
1.84369,0.33439,-0.152965
1.68443,0.479185,0.0509666
1.85741,0.336879,0.0329501
1.68169,0.478407,-0.112054
1.93607,0.254201,-0.11372
1.78534,0.414805,0.106743
1.86795,0.338791,0.0773438
1.84729,0.335043,-0.0983916
1.78664,0.415106,0.225215
1.85938,0.337236,0.154267
1.68759,0.480084,-0.071482
1.88564,0.342,0.349411
1.7762,0.41268,-0.042432
1.69441,0.475002,-0.0307162
1.94415,0.247673,-0.0228165
1.83628,0.325769,-0.237384
1.86682,0.331187,-0.0110194
1.93587,0.246617,-0.18217
1.78556,0.407637,0.0426181
1.69395,0.474873,0.0511993
1.86657,0.331142,0.0330898
1.68351,0.471946,-0.112054
1.94496,0.247775,-0.114185
1.79081,0.408836,0.106976
1.87317,0.332314,0.0775067
1.85643,0.329343,-0.0988103
1.79209,0.409127,0.225702
1.69711,0.475759,-0.0718077
1.89469,0.336132,0.350845
1.78167,0.406747,-0.042525
1.69991,0.470151,-0.030786
1.77575,0.398881,0
1.95295,0.241869,-0.0229097
1.84132,0.320037,-0.237889
1.86796,0.324669,-0.0110194
1.94462,0.240838,-0.182914
1.79478,0.403155,0.0428042
1.84609,0.320867,-0.152965
1.87559,0.325995,0.0332294
1.69284,0.468196,-0.112565
1.95374,0.241967,-0.11465
1.80002,0.404333,0.107441
1.8822,0.327143,0.0778323
1.8615,0.323545,-0.0990196
1.79738,0.403739,0.22619
1.87358,0.325646,0.155243
1.69491,0.468767,-0.0716448
1.90361,0.330864,0.35228
1.78698,0.401403,-0.0426181
1.70138,0.464807,-0.030786
1.96561,0.237169,-0.0230493
1.86897,0.318798,-0.0110194
1.76289,0.390179,-0.194488
1.95328,0.235681,-0.183657
1.79604,0.397514,0.0428042
1.85495,0.316406,-0.153616
1.87661,0.3201,0.0332294
1.69431,0.462875,-0.112565
1.95845,0.236305,-0.114883
1.80128,0.398675,0.107441
1.88715,0.3219,0.0779952
1.77117,0.392011,-0.0845005
1.86644,0.318367,-0.099229
1.80251,0.398948,0.226677
1.70023,0.464493,-0.0718077
1.90852,0.325543,0.352998
1.78823,0.395786,-0.0426181
1.70299,0.458866,-0.030786
1.97437,0.231237,-0.0231425
1.87797,0.31359,-0.0110659
1.95805,0.229325,-0.184029
1.80132,0.392094,0.0428972
1.86391,0.311243,-0.154267
1.71025,0.460822,0.0515484
1.88955,0.315524,0.0334388
1.69591,0.456958,-0.112565
1.96323,0.229933,-0.115115
1.80656,0.393235,0.107673
1.89221,0.315969,0.078158
1.78034,0.387526,-0.0848728
1.87542,0.313166,-0.0996477
1.81941,0.396032,0.228627
1.8875,0.315182,0.15622
1.70956,0.460635,-0.0721333
1.90964,0.31888,0.352998
1.79351,0.390392,-0.0427111
1.84651,0.301386,-0.374192
1.97918,0.224449,-0.023189
1.85626,0.302977,-0.239405
1.88305,0.307349,-0.0110891
1.80666,0.386324,0.0429903
1.87684,0.306335,-0.155243
1.7158,0.455576,0.0516648
1.89069,0.308596,0.0334388
1.70915,0.453812,-0.113333
1.96803,0.223185,-0.115348
1.80799,0.38661,0.107673
1.89335,0.309031,0.078158
1.88444,0.307576,-0.100066
1.82085,0.38936,0.228627
1.89258,0.308904,0.156545
1.7151,0.455391,-0.0722961
1.92245,0.31378,0.35515
1.80275,0.385488,-0.0428972
1.71397,0.448694,-0.0309257
1.9879,0.218413,-0.0232822
1.86514,0.297747,-0.240415
1.89201,0.302036,-0.0111356
1.81191,0.380839,0.0430833
1.98393,0.217977,0.0232356
1.8779,0.299782,-0.155243
1.72511,0.45161,0.0518975
1.89965,0.303256,0.0335784
1.71072,0.447843,-0.113333
1.98467,0.218059,-0.116278
1.81715,0.38194,0.108139
1.90626,0.304311,0.0786465
1.79088,0.37642,-0.085245
1.88551,0.300997,-0.100066
1.72441,0.451427,-0.0726218
1.92742,0.307688,0.355868
1.81191,0.380839,-0.0430833
1.72707,0.446007,-0.0311351
1.8019,0.3725,0
1.87004,0.292172,-0.24092
1.72343,0.445067,0.0103452
1.90486,0.297612,-0.0112054
1.98014,0.210917,-0.185888
1.81708,0.375637,0.0431764
1.87888,0.293553,-0.155243
1.7266,0.445886,0.0518975
1.9125,0.298806,0.0337879
1.71993,0.444164,-0.113844
1.99333,0.212321,-0.116743
1.82232,0.37672,0.108371
1.91121,0.298604,0.0788093
1.79995,0.372096,-0.0856173
1.89044,0.295359,-0.100276
1.83124,0.378564,0.229602
1.7259,0.445705,-0.0726218
1.9362,0.302509,0.357303
1.81708,0.375637,-0.0431764
1.72869,0.439674,-0.0311351
1.99734,0.205348,-0.0233753
1.90594,0.290628,-0.0112054
1.9809,0.203658,-0.185888
1.82236,0.36977,0.0432694
2.00131,0.205757,0.0234219
1.89177,0.288468,-0.15622
1.73597,0.441526,0.0521302
1.90963,0.291192,0.033718
1.72541,0.438841,-0.1141
1.99409,0.205015,-0.116743
1.82368,0.370039,0.108371
1.91624,0.2922,0.0789721
1.80522,0.366291,-0.0858034
1.89941,0.289633,-0.100694
1.8365,0.37264,0.230089
1.73914,0.442332,-0.0731103
1.94119,0.296004,0.35802
1.81844,0.368975,-0.0431764
1.86984,0.279117,-0.378114
1.81616,0.362576,0
2.01389,0.200659,-0.0235616
1.79457,0.358266,-0.284703
1.9108,0.28523,-0.0112286
1.99738,0.199014,-0.187375
1.83136,0.365609,0.0434555
2.00593,0.199866,0.0234684
1.80391,0.36013,-0.128631
1.90449,0.284289,-0.157196
1.74123,0.437044,0.0522466
1.91449,0.285782,0.0337879
1.73066,0.43439,-0.114356
1.9987,0.199145,-0.116976
1.82484,0.364308,0.108371
1.9211,0.286769,0.079135
1.81419,0.362183,-0.0861756
1.91216,0.285434,-0.101322
1.85324,0.369978,0.232039
1.72889,0.433948,-0.0726218
1.946,0.290486,0.358738
1.82351,0.364044,-0.0432694
1.73553,0.428856,-0.0312049
1.87862,0.27339,-0.379683
1.82533,0.357453,0
2.01859,0.193657,-0.0236081
1.73964,0.429874,0.0104149
1.91579,0.2788,-0.0112519
1.9981,0.19169,-0.187375
1.83661,0.359662,0.0435486
2.01859,0.193657,0.0236081
1.80914,0.354282,-0.12891
1.90552,0.277306,-0.157196
1.7467,0.431617,0.052363
1.92344,0.279914,0.0339275
1.73611,0.429001,-0.114612
2.00737,0.19258,-0.117441
1.83792,0.359918,0.109069
1.9261,0.2803,0.0792978
1.81943,0.356298,-0.0863618
1.9211,0.279573,-0.101741
1.85458,0.363182,0.232039
1.74987,0.432401,-0.0734359
1.95874,0.28505,0.36089
1.82484,0.357356,-0.0432694
1.74486,0.424383,-0.0313445
2.03124,0.187359,-0.0237478
1.75287,0.426331,0.0104847
1.92472,0.272899,-0.0112984
2.00672,0.185098,-0.188119
1.83791,0.352928,0.0435486
2.01929,0.186257,0.0236081
1.91442,0.271439,-0.157847
1.75993,0.428047,0.052712
1.93634,0.274547,0.0341369
1.74543,0.424522,-0.115124
2.01601,0.185955,-0.117906
1.83922,0.35318,0.109069
1.93107,0.2738,0.0794606
1.82857,0.351135,-0.086734
1.93002,0.273652,-0.10216
1.8559,0.356382,0.232039
1.75145,0.425985,-0.0734359
1.95977,0.277869,0.36089
1.83399,0.352174,-0.0434555
1.75007,0.419832,-0.0314143
1.83558,0.346505,0
2.02783,0.180623,-0.0237012
1.7542,0.420822,0.0104847
1.93745,0.268499,-0.0113681
2.01523,0.1795,-0.188862
1.84294,0.347895,0.0436417
2.02783,0.180623,0.0237012
1.91526,0.265424,-0.157847
1.75737,0.421584,0.0525957
1.94115,0.269012,0.0342067
1.75064,0.419968,-0.115379
2.02056,0.179975,-0.118138
1.8521,0.349622,0.109766
1.9438,0.269378,0.0799491
1.83752,0.346871,-0.0871063
1.92691,0.267039,-0.10195
1.86091,0.351287,0.232527
1.74889,0.419548,-0.0732731
1.96843,0.272792,0.362325
1.84294,0.347895,-0.0436417
1.75542,0.41464,-0.0314841
1.84071,0.340823,0
2.03642,0.174225,-0.0237944
1.75566,0.414696,0.0104847
1.93838,0.261734,-0.0113681
2.01981,0.172803,-0.189234
1.85594,0.343643,0.0439208
2.04041,0.174565,0.0238409
1.83231,0.339267,-0.130305
1.92408,0.259804,-0.158498
1.76273,0.416366,0.052712
1.93811,0.261698,0.0341369
1.74821,0.412936,-0.115124
2.03312,0.173942,-0.118836
1.86116,0.344609,0.110232
1.95265,0.263661,0.0802748
1.85443,0.343364,-0.0878508
1.93971,0.261914,-0.102578
1.87774,0.34768,0.234477
1.75812,0.415278,-0.0735988
1.98107,0.267498,0.364478
1.85201,0.342915,-0.0438278
1.85376,0.336216,0
2.04502,0.167413,-0.0238875
1.82005,0.330104,-0.287778
1.91596,0.251561,-0.245971
1.76496,0.410069,0.0105312
1.94725,0.255669,-0.0114146
2.03234,0.166374,-0.190349
1.86506,0.338266,0.0441069
2.04901,0.167739,0.0239341
1.83354,0.332549,-0.130305
1.93688,0.254307,-0.159474
1.77592,0.412617,0.0530611
1.95096,0.256155,0.0343463
1.75749,0.408333,-0.115635
2.03772,0.166815,-0.119069
1.86241,0.337786,0.110232
1.95756,0.257023,0.0804376
1.85568,0.336565,-0.0878508
1.94858,0.255843,-0.102997
1.88291,0.341504,0.234964
1.76742,0.410641,-0.0739244
1.98984,0.26126,0.365912
1.84539,0.334698,-0.0436417
1.91423,0.244538,-0.385959
1.8628,0.331143,0
2.05357,0.160897,-0.0239806
1.82898,0.325132,-0.289008
1.9247,0.245877,-0.246981
1.77418,0.405689,0.0105777
1.9521,0.249377,-0.0114378
2.03688,0.15959,-0.190721
1.86623,0.331753,0.0441069
2.05357,0.160897,0.0239806
1.84647,0.328241,-0.131142
1.94566,0.248554,-0.160125
1.77735,0.406415,0.0530611
1.95977,0.250357,0.034486
1.7589,0.402195,-0.115635
2.05023,0.160636,-0.119766
1.87144,0.33268,0.110697
1.96241,0.250694,0.0806004
1.85291,0.329386,-0.0876646
1.95738,0.250052,-0.103416
1.89191,0.336319,0.235939
1.77274,0.405359,-0.0740873
1.99464,0.254811,0.36663
1.85048,0.328954,-0.0437347
1.77534,0.399439,-0.0317634
1.86394,0.324639,0
2.06209,0.154326,-0.0240738
1.834,0.319424,-0.289623
1.93342,0.240135,-0.247991
1.77558,0.399493,0.0105777
1.95693,0.243055,-0.0114611
1.84147,0.320725,-0.201342
2.04139,0.152776,-0.191093
1.87132,0.325924,0.0442
2.06209,0.154326,0.0240738
1.85154,0.322479,-0.131421
1.95443,0.242744,-0.160776
1.77876,0.400209,0.0530611
1.97254,0.244994,0.0346954
1.76419,0.39693,-0.115891
2.06273,0.154373,-0.120464
1.88439,0.328201,0.111394
1.96724,0.244335,0.0807633
1.85799,0.323602,-0.0878508
1.95825,0.243218,-0.103416
1.89307,0.329713,0.235939
1.77804,0.400046,-0.0742501
2.00333,0.248817,0.368065
1.86344,0.324551,-0.0440139
1.77673,0.39324,-0.0317634
1.95697,0.236127,-0.0573665
1.86901,0.318804,0
2.06262,0.147127,-0.0240738
1.93819,0.233861,-0.248496
1.78868,0.395887,0.0106474
1.96968,0.23766,-0.0115308
1.84649,0.314964,-0.201771
2.05383,0.1465,-0.192208
1.88427,0.321407,0.0444791
2.07459,0.147981,0.0242135
1.85659,0.316685,-0.1317
1.95527,0.235921,-0.160776
1.78405,0.394862,0.0531775
1.9853,0.239544,0.0349048
1.76946,0.391632,-0.116147
2.07122,0.147741,-0.120929
1.8934,0.322965,0.111859
1.97998,0.238904,0.0812517
1.87486,0.319802,-0.0885953
1.97098,0.237817,-0.104044
1.90595,0.325106,0.237402
1.77552,0.392974,-0.0740873
2.0159,0.243238,0.370217
1.8685,0.318718,-0.0441069
1.78193,0.388197,-0.0318332
1.96171,0.230101,-0.0574829
1.93222,0.226642,-0.389097
1.874,0.313263,0
2.07507,0.1411,-0.0242135
1.9429,0.227894,-0.249001
1.78999,0.389953,0.0106474
1.9784,0.232059,-0.0115773
2.05828,0.139958,-0.19258
1.89321,0.316475,0.0446652
2.08305,0.141643,0.0243066
1.86156,0.311184,-0.131979
1.96396,0.230364,-0.161427
1.79316,0.390645,0.0534102
1.99005,0.233425,0.0349746
2.08365,0.141683,-0.121627
1.8984,0.317342,0.112092
1.99267,0.233733,0.0817402
1.88379,0.3149,-0.0889675
1.97969,0.23221,-0.104463
1.91485,0.320092,0.238376
1.78853,0.389636,-0.0745757
1.87743,0.313838,-0.044293
1.94473,0.220887,-0.39145
1.88698,0.308328,0
2.07956,0.133751,-0.02426
1.85284,0.302751,-0.292082
1.7914,0.38339,0.0106474
1.98321,0.225258,-0.0116006
2.07468,0.133436,-0.194067
1.89831,0.310179,0.0447583
2.09154,0.134521,0.0243997
1.87844,0.306934,-0.133095
1.96875,0.223615,-0.161753
1.8024,0.385744,0.0536429
1.99487,0.226581,0.0350444
1.77996,0.38094,-0.116659
2.07619,0.133533,-0.121162
1.89955,0.310382,0.112092
1.99352,0.226428,0.0817402
1.89282,0.309283,-0.0893398
1.9845,0.225404,-0.104672
1.92385,0.314353,0.239351
1.99252,0.226314,0.163705
1.78995,0.383078,-0.0745757
2.02928,0.23049,0.37237
1.88252,0.3076,-0.0443861
1.94936,0.214866,-0.392235
1.89589,0.303332,0
2.09197,0.127584,-0.0243997
1.85774,0.297229,-0.292697
1.9681,0.216933,-0.252031
1.80441,0.379919,0.0107172
1.9919,0.219556,-0.0116471
1.86928,0.299074,-0.203913
2.07511,0.126555,-0.194067
1.90722,0.305146,0.0449444
2.09197,0.127584,0.0243997
1.88339,0.301333,-0.133374
1.98137,0.218395,-0.162729
1.80367,0.379765,0.0536429
2.00753,0.221279,0.0352539
1.78512,0.375858,-0.116914
2.08459,0.127133,-0.121627
1.90845,0.305343,0.112557
2.01015,0.221567,0.0823915
1.88989,0.302372,-0.0891536
1.99318,0.219696,-0.105091
1.99722,0.220142,0.164031
1.79512,0.377964,-0.0747386
2.03395,0.22419,0.373087
1.88748,0.301987,-0.0444791
1.95009,0.208062,-0.392235
1.90089,0.297332,0
2.10438,0.120971,-0.0245394
1.97674,0.210905,-0.253042
1.80964,0.37443,0.0107404
2.00061,0.213452,-0.0116936
1.87424,0.293164,-0.204341
2.08746,0.119998,-0.195183
1.91222,0.299106,0.0450374
2.0964,0.120511,0.0244463
1.88049,0.294141,-0.133095
1.98608,0.211902,-0.163054
1.8089,0.374278,0.0537593
2.00432,0.213847,0.0351841
2.10097,0.120774,-0.122557
1.92134,0.300532,0.113255
2.01091,0.21455,0.0823915
1.90278,0.297627,-0.089712
1.9979,0.213163,-0.1053
1.93379,0.302478,0.240326
1.80426,0.373316,-0.0750642
2.04646,0.218343,0.37524
1.89642,0.296634,-0.0446652
1.95865,0.201715,-0.393804
1.90196,0.290362,0
2.10481,0.113255,-0.0245394
1.9775,0.203657,-0.253042
1.81492,0.368589,0.0107637
2.00934,0.206936,-0.0117401
1.87923,0.286891,-0.20477
2.09584,0.112773,-0.195926
1.92121,0.2933,0.0452235
2.10481,0.113255,0.0245394
1.89339,0.289052,-0.133932
1.98685,0.204619,-0.163054
1.81418,0.36844,0.0538757
2.01304,0.207317,0.0353237
1.7995,0.365457,-0.117682
2.10538,0.113286,-0.12279
1.92638,0.294089,0.113487
2.02361,0.208405,0.08288
1.91175,0.291856,-0.0900843
2.00662,0.206656,-0.105719
1.94273,0.296586,0.241301
2.01064,0.20707,0.165007
1.80561,0.366699,-0.0750642
2.04724,0.210839,0.37524
1.9054,0.290886,-0.0448513
1.96714,0.195655,-0.395372
1.91483,0.285492,0
2.11318,0.106311,-0.0246325
1.81619,0.362253,0.0107637
2.02597,0.201505,-0.0118331
1.89202,0.28209,-0.206055
2.10418,0.105858,-0.19667
1.92618,0.287183,0.0453166
2.11718,0.106512,0.0246791
1.89833,0.283031,-0.134211
1.99152,0.198079,-0.16338
1.81938,0.362888,0.053992
2.01774,0.200686,0.0353935
2.11773,0.106539,-0.123487
1.93529,0.288542,0.113952
2.02432,0.201342,0.08288
1.92066,0.286361,-0.0904565
2.0113,0.200047,-0.105928
1.94376,0.289804,0.241301
1.8108,0.361177,-0.0752271
1.95659,0.291717,0.530061
2.0558,0.204472,0.376675
1.91432,0.285414,-0.0450374
1.97169,0.189505,-0.396157
1.91973,0.279716,0
2.12551,0.0998652,-0.0247722
1.99069,0.191331,-0.254557
1.82524,0.357767,0.0108102
2.02264,0.194403,-0.0118098
2.11645,0.0994397,-0.197785
1.90321,0.277309,-0.13449
2.00407,0.192617,-0.164356
1.83234,0.359159,0.0543411
2.03431,0.195524,0.0356727
2.11807,0.0995156,-0.123487
1.94019,0.282698,0.114185
2.03294,0.195392,0.0832057
1.9216,0.27999,-0.0904565
2.02388,0.194522,-0.106556
2.03185,0.195287,0.166634
1.81591,0.355939,-0.0753899
1.97284,0.287455,0.534203
2.06038,0.19803,0.377392
1.92317,0.280217,-0.0452235
1.98405,0.183706,-0.39851
1.93257,0.274702,0
2.13384,0.0927922,-0.0248654
2.00715,0.185844,-0.256577
1.83433,0.352904,0.0108567
2.03128,0.188078,-0.0118563
2.11679,0.0920507,-0.197785
1.94393,0.276316,0.0456888
2.13783,0.0929659,0.0249119
1.91601,0.272348,-0.135328
2.00473,0.18562,-0.164356
1.83751,0.353516,0.0544575
2.03897,0.18879,0.0357425
2.13436,0.092815,-0.124418
1.94907,0.277047,0.11465
2.03759,0.188662,0.0833685
1.92652,0.273842,-0.0906426
2.02853,0.187824,-0.106765
1.96141,0.2788,0.243251
2.03649,0.18856,0.16696
1.82892,0.351862,-0.0758784
1.98148,0.281654,0.536273
2.06498,0.191199,0.37811
1.92413,0.273502,-0.0452235
1.98468,0.176779,-0.39851
1.92956,0.267406,0
2.14214,0.0856632,-0.0249585
2.00779,0.178837,-0.256577
1.84341,0.347983,0.0109032
2.04387,0.182052,-0.011926
2.12506,0.0849799,-0.198529
1.94884,0.270078,0.0457819
2.14214,0.0856632,0.0249585
1.92881,0.267302,-0.136165
2.01331,0.179329,-0.165007
1.83873,0.3471,0.0544575
2.04758,0.182382,0.0358821
2.13866,0.0855241,-0.12465
1.95398,0.27079,0.114883
2.04619,0.182258,0.0836942
1.93538,0.268213,-0.0910149
2.02917,0.180742,-0.106765
1.9663,0.272497,0.243739
2.04904,0.182512,0.167936
1.83406,0.346218,-0.0760412
1.97862,0.274205,0.535238
2.07739,0.185037,0.380262
1.93696,0.268431,-0.0455027
1.9931,0.17052,-0.400079
1.93841,0.261739,0
2.15042,0.0784774,-0.0250516
2.0084,0.171828,-0.256577
1.84461,0.341547,0.0109032
2.0445,0.174916,-0.011926
1.91544,0.258637,-0.208197
2.13728,0.0779977,-0.199644
1.9577,0.264344,0.045968
2.15442,0.0786232,0.0250982
1.92973,0.260568,-0.136165
2.01789,0.17264,-0.165333
2.0482,0.175234,0.0358821
1.83302,0.3394,-0.119473
2.15491,0.0786412,-0.12558
2.06275,0.176478,0.0843455
1.94423,0.262525,-0.0913871
2.03775,0.174339,-0.107184
1.97904,0.267226,0.245201
2.05364,0.175699,0.168262
1.83919,0.340542,-0.076204
2.00637,0.270916,0.542485
2.08195,0.178121,0.380979
1.94977,0.263274,-0.0457819
2.0015,0.164202,-0.401648
1.94724,0.256014,0
2.15868,0.0712338,-0.0251447
2.02085,0.165789,-0.258092
1.84973,0.33582,0.0109264
2.05705,0.168759,-0.0119958
1.92421,0.252986,-0.209053
2.14948,0.0709302,-0.200759
1.96654,0.258551,0.0461541
2.16268,0.0713657,0.0251913
1.93854,0.25487,-0.136723
2.03437,0.166899,-0.166634
2.05678,0.168737,0.0360218
2.16316,0.0713815,-0.126045
2.06335,0.169276,0.0843455
1.95306,0.256778,-0.0917594
2.04631,0.167878,-0.107603
1.9839,0.260833,0.245689
2.06616,0.169507,0.169238
1.85216,0.336261,-0.0766925
1.99581,0.2624,0.539379
2.08648,0.171173,0.381697
1.95465,0.256987,-0.0458749
2.00595,0.157871,-0.402433
1.94411,0.249046,0
2.1669,0.0643117,-0.0252379
2.02535,0.159398,-0.258597
2.0576,0.161936,-0.0119958
1.92504,0.246603,-0.209053
2.15767,0.0640376,-0.201503
2.17489,0.064549,0.025331
1.95125,0.249961,-0.13756
2.03889,0.160464,-0.16696
2.0653,0.162542,0.0361614
2.16737,0.0643257,-0.126278
1.98043,0.253699,0.116278
2.07585,0.163373,0.084834
1.95786,0.250807,-0.0919455
2.05084,0.161404,-0.107812
1.98869,0.254757,0.246176
2.07069,0.162966,0.169564
1.85327,0.330117,-0.0766925
2.012,0.257743,0.54352
2.08703,0.164253,0.381697
1.95945,0.251011,-0.045968
2.01434,0.151105,-0.404002
1.95692,0.243401,0
2.18311,0.0567856,-0.0254241
2.04174,0.153161,-0.260618
1.86385,0.324959,0.0109961
2.06616,0.154993,-0.0120423
2.15789,0.0561294,-0.201503
1.97227,0.245309,0.0462471
2.17912,0.0566816,0.0253776
1.94819,0.242315,-0.137281
2.04742,0.153587,-0.167611
1.86703,0.325514,0.0551557
2.06987,0.155271,0.0362312
2.17957,0.0566934,-0.126976
1.98928,0.247425,0.116743
2.07644,0.155764,0.084834
1.9548,0.243137,-0.0917594
2.06735,0.155082,-0.108649
1.99749,0.248447,0.247151
2.07922,0.155973,0.170214
1.86628,0.325382,-0.077181
2.0206,0.251321,0.545591
2.11117,0.158369,0.386002
1.96433,0.244322,-0.046061
2.02268,0.144633,-0.405571
1.96173,0.237048,0
2.19529,0.0494354,-0.0255638
2.04622,0.146317,-0.261123
1.87286,0.319798,0.0110426
2.07866,0.148636,-0.012112
1.9386,0.234254,-0.210339
2.17001,0.0488661,-0.202618
1.98502,0.239863,0.0465263
2.1913,0.0493454,0.0255173
1.95695,0.236471,-0.137839
2.05589,0.147008,-0.168262
1.8721,0.319668,0.055272
2.07838,0.148616,0.0363708
1.85332,0.316461,-0.120496
2.18375,0.0491753,-0.127208
1.99409,0.240959,0.116976
2.08494,0.149085,0.0851596
1.95564,0.236312,-0.0917594
2.06788,0.147865,-0.108649
2.00229,0.241949,0.247639
2.08771,0.149283,0.170865
1.87528,0.320211,-0.0775067
2.03681,0.246121,0.549732
2.12348,0.151841,0.388154
1.86971,0.312883,-0.0330898
2.03097,0.138459,-0.40714
1.97045,0.231476,0
2.19945,0.0422325,-0.0256104
2.05462,0.140071,-0.262133
1.87786,0.314246,0.0110659
2.07914,0.141742,-0.012112
1.95517,0.22968,-0.212052
2.17415,0.0417467,-0.20299
1.98978,0.233746,0.0466193
2.19945,0.0422325,0.0256104
1.95772,0.229981,-0.137839
2.06035,0.140461,-0.168587
2.09083,0.142539,0.0365802
1.86617,0.31229,-0.121264
2.19587,0.0421639,-0.127906
1.99885,0.234811,0.117208
2.0934,0.142715,0.0854853
1.96832,0.231225,-0.0923178
2.07632,0.141551,-0.109068
2.00702,0.235772,0.248126
2.09217,0.142631,0.171191
1.88027,0.314651,-0.0776695
2.04529,0.240267,0.551802
2.13575,0.145602,0.390307
1.9858,0.233279,-0.0465263
1.87474,0.307001,-0.0331596
2.03927,0.131874,-0.408708
1.97522,0.225048,0
2.20358,0.034617,-0.0256569
2.05509,0.132897,-0.262133
1.87894,0.307689,0.0110659
2.0876,0.135,-0.0121585
1.95201,0.222403,-0.211624
2.18224,0.0342818,-0.203733
1.99853,0.227704,0.0468054
2.21558,0.0348055,0.0257966
1.97041,0.2245,-0.138676
2.07276,0.13404,-0.169564
2.08732,0.134981,0.0365104
2.10984,0.136438,0.0861366
1.97308,0.224805,-0.0925039
2.08478,0.134817,-0.109487
2.01178,0.229214,0.248613
2.10061,0.135841,0.171842
1.88136,0.308085,-0.0776695
2.04996,0.233563,0.552837
2.13625,0.138145,0.390307
1.99455,0.227251,-0.0467124
1.8837,0.301719,-0.0332992
2.04755,0.125233,-0.410277
2.21968,0.0271197,-0.0258432
2.06742,0.126449,-0.263648
2.09605,0.1282,-0.012205
2.19031,0.0267609,-0.204477
2.00328,0.221164,0.0468985
2.22368,0.0271686,0.0258898
1.97515,0.218058,-0.138955
2.08913,0.127777,-0.170865
2.10375,0.128671,0.0367897
1.87619,0.300516,-0.121775
2.2041,0.0269293,-0.128371
2.00837,0.221726,0.117673
2.1103,0.129071,0.0861366
1.9818,0.218792,-0.0928761
2.09321,0.128026,-0.109906
2.01651,0.222625,0.249101
2.10903,0.128994,0.172493
1.89426,0.303412,-0.078158
2.14064,0.130927,0.391024
1.99533,0.220287,-0.0467124
2.06364,0.118989,-0.413415
2.22376,0.0194068,-0.0258898
2.07181,0.11946,-0.264153
2.10048,0.121113,-0.0122283
2.19836,0.0191851,-0.205221
2.00802,0.214596,0.0469915
2.23176,0.0194766,0.0259829
1.98383,0.212011,-0.139513
2.10151,0.121172,-0.171842
1.90793,0.298774,0.0562029
2.11616,0.122017,0.0369991
1.88906,0.295818,-0.122543
2.21217,0.0193056,-0.128836
2.01708,0.215564,0.118138
2.11872,0.122165,0.0864623
1.98652,0.212298,-0.0930622
2.02123,0.216007,0.249588
2.11743,0.12209,0.173144
1.89926,0.297416,-0.0783208
2.15287,0.124134,0.393177
2.00404,0.214171,-0.0468985
1.89762,0.290376,-0.0335086
2.06404,0.111784,-0.413415
2.23182,0.0116856,-0.0259829
2.08411,0.112871,-0.265668
1.90183,0.291021,0.0111821
2.11686,0.114645,-0.0123213
2.21036,0.0115732,-0.206336
2.01671,0.208407,0.0471777
2.23582,0.0117065,0.0260295
1.98853,0.205494,-0.139792
2.10988,0.114267,-0.172493
1.91291,0.292717,0.0563193
2.12856,0.115278,0.0372085
1.89797,0.29043,-0.123054
2.2242,0.0116457,-0.129534
2.02973,0.209752,0.118836
2.12712,0.1152,0.0867879
2.11001,0.114274,-0.110743
2.02592,0.209358,0.250076
2.12182,0.114913,0.173469
1.90819,0.291993,-0.0786465
2.16901,0.117469,0.396046
1.90653,0.284934,-0.0336482
2.10441,0.106606,-0.0613228
2.07225,0.104977,-0.414984
2.00205,0.199832,0
2.23584,0.00390351,-0.0260295
2.09241,0.105998,-0.266678
1.90679,0.284973,0.0112054
2.12923,0.107863,-0.012391
2.21437,0.00386601,-0.206708
2.02538,0.202161,0.0473638
2.25184,0.00393144,0.0262157
2.1023,0.106499,-0.171842
2.13294,0.108051,0.0372783
1.91081,0.285574,-0.123822
2.22822,0.0038902,-0.129766
2.03045,0.202667,0.118836
2.1275,0.107776,0.0867879
2.11837,0.107313,-0.111162
2.02663,0.202286,0.250076
2.12619,0.107709,0.173795
1.91315,0.285923,-0.0788093
2.02141,0.201764,-0.0472707
2.11675,0.099824,-0.0616719
2.08044,0.0981117,-0.416553
2.01468,0.193992,0
2.24784,-0.0039226,-0.0261692
2.09277,0.0986931,-0.266678
2.1296,0.10043,-0.012391
2.22632,-0.00388503,-0.207823
2.03006,0.195473,0.0474568
2.25984,-0.00394354,0.0263088
1.99786,0.192372,-0.14035
2.11859,0.0999108,-0.173144
1.91887,0.279933,0.0564356
2.14129,0.100981,0.037418
1.90785,0.278326,-0.123566
2.23621,-0.00390229,-0.130231
2.0391,0.196343,0.119301
2.13984,0.100913,0.0872764
2.00455,0.193016,-0.0938067
2.03918,0.196352,0.251538
2.1385,0.10085,0.174771
1.91809,0.279819,-0.0789721
2.03006,0.195473,-0.0474568
2.12508,0.0927828,-0.0619047
2.10036,0.0917039,-0.420475
2.01933,0.187328,0
2.25582,-0.0118115,-0.0262623
2.10896,0.0920791,-0.268699
2.14192,0.0935184,-0.0124607
2.24222,-0.0117403,-0.20931
2.03869,0.189124,0.0476429
2.26782,-0.0118743,0.026402
2.00249,0.185766,-0.140629
2.12689,0.0928621,-0.173795
1.93567,0.275486,0.0569011
2.14962,0.0938546,0.0375576
1.91671,0.272789,-0.124078
2.24017,-0.0117296,-0.130464
2.04375,0.189593,0.119534
2.15616,0.0941398,0.0879277
2.00919,0.186387,-0.0939929
2.13902,0.0933918,-0.112208
2.15079,0.0939055,0.175747
1.92301,0.273685,-0.079135
2.03471,0.188754,-0.0475499
1.92922,0.267702,-0.0339973
2.10067,0.0843721,-0.420475
2.03192,0.181345,0
2.26376,-0.019755,-0.0263554
2.12116,0.0851951,-0.270214
1.92552,0.267188,0.0112984
2.14623,0.0862021,-0.012484
2.24615,-0.0196013,-0.209682
2.04332,0.182362,0.047736
2.27976,-0.0198946,0.0265417
2.01108,0.179484,-0.141187
2.14314,0.0860778,-0.175096
1.93662,0.268728,0.0569011
2.15793,0.086672,0.0376972
1.92952,0.267743,-0.124845
2.25609,-0.0196881,-0.131394
2.05235,0.183168,0.119999
2.15248,0.0864529,0.0877649
2.0138,0.179728,-0.094179
2.14732,0.0862458,-0.112627
2.05237,0.183169,0.253001
2.15907,0.0867178,0.176398
1.93979,0.269168,-0.0797863
2.04332,0.182362,-0.047736
1.9341,0.261501,-0.0340671
2.11663,0.0776133,-0.423613
2.0445,0.175275,0
2.27568,-0.0278041,-0.0264951
2.00838,0.172179,-0.313604
2.13334,0.078226,-0.271729
1.94229,0.262608,0.0113914
2.16251,0.0792956,-0.012577
2.25403,-0.0275397,-0.210425
2.05192,0.175911,0.0479221
2.28767,-0.0279507,0.0266348
2.15139,0.0788879,-0.175747
1.94943,0.263573,0.0572502
1.93439,0.26154,-0.125101
2.26799,-0.0277102,-0.132092
2.05696,0.176343,0.120232
2.16475,0.0793776,0.0882534
2.03034,0.174062,-0.0949235
2.15559,0.0790418,-0.113046
2.05695,0.176343,0.253488
2.17131,0.0796183,0.177375
1.94072,0.262395,-0.0797863
1.95082,0.257177,-0.0343463
2.1459,0.0715621,-0.0624865
2.12864,0.0709865,-0.425967
2.04906,0.168824,0
2.27957,-0.035412,-0.0265417
2.14549,0.0715484,-0.273244
1.95109,0.257212,0.0114378
2.17475,0.0725244,-0.0126467
2.26587,-0.0351993,-0.211541
2.05647,0.169435,0.0480151
2.29157,-0.0355984,0.0266814
2.15563,0.0718865,-0.176073
1.95426,0.25763,0.0573665
2.17846,0.0726479,0.0380462
1.94317,0.256168,-0.125613
2.28385,-0.0354786,-0.133022
2.06151,0.16985,0.120464
2.17299,0.0724655,0.0885791
2.03091,0.167328,-0.0949235
2.06544,0.170173,0.254463
2.17555,0.0725509,0.1777
1.9495,0.257003,-0.0801119
2.05647,0.169435,-0.0480151
1.9477,0.250197,-0.0342765
2.15811,0.064805,-0.0628356
1.98909,0.157243,-0.55856
2.1367,0.0641621,-0.427536
2.06157,0.162973,0
2.28744,-0.0431226,-0.0266348
2.14175,0.0643136,-0.272739
1.94796,0.25023,0.0114146
2.27769,-0.0429388,-0.212656
2.065,0.163244,0.0482012
2.30343,-0.0434241,0.0268211
1.96303,0.252166,0.0575993
2.18668,0.0656629,0.0381859
1.94796,0.250231,-0.125868
2.29171,-0.0432031,-0.133487
2.06604,0.163327,0.120697
2.1892,0.0657384,0.0892304
2.0434,0.161537,-0.0954819
2.0937,0.165513,0.257876
2.18773,0.0656945,0.178676
1.95431,0.251046,-0.0802748
2.06101,0.162929,-0.0481082
1.95257,0.243552,-0.0343463
2.16233,0.0570006,-0.0629519
2.14477,0.0565375,-0.429105
2.06614,0.155717,0
2.30326,-0.0518659,-0.0268211
2.02976,0.152975,-0.316679
2.15783,0.056882,-0.27476
1.96077,0.244575,0.0114843
2.1872,0.0576562,-0.0127165
2.29345,-0.0516449,-0.214143
2.07356,0.156276,0.0483873
2.31126,-0.0520459,0.0269142
2.04121,0.153838,-0.14314
2.17202,0.0572558,-0.177375
1.97188,0.24596,0.057832
2.1949,0.0578591,0.0383255
1.95283,0.243584,-0.126124
2.28754,-0.0515119,-0.133255
2.07459,0.156354,0.121162
2.20141,0.0580306,0.0897188
2.05593,0.154948,-0.0960402
2.09429,0.157838,0.257876
2.19992,0.0579912,0.179653
1.96315,0.244871,-0.0806004
2.06558,0.155675,-0.0482012
1.95738,0.237216,-0.0344161
2.17051,0.0496355,-0.0631846
2.14887,0.0491406,-0.429889
2.07066,0.148791,0
2.31506,-0.0602169,-0.0269608
2.03028,0.145889,-0.316679
2.16199,0.0494405,-0.275265
1.97353,0.239173,0.0115541
2.19939,0.0502958,-0.0127862
2.29325,-0.0596497,-0.214143
2.07808,0.149324,0.0484804
2.31906,-0.060321,0.0270073
2.0497,0.147284,-0.143698
2.18416,0.0499476,-0.178351
1.97669,0.239557,0.0579483
2.20309,0.0503805,0.0384651
1.96159,0.237727,-0.126636
2.30332,-0.0599115,-0.134185
2.08309,0.149684,0.121627
2.1976,0.050255,0.089556
2.06443,0.148343,-0.0964125
2.11067,0.151665,0.259825
2.21206,0.0505856,0.180629
1.96796,0.238498,-0.0807633
2.14269,0.153967,0.575614
2.07409,0.149037,-0.0483873
1.96614,0.231316,-0.0345558
2.18666,0.042368,-0.0636501
2.15687,0.0417907,-0.431458
2.08314,0.14238,0
2.32283,-0.0685342,-0.0270539
2.04261,0.139609,-0.318523
2.17801,0.0422004,-0.277285
1.98229,0.233217,0.0116006
2.30895,-0.0681247,-0.21563
2.09455,0.143159,0.0488526
2.32283,-0.0685342,0.0270539
2.05816,0.140672,-0.144256
2.19229,0.0424771,-0.179002
1.98546,0.233589,0.0581811
1.96241,0.230878,-0.126636
2.31108,-0.0681873,-0.13465
2.08758,0.142683,0.121859
2.21774,0.0429702,0.0903702
2.06892,0.141408,-0.0965986
2.10722,0.144026,0.259338
2.21222,0.0428632,0.180629
1.97275,0.232094,-0.0809261
2.13936,0.146222,0.574578
2.07859,0.142068,-0.0484804
1.97488,0.225358,-0.0346954
2.19879,0.0349247,-0.0639992
2.16877,0.0344479,-0.433811
2.08762,0.135365,0
2.32658,-0.0767745,-0.0271004
2.04702,0.132733,-0.319138
2.18212,0.0346599,-0.27779
1.99104,0.227202,0.0116471
2.32064,-0.0765787,-0.216746
2.10301,0.136364,0.0490387
2.33057,-0.0769064,0.027147
2.07059,0.134261,-0.145093
2.19642,0.034887,-0.179327
1.99024,0.22711,0.0582974
1.97114,0.224931,-0.127148
2.10799,0.136687,0.123022
2.22987,0.0354184,0.0908587
2.08934,0.135477,-0.0975292
2.11564,0.137182,0.260313
2.22033,0.0352669,0.18128
1.98149,0.226112,-0.0812517
2.13601,0.138503,0.573543
2.08705,0.135329,-0.0486665
1.98361,0.219343,-0.034835
2.1989,0.0272508,-0.0639992
2.17672,0.026976,-0.43538
2.10405,0.129059,0
2.34628,-0.085623,-0.0273333
2.05537,0.126073,-0.320368
2.19016,0.0271425,-0.2788
1.9958,0.220692,0.0116703
2.06416,0.126612,-0.222762
2.11545,0.129758,0.0493179
2.34228,-0.0854771,0.0272867
2.07502,0.127278,-0.145372
2.20051,0.0272708,-0.179653
2.00691,0.221921,0.0587629
2.23149,0.0276547,0.0389538
1.97985,0.218928,-0.127659
2.33848,-0.0853383,-0.136278
2.11643,0.129818,0.123487
2.23797,0.027735,0.0911843
2.09778,0.128674,-0.0979015
2.13592,0.131013,0.26275
2.2324,0.027666,0.182256
1.98624,0.219634,-0.0814146
2.09549,0.128534,-0.0488526
1.9883,0.21319,-0.0349048
2.20697,0.0200308,-0.0642319
2.18464,0.0198282,-0.436949
2.10846,0.122312,0
2.35797,-0.0938811,-0.027473
2.06761,0.119942,-0.322213
2.20214,0.019987,-0.280315
2.0005,0.214498,0.0116936
2.23587,0.0202931,-0.0129954
2.34394,-0.0933226,-0.218976
2.11986,0.122973,0.0494109
2.35398,-0.093722,0.0274264
2.09137,0.12132,-0.146489
2.20856,0.0200452,-0.180304
2.00764,0.215264,0.0587629
2.23957,0.0203266,0.0390934
1.98453,0.212786,-0.127915
2.34616,-0.0934109,-0.136743
2.12482,0.123261,0.123952
2.24205,0.0203492,0.0913472
2.10617,0.122179,-0.0982737
2.1403,0.124159,0.263238
2.24444,0.0203709,0.183233
1.9949,0.213898,-0.0817402
2.17547,0.126199,0.583896
2.0999,0.121815,-0.0489456
1.99702,0.206725,-0.0350444
2.21103,0.0119639,-0.0643483
2.19255,0.0118638,-0.438518
2.11688,0.115017,0
2.3656,-0.10287,-0.0275661
2.07198,0.112578,-0.322828
2.21013,0.011959,-0.281326
2.01321,0.208401,0.0117633
2.0769,0.112846,-0.224047
2.35154,-0.102258,-0.21972
2.13228,0.115854,0.0496901
2.3656,-0.10287,0.0275661
2.09977,0.114088,-0.147047
2.22058,0.0120155,-0.18128
2.02034,0.209139,0.059112
2.24762,0.0121619,0.039233
1.9853,0.205511,-0.127915
2.35378,-0.102356,-0.137208
2.12526,0.115473,0.123952
2.2501,0.0121753,0.0916728
2.1106,0.114676,-0.0984599
2.14867,0.116745,0.264213
2.25646,0.0122097,0.184209
2.00362,0.207409,-0.0820659
2.10832,0.114552,-0.0491318
1.99773,0.199753,-0.0350444
2.22305,0.00426828,-0.0646974
2.20042,0.00422482,-0.440087
2.12126,0.10783,0
2.37722,-0.111691,-0.0277058
2.08026,0.105746,-0.324057
2.21413,0.00425115,-0.281831
2.0179,0.20177,0.0117866
2.0892,0.1062,-0.225332
2.14066,0.108816,0.0498762
2.37722,-0.111691,0.0277058
2.10015,0.106757,-0.147047
2.2246,0.00427124,-0.181606
2.02106,0.202085,0.059112
2.25965,0.00433855,0.0394424
2.00189,0.200168,-0.128938
2.1416,0.108864,0.124883
2.25812,0.00433561,0.0919985
2.11497,0.10751,-0.098646
2.157,0.109646,0.265188
2.26048,0.00434013,0.184535
2.01229,0.201208,-0.0823915
2.1127,0.107395,-0.0492248
2.00631,0.194247,-0.0351841
2.23505,-0.00272989,-0.0650464
2.20827,-0.00269717,-0.441656
2.12958,0.101547,0
2.38484,-0.119558,-0.0277989
2.08453,0.0993984,-0.324672
2.23001,-0.00272373,-0.283851
2.03047,0.196586,0.0118563
2.09747,0.100016,-0.226189
2.3707,-0.118849,-0.221579
2.38884,-0.119759,0.0278455
2.11642,0.100919,-0.148163
2.23257,-0.00272686,-0.182256
2.02567,0.196121,0.0592283
2.26765,-0.00276971,0.0395821
2.00251,0.193879,-0.128938
2.27012,-0.00277272,0.0924869
2.12328,0.101246,-0.0990182
2.16526,0.103248,0.266163
2.27244,-0.00277555,0.185511
2.00893,0.1945,-0.0822287
2.19981,0.104896,0.590108
2.129,0.101519,-0.049597
2.21216,-0.0111967,-0.442441
2.13795,0.0937188,0
2.39635,-0.129362,-0.0279386
2.09279,0.0917393,-0.325902
2.23395,-0.0113069,-0.284356
2.03519,0.189158,0.0118796
2.27193,-0.0114992,-0.0132047
2.10578,0.092309,-0.227046
2.37818,-0.128381,-0.222322
2.15734,0.0945691,0.0502484
2.39635,-0.129362,0.0279386
2.12078,0.0929663,-0.148442
2.2445,-0.0113604,-0.183233
2.03835,0.189451,0.0595774
2.27163,-0.0114976,0.0396519
2.00324,0.186188,-0.128938
2.16226,0.0947845,0.126045
2.13563,0.0936173,-0.0995766
2.17357,0.0952806,0.267138
2.28039,-0.011542,0.186162
2.0216,0.187894,-0.0827172
2.14136,0.0938686,-0.0498762
2.22388,-0.0190186,-0.444794
2.14625,0.0865783,0
2.101,0.0847526,-0.327132
2.2458,-0.0192061,-0.285871
2.04381,0.182765,0.011926
2.11404,0.0852789,-0.227903
2.39363,-0.137596,-0.223809
2.41185,-0.138644,0.0281249
2.13305,0.0860458,-0.149279
2.25242,-0.0192628,-0.183884
2.04298,0.182691,0.0596938
2.27957,-0.0194949,0.0397915
2.0158,0.180261,-0.129706
2.40395,-0.138189,-0.140231
2.16656,0.0873976,0.126278
2.28602,-0.0195501,0.0931383
2.14393,0.0864846,-0.0999489
2.18183,0.0880133,0.268113
2.2883,-0.0195696,0.186813
2.03817,0.182261,-0.0833685
