1.85972,0.209587,-0.0435486
1.81996,0.109083,-0.0530611
1.82844,0.109591,-0.366347
1.8689,0.204018,0
1.79977,0.0197911,-0.020954
1.85454,0.202451,-0.290237
1.82596,0.109443,-0.232839
1.82869,0.109606,-0.0106474
1.85419,0.202413,-0.200914
1.78812,0.019663,-0.166928
1.86442,0.203529,0.0436417
1.79177,0.0197032,0.0208608
1.86831,0.203954,-0.131421
1.83061,0.109721,-0.149711
1.82445,0.109352,0.031903
1.89232,0.300731,-0.122798
1.78487,0.0196273,-0.103953
1.81922,0.109039,0.0742501
1.85893,0.20293,-0.0871063
1.8302,0.109696,-0.0960888
1.81072,0.108529,0.148083
1.88674,0.299844,-0.0778323
1.85249,0.202227,-0.0433625
1.81634,0.102504,-0.0529448
1.82098,0.102766,-0.364778
1.86562,0.197073,0
1.79183,0.0134481,-0.0208608
1.85524,0.195976,-0.290237
1.82237,0.102844,-0.232334
1.82507,0.102996,-0.0106242
1.8628,0.196775,-0.201771
1.78818,0.0134207,-0.166928
1.86512,0.197019,0.0436417
1.79183,0.0134481,0.0208608
1.85711,0.196173,-0.130584
1.81904,0.102656,-0.148734
1.82083,0.102757,0.0318332
1.89336,0.294123,-0.122798
1.78892,0.0134263,-0.104185
1.8156,0.102462,0.0740873
1.85963,0.196439,-0.0871063
1.82259,0.102857,-0.0956701
1.8071,0.101982,0.147758
1.88382,0.292642,-0.0776695
1.85716,0.196179,-0.0434555
1.81269,0.0959518,-0.0528284
1.81741,0.0962016,-0.363994
1.85834,0.189747,0
1.79186,0.00719376,-0.0208608
1.84411,0.188294,-0.288393
1.82272,0.0964825,-0.232334
1.82541,0.0966251,-0.0106242
1.85556,0.189464,-0.200914
1.79219,0.00719509,-0.167299
1.86181,0.190102,0.0435486
1.78386,0.00716165,0.0207677
1.85381,0.189285,-0.130305
1.82337,0.0965171,-0.14906
1.81718,0.0961892,0.0317634
1.88254,0.285716,-0.122031
1.77697,0.00713399,-0.103487
1.81196,0.0959128,0.0739244
1.85633,0.189541,-0.0869201
1.81895,0.0962831,-0.0954608
1.79949,0.0952526,0.147107
1.88088,0.285465,-0.0775067
1.85386,0.189289,-0.0433625
1.813,0.0899396,-0.0528284
1.82556,0.0905625,-0.365563
1.85498,0.18319,0
1.78788,0.00124842,-0.0208143
1.84473,0.182178,-0.288393
1.81114,0.0898473,-0.230818
1.82173,0.0903726,-0.0106009
1.84827,0.182527,-0.200057
1.78823,0.00124866,-0.166928
1.86243,0.183926,0.0435486
1.79188,0.00125121,0.0208608
1.85443,0.183136,-0.130305
1.81572,0.0900744,-0.148409
1.81349,0.089964,0.0316936
1.87952,0.278885,-0.121775
1.77699,0.00124082,-0.103487
1.81227,0.0899031,0.0739244
1.85694,0.183384,-0.0869201
1.81128,0.0898544,-0.0950421
1.79979,0.0892843,0.147107
1.87787,0.278639,-0.0773438
1.8505,0.182747,-0.0432694
1.88802,0.273413,-0.0332992
1.8133,0.0836109,-0.0528284
1.81803,0.0838286,-0.363994
1.85162,0.176335,0
1.78387,-0.00498092,-0.0207677
1.83748,0.174988,-0.287163
1.81144,0.0835251,-0.230818
1.81804,0.0838291,-0.0105777
1.84889,0.176075,-0.200057
1.78424,-0.00498194,-0.166556
1.85908,0.177045,0.0434555
1.78387,-0.00498092,0.0207677
1.863,0.177418,-0.130863
1.81602,0.0837362,-0.148409
1.8098,0.0834493,0.0316238
1.87654,0.271751,-0.121519
1.78098,-0.00497284,-0.10372
1.81257,0.0835769,0.0739244
1.85757,0.176901,-0.0869201
1.81159,0.0835316,-0.0950421
1.79213,0.0826344,0.146456
1.87487,0.27151,-0.077181
1.84316,0.175529,-0.0430833
1.87708,0.265143,-0.0330898
1.8016,0.0767696,-0.0524793
1.81831,0.0774815,-0.363994
1.85223,0.16987,0
1.78384,-0.0112082,-0.0207677
1.83415,0.168212,-0.286548
1.81965,0.0775388,-0.231828
1.81033,0.0771414,-0.0105312
1.84553,0.169256,-0.199629
1.77624,-0.0111605,-0.165812
1.85173,0.169824,0.0432694
1.78384,-0.0112082,0.0207677
1.85566,0.170185,-0.130305
1.80834,0.0770567,-0.147758
1.81008,0.077131,0.0316238
1.88143,0.265757,-0.121775
1.77296,-0.0111398,-0.103255
1.80486,0.0769086,0.0735988
1.84624,0.169321,-0.0863618
1.80389,0.0768669,-0.0946234
1.80037,0.0767172,0.147107
1.87185,0.264404,-0.0770182
1.83978,0.168728,-0.0429903
1.87799,0.258589,-0.0330898
1.79786,0.0703245,-0.052363
1.80681,0.0706744,-0.36164
1.84085,0.16235,0
1.78779,-0.0174736,-0.0208143
1.83472,0.161809,-0.286548
1.81991,0.071187,-0.231828
1.88617,0.259715,0.0110659
1.81058,0.0708221,-0.0105312
1.84215,0.162464,-0.199201
1.77221,-0.0173213,-0.16544
1.84832,0.163008,0.0431764
1.77979,-0.0173955,0.0207211
1.84432,0.162655,-0.129468
1.81258,0.0709001,-0.148083
1.81434,0.0709688,0.0316936
1.87443,0.258099,-0.121264
1.76892,-0.0172892,-0.103022
1.80113,0.0704522,0.0734359
1.84682,0.162876,-0.0863618
1.79616,0.0702578,-0.0942047
1.79664,0.0702768,0.146782
1.8688,0.257324,-0.0768554
1.84036,0.162306,-0.0429903
1.87492,0.2515,-0.03302
1.80209,0.0641902,-0.0524793
1.7992,0.0640873,-0.360071
1.84141,0.155922,0
1.77972,-0.0236085,-0.0207211
1.83134,0.155069,-0.285933
1.81619,0.0646921,-0.231323
1.81082,0.0645011,-0.0105312
1.83875,0.155697,-0.198772
1.77214,-0.0235079,-0.16544
1.85287,0.156892,0.0432694
1.77972,-0.0236085,0.0207211
1.83692,0.155542,-0.12891
1.80086,0.0641464,-0.147107
1.80658,0.06435,0.031554
1.87532,0.251554,-0.121264
1.76885,-0.0234642,-0.103022
1.82238,0.154311,0.106511
1.80536,0.0643064,0.0735988
1.85136,0.156765,-0.0865479
1.80039,0.0641294,-0.0944141
1.78094,0.0634368,0.14548
1.86177,0.249736,-0.0765297
1.83294,0.155205,-0.0428042
1.87579,0.244954,-0.03302
1.79831,0.0577713,-0.052363
1.80726,0.0580588,-0.36164
1.84992,0.150141,0
1.78363,-0.0298874,-0.0207677
1.83187,0.148676,-0.285933
1.80847,0.0580976,-0.230313
1.81104,0.0581801,-0.0105312
1.83135,0.148634,-0.197915
1.77603,-0.02976,-0.165812
1.84543,0.149777,0.0430833
1.77563,-0.0297533,0.0206746
1.84143,0.149453,-0.129189
1.80506,0.0579882,-0.147432
1.8028,0.0579154,0.0314841
1.86431,0.243456,-0.120496
1.77275,-0.029705,-0.103255
1.85475,0.150533,0.108371
1.80158,0.0578762,0.0734359
1.84791,0.149979,-0.0863618
1.8006,0.0578448,-0.0944141
1.78912,0.0574762,0.146131
1.86263,0.243236,-0.0765297
1.83746,0.14913,-0.0428972
1.87266,0.2379,-0.0329501
1.7945,0.0513788,-0.0522466
1.80353,0.0516372,-0.360856
1.83847,0.142753,0
1.77951,-0.0360327,-0.0207211
1.82843,0.141974,-0.285318
1.80073,0.0515569,-0.229303
1.86101,0.23642,0.0109032
1.80723,0.0517431,-0.0105079
1.83979,0.142856,-0.198772
1.77193,-0.0358792,-0.16544
1.84196,0.143024,0.0429903
1.77552,-0.0359517,0.0206746
1.84592,0.143332,-0.129468
1.80127,0.0515724,-0.147107
1.79899,0.0515072,0.0314143
1.86119,0.236443,-0.12024
1.76066,-0.0356508,-0.102557
1.82341,0.141584,0.106511
1.80576,0.0517011,0.0735988
1.84444,0.143217,-0.0861756
1.80079,0.0515587,-0.0944141
1.78134,0.0510019,0.14548
1.86346,0.236732,-0.0765297
1.79368,0.0513553,0.327169
1.83398,0.142405,-0.0428042
1.86157,0.229892,-0.0327407
1.78668,0.0449139,-0.0520139
1.79978,0.0452432,-0.360071
1.83895,0.136335,0
1.77938,-0.0422438,-0.0207211
1.82892,0.135592,-0.285318
1.80486,0.045371,-0.229808
1.86183,0.229923,0.0109032
1.8034,0.0453342,-0.0104847
1.83631,0.136139,-0.198344
1.76781,-0.0419693,-0.165069
1.83048,0.135707,0.0427111
1.76738,-0.041959,0.0205814
1.83049,0.135708,-0.128352
1.79745,0.0451847,-0.146782
1.79916,0.0452276,0.0314143
1.86201,0.229946,-0.12024
1.76052,-0.0417961,-0.102557
1.8239,0.135219,0.106511
1.79794,0.045197,0.0732731
1.83298,0.135892,-0.0856173
1.80096,0.0452729,-0.0944141
1.78549,0.0448841,0.145805
1.86031,0.229737,-0.0763669
1.83048,0.135707,-0.0427111
1.86236,0.223393,-0.0327407
1.78682,0.0386773,-0.0520139
1.796,0.038876,-0.359287
1.82745,0.12907,0
1.77922,-0.0484543,-0.0207211
1.82938,0.129207,-0.285318
1.80104,0.0389851,-0.229303
1.85467,0.22247,0.0108567
1.80755,0.0391259,-0.0105079
1.82884,0.129169,-0.197487
1.75571,-0.0478142,-0.163953
1.83493,0.129599,0.0428042
1.76723,-0.0481277,0.0205814
1.83096,0.129318,-0.128352
1.80158,0.0389968,-0.147107
1.8033,0.039034,0.0314841
1.86676,0.22392,-0.120496
1.76436,-0.0480495,-0.10279
1.82037,0.128571,0.106278
1.80208,0.0390076,0.0734359
1.8454,0.130338,-0.0861756
1.79312,0.0388136,-0.0939954
1.78564,0.0386517,0.145805
1.85714,0.222766,-0.076204
1.77826,0.038492,0.324299
1.82695,0.129035,-0.0426181
1.85916,0.216428,-0.0326709
1.79095,0.032512,-0.0521302
1.79221,0.0325349,-0.358502
1.82789,0.12269,0
1.76705,-0.0542966,-0.0205814
1.81799,0.122026,-0.283473
1.80117,0.0326976,-0.229303
1.85941,0.216457,0.0108799
1.79967,0.0326704,-0.0104614
1.82928,0.122784,-0.197487
1.7635,-0.0541876,-0.164697
1.83138,0.122925,0.0427111
1.75905,-0.0540509,0.0204883
1.82742,0.122659,-0.128073
1.78975,0.0324903,-0.146131
1.79543,0.0325934,0.0313445
1.8596,0.216479,-0.119984
1.76418,-0.0542085,-0.10279
1.82081,0.122215,0.106278
1.79422,0.0325714,0.0731103
1.83388,0.123092,-0.0856173
1.79324,0.0325537,-0.0939954
1.78576,0.0324179,0.145805
1.84996,0.215357,-0.0758784
1.83537,0.123193,-0.0428042
1.86388,0.210386,-0.0327407
1.78305,0.0261434,-0.0518975
1.78839,0.0262216,-0.357718
1.8283,0.116309,0
1.76685,-0.0604641,-0.0205814
1.81841,0.11568,-0.283473
1.79334,0.0262942,-0.228293
1.85618,0.209517,0.0108567
1.79578,0.0263299,-0.0104382
1.82176,0.115893,-0.19663
1.75932,-0.0602064,-0.164325
1.82781,0.116278,0.0426181
1.76685,-0.0604641,0.0205814
1.8358,0.116786,-0.128631
1.78587,0.0261846,-0.145805
1.79153,0.0262677,0.0312747
1.85638,0.209539,-0.119729
1.752,-0.0599562,-0.102092
1.81724,0.115605,0.106046
1.79032,0.02625,0.0729474
1.8343,0.116691,-0.0856173
1.79335,0.0262943,-0.0939954
1.77789,0.0260677,0.145154
1.8507,0.208899,-0.0758784
1.82781,0.116278,-0.0426181
1.85267,0.202574,-0.0325313
1.78713,0.0199634,-0.0520139
1.78847,0.0199783,-0.357718
1.82471,0.109686,0
1.76263,-0.0664809,-0.0205349
1.81091,0.108857,-0.282244
1.78548,0.019945,-0.227283
1.84497,0.201732,0.0107869
1.79586,0.0200609,-0.0104382
1.81818,0.109294,-0.196202
1.75512,-0.0661976,-0.163953
1.8282,0.109896,0.0426181
1.76662,-0.0666316,0.0205814
1.83221,0.110137,-0.128352
1.78595,0.0199502,-0.145805
1.84422,0.20165,0.053992
1.78362,0.0199241,0.0311351
1.8571,0.203058,-0.119729
1.75577,-0.0662224,-0.102325
1.81365,0.109021,0.105813
1.7904,0.0199999,0.0729474
1.83071,0.110047,-0.0854311
1.78943,0.0199891,-0.093786
1.77399,0.0198166,0.144829
1.84347,0.201568,-0.0755527
1.81623,0.109177,-0.0423389
1.84939,0.195684,-0.0324615
1.7752,0.0136324,-0.0516648
1.7846,0.0137047,-0.356934
1.82508,0.103316,0
1.76638,-0.0727984,-0.0205814
1.82311,0.103204,-0.284088
1.78951,0.0137423,-0.227788
1.84964,0.195711,0.0108102
1.79192,0.0137608,-0.0104149
1.81458,0.102721,-0.195773
1.74692,-0.0719961,-0.16321
1.82059,0.103062,0.042432
1.76238,-0.0726337,0.0205349
1.8286,0.103515,-0.128073
1.78202,0.0136848,-0.14548
1.84094,0.19479,0.0538757
1.79167,0.013759,0.0312747
1.8578,0.196573,-0.119729
1.75154,-0.0721868,-0.102092
1.81003,0.102464,0.10558
1.78647,0.013719,0.0727846
1.8231,0.103204,-0.0850589
1.7855,0.0137115,-0.0935767
1.77405,0.0136236,0.144829
1.85212,0.195972,-0.0758784
1.82059,0.103062,-0.042432
1.84605,0.189143,-0.0323917
1.77123,0.0077285,-0.0515484
1.77287,0.00773566,-0.35458
1.81343,0.0966247,0
1.76613,-0.0786551,-0.0205814
1.8195,0.0969482,-0.283473
1.78558,0.00779109,-0.227283
1.8463,0.189169,0.0107869
1.79195,0.00781891,-0.0104149
1.81888,0.0969153,-0.196202
1.75463,-0.0781428,-0.163953
1.81693,0.0968113,0.0423389
1.75814,-0.0782992,0.0204883
1.81299,0.0966016,-0.126957
1.78205,0.00777572,-0.14548
1.84158,0.188684,0.0538757
1.78771,0.0078004,0.0312049
1.84653,0.189191,-0.118961
1.75129,-0.0779944,-0.102092
1.81036,0.0964612,0.10558
1.7825,0.00777768,0.0726218
1.82343,0.0971578,-0.0850589
1.77754,0.00775604,-0.093158
1.77807,0.00775833,0.145154
1.85276,0.18983,-0.0758784
1.81693,0.0968113,-0.0423389
1.8467,0.182698,-0.0323917
1.76725,0.00154258,-0.0514321
1.77681,0.00155093,-0.355365
1.81375,0.0902944,0
1.76185,-0.0846273,-0.0205349
1.80798,0.0900072,-0.281629
1.78559,0.00155859,-0.227283
1.85093,0.183117,0.0108102
1.78797,0.00156067,-0.0103917
1.82318,0.0907638,-0.19663
1.75036,-0.0840756,-0.163582
1.81726,0.0904688,0.0423389
1.74986,-0.0840516,0.0203952
1.81332,0.0902729,-0.126957
1.77808,0.00155204,-0.145154
1.83426,0.181468,0.0536429
1.78373,0.00155696,0.0311351
1.84717,0.182745,-0.118961
1.75101,-0.0841067,-0.102092
1.81069,0.0901417,0.10558
1.77852,0.00155242,0.072459
1.81578,0.0903953,-0.0846866
1.78555,0.00155855,-0.0935767
1.76612,0.0015416,0.144178
1.84148,0.182181,-0.0753899
1.76294,0.00153882,0.321429
1.81726,0.0904688,-0.0423389
1.84335,0.175871,-0.0323219
1.77124,-0.00463722,-0.0515484
1.77288,-0.00464151,-0.35458
1.81006,0.0837772,0
1.76154,-0.0907773,-0.0205349
1.81224,0.0838778,-0.282244
1.78162,-0.00466438,-0.226778
1.83961,0.175515,0.0107404
1.78796,-0.00468099,-0.0103917
1.82349,0.0843986,-0.19663
1.75006,-0.0901855,-0.163582
1.82156,0.0843092,0.042432
1.74956,-0.0901597,0.0203952
1.81363,0.0839421,-0.126957
1.77409,-0.00464468,-0.144829
1.82295,0.173924,0.0532939
1.77572,-0.00464895,0.0309955
1.83985,0.175537,-0.118449
1.75469,-0.0904243,-0.102325
1.807,0.0836355,0.105348
1.77852,-0.00465627,0.072459
1.81209,0.0838712,-0.0845005
1.77755,-0.00465374,-0.093158
1.75815,-0.00460293,0.143527
1.83414,0.174992,-0.0750642
1.7708,-0.00463606,0.322864
1.81357,0.0839395,-0.0422459
1.84395,0.169435,-0.0323219
1.76722,-0.0107952,-0.0514321
1.77678,-0.0108536,-0.355365
1.80635,0.0772878,0
1.75323,-0.0964857,-0.0204417
1.81647,0.0777208,-0.282858
1.77762,-0.0108588,-0.226273
1.83623,0.168726,0.0107172
1.78794,-0.0109218,-0.0103917
1.80788,0.0773533,-0.194917
1.74973,-0.0962934,-0.163582
1.81385,0.0776088,0.0422459
1.74923,-0.0962659,0.0203952
1.81391,0.0776113,-0.126957
1.77407,-0.010837,-0.144829
1.83151,0.168292,0.0535266
1.7797,-0.0108714,0.0310653
1.83648,0.168749,-0.118194
1.74241,-0.0958902,-0.101627
1.80329,0.0771571,0.105115
1.77849,-0.0108641,0.072459
1.81637,0.0777165,-0.0846866
1.77753,-0.0108582,-0.093158
1.76211,-0.010764,0.143852
1.83474,0.168589,-0.0750642
1.80985,0.0774379,-0.0421528
1.83656,0.162293,-0.0321822
1.76317,-0.016926,-0.0513157
1.77673,-0.0170561,-0.355365
1.80661,0.0709815,0
1.75687,-0.102839,-0.0204883
1.80488,0.0709137,-0.281014
1.77361,-0.0170261,-0.225768
1.83283,0.161963,0.0106939
1.77989,-0.0170864,-0.0103452
1.79622,0.0705733,-0.193631
1.73348,-0.10147,-0.162094
1.80612,0.0709623,0.0420598
1.74489,-0.102138,0.0203486
1.81018,0.071122,-0.126678
1.77402,-0.0170301,-0.144829
1.82412,0.161193,0.0532939
1.77965,-0.0170841,0.0310653
1.83706,0.162337,-0.118194
1.74206,-0.101972,-0.101627
1.79956,0.0707047,0.104883
1.77045,-0.0169958,0.0721333
1.81263,0.0712184,-0.0845005
1.77348,-0.017025,-0.0929487
1.76206,-0.0169153,0.143852
1.83134,0.161832,-0.0749014
1.75105,-0.0168096,0.319277
1.81011,0.0711193,-0.0421528
1.82516,0.154867,-0.0319728
1.7591,-0.0230278,-0.0511993
1.76097,-0.0230522,-0.352227
1.79485,0.064246,0
1.7565,-0.108971,-0.0204883
1.80512,0.0646134,-0.281014
1.77354,-0.0232167,-0.225768
1.83338,0.155565,0.0106939
1.78382,-0.0233513,-0.0103685
1.80043,0.0644455,-0.19406
1.73312,-0.10752,-0.162094
1.80236,0.0645147,0.0419667
1.73654,-0.107733,0.0202555
1.80643,0.0646605,-0.126399
1.76996,-0.0231699,-0.144503
1.82068,0.154487,0.0531775
1.77958,-0.0232958,0.0310653
1.83761,0.155924,-0.118194
1.74169,-0.108052,-0.101627
1.7998,0.064423,0.104883
1.77038,-0.0231754,0.0721333
1.80489,0.0646052,-0.0841283
1.76543,-0.0231105,-0.09253
1.78544,0.0639091,0.219365
1.75401,-0.0229611,0.143201
1.82791,0.155101,-0.0747386
1.75098,-0.0229214,0.319277
1.80635,0.0646578,-0.0420598
1.82569,0.148496,-0.0319728
1.76301,-0.029234,-0.0513157
1.76872,-0.0293287,-0.353796
1.79906,0.0581099,0
1.75212,-0.11484,-0.0204417
1.80138,0.0581848,-0.280399
1.78138,-0.0295386,-0.226778
1.8379,0.149489,0.0107172
1.77173,-0.0293785,-0.0102987
1.80461,0.0582893,-0.194488
1.73273,-0.113569,-0.162094
1.80657,0.0583524,0.0420598
1.73616,-0.113793,0.0202555
1.79468,0.0579684,-0.125562
1.7619,-0.0292155,-0.143852
1.81324,0.147483,0.0529448
1.77149,-0.0293745,0.0309257
1.83417,0.149185,-0.117938
1.74529,-0.114392,-0.10186
1.79602,0.0580116,0.10465
1.76629,-0.0292884,0.0719705
1.80111,0.058176,-0.0839422
1.76933,-0.0293387,-0.0927393
1.74595,-0.0289511,0.142551
1.82047,0.148071,-0.0744129
1.75089,-0.029033,0.319277
1.80657,0.0583524,-0.0420598
1.83417,0.142742,-0.0321124
1.7629,-0.0353883,-0.0513157
1.76469,-0.0354243,-0.353011
1.79526,0.051714,0
1.73974,-0.120129,-0.020302
1.80157,0.0518959,-0.280399
1.76936,-0.0355181,-0.225263
1.82645,0.142141,0.0106474
1.77961,-0.0357238,-0.0103452
1.79288,0.0516456,-0.193203
1.7363,-0.119891,-0.162466
1.80276,0.0519303,0.0419667
1.72777,-0.119302,0.0201624
1.80285,0.0519327,-0.12612
1.76577,-0.035446,-0.144178
1.81773,0.141463,0.0530611
1.76737,-0.0354782,0.0308559
1.8307,0.142472,-0.117682
1.74488,-0.120484,-0.10186
1.79222,0.0516265,0.104418
1.76618,-0.0354542,0.0719705
1.80529,0.0520032,-0.0841283
1.76522,-0.035435,-0.09253
1.78584,0.0514429,0.219365
1.74983,-0.0351259,0.142876
1.82098,0.141715,-0.0744129
1.75471,-0.035224,0.319994
1.80276,0.0519303,-0.0419667
1.81871,0.135154,-0.0318332
1.75477,-0.041353,-0.051083
1.76063,-0.0414912,-0.352227
1.79143,0.0453462,0
1.74729,-0.126779,-0.0203952
1.79779,0.0455073,-0.279784
1.76526,-0.0416003,-0.224757
1.82693,0.135765,0.0106474
1.77548,-0.041841,-0.010322
1.7851,0.0451861,-0.192346
1.7319,-0.125663,-0.162094
1.80293,0.0456376,0.0419667
1.73931,-0.126201,0.020302
1.80302,0.0456397,-0.12612
1.76563,-0.041609,-0.144178
1.81423,0.134821,0.0529448
1.76324,-0.0415527,0.030786
1.8272,0.135785,-0.117426
1.73649,-0.125996,-0.101394
1.79239,0.0453706,0.104418
1.77004,-0.0417129,0.0721333
1.80546,0.0457016,-0.0841283
1.76908,-0.0416902,-0.0927393
1.78601,0.0452092,0.219365
1.74969,-0.0412333,0.142876
1.82545,0.135655,-0.0745757
1.79894,0.0455364,-0.0418737
1.81917,0.128804,-0.0318332
1.75461,-0.0474785,-0.051083
1.75656,-0.047531,-0.351442
1.79157,0.0390923,0
1.74683,-0.132878,-0.0203952
1.79399,0.0391449,-0.279169
1.76907,-0.0478697,-0.225263
1.8234,0.129104,0.0106242
1.77132,-0.0479306,-0.0102987
1.7932,0.0391277,-0.193203
1.72748,-0.131406,-0.161723
1.79908,0.0392562,0.0418737
1.72689,-0.131361,0.0201624
1.78721,0.0389971,-0.125004
1.76149,-0.0476646,-0.143852
1.8107,0.128204,0.0528284
1.76708,-0.0478159,0.0308559
1.82368,0.129124,-0.11717
1.73205,-0.131754,-0.101162
1.78854,0.0390262,0.104185
1.7579,-0.0475673,0.0716448
1.79762,0.0392243,-0.083756
1.76493,-0.0477576,-0.09253
1.79807,0.0392339,0.220827
1.74555,-0.0472333,0.142551
1.81794,0.128717,-0.0742501
1.79509,0.0391689,-0.0417806
1.81163,0.121916,-0.0316936
1.74645,-0.0533587,-0.0508503
1.75246,-0.0535425,-0.350658
1.7837,0.0326917,0
1.74636,-0.138975,-0.0203952
1.79806,0.0329549,-0.279784
1.7689,-0.0540447,-0.225263
1.82384,0.122738,0.0106242
1.77114,-0.0541133,-0.0102987
1.78935,0.0327952,-0.192775
1.73098,-0.137751,-0.162094
1.79521,0.0329027,0.0417806
1.71845,-0.136754,0.0200692
1.7993,0.0329777,-0.125841
1.75733,-0.0536913,-0.143527
1.80715,0.121615,0.052712
1.76691,-0.0539839,0.0308559
1.82811,0.123025,-0.117426
1.7276,-0.137482,-0.100929
1.78867,0.0327827,0.104185
1.75772,-0.0537032,0.0716448
1.78976,0.0328027,-0.0833838
1.76076,-0.0537961,-0.0923206
1.77437,0.0325208,0.217902
1.75335,-0.0535696,0.143201
1.82236,0.122639,-0.0744129
1.79521,0.0329027,-0.0417806
1.82002,0.116101,-0.0318332
1.75024,-0.0595907,-0.0509666
1.75226,-0.0596594,-0.350658
1.7878,0.0265245,0
1.72992,-0.143745,-0.0202089
1.79026,0.0265611,-0.278554
1.76473,-0.0600839,-0.224757
1.82825,0.116626,0.0106474
1.77494,-0.0604316,-0.010322
1.78547,0.02649,-0.192346
1.73446,-0.144122,-0.162466
1.79532,0.026636,0.0417806
1.72593,-0.143414,0.0201624
1.78345,0.0264599,-0.124725
1.75315,-0.0596896,-0.143201
1.80756,0.115306,0.052712
1.76671,-0.0601512,0.0308559
1.82454,0.116389,-0.11717
1.73109,-0.143843,-0.101162
1.78478,0.0264797,0.103953
1.75752,-0.0598385,0.0716448
1.79785,0.0266736,-0.083756
1.75657,-0.0598061,-0.0921113
1.77845,0.0263857,0.21839
1.7412,-0.0592826,0.142225
1.8148,0.115768,-0.0740873
1.79532,0.026636,-0.0417806
1.81243,0.109266,-0.0316936
1.75003,-0.0656998,-0.0509666
1.75204,-0.0657756,-0.350658
1.78389,0.0202384,0
1.72941,-0.149783,-0.0202089
1.79035,0.0203117,-0.278554
1.75658,-0.0659459,-0.223747
1.81667,0.109521,0.0105777
1.77072,-0.0664768,-0.0102987
1.78953,0.0203025,-0.192775
1.72997,-0.149832,-0.162094
1.7994,0.0204144,0.0418737
1.71745,-0.148748,0.0200692
1.79151,0.0203249,-0.125283
1.74895,-0.0656593,-0.142876
1.80795,0.108995,0.052712
1.76249,-0.0661677,0.030786
1.81298,0.109299,-0.116403
1.73058,-0.149884,-0.101162
1.78885,0.0202948,0.104185
1.75331,-0.0658231,0.071482
1.78994,0.0203071,-0.0833838
1.75635,-0.0659373,-0.0921113
1.77456,0.0201326,0.217902
1.73301,-0.065061,0.141574
1.81121,0.109192,-0.0739244
1.7914,0.0203237,-0.0416875
1.80482,0.102485,-0.031554
1.74579,-0.0716442,-0.0508503
1.7518,-0.071891,-0.350658
1.77995,0.0139799,0
1.72091,-0.155101,-0.0201158
1.79436,0.0140931,-0.279169
1.75634,-0.0720771,-0.223747
1.81704,0.103179,0.0105777
1.76249,-0.0723294,-0.0102522
1.77368,0.0139308,-0.191061
1.72151,-0.155155,-0.161351
1.79146,0.0140704,0.0416875
1.72489,-0.15546,0.0201624
1.78359,0.0140086,-0.124725
1.75667,-0.0720908,-0.143527
1.80832,0.102684,0.052712
1.75426,-0.0719916,0.0306464
1.80538,0.102517,-0.115891
1.72607,-0.155566,-0.100929
1.78093,0.0139877,0.10372
1.75307,-0.0719429,0.071482
1.78601,0.0140276,-0.0831977
1.7601,-0.0722315,-0.0923206
1.77859,0.0139693,0.21839
1.73277,-0.07111,0.141574
1.80759,0.102642,-0.0737616
1.78746,0.014039,-0.0415945
1.80516,0.0961843,-0.031554
1.74553,-0.0777377,-0.0508503
1.76416,0.00769765,-0.493862
1.75154,-0.0780055,-0.350658
1.77998,0.00776669,0
1.7323,-0.162226,-0.0202555
1.78649,0.00779509,-0.277939
1.764,-0.0785605,-0.224757
1.8134,0.096623,0.0105544
1.75823,-0.0783032,-0.010229
1.77372,0.00773937,-0.191061
1.72096,-0.161163,-0.161351
1.7875,0.00779948,0.0415945
1.72036,-0.161107,0.0201158
1.77964,0.00776518,-0.124446
1.74844,-0.0778675,-0.142876
1.80468,0.0961583,0.0525957
1.75399,-0.0781147,0.0306464
1.8137,0.0966392,-0.116403
1.72154,-0.161218,-0.100697
1.77697,0.00775355,0.103487
1.74482,-0.0777062,0.0711563
1.77806,0.00775828,-0.0828254
1.75585,-0.0781972,-0.0921113
1.77466,0.00774344,0.217902
1.7365,-0.0773354,0.1419
1.81192,0.0965446,-0.0739244
1.7915,0.00781693,-0.0416875
1.80146,0.0903125,-0.0314841
1.74128,-0.0830306,-0.0507339
1.76803,0.00216006,-0.49494
1.74737,-0.0833209,-0.349873
1.78,0.00217468,0
1.7278,-0.167282,-0.0202089
1.78256,0.00217781,-0.277324
1.75979,-0.0839129,-0.224252
1.81769,0.0911259,0.0105777
1.76197,-0.0840169,-0.0102522
1.78169,0.00217675,-0.191918
1.71251,-0.165801,-0.160607
1.78352,0.00217898,0.0415014
1.71984,-0.166511,0.0201158
1.77965,0.00217426,-0.124446
1.75217,-0.0835499,-0.143201
1.80497,0.0904883,0.0525957
1.75773,-0.0838151,0.0307162
1.81001,0.090741,-0.116147
1.725,-0.16701,-0.100929
1.77699,0.002171,0.103487
1.74457,-0.0831873,0.0711563
1.77807,0.00217233,-0.0828254
1.7516,-0.0835227,-0.0919019
1.76673,0.00215847,0.216927
1.73624,-0.0827904,0.1419
1.80823,0.0906516,-0.0737616
1.79151,0.00218875,-0.0416875
1.79777,0.0838374,-0.0314143
1.74098,-0.0891083,-0.0507339
1.76803,-0.00401153,-0.49494
1.74707,-0.0894198,-0.349873
1.776,-0.00402961,0
1.72721,-0.173312,-0.0202089
1.7786,-0.00403552,-0.276709
1.75948,-0.0900552,-0.224252
1.814,0.0845941,0.0105544
1.75767,-0.0899624,-0.010229
1.76976,-0.00401546,-0.190633
1.71589,-0.172176,-0.160979
1.78351,-0.00404666,0.0415014
1.70731,-0.171315,0.0199761
1.77167,-0.00401979,-0.123888
1.74391,-0.0892581,-0.142551
1.79729,0.0838147,0.052363
1.75743,-0.0899502,0.0307162
1.80633,0.0842364,-0.115891
1.7244,-0.17303,-0.100929
1.78098,-0.00404091,0.10372
1.75225,-0.0896851,0.071482
1.77807,-0.00403431,-0.0828254
1.74332,-0.0892281,-0.0914833
1.76276,-0.00399957,0.21644
1.72002,-0.0880354,0.140598
1.79656,0.0837807,-0.0732731
1.79151,-0.00406481,-0.0416875
1.80206,0.0774193,-0.0314841
1.74064,-0.0954888,-0.0507339
1.77185,-0.0105145,-0.496019
1.74281,-0.0956077,-0.349089
1.76797,-0.0104915,0
1.71861,-0.178813,-0.0201158
1.77462,-0.0105309,-0.276094
1.75518,-0.096286,-0.223747
1.8063,0.0776015,0.0105079
1.75333,-0.0961849,-0.0102057
1.77371,-0.0105255,-0.191061
1.71524,-0.178464,-0.160979
1.77949,-0.0105598,0.0414084
1.70667,-0.177572,0.0199761
1.77164,-0.0105133,-0.123888
1.74357,-0.0956492,-0.142551
1.79359,0.0770551,0.0522466
1.7491,-0.0959528,0.0305766
1.79865,0.0772726,-0.115379
1.71979,-0.178936,-0.100697
1.77696,-0.0105448,0.103487
1.74393,-0.0956689,0.0711563
1.77405,-0.0105275,-0.0826393
1.74697,-0.0958359,-0.0916926
1.76273,-0.0104604,0.21644
1.72765,-0.0947757,0.141249
1.79685,0.0771954,-0.0732731
1.78349,-0.0105835,-0.0415014
1.79032,0.0709678,-0.0312747
1.74032,-0.10126,-0.0507339
1.76025,-0.0162832,-0.492784
1.74249,-0.101387,-0.349089
1.77192,-0.0163912,0
1.72198,-0.184939,-0.0201624
1.77062,-0.0163792,-0.27548
1.74297,-0.101414,-0.222232
1.81454,0.071928,0.0105544
1.74901,-0.101766,-0.0101825
1.76571,-0.0163337,-0.190204
1.7186,-0.184576,-0.161351
1.77944,-0.0164607,0.0414084
1.71005,-0.183657,0.0200227
1.77559,-0.0164251,-0.124167
1.74324,-0.101431,-0.142551
1.79783,0.0712653,0.052363
1.74478,-0.10152,0.0305068
1.79491,0.0711495,-0.115124
1.71521,-0.184212,-0.100464
1.76493,-0.0163265,0.10279
1.74759,-0.101684,0.0713192
1.774,-0.0164104,-0.0826393
1.74664,-0.101629,-0.0916926
1.76269,-0.0163057,0.21644
1.72334,-0.100273,0.140923
1.7971,0.0712364,-0.0732731
1.77944,-0.0164607,-0.0414084
1.79455,0.0648625,-0.0313445
1.73596,-0.107088,-0.0506175
1.75248,-0.0223294,-0.490627
1.74212,-0.107468,-0.349089
1.76386,-0.0224743,0
1.72132,-0.190948,-0.0201624
1.77451,-0.0226101,-0.276094
1.75052,-0.107987,-0.223242
1.80679,0.0653047,0.0105079
1.74465,-0.107625,-0.0101592
1.76167,-0.0224464,-0.189776
1.71003,-0.189695,-0.160607
1.78337,-0.022723,0.0415014
1.70542,-0.189184,0.0199761
1.77552,-0.022623,-0.124167
1.7389,-0.10727,-0.142225
1.79407,0.0648449,0.0522466
1.7524,-0.108102,0.0306464
1.79514,0.0648837,-0.115124
1.70662,-0.189317,-0.0999991
1.77285,-0.022589,0.103255
1.73127,-0.106799,0.0706678
1.76994,-0.0225518,-0.0824532
1.74628,-0.107725,-0.0916926
1.76659,-0.0225092,0.216927
1.72696,-0.106533,0.141249
1.79334,0.0648186,-0.0731103
1.77937,-0.0226721,-0.0414084
1.79877,0.0587284,-0.0314143
1.73159,-0.112887,-0.0505012
1.75239,-0.0284465,-0.490627
1.74174,-0.113549,-0.349089
1.76377,-0.0286312,0
1.70873,-0.195591,-0.0200227
1.77442,-0.0288041,-0.276094
1.74617,-0.113838,-0.222737
1.80301,0.0588669,0.0104847
1.74427,-0.113714,-0.0101592
1.7576,-0.0285311,-0.189348
1.69749,-0.194305,-0.159492
1.77928,-0.0288831,0.0414084
1.70475,-0.195136,0.0199761
1.76346,-0.0286262,-0.123329
1.73851,-0.113339,-0.142225
1.79029,0.0584516,0.0521302
1.74403,-0.113698,0.0305068
1.79935,0.0587474,-0.115379
1.70992,-0.195728,-0.100232
1.76478,-0.0286476,0.10279
1.73488,-0.113102,0.0708307
1.76585,-0.0286651,-0.082267
1.73393,-0.11304,-0.0910646
1.75062,-0.0284178,0.214978
1.72658,-0.112561,0.141249
1.79755,0.0586887,-0.0732731
1.77928,-0.0288831,-0.0414084
1.79496,0.0523326,-0.0313445
1.7272,-0.118657,-0.0503848
1.75613,-0.0346393,-0.491705
1.72959,-0.118821,-0.346735
1.75566,-0.03463,0
1.70803,-0.201554,-0.0200227
1.7585,-0.034686,-0.273635
1.74181,-0.119661,-0.222232
1.8032,0.0525729,0.0104847
1.74386,-0.119802,-0.0101592
1.76544,-0.034823,-0.190204
1.70075,-0.200696,-0.159864
1.77517,-0.0350149,0.0413153
1.69612,-0.200148,0.019883
1.76335,-0.0347817,-0.123329
1.73413,-0.119133,-0.1419
1.78648,0.0520854,0.0520139
1.74362,-0.119786,0.0305068
1.79156,0.0522334,-0.114868
1.70526,-0.201227,-0.0999991
1.76866,-0.0348864,0.103022
1.73048,-0.118883,0.0706678
1.76574,-0.0348289,-0.082267
1.73751,-0.119366,-0.0912739
1.75448,-0.0346067,0.215465
1.71027,-0.117494,0.139947
1.78176,0.0519478,-0.0726218
1.77517,-0.0350149,-0.0413153
1.79114,0.0459641,-0.0312747
1.72677,-0.124685,-0.0503848
1.7483,-0.0405904,-0.489549
1.72916,-0.124858,-0.346735
1.75953,-0.040851,0
1.70335,-0.207033,-0.0199761
1.76232,-0.0409159,-0.27425
1.73742,-0.125454,-0.221727
1.79138,0.0459703,0.0104149
1.73944,-0.1256,-0.010136
1.75338,-0.0407084,-0.188919
1.69609,-0.206151,-0.159492
1.77104,-0.0411184,0.0412223
1.69938,-0.20655,0.0199295
1.75524,-0.0407515,-0.122771
1.7337,-0.125186,-0.1419
1.78666,0.0458491,0.0520139
1.73921,-0.125583,0.030437
1.78774,0.045877,-0.114612
1.71247,-0.208142,-0.100464
1.76054,-0.0408746,0.102557
1.72208,-0.124347,0.0703422
1.76161,-0.0408995,-0.0820809
1.74506,-0.126006,-0.0916926
1.75832,-0.040823,0.215953
1.70985,-0.123463,0.139947
1.78993,0.045933,-0.0729474
1.77904,-0.041304,-0.0414084
1.7793,0.0391351,-0.0310653
1.73029,-0.131316,-0.0505012
1.75199,-0.0471014,-0.490627
1.72478,-0.130898,-0.345951
1.75137,-0.0470847,0
1.69861,-0.212777,-0.0199295
1.75426,-0.0471624,-0.27302
1.73695,-0.131821,-0.221727
1.79554,0.0394923,0.0104382
1.74296,-0.132277,-0.0101592
1.7572,-0.0472414,-0.189348
1.69927,-0.212861,-0.159864
1.77488,-0.0477168,0.0413153
1.69464,-0.21228,0.019883
1.76306,-0.047399,-0.123329
1.73323,-0.131539,-0.1419
1.78281,0.0392125,0.0518975
1.73475,-0.131654,0.0303672
1.78391,0.0392365,-0.114356
1.69981,-0.212928,-0.0997666
1.76437,-0.0474343,0.10279
1.72162,-0.130658,0.0703422
1.75746,-0.0472485,-0.0818948
1.73662,-0.131796,-0.0912739
1.75419,-0.0471605,0.215465
1.70541,-0.129428,0.139621
1.78609,0.0392844,-0.0727846
1.76688,-0.0475018,-0.0411292
1.78342,0.032998,-0.0311351
1.72583,-0.137039,-0.0503848
1.74411,-0.0529828,-0.488471
1.73214,-0.137539,-0.34752
1.75919,-0.0534407,0
1.70182,-0.219216,-0.0199761
1.76198,-0.0535256,-0.27425
1.73648,-0.137884,-0.221727
1.79166,0.0331504,0.0104149
1.73451,-0.137727,-0.0101127
1.74112,-0.0528919,-0.187634
1.69457,-0.218282,-0.159492
1.76671,-0.0536691,0.0411292
1.69786,-0.218705,0.0199295
1.76288,-0.0535529,-0.123329
1.73276,-0.137589,-0.1419
1.78694,0.033063,0.0520139
1.73029,-0.137392,0.0302974
1.78403,0.0330093,-0.114356
1.69906,-0.21886,-0.0997666
1.75621,-0.0533504,0.102325
1.71717,-0.13635,0.0701794
1.75329,-0.0532615,-0.0817087
1.73216,-0.137541,-0.0910646
1.74608,-0.0530424,0.21449
1.71289,-0.136011,0.140272
1.78222,0.0329756,-0.0726218
1.76671,-0.0536691,-0.0411292
1.77952,0.027023,-0.0310653
1.7174,-0.142101,-0.0501521
1.74008,-0.0586365,-0.487392
1.72776,-0.142959,-0.346735
1.74701,-0.05887,0
1.70109,-0.224858,-0.0199761
1.76179,-0.0593682,-0.27425
1.73601,-0.143641,-0.221727
1.79176,0.0272089,0.0104149
1.73006,-0.143149,-0.0100895
1.74491,-0.0587993,-0.188062
1.68989,-0.223378,-0.15912
1.76652,-0.0595275,0.0411292
1.68919,-0.223286,0.0198364
1.75472,-0.0591297,-0.122771
1.7323,-0.143334,-0.1419
1.78304,0.0270764,0.0518975
1.72584,-0.1428,0.0302276
1.78014,0.0270324,-0.1141
1.70228,-0.225017,-0.0999991
1.76002,-0.0593084,0.102557
1.70874,-0.141385,0.0698537
1.7531,-0.0590754,-0.0817087
1.72374,-0.142626,-0.0906459
1.74192,-0.0586986,0.214003
1.70846,-0.141362,0.139947
1.78232,0.0270654,-0.0726218
1.77052,-0.0596621,-0.0412223
1.77961,0.0208112,-0.0310653
1.72486,-0.148783,-0.0503848
1.74371,-0.0648533,-0.488471
1.71944,-0.148315,-0.345166
1.74679,-0.0649678,0
1.6884,-0.229181,-0.0198364
1.74183,-0.0647832,-0.271175
1.7355,-0.1497,-0.221727
1.79585,0.0210011,0.0104382
1.73353,-0.149531,-0.0101127
1.74867,-0.0650376,-0.188491
1.6891,-0.229276,-0.15912
1.7663,-0.0656934,0.0411292
1.6884,-0.229181,0.0198364
1.74652,-0.0649579,-0.122213
1.72384,-0.148695,-0.141249
1.77913,0.0208055,0.0517812
1.72533,-0.148823,0.0302276
1.78023,0.0208184,-0.1141
1.69357,-0.229883,-0.099534
1.75581,-0.0653032,0.102325
1.7162,-0.148035,0.0701794
1.74889,-0.065046,-0.0815225
1.72721,-0.148985,-0.0908552
1.74171,-0.0647787,0.214003
1.70001,-0.146639,0.139296
1.77441,0.0207503,-0.0722961
1.7623,-0.0655448,-0.0410362
1.77567,0.0145662,-0.0309955
1.72035,-0.154445,-0.0502684
1.73963,-0.070783,-0.487392
1.72672,-0.155017,-0.346735
1.74256,-0.0709023,0
1.69155,-0.235625,-0.019883
1.74949,-0.0711843,-0.272405
1.73102,-0.155403,-0.221222
1.78391,0.0146338,0.0103685
1.72902,-0.155223,-0.0100895
1.74843,-0.0711412,-0.188491
1.69223,-0.23572,-0.159492
1.76206,-0.071696,0.0410362
1.68363,-0.234521,0.0197898
1.75426,-0.0713784,-0.122771
1.72331,-0.154711,-0.141249
1.77919,0.0145951,0.0517812
1.72082,-0.154487,0.0301578
1.7723,0.0145386,-0.113589
1.69276,-0.235793,-0.099534
1.75557,-0.0714317,0.102325
1.71567,-0.154025,0.0701794
1.75265,-0.0713128,-0.0817087
1.72668,-0.155013,-0.0908552
1.74147,-0.070858,0.214003
1.70743,-0.153285,0.139947
1.77447,0.0145564,-0.0722961
1.76606,-0.0718585,-0.0411292
1.76771,0.00802169,-0.0308559
1.71977,-0.160749,-0.0502684
1.73551,-0.0769879,-0.486314
1.72224,-0.16098,-0.345951
1.74628,-0.0774658,0
1.69464,-0.24239,-0.0199295
1.74922,-0.077596,-0.272405
1.72648,-0.161377,-0.220717
1.77995,0.00807722,0.0103452
1.71649,-0.160443,-0.0100197
1.73624,-0.0770203,-0.187206
1.68742,-0.241357,-0.15912
1.76179,-0.0781538,0.0410362
1.6788,-0.240124,0.0197433
1.74602,-0.077454,-0.122213
1.71877,-0.160655,-0.140923
1.77123,0.00803766,0.0515484
1.72422,-0.161165,0.0302276
1.77235,0.00804271,-0.113589
1.68793,-0.241431,-0.0993015
1.74732,-0.0775118,0.10186
1.71112,-0.15994,0.0700165
1.74838,-0.077559,-0.0815225
1.72212,-0.160969,-0.0906459
1.7412,-0.0772403,0.214003
1.69892,-0.1588,0.139296
1.76652,0.00801626,-0.0719705
1.7538,-0.0777993,-0.0408501
1.77173,0.0024738,-0.0309257
1.71528,-0.165767,-0.0501521
1.73141,-0.082257,-0.485236
1.71782,-0.166012,-0.345166
1.74603,-0.0829516,0
1.69782,-0.248291,-0.0199761
1.74502,-0.0829034,-0.27179
1.72597,-0.1668,-0.220717
1.77997,0.0024853,0.0103452
1.71598,-0.165834,-0.0100197
1.73599,-0.0824745,-0.187206
1.67877,-0.245504,-0.158377
1.75754,-0.0834984,0.0409431
1.68595,-0.246555,0.0198364
1.74975,-0.0831282,-0.122492
1.72619,-0.166821,-0.141574
1.77525,0.00247871,0.0516648
1.72371,-0.166581,0.0302276
1.77236,0.00247468,-0.113589
1.68717,-0.246732,-0.0993015
1.75105,-0.0831903,0.102092
1.70265,-0.164546,0.0696909
1.74015,-0.0826721,-0.0811503
1.72161,-0.166378,-0.0906459
1.74095,-0.0827101,0.214003
1.70238,-0.16452,0.139621
1.76653,0.00246654,-0.0719705
1.75754,-0.0834984,-0.0409431
1.77172,-0.00432914,-0.0309257
1.71463,-0.172352,-0.0501521
1.73108,-0.0889045,-0.485236
1.71717,-0.172607,-0.345166
1.73771,-0.0892449,0
1.68895,-0.253621,-0.019883
1.75258,-0.0900086,-0.27302
1.72137,-0.173029,-0.220212
1.77996,-0.00434928,0.0103452
1.71931,-0.172822,-0.010043
1.73566,-0.0891396,-0.187206
1.68569,-0.253131,-0.15912
1.75321,-0.0900411,0.0408501
1.68104,-0.252433,0.0197898
1.74145,-0.0894368,-0.121934
1.7295,-0.173847,-0.1419
1.77924,-0.00434751,0.0517812
1.71907,-0.172799,0.0301578
1.76837,-0.00432094,-0.113333
1.69015,-0.253802,-0.099534
1.75072,-0.0899132,0.102092
1.702,-0.171083,0.0696909
1.73982,-0.0893532,-0.0811503
1.70903,-0.171789,-0.0900178
1.73665,-0.0891906,0.213515
1.69777,-0.170657,0.139296
1.76653,-0.00431645,-0.0719705
1.75321,-0.0900411,-0.0408501
1.7717,-0.00989515,-0.0309257
1.71408,-0.177738,-0.0501521
1.72695,-0.0941327,-0.484157
1.72052,-0.178405,-0.345951
1.73742,-0.0947036,0
1.68024,-0.257712,-0.0197898
1.7365,-0.0946535,-0.27056
1.72476,-0.178845,-0.220717
1.77994,-0.00994117,0.0103452
1.71876,-0.178222,-0.010043
1.73537,-0.0945918,-0.187206
1.67701,-0.257218,-0.158377
1.75292,-0.0955486,0.0408501
1.67233,-0.2565,0.0196967
1.74514,-0.0951245,-0.122213
1.70912,-0.177223,-0.140272
1.76323,-0.00984781,0.0513157
1.71852,-0.178198,0.0301578
1.76834,-0.0098764,-0.113333
1.6854,-0.258505,-0.0993015
1.75442,-0.0956301,0.102325
1.70941,-0.177253,0.0700165
1.73953,-0.0948185,-0.0811503
1.71246,-0.177569,-0.0902272
1.72843,-0.0942138,0.21254
1.68533,-0.174756,0.13832
1.75851,-0.00982149,-0.0716448
1.75292,-0.0955486,-0.0408501
1.77566,-0.0161158,-0.0309955
1.70947,-0.183294,-0.0500357
1.73045,-0.100383,-0.485236
1.71599,-0.183992,-0.345166
1.73708,-0.100768,0
1.69118,-0.265437,-0.0199295
1.73616,-0.100714,-0.27056
1.71624,-0.184019,-0.219707
1.7679,-0.0160454,0.0102755
1.71812,-0.184221,-0.010043
1.739,-0.100879,-0.187634
1.6761,-0.26307,-0.158377
1.75258,-0.101667,0.0408501
1.66747,-0.261716,0.0196502
1.73683,-0.100753,-0.121655
1.71246,-0.183613,-0.140598
1.76318,-0.0160026,0.0513157
1.70994,-0.183343,0.0300181
1.76032,-0.0159766,-0.112821
1.68449,-0.264386,-0.0993015
1.75009,-0.101522,0.102092
1.69686,-0.181941,0.069528
1.7352,-0.100659,-0.0809642
1.71183,-0.183546,-0.0902272
1.73206,-0.100476,0.213028
1.68867,-0.181063,0.138645
1.75847,-0.0159598,-0.0716448
1.75657,-0.101898,-0.0409431
1.75959,-0.0221129,-0.0307162
1.70882,-0.18926,-0.0500357
1.73394,-0.10666,-0.486314
1.71533,-0.189981,-0.345166
1.74071,-0.107076,0
1.68629,-0.270704,-0.019883
1.73974,-0.107017,-0.271175
1.71558,-0.190008,-0.219707
1.77183,-0.0222666,0.0102987
1.70952,-0.189337,-0.00999649
1.72276,-0.105972,-0.18592
1.67518,-0.26892,-0.158377
1.75221,-0.107784,0.0408501
1.6705,-0.268168,0.0196967
1.74045,-0.10706,-0.121934
1.70784,-0.189151,-0.140272
1.76311,-0.0221571,0.0513157
1.70531,-0.188871,0.0299483
1.76025,-0.0221211,-0.112821
1.67567,-0.268999,-0.0988363
1.74175,-0.10714,0.101627
1.69224,-0.187423,0.0693652
1.73484,-0.106715,-0.0809642
1.71514,-0.18996,-0.0904365
1.7317,-0.106522,0.213028
1.6801,-0.186079,0.137994
1.7624,-0.0221481,-0.0718077
1.74423,-0.107293,-0.040664
1.7595,-0.028869,-0.0307162
1.70014,-0.194909,-0.049803
1.72198,-0.112563,-0.483079
1.7323,-0.113237,0
1.67735,-0.275879,-0.0197898
1.73932,-0.113696,-0.271175
1.7109,-0.196142,-0.219202
1.77173,-0.0290698,0.0102987
1.71275,-0.196355,-0.0100197
1.73821,-0.113624,-0.187634
1.6702,-0.274703,-0.158005
1.7478,-0.11425,0.040757
1.66551,-0.273932,0.0196502
1.74003,-0.113742,-0.121934
1.71106,-0.196161,-0.140598
1.76302,-0.0289268,0.0513157
1.70855,-0.195873,0.0300181
1.76414,-0.0289453,-0.113077
1.67857,-0.276079,-0.0990689
1.73734,-0.113567,0.101394
1.69548,-0.194375,0.069528
1.73043,-0.113115,-0.080778
1.71043,-0.196089,-0.0902272
1.73128,-0.11317,0.213028
1.68334,-0.192983,0.13832
1.7623,-0.0289151,-0.0718077
1.7478,-0.11425,-0.040757
1.7594,-0.0343965,-0.0307162
1.69555,-0.199781,-0.0496866
1.70228,-0.200574,-0.342813
1.72396,-0.118132,0
1.68042,-0.281809,-0.0198364
1.73501,-0.11889,-0.27056
1.71027,-0.201516,-0.219202
1.77163,-0.0346357,0.0102987
1.70815,-0.201267,-0.00999649
1.72198,-0.117997,-0.18592
1.66933,-0.279949,-0.158005
1.75142,-0.120014,0.0408501
1.6607,-0.278501,0.0196036
1.74364,-0.119481,-0.122213
1.7144,-0.202002,-0.140923
1.76691,-0.0345435,0.0514321
1.70395,-0.200771,0.0299483
1.76005,-0.0344093,-0.112821
1.67375,-0.280691,-0.0988363
1.73698,-0.119024,0.101394
1.69486,-0.1997,0.069528
1.73006,-0.118551,-0.080778
1.70188,-0.200527,-0.0898085
1.72299,-0.118066,0.212053
1.7622,-0.0344513,-0.0718077
1.73945,-0.119194,-0.0405709
1.75527,-0.0404456,-0.0306464
1.70278,-0.206662,-0.0499194
1.70546,-0.206988,-0.343598
1.72353,-0.124149,0
1.67154,-0.286322,-0.0197433
1.7267,-0.124377,-0.269331
1.7715,-0.0408197,0.0102987
1.70744,-0.207228,-0.00999649
1.73346,-0.124864,-0.187206
1.67227,-0.286447,-0.158377
1.74301,-0.125552,0.040664
1.65971,-0.284296,0.0196036
1.7273,-0.12442,-0.121097
1.70181,-0.206544,-0.139947
1.75079,-0.0403425,0.0509666
1.71118,-0.207682,0.0300879
1.75992,-0.0405529,-0.112821
1.6767,-0.287206,-0.0990689
1.74053,-0.125374,0.101627
1.69018,-0.205134,0.0693652
1.72964,-0.124589,-0.080778
1.70116,-0.206466,-0.0898085
1.72257,-0.12408,0.212053
1.75408,-0.0404182,-0.071482
1.74301,-0.125552,-0.040664
1.75111,-0.0467719,-0.0305766
1.69804,-0.212405,-0.049803
1.70469,-0.213237,-0.343598
1.72307,-0.130465,0
1.66654,-0.291757,-0.0196967
1.73017,-0.131004,-0.269945
1.70485,-0.213257,-0.218697
1.76334,-0.0470987,0.0102522
1.71064,-0.213981,-0.0100197
1.72109,-0.130316,-0.18592
1.66728,-0.291887,-0.158005
1.73855,-0.131638,0.0405709
1.65866,-0.290378,0.0196036
1.73479,-0.131353,-0.121655
1.705,-0.213275,-0.140272
1.75063,-0.0467593,0.0509666
1.69453,-0.211966,0.0298087
1.75178,-0.0467899,-0.112309
1.66777,-0.291972,-0.0986038
1.73608,-0.131451,0.101394
1.68546,-0.210831,0.0692024
1.7212,-0.130324,-0.0804058
1.69643,-0.212204,-0.0895992
1.74992,-0.0467403,-0.0713192
1.74254,-0.13194,-0.040664
1.75094,-0.0525785,-0.0305766
1.6894,-0.217016,-0.0495703
1.70398,-0.218889,-0.343598
1.71864,-0.135863,0
1.67344,-0.298687,-0.0197898
1.72579,-0.136429,-0.269331
1.7002,-0.218404,-0.218191
1.75518,-0.0527057,0.0102057
1.70199,-0.218633,-0.00997324
1.72065,-0.136022,-0.18592
1.66631,-0.297415,-0.158005
1.74209,-0.137718,0.040664
1.64981,-0.294471,0.0195105
1.73434,-0.137105,-0.121655
1.70428,-0.218928,-0.140272
1.75447,-0.0526843,0.051083
1.70176,-0.218604,0.0299483
1.74763,-0.0524789,-0.112054
1.66679,-0.297501,-0.0986038
1.73564,-0.137207,0.101394
1.68871,-0.216928,0.0693652
1.72474,-0.136346,-0.0805919
1.69968,-0.218337,-0.0898085
1.74976,-0.052543,-0.0713192
1.73013,-0.136772,-0.0403848
1.74674,-0.058861,-0.0305068
1.68859,-0.223207,-0.0495703
1.69927,-0.224619,-0.342813
1.72212,-0.142491,0
1.66053,-0.302667,-0.0196502
1.72528,-0.142753,-0.269331
1.70725,-0.225674,-0.219202
1.75897,-0.0592731,0.010229
1.68531,-0.222773,-0.00988025
1.72014,-0.142328,-0.18592
1.65737,-0.302092,-0.157261
1.73361,-0.143442,0.0404779
1.64872,-0.300516,0.0195105
1.72985,-0.143131,-0.121376
1.69951,-0.224651,-0.139947
1.75027,-0.0589797,0.0509666
1.69301,-0.223791,0.0298087
1.75141,-0.0590183,-0.112309
1.66569,-0.303608,-0.0986038
1.73114,-0.143238,0.101162
1.67998,-0.222069,0.0690396
1.71627,-0.142008,-0.0802197
1.69491,-0.224042,-0.0895992
1.74955,-0.0589558,-0.0713192
1.72962,-0.143112,-0.0403848
1.74653,-0.0649579,-0.0305068
1.67988,-0.228024,-0.0493375
1.69459,-0.230021,-0.342029
1.71364,-0.147814,0
1.66339,-0.309193,-0.0196967
1.72083,-0.148435,-0.268716
1.69859,-0.230564,-0.218191
1.75476,-0.0652641,0.0102057
1.69245,-0.229731,-0.00992675
1.73152,-0.149357,-0.187206
1.66022,-0.308603,-0.157633
1.72911,-0.149149,0.0403848
1.64373,-0.305538,0.0194639
1.72536,-0.148826,-0.121097
1.69872,-0.230582,-0.139947
1.75005,-0.065089,0.0509666
1.69618,-0.230238,0.0298785
1.74721,-0.0649832,-0.112054
1.66069,-0.308691,-0.0983712
1.72665,-0.148937,0.100929
1.68316,-0.228469,0.0692024
1.72372,-0.148684,-0.0805919
1.69412,-0.229957,-0.0895992
1.74934,-0.0650625,-0.0713192
1.72911,-0.149149,-0.0403848
1.74631,-0.0704445,-0.0305068
1.69103,-0.234951,-0.0496866
1.69386,-0.235344,-0.342029
1.70918,-0.152841,0
1.65062,-0.312187,-0.019557
1.71248,-0.153136,-0.267486
1.69786,-0.2359,-0.218191
1.75055,-0.0706152,0.0101825
1.69568,-0.235597,-0.00995
1.71519,-0.153379,-0.185492
1.65924,-0.313817,-0.157633
1.72863,-0.15458,0.0403848
1.64669,-0.311444,0.0195105
1.72091,-0.15389,-0.120818
1.69404,-0.235369,-0.139621
1.73785,-0.0701031,0.0506175
1.69149,-0.235015,0.0298087
1.75098,-0.0706327,-0.112309
1.66364,-0.314648,-0.0986038
1.72618,-0.154361,0.100929
1.67451,-0.232656,0.0688767
1.71529,-0.153387,-0.0802197
1.68943,-0.234728,-0.0893898
1.74114,-0.0702357,-0.0709935
1.72863,-0.15458,-0.0403848
1.74604,-0.0768446,-0.0305068
1.68224,-0.240018,-0.0494539
1.6891,-0.240997,-0.341244
1.71259,-0.159475,0
1.64554,-0.317477,-0.0195105
1.71191,-0.159412,-0.267486
1.68913,-0.241,-0.217181
1.75028,-0.0770308,0.0101825
1.69085,-0.241245,-0.00992675
1.71462,-0.159664,-0.185492
1.65417,-0.319142,-0.157261
1.73204,-0.161286,0.0404779
1.72828,-0.160937,-0.121376
1.69316,-0.241576,-0.139621
1.73359,-0.0762964,0.0505012
1.68666,-0.240648,0.0297389
1.74672,-0.0768744,-0.112054
1.65463,-0.319231,-0.0981387
1.7256,-0.160686,0.100929
1.67761,-0.239356,0.0690396
1.71471,-0.159673,-0.0802197
1.68856,-0.240919,-0.0893898
1.73688,-0.0764411,-0.0708307
1.72407,-0.160544,-0.0402918
1.73778,-0.0825593,-0.0303672
1.68535,-0.246467,-0.0495703
1.68825,-0.246891,-0.341244
1.71601,-0.165837,0
1.64442,-0.323219,-0.0195105
1.71528,-0.165767,-0.268101
1.68828,-0.246895,-0.217181
1.74201,-0.0827603,0.010136
1.68208,-0.245989,-0.00988025
1.71009,-0.165266,-0.185064
1.65305,-0.324914,-0.157261
1.73146,-0.167331,0.0404779
1.72374,-0.166585,-0.121097
1.68837,-0.246908,-0.139296
1.7413,-0.0827267,0.0507339
1.68185,-0.245955,0.0296691
1.73847,-0.0825923,-0.111542
1.65351,-0.325005,-0.0981387
1.71708,-0.165941,0.100464
1.6728,-0.244632,0.0688767
1.71415,-0.165657,-0.0802197
1.69166,-0.24739,-0.0895992
1.74059,-0.0826931,-0.0709935
1.71554,-0.165792,-0.0401057
1.74149,-0.0885246,-0.030437
1.67662,-0.250871,-0.0493375
1.71147,-0.171129,0
1.65903,-0.331808,-0.0196967
1.70685,-0.170667,-0.266871
1.69137,-0.253079,-0.217686
1.74172,-0.0885366,0.010136
1.68125,-0.251565,-0.00988025
1.71349,-0.171332,-0.185492
1.65196,-0.330394,-0.157261
1.71896,-0.171878,0.0401987
1.71921,-0.171903,-0.120818
1.69148,-0.253095,-0.139621
1.74101,-0.0885006,0.0507339
1.68103,-0.251531,0.0296691
1.74217,-0.0885595,-0.111798
1.64459,-0.32892,-0.0976736
1.70857,-0.170839,0.0999991
1.66408,-0.248995,0.0685511
1.71359,-0.171341,-0.0802197
1.68688,-0.252407,-0.0893898
1.74031,-0.0884647,-0.0709935
1.72294,-0.172276,-0.0402918
1.74117,-0.094603,-0.030437
1.67968,-0.257328,-0.0494539
1.70688,-0.17669,0
1.65786,-0.337597,-0.0196967
1.71018,-0.177031,-0.267486
1.6944,-0.259582,-0.218191
1.73741,-0.0943988,0.0101127
1.68037,-0.257432,-0.00988025
1.70102,-0.176083,-0.184207
1.64689,-0.335364,-0.15689
1.73028,-0.179113,0.0404779
1.71463,-0.177492,-0.120539
1.6827,-0.257791,-0.138971
1.7367,-0.0943604,0.0506175
1.67619,-0.256792,0.0295993
1.73388,-0.0942071,-0.111286
1.65126,-0.336252,-0.0981387
1.71194,-0.177213,0.100232
1.6632,-0.254802,0.0685511
1.709,-0.17691,-0.0800335
1.67414,-0.256479,-0.0887618
1.736,-0.0943221,-0.0708307
1.71437,-0.177466,-0.0401057
1.74081,-0.100984,-0.030437
1.67873,-0.263482,-0.0494539
1.70622,-0.182945,0
1.64486,-0.341234,-0.019557
1.70166,-0.182456,-0.266256
1.6856,-0.26456,-0.217181
1.74104,-0.100998,0.010136
1.67546,-0.262969,-0.00985701
1.70432,-0.182741,-0.184635
1.64565,-0.341398,-0.15689
1.72166,-0.184601,0.0402918
1.71,-0.18335,-0.12026
1.68175,-0.263956,-0.138971
1.73235,-0.100494,0.0505012
1.67918,-0.263554,0.0296691
1.73352,-0.100561,-0.111286
1.6461,-0.341491,-0.0979061
1.71128,-0.183487,0.100232
1.6662,-0.261516,0.0687139
1.70834,-0.183173,-0.0800335
1.67319,-0.262613,-0.0887618
1.72766,-0.100221,-0.070505
1.71769,-0.184174,-0.0401987
1.73647,-0.106511,-0.0303672
1.6739,-0.268415,-0.0493375
1.7056,-0.188602,0
1.64764,-0.347512,-0.0196036
1.71283,-0.189401,-0.268101
1.68471,-0.270149,-0.217181
1.73271,-0.106281,0.0100895
1.67853,-0.269157,-0.00988025
1.70765,-0.188828,-0.185064
1.64451,-0.346853,-0.15689
1.72899,-0.191188,0.0404779
1.72128,-0.190335,-0.121097
1.6848,-0.270163,-0.139296
1.72802,-0.105993,0.0503848
1.6704,-0.267854,0.0295295
1.7292,-0.106065,-0.11103
1.64105,-0.346123,-0.0976736
1.71066,-0.189161,0.100232
1.67717,-0.268939,0.0692024
1.70376,-0.188397,-0.0798474
1.67231,-0.26816,-0.0887618
1.72732,-0.10595,-0.070505
1.71309,-0.18943,-0.0401057
1.72811,-0.112055,-0.0302276
1.67295,-0.274256,-0.0493375
1.69699,-0.193647,0
1.70038,-0.194034,-0.266256
1.67984,-0.275386,-0.216676
1.73233,-0.112329,0.0100895
1.67363,-0.274368,-0.00985701
1.69118,-0.192984,-0.18335
1.64719,-0.353427,-0.157261
1.72037,-0.196315,0.0402918
1.70078,-0.19408,-0.119702
1.67991,-0.275397,-0.138971
1.72365,-0.111765,0.0502684
1.6734,-0.27433,0.0295993
1.72882,-0.1121,-0.11103
1.63593,-0.351012,-0.097441
1.70205,-0.194225,0.0997666
1.69912,-0.193891,-0.0796613
1.67531,-0.274642,-0.0889711
1.72694,-0.111979,-0.070505
1.70447,-0.194502,-0.0399195
1.73167,-0.118661,-0.0302974
1.65616,-0.277741,-0.0488721
1.70024,-0.200334,0
1.69965,-0.200265,-0.266256
1.68273,-0.282197,-0.217181
1.73191,-0.118677,0.0100895
1.66867,-0.279838,-0.00983376
1.70231,-0.200578,-0.184635
1.63421,-0.356912,-0.156146
1.71169,-0.201683,0.0401057
1.70402,-0.20078,-0.119981
1.67889,-0.281553,-0.138971
1.72323,-0.118082,0.0502684
1.66844,-0.2798,0.0295295
1.72441,-0.118163,-0.110774
1.63463,-0.357006,-0.097441
1.70529,-0.200929,0.0999991
1.6984,-0.200117,-0.0796613
1.67035,-0.28012,-0.0887618
1.72652,-0.118308,-0.070505
1.69978,-0.20028,-0.0398265
1.73125,-0.124705,-0.0302974
1.66306,-0.28487,-0.0491048
1.69159,-0.205304,0
1.70287,-0.206673,-0.266871
1.67783,-0.287399,-0.216676
1.7275,-0.124434,0.0100662
1.67163,-0.286337,-0.00985701
1.70555,-0.206998,-0.185064
1.63295,-0.362615,-0.156146
1.71098,-0.207657,0.0401057
1.69935,-0.206246,-0.119702
1.6779,-0.287411,-0.138971
1.72679,-0.124384,0.0503848
1.6714,-0.286298,0.0295993
1.72797,-0.124469,-0.11103
1.62558,-0.360978,-0.0969759
1.70458,-0.206881,0.0999991
1.69769,-0.206044,-0.0796613
1.66543,-0.285275,-0.0885524
