2.17744,0.661974,-0.0264951
2.16817,0.659154,-0.211541
2.17009,0.659738,-0.132092
2.15852,0.773288,-0.120163
2.18357,0.655519,-0.0265417
2.16282,0.649291,-0.210797
2.16855,0.65101,-0.131859
2.18201,0.646757,-0.0264951
2.1689,0.642869,-0.211169
2.19352,0.650167,0.0266348
2.17081,0.643437,-0.131859
2.15256,0.754237,-0.119535
2.15318,0.746869,-0.0663264
2.17252,0.636524,-0.0263554
2.19171,0.642147,0.0265882
2.15448,0.747321,-0.186162
2.17282,0.636613,-0.131859
2.15491,0.74747,-0.119535
2.18636,0.631888,-0.0264951
2.17514,0.628645,-0.131859
2.1652,0.742157,-0.119954
2.15847,0.731442,-0.0663264
2.1924,0.62535,-0.0265417
2.1745,0.736874,-0.0133442
2.17157,0.619408,-0.210797
2.16964,0.618858,-0.131394
2.16021,0.732031,-0.119535
2.18313,0.614061,-0.026402
2.17339,0.727629,-0.0133209
2.17383,0.611444,-0.210797
2.19853,0.618393,0.0265882
2.16244,0.723963,-0.186162
2.17574,0.611983,-0.131627
2.16666,0.725376,-0.119745
2.1889,0.608271,-0.0264485
2.17567,0.720798,-0.0133209
2.1719,0.603546,-0.210425
2.19661,0.610412,0.0265417
2.15714,0.714659,-0.185511
2.1738,0.604075,-0.131394
2.15377,0.713541,-0.118907
2.15829,0.706688,-0.0660937
2.1833,0.598511,-0.0263554
2.17817,0.713198,-0.0133209
2.17783,0.597013,-0.210797
2.15583,0.705884,-0.185186
2.1759,0.596483,-0.131394
2.16384,0.708504,-0.119326
2.18934,0.591548,-0.026402
2.17232,0.58695,-0.210054
2.1584,0.697978,-0.185186
2.18428,0.706346,0.0400707
2.17807,0.588505,-0.131394
2.17022,0.701798,-0.119535
2.16698,0.692822,-0.0662101
2.17929,0.696758,-0.0132977
2.1781,0.58077,-0.210425
2.1645,0.692031,-0.185511
2.18001,0.581279,-0.131394
2.17253,0.694598,-0.119535
2.16188,0.682468,-0.0659773
2.19341,0.576251,-0.026402
2.17636,0.571771,-0.210054
2.16703,0.684093,-0.185511
2.18916,0.691081,0.0400707
2.17826,0.572271,-0.131162
2.15078,0.796453,-0.106835
2.16745,0.684226,-0.119117
2.19154,0.567587,-0.0263554
2.17449,0.563172,-0.209682
2.20316,0.570596,0.0264951
2.1694,0.676524,-0.185511
2.18025,0.564663,-0.131162
2.1573,0.790315,-0.107022
2.16219,0.674277,-0.118698
2.16281,0.792333,-0.0535983
2.16659,0.667358,-0.0659773
2.18963,0.558945,-0.0263088
2.18658,0.673517,-0.0132977
2.18416,0.557548,-0.210425
2.20513,0.562902,0.0264951
2.16413,0.666601,-0.18486
2.18995,0.559025,-0.131627
2.17599,0.670254,-0.119326
2.15804,0.782054,-0.0534122
2.16867,0.660548,-0.0659773
2.19138,0.552063,-0.0263088
2.20301,0.554994,0.0264485
2.1624,0.658637,-0.184535
2.18395,0.550191,-0.131162
2.16662,0.659922,-0.118698
2.16049,0.77527,-0.0534122
2.17108,0.652595,-0.0659773
2.19339,0.544028,-0.0263088
2.18017,0.540751,-0.209682
2.16862,0.651855,-0.18486
2.19082,0.658529,0.0399311
2.18595,0.542183,-0.131162
2.17285,0.653127,-0.118907
2.15955,0.76601,-0.0533191
2.20304,0.538266,-0.026402
2.18573,0.648689,-0.0132512
2.17818,0.532191,-0.20931
2.17088,0.64428,-0.18486
2.19311,0.650877,0.0399311
2.18395,0.533601,-0.130929
2.19545,0.651573,0.0933011
2.16045,0.75785,-0.106649
2.17894,0.646674,-0.119117
2.16598,0.75979,-0.0534122
2.17164,0.636677,-0.065861
2.19704,0.529085,-0.0263088
2.1838,0.525898,-0.209682
2.2087,0.531895,0.0264485
2.14872,0.74574,-0.159045
2.16918,0.635957,-0.184535
2.18182,0.525421,-0.130697
2.1976,0.64429,0.0933011
2.16673,0.751992,-0.106835
2.16958,0.636074,-0.118489
2.16471,0.751292,-0.0533191
2.19507,0.520106,-0.0262623
2.18572,0.51789,-0.209682
2.20675,0.522873,0.026402
2.15521,0.739154,-0.159324
2.16766,0.626894,-0.184209
2.19539,0.520182,-0.131394
2.16569,0.742749,-0.106649
2.17957,0.630337,-0.118907
2.17123,0.74465,-0.0534122
2.17229,0.620024,-0.0657446
2.16683,0.734698,0
2.19298,0.511533,-0.0262157
2.16345,0.6175,-0.286376
2.18751,0.510258,-0.209682
2.15778,0.731627,-0.159324
2.17367,0.620418,-0.184535
2.19595,0.626778,0.0398613
2.19331,0.511609,-0.131162
2.20216,0.628548,0.0933011
2.16827,0.735185,-0.106649
2.17407,0.620532,-0.118489
2.16625,0.734499,-0.0532261
2.17697,0.729671,0
2.19865,0.504769,-0.0262623
2.16941,0.611019,-0.286881
2.19073,0.617023,-0.0132279
2.18928,0.502618,-0.209682
2.16032,0.72409,-0.159324
2.17583,0.612826,-0.184535
2.19813,0.619108,0.0398613
2.18729,0.502162,-0.130697
2.17238,0.611856,-0.118279
2.1688,0.726932,-0.0532261
2.17261,0.604152,-0.0656282
2.17938,0.722449,0
2.20031,0.497476,-0.0262623
2.16378,0.601696,-0.285871
2.19276,0.609756,-0.0132279
2.18316,0.4936,-0.208938
2.15513,0.714411,-0.158766
2.17785,0.605608,-0.184535
2.20017,0.611816,0.0398613
2.18895,0.494907,-0.130697
2.16564,0.717894,-0.106277
2.1821,0.60679,-0.118698
2.1712,0.719737,-0.0532261
2.17481,0.596185,-0.0656282
2.17441,0.711967,0
2.20602,0.490276,-0.0263088
2.1698,0.594811,-0.286376
2.18885,0.486459,-0.20931
2.21383,0.492012,0.026402
2.16153,0.707749,-0.159045
2.18005,0.597622,-0.184535
2.19464,0.487747,-0.130929
2.16826,0.709953,-0.106277
2.1766,0.596676,-0.118279
2.15393,0.823798,-0.0939524
2.17762,0.713019,-0.0533191
2.18074,0.589633,-0.0657446
2.17688,0.704372,0
2.196,0.48001,-0.0261692
2.16803,0.586197,-0.285871
2.19707,0.594049,-0.0132279
2.19053,0.478815,-0.20931
2.15639,0.697743,-0.158487
2.17827,0.588968,-0.184209
2.19633,0.480083,-0.130929
2.17867,0.589074,-0.118279
2.15305,0.814859,-0.0937896
2.17249,0.70295,-0.053133
2.18664,0.583048,-0.065861
2.17932,0.696769,0
2.19766,0.472342,-0.0261692
2.17006,0.578626,-0.285871
2.1844,0.469492,-0.208567
2.21721,0.476544,0.026402
2.16261,0.691427,-0.158766
2.18032,0.581361,-0.184209
2.198,0.472414,-0.130929
2.17316,0.694798,-0.106277
2.18071,0.581466,-0.118279
2.15214,0.805937,-0.0936268
2.17707,0.572361,-0.0655119
2.18556,0.690362,0
2.20712,0.466321,-0.0262623
2.16823,0.570038,-0.285366
2.19342,0.576662,-0.0131814
2.19382,0.46351,-0.20931
2.16121,0.682671,-0.158487
2.17848,0.572732,-0.183884
2.20086,0.578618,0.0397217
2.18791,0.462262,-0.130231
2.17887,0.572834,-0.11807
2.15869,0.799808,-0.0937896
2.17734,0.687766,-0.053133
2.1802,0.680727,0
2.20866,0.459,-0.0262623
2.17395,0.563842,-0.285871
2.19532,0.569386,-0.0131814
2.19145,0.455423,-0.208938
2.18724,0.682926,0.0533191
2.17108,0.67788,-0.159045
2.18036,0.565505,-0.183884
2.19725,0.456629,-0.130697
2.20515,0.571933,0.0928126
2.17021,0.677608,-0.105905
2.18075,0.565606,-0.11807
2.17961,0.680543,-0.053133
2.18091,0.55753,-0.0655119
2.17874,0.671934,0
2.21025,0.451288,-0.0262623
2.1759,0.55625,-0.285871
2.18912,0.446974,-0.208567
2.18197,0.672931,0.053133
2.16199,0.666769,-0.158208
2.18619,0.558879,-0.184209
2.19492,0.448158,-0.130464
2.17638,0.671206,-0.106091
2.18271,0.557991,-0.11807
2.20936,0.564804,0.186162
2.15657,0.78237,-0.0934639
2.17815,0.671752,-0.05304
2.16438,0.77709,-0.0401405
2.18663,0.551272,-0.0656282
2.17713,0.663539,0
2.20389,0.442381,-0.0261692
2.17774,0.549031,-0.285871
2.16461,0.659722,-0.243753
2.1945,0.440496,-0.208938
2.18802,0.666857,0.0532261
2.21957,0.445529,0.0263554
2.16419,0.659596,-0.158208
2.18416,0.550651,-0.183884
2.14524,0.770222,-0.146079
2.19248,0.440091,-0.130231
2.18455,0.550749,-0.11807
2.20736,0.556499,0.185836
2.15539,0.773863,-0.0933011
2.18419,0.665691,-0.053133
2.17098,0.770489,-0.0402103
2.18863,0.543253,-0.0656282
2.18338,0.656706,0
2.20942,0.435072,-0.0262157
2.17588,0.540089,-0.285366
2.15939,0.649493,-0.242896
2.1961,0.432449,-0.208938
2.19045,0.658832,0.0532261
2.22119,0.437391,0.0263554
2.17042,0.652808,-0.158487
2.18617,0.542641,-0.183884
2.20863,0.548218,0.0397217
2.14429,0.761018,-0.145823
2.19408,0.432051,-0.130231
2.18101,0.655995,-0.106091
2.19043,0.5437,-0.118279
2.20938,0.548404,0.185836
2.15821,0.765958,-0.0933011
2.18279,0.656529,-0.05304
2.15856,0.757609,-0.0399311
2.18275,0.533711,-0.0653955
2.18949,0.65022,0
2.21092,0.427358,-0.0262157
2.17776,0.532491,-0.285366
2.20306,0.538678,-0.0131814
2.15784,0.640819,-0.242468
2.2015,0.425537,-0.20931
2.1889,0.650044,0.053133
2.16886,0.644092,-0.158208
2.18805,0.535007,-0.183884
2.20665,0.539555,0.0396519
2.19165,0.423633,-0.129999
2.19232,0.536052,-0.118279
2.21128,0.540689,0.185836
2.16087,0.75842,-0.0933011
2.18507,0.648906,-0.05304
2.16106,0.750447,-0.0399311
2.18839,0.527407,-0.0655119
2.2084,0.419278,-0.0261692
2.17565,0.524337,-0.284861
2.15613,0.632541,-0.242039
2.19116,0.416006,-0.208195
2.17953,0.639405,0.0528539
2.17481,0.63802,-0.158487
2.18593,0.526815,-0.183558
2.14942,0.746406,-0.145823
2.19697,0.417108,-0.130231
2.2147,0.533748,0.0928126
2.18159,0.64001,-0.105905
2.1902,0.527843,-0.11807
2.21694,0.534288,0.186162
2.1596,0.74994,-0.0931383
2.18337,0.640531,-0.0529469
2.1638,0.742522,-0.0399311
2.18245,0.631584,0
2.21385,0.411913,-0.0262157
2.18142,0.517275,-0.285366
2.16226,0.62574,-0.242468
2.19267,0.407973,-0.208195
2.18954,0.633636,0.05304
2.1618,0.625608,-0.157371
2.19173,0.51972,-0.183884
2.15214,0.738523,-0.145823
2.19455,0.408323,-0.129999
2.21664,0.525628,0.0928126
2.18009,0.6309,-0.105719
2.18435,0.517969,-0.117651
2.215,0.525239,0.185836
2.16233,0.74202,-0.0931383
2.18186,0.631413,-0.0528539
2.17016,0.736249,-0.0400009
2.18822,0.510825,-0.0653955
2.18079,0.622863,0
2.20741,0.402747,-0.0261226
2.18321,0.509657,-0.285366
2.15678,0.616004,-0.241611
2.198,0.401031,-0.208567
2.19174,0.625989,0.05304
2.22708,0.406336,0.0263554
2.17165,0.62025,-0.157929
2.18965,0.511159,-0.183558
2.15471,0.731006,-0.145823
2.19597,0.400659,-0.129999
2.18227,0.623285,-0.105719
2.19392,0.512157,-0.11807
2.20906,0.515691,0.185186
2.16112,0.733183,-0.0929754
2.1879,0.624891,-0.0529469
2.16514,0.726125,-0.0398613
2.18999,0.503183,-0.0653955
2.19066,0.617416,0
2.21667,0.396447,-0.0262157
2.17724,0.500255,-0.284356
2.16922,0.727495,0.0132977
2.15892,0.608471,-0.241611
2.19155,0.391953,-0.207823
2.19776,0.619419,0.053133
2.16996,0.611582,-0.15765
2.19142,0.503512,-0.183558
2.21397,0.508693,0.0396519
2.20128,0.393694,-0.130231
2.19464,0.618538,0.13279
2.18444,0.615664,-0.105719
2.1918,0.503601,-0.117861
2.21473,0.508869,0.185511
2.15988,0.724363,-0.0928126
2.15994,0.716423,-0.0397217
2.19554,0.4968,-0.0655119
2.19655,0.61122,0
2.21798,0.389093,-0.0262157
2.17502,0.492156,-0.283851
2.17162,0.720297,0.0132977
2.16092,0.601308,-0.241611
2.20068,0.386059,-0.208567
2.1998,0.612127,0.053133
2.17582,0.605452,-0.157929
2.19308,0.496242,-0.183558
2.21174,0.500465,0.0395821
2.15206,0.713808,-0.145312
2.19864,0.385701,-0.129999
2.19668,0.611257,0.13279
2.19346,0.496329,-0.117861
2.21641,0.501521,0.185511
2.15848,0.715938,-0.0926498
2.1921,0.609983,-0.0529469
2.16316,0.481543,-0.443225
2.19095,0.601433,0
2.21538,0.380673,-0.0261692
2.1806,0.485425,-0.284356
2.17412,0.712714,0.0132977
2.19809,0.377702,-0.208195
2.19421,0.602328,0.0529469
2.17407,0.596799,-0.15765
2.19998,0.378026,-0.129999
2.20265,0.604644,0.133022
2.18472,0.599724,-0.105533
2.19128,0.487803,-0.117651
2.21814,0.493783,0.185511
2.16476,0.709645,-0.0928126
2.16869,0.70256,-0.0397915
2.19505,0.480606,-0.0653955
2.18918,0.592735,0
2.2167,0.372937,-0.0261692
2.1784,0.476961,-0.283851
2.17279,0.703887,0.0132744
2.16123,0.585169,-0.241183
2.19939,0.370026,-0.208195
2.19244,0.59362,0.0528539
2.16844,0.58712,-0.157092
2.19649,0.48092,-0.183558
2.17191,0.703601,0.0664428
2.15319,0.697537,-0.145056
2.20522,0.371006,-0.130231
2.20474,0.596951,0.133022
2.1868,0.592093,-0.105533
2.19687,0.481005,-0.117861
2.21985,0.486037,0.185511
2.16342,0.700852,-0.0926498
2.17113,0.694986,-0.0397915
2.19281,0.4721,-0.0652792
2.1951,0.586122,0
2.21798,0.365197,-0.0261692
2.18781,0.471025,-0.284861
2.17524,0.696299,0.0132744
2.15942,0.576595,-0.240754
2.20067,0.362347,-0.208195
2.1945,0.585964,0.0528539
2.22982,0.367147,0.0263088
2.17433,0.580577,-0.157371
2.19426,0.472412,-0.183233
2.15561,0.690017,-0.145056
2.2065,0.363307,-0.130231
2.20296,0.588221,0.13279
2.19463,0.472493,-0.117651
2.22154,0.478285,0.185511
2.15824,0.69086,-0.0923241
2.16592,0.68499,-0.0396519
2.17576,0.460488,-0.444794
2.18939,0.576419,0
2.21924,0.357452,-0.0261692
2.18168,0.461741,-0.283851
2.17765,0.688701,0.0132744
2.17295,0.572091,-0.242039
2.20192,0.354662,-0.208195
2.19653,0.578299,0.0528539
2.17248,0.571967,-0.157092
2.19589,0.464749,-0.183233
2.2146,0.468708,0.0395123
2.2117,0.356237,-0.130464
2.205,0.580527,0.13279
2.19088,0.576812,-0.105533
2.20018,0.465656,-0.117861
2.22319,0.470527,0.185511
2.16445,0.684527,-0.0924869
2.16448,0.676232,-0.0395821
2.17351,0.452091,-0.44401
2.19526,0.569777,0
2.22838,0.350947,-0.0262623
2.18328,0.454122,-0.283851
2.17623,0.679902,0.0132512
2.16724,0.562504,-0.241183
2.20315,0.346973,-0.208195
2.19467,0.569623,0.0527608
2.17447,0.56438,-0.157092
2.1975,0.45708,-0.183233
2.18679,0.683203,0.0666755
2.16038,0.674951,-0.145056
2.20898,0.347892,-0.130231
2.20314,0.571823,0.132557
2.19288,0.56916,-0.105533
2.20179,0.457972,-0.117861
2.22873,0.463575,0.185836
2.17064,0.678158,-0.0926498
2.17053,0.670232,-0.0396519
2.17116,0.444097,-0.443225
2.19714,0.562496,0
2.22163,0.342339,-0.0261692
2.16336,0.553849,-0.347424
2.19255,0.448471,-0.284861
2.17847,0.672683,0.0132512
2.16524,0.554329,-0.240754
2.20035,0.339061,-0.207823
2.19655,0.562344,0.0527608
2.18406,0.559147,-0.15765
2.18522,0.674769,0.0665591
2.15879,0.666606,-0.1448
2.20223,0.339351,-0.129766
2.20116,0.563525,0.132324
2.22407,0.454919,0.0924869
2.18702,0.559905,-0.10516
2.2033,0.45067,-0.117861
2.22244,0.454586,0.185186
2.1767,0.672137,-0.0928126
2.19655,0.562344,-0.0527608
2.17274,0.66303,-0.0396519
2.16493,0.435347,-0.441656
2.19124,0.553248,0
2.2267,0.335565,-0.0262157
2.16519,0.546672,-0.347424
2.18834,0.66779,0.0132977
2.17092,0.548119,-0.241183
2.20146,0.331762,-0.207823
2.20228,0.556035,0.0528539
2.23066,0.336161,0.0262623
2.17429,0.54897,-0.156813
2.20048,0.442497,-0.183233
2.17598,0.664018,0.0662101
2.1648,0.660608,-0.145056
2.20729,0.33264,-0.129999
2.20689,0.5572,0.132557
2.18499,0.551671,-0.104974
2.20086,0.442573,-0.117651
2.23175,0.448785,0.185836
2.17127,0.662582,-0.0924869
2.1984,0.555056,-0.0527608
2.1791,0.655836,-0.0397217
2.16658,0.427032,-0.441656
2.18946,0.543866,0
2.22402,0.326433,-0.0261692
2.1596,0.536449,-0.346194
2.19181,0.432003,-0.284356
2.18323,0.657077,0.0132512
2.16915,0.538821,-0.240754
2.19878,0.322728,-0.207451
2.20051,0.546611,0.0527608
2.23589,0.328175,0.0263088
2.18026,0.54158,-0.157092
2.20217,0.434045,-0.183233
2.17851,0.655658,0.0662101
2.21251,0.324743,-0.130231
2.20514,0.54776,0.132324
2.20254,0.43412,-0.117651
2.22172,0.4379,0.18486
2.16614,0.651937,-0.0921613
2.16976,0.645186,-0.0395123
2.17184,0.42059,-0.442441
2.19514,0.537554,0
2.22905,0.319623,-0.0262157
2.16521,0.530224,-0.346809
2.18933,0.423977,-0.283851
2.18156,0.648693,0.0132279
2.16706,0.530678,-0.240326
2.20378,0.316,-0.207823
2.20231,0.539311,0.0527608
2.18204,0.534346,-0.157092
2.19968,0.425981,-0.182907
2.21844,0.429614,0.0394424
2.16182,0.642825,-0.144544
2.20567,0.31627,-0.129766
2.20694,0.540444,0.132324
2.20397,0.426813,-0.117651
2.22316,0.430529,0.18486
2.17213,0.645888,-0.0923241
2.17189,0.637987,-0.0395123
2.16937,0.412653,-0.441656
2.19691,0.530272,0
2.22614,0.311675,-0.0261692
2.16311,0.522114,-0.346194
2.19073,0.416716,-0.283851
2.1837,0.641456,0.0132279
2.16881,0.523489,-0.240326
2.20876,0.309243,-0.208195
2.20798,0.532943,0.0528539
2.18768,0.528044,-0.157371
2.205,0.41943,-0.183233
2.18665,0.642322,0.0663264
2.22378,0.423003,0.0395123
2.21066,0.309508,-0.129999
2.20484,0.532186,0.132092
2.19453,0.529697,-0.10516
2.2093,0.420249,-0.117861
2.2285,0.4239,0.185186
2.17426,0.638682,-0.0923241
2.2002,0.531067,-0.0526678
2.17795,0.631515,-0.0395821
2.17465,0.405797,-0.442441
2.20653,0.524449,0
2.22721,0.303902,-0.0261692
2.18827,0.408337,-0.283346
2.18592,0.633829,0.0132279
2.22161,0.41456,-0.0131349
2.17062,0.515915,-0.240326
2.20983,0.30153,-0.208195
2.20204,0.523383,0.0526678
2.18563,0.519481,-0.157092
2.20253,0.410999,-0.182907
2.18504,0.633571,0.0662101
2.22524,0.415238,0.0395123
2.21172,0.301789,-0.129999
2.21057,0.525409,0.132324
2.2316,0.416423,0.0924869
2.19637,0.522033,-0.10516
2.23388,0.416849,0.185511
2.17647,0.631088,-0.0923241
2.20204,0.523383,-0.0526678
2.17255,0.62133,-0.0394424
2.17227,0.397119,-0.441656
2.19675,0.513627,0
2.22831,0.295737,-0.0261692
2.19365,0.401028,-0.283851
2.18823,0.625813,0.0132279
2.21092,0.293429,-0.208195
2.20005,0.514398,0.0525747
2.2402,0.297316,0.0263088
2.20402,0.402924,-0.182907
2.18734,0.625559,0.0662101
2.22675,0.407079,0.0395123
2.1646,0.619054,-0.144288
2.21281,0.293681,-0.129999
2.21248,0.517304,0.132324
2.23311,0.408241,0.0924869
2.19826,0.51398,-0.10516
2.22755,0.407225,0.18486
2.17493,0.622008,-0.0921613
2.20395,0.515309,-0.0526678
2.1823,0.616295,-0.0395821
2.17743,0.390605,-0.442441
2.20624,0.508134,0
2.22531,0.287833,-0.0261226
2.16076,0.497659,-0.344964
2.19106,0.393051,-0.283346
2.1903,0.618553,0.0132279
2.1703,0.499856,-0.239897
2.21188,0.286095,-0.208195
2.20954,0.508894,0.0527608
2.24118,0.289885,0.0263088
2.18142,0.502419,-0.156534
2.1975,0.394204,-0.182256
2.16664,0.611872,-0.144288
2.21378,0.286341,-0.129999
2.21029,0.509067,0.132092
2.23052,0.400128,0.0923241
2.19606,0.50579,-0.104974
2.22889,0.399836,0.18486
2.16929,0.612619,-0.0918356
2.18444,0.608673,-0.0395821
2.2002,0.498661,0
2.23027,0.280562,-0.0261692
2.16634,0.490986,-0.345579
2.20024,0.386773,-0.284356
2.18859,0.609829,0.0132047
2.17591,0.493156,-0.240326
2.21286,0.278372,-0.208195
2.2035,0.49941,0.0525747
2.24218,0.282059,0.0263088
2.17927,0.493918,-0.156255
2.19886,0.38653,-0.182256
2.18385,0.608508,0.0659773
2.22553,0.391219,0.0394424
2.21872,0.279109,-0.130231
2.21595,0.502231,0.132324
2.19782,0.498121,-0.104974
2.21495,0.38936,-0.117861
2.22634,0.391362,0.184535
2.17141,0.605043,-0.0918356
2.2074,0.500294,-0.0526678
2.17624,0.37473,-0.441656
2.20193,0.490979,0
2.23124,0.272777,-0.0261692
2.16418,0.482563,-0.344964
2.19375,0.377745,-0.283346
2.18685,0.601127,0.0131814
2.21382,0.270648,-0.208195
2.20914,0.492587,0.0526678
2.20019,0.378854,-0.182256
2.22688,0.38345,0.0394424
2.21176,0.270395,-0.129766
2.206,0.491887,0.131627
2.19564,0.489578,-0.104788
2.2163,0.381627,-0.117861
2.23163,0.384266,0.18486
2.18122,0.59958,-0.0921613
2.18102,0.590935,-0.0394424
2.18147,0.367402,-0.442441
2.20371,0.482905,0
2.23619,0.265067,-0.0262157
2.19512,0.369702,-0.283346
2.1929,0.594153,0.0132047
2.1755,0.476722,-0.239897
2.2148,0.262531,-0.208195
2.20702,0.48363,0.0525747
2.18275,0.478312,-0.156255
2.2055,0.371449,-0.182582
2.192,0.593912,0.0660937
2.22827,0.375285,0.0394424
2.16918,0.587727,-0.144032
2.2167,0.262756,-0.129999
2.21168,0.484652,0.131859
2.19352,0.480671,-0.104602
2.23302,0.376084,0.18486
2.17954,0.590535,-0.0919985
2.20702,0.48363,-0.0525747
2.18673,0.585114,-0.0395123
2.17874,0.359907,-0.441656
2.20131,0.475135,0
2.23701,0.25804,-0.0262157
2.16741,0.467819,-0.344964
2.20019,0.36345,-0.283851
2.19475,0.587261,0.0132047
2.21957,0.256028,-0.208567
2.20462,0.47585,0.0524816
2.18424,0.471452,-0.156255
2.20272,0.363868,-0.182256
2.19,0.585989,0.0659773
2.22148,0.256248,-0.130231
2.2171,0.478544,0.132092
2.23582,0.369336,0.0923241
2.20283,0.475463,-0.104974
2.23419,0.369066,0.18486
2.17753,0.582652,-0.0918356
2.18102,0.575437,-0.0393726
2.17998,0.3523,-0.441656
2.20295,0.467449,0
2.23393,0.249786,-0.0261692
2.16903,0.460251,-0.344964
2.20145,0.355768,-0.283851
2.19292,0.578576,0.0131814
2.22441,0.248721,-0.208938
2.21018,0.468982,0.0525747
2.24585,0.251119,0.0263088
2.18588,0.463825,-0.156255
2.19611,0.354905,-0.181606
2.23466,0.361136,0.0395123
2.16917,0.57231,-0.143777
2.22236,0.248493,-0.130231
2.21876,0.470802,0.132092
2.20057,0.466942,-0.104788
2.22011,0.358784,-0.117861
2.2409,0.475501,0.281274
2.23153,0.36063,0.184535
2.17568,0.574028,-0.0916728
2.18322,0.567059,-0.0393726
2.20778,0.348099,-0.0650464
2.18519,0.344538,-0.442441
2.20865,0.459802,0
2.23089,0.240778,-0.0261226
2.17078,0.45192,-0.344964
2.19888,0.346695,-0.283346
2.199,0.571158,0.0132047
2.17648,0.453105,-0.239469
2.22535,0.240179,-0.208938
2.20805,0.459678,0.0524816
2.24282,0.242065,0.0262623
2.19545,0.457056,-0.156813
2.20139,0.347092,-0.181931
2.19423,0.56992,0.0659773
2.23603,0.352554,0.0395123
2.2233,0.239958,-0.130231
2.22446,0.463094,0.132324
2.20625,0.459304,-0.104974
2.22147,0.350258,-0.117861
2.23883,0.466085,0.280787
2.23683,0.35268,0.18486
2.17787,0.56567,-0.0916728
2.25841,0.356082,0.416853
2.18111,0.559203,-0.0393028
2.20886,0.341161,-0.0650464
2.18239,0.337072,-0.441656
2.20616,0.452058,0
2.23959,0.234601,-0.0262157
2.16832,0.444304,-0.344349
2.20388,0.34039,-0.283851
2.19691,0.563253,0.0131814
2.22953,0.344352,-0.0131117
2.17789,0.446264,-0.239469
2.22609,0.233186,-0.208938
2.20556,0.451935,0.0523886
2.18906,0.448553,-0.156255
2.21035,0.341391,-0.182582
2.19214,0.562031,0.065861
2.23318,0.344916,0.0394424
2.22404,0.232972,-0.130231
2.22199,0.455301,0.132092
2.20377,0.451568,-0.104788
2.22256,0.343276,-0.117861
2.24417,0.459845,0.281274
2.23793,0.34565,0.18486
2.18351,0.559817,-0.0918356
2.26341,0.349585,0.417571
2.2134,0.453541,-0.0525747
2.18712,0.551803,-0.0393726
2.18367,0.32869,-0.441656
2.2118,0.444372,0
2.23252,0.225197,-0.0261226
2.20517,0.331926,-0.283851
2.22301,0.224237,-0.208567
2.20728,0.443464,0.0523886
2.19468,0.440931,-0.156534
2.20376,0.331715,-0.181931
2.23053,0.335744,0.0393726
2.22492,0.224431,-0.130231
2.21981,0.44598,0.131859
2.23692,0.336706,0.0921613
2.20941,0.44389,-0.104974
2.21991,0.334146,-0.117651
2.24202,0.450444,0.280787
2.24318,0.337649,0.185186
2.18952,0.552407,-0.0919985
2.26473,0.340892,0.417571
2.18515,0.5432,-0.0393028
2.18092,0.320495,-0.440872
2.20549,0.435099,0
2.24125,0.218177,-0.0262157
2.1754,0.429162,-0.344964
2.20631,0.324226,-0.283851
2.20098,0.547133,0.0131814
2.23199,0.328,-0.0131117
2.22774,0.216862,-0.208938
2.21666,0.437304,0.0525747
2.24921,0.218952,0.0263088
2.20096,0.32344,-0.181606
2.1962,0.545946,0.065861
2.2396,0.329118,0.0395123
2.17326,0.540244,-0.143521
2.22569,0.216662,-0.130231
2.22527,0.439001,0.132092
2.2031,0.434628,-0.104602
2.22107,0.326394,-0.117651
2.23969,0.441846,0.2803
2.24041,0.329236,0.18486
2.18367,0.542832,-0.0916728
2.2698,0.333556,0.418288
2.19462,0.538238,-0.0394424
2.22023,0.319149,-0.0652792
2.18192,0.313642,-0.440872
2.21077,0.428931,0
2.23396,0.210385,-0.0261226
2.17285,0.421574,-0.344349
2.20732,0.317294,-0.283851
2.20268,0.540216,0.0131814
2.18244,0.423434,-0.239469
2.23237,0.210236,-0.20931
2.2141,0.429576,0.0524816
2.25387,0.212261,0.0263554
2.18972,0.424846,-0.155975
2.20197,0.316524,-0.181606
2.19791,0.539044,0.065861
2.17495,0.533415,-0.143521
2.22636,0.209669,-0.130231
2.22272,0.431247,0.131859
2.24306,0.322432,0.0923241
2.19661,0.426183,-0.10423
2.22603,0.319984,-0.117861
2.24107,0.434808,0.2803
2.23748,0.321629,0.184535
2.18149,0.535018,-0.09151
2.26694,0.325864,0.417571
2.18871,0.528695,-0.0393028
2.21737,0.310842,-0.0651628
2.18688,0.306568,-0.441656
2.2044,0.419714,0
2.23468,0.202586,-0.0261226
2.20055,0.308484,-0.282841
2.20067,0.531585,0.0131582
2.23309,0.202442,-0.20931
2.21952,0.422592,0.0525747
2.2546,0.204391,0.0263554
2.19119,0.417199,-0.155975
2.20701,0.309389,-0.181931
2.19977,0.531369,0.065861
2.23381,0.313147,0.0393726
2.22708,0.201896,-0.130231
2.22421,0.423486,0.131859
2.20594,0.420007,-0.104602
2.22714,0.312211,-0.117861
2.23867,0.426239,0.279812
2.23859,0.313817,0.184535
2.18334,0.527399,-0.09151
2.26807,0.317949,0.417571
2.18674,0.519745,-0.039233
2.21453,0.302173,-0.0650464
2.18799,0.298551,-0.441656
2.20986,0.412366,0
2.2394,0.194741,-0.0261692
2.17582,0.406014,-0.344349
2.20953,0.30149,-0.283851
2.19871,0.522591,0.0131349
2.23382,0.194256,-0.20931
2.21712,0.413722,0.0524816
2.25135,0.19578,0.0263088
2.1927,0.409166,-0.155975
2.21208,0.301837,-0.182256
2.19782,0.522378,0.0657446
2.21789,0.413866,0.131394
2.21139,0.412652,-0.104788
2.22827,0.304046,-0.117861
2.24412,0.41876,0.2803
2.24368,0.306149,0.18486
2.18526,0.519394,-0.09151
2.26922,0.309634,0.417571
2.18508,0.290777,-0.440872
2.21514,0.405757,0
2.248,0.187981,-0.0262623
2.20659,0.293639,-0.283346
2.20822,0.517121,0.0131814
2.22255,0.185852,-0.208195
2.21455,0.405647,0.0523886
2.19405,0.401893,-0.155975
2.20911,0.293975,-0.181931
2.19954,0.515088,0.0657446
2.22843,0.186344,-0.130231
2.22318,0.407229,0.131627
2.24632,0.298926,0.0923241
2.20489,0.403877,-0.104416
2.2455,0.411316,0.2803
2.24468,0.298708,0.18486
2.19086,0.513056,-0.0916728
2.27413,0.302627,0.418288
2.19023,0.504849,-0.039233
2.2205,0.287605,-0.0651628
2.18997,0.283651,-0.441656
2.21655,0.398021,0
2.24864,0.180132,-0.0262623
2.17853,0.391195,-0.344349
2.21153,0.286443,-0.283851
2.23112,0.178728,-0.208938
2.21595,0.397914,0.0523886
2.25263,0.180451,0.0263088
2.21408,0.286773,-0.182256
2.20132,0.507406,0.0657446
2.2449,0.290765,0.0395123
2.23305,0.178883,-0.130464
2.22852,0.400171,0.131859
2.24735,0.291082,0.0923241
2.22632,0.288359,-0.117651
2.24692,0.403475,0.2803
2.25362,0.291894,0.185511
2.19264,0.505405,-0.0916728
2.27517,0.294686,0.418288
2.21988,0.39862,-0.0524816
2.19588,0.498085,-0.0393028
2.21753,0.279353,-0.0650464
2.18317,0.275025,-0.440087
2.21398,0.389589,0
2.23729,0.171366,-0.0261226
2.21178,0.501692,0.0131814
2.1895,0.385281,-0.239469
2.22776,0.170635,-0.208567
2.22126,0.39087,0.0524816
2.25325,0.172587,0.0263088
2.20716,0.278047,-0.181606
2.20308,0.499719,0.0657446
2.2459,0.282928,0.0395123
2.18004,0.494492,-0.143265
2.22968,0.170782,-0.130231
2.2299,0.39239,0.131859
2.21159,0.389167,-0.104602
2.23128,0.281085,-0.117861
2.2444,0.394942,0.279812
2.24275,0.282531,0.184535
2.18659,0.49598,-0.0913472
2.27619,0.286743,0.418288
2.1937,0.489546,-0.039233
2.22246,0.272096,-0.0651628
2.18801,0.267879,-0.440872
2.21139,0.381178,0
2.24586,0.164137,-0.0262157
2.18121,0.375976,-0.344349
2.20954,0.270515,-0.283346
2.2018,0.491354,0.0131117
2.18691,0.376959,-0.239041
2.23232,0.163148,-0.208938
2.22261,0.383113,0.0524816
2.19814,0.378894,-0.155975
2.22394,0.272278,-0.182907
2.20481,0.492026,0.0657446
2.24291,0.2746,0.0394424
2.23425,0.163289,-0.130464
2.23126,0.384604,0.131859
2.20899,0.380766,-0.104416
2.23225,0.273295,-0.117861
2.25359,0.388453,0.280787
2.18831,0.488344,-0.0913472
2.28108,0.279274,0.419006
2.19157,0.480646,-0.0391632
2.22344,0.263949,-0.0651628
2.19676,0.260782,-0.442441
2.22066,0.374401,0
2.24245,0.155628,-0.0261692
2.17867,0.367322,-0.343735
2.21052,0.262415,-0.283346
2.21531,0.485852,0.0131814
2.2329,0.154965,-0.208938
2.224,0.374965,0.0524816
2.19558,0.370172,-0.155696
2.21701,0.263185,-0.182256
2.2066,0.483942,0.0657446
2.2439,0.266378,0.0394424
2.22478,0.375096,0.131394
2.20643,0.372003,-0.10423
2.23323,0.265112,-0.117861
2.25109,0.379531,0.2803
2.24472,0.266475,0.184535
2.19399,0.481177,-0.09151
2.27037,0.26952,0.416853
2.224,0.374965,-0.0524816
2.19368,0.25343,-0.441656
2.22182,0.367423,0
2.24692,0.148848,-0.0262157
2.17982,0.360476,-0.343735
2.21527,0.255925,-0.283851
2.20901,0.477201,0.0131349
2.18943,0.362066,-0.239041
2.22543,0.147424,-0.208195
2.21728,0.366672,0.0522955
2.26289,0.149905,0.026402
2.19673,0.363273,-0.155696
2.22574,0.257135,-0.182907
2.2042,0.476163,0.0656282
2.2487,0.259787,0.0395123
2.23929,0.148342,-0.130697
2.22989,0.368756,0.131627
2.25115,0.26007,0.0923241
2.20759,0.36507,-0.10423
2.24835,0.37181,0.279812
2.24554,0.259422,0.184535
2.19549,0.474282,-0.09151
2.27511,0.262838,0.417571
2.19862,0.466931,-0.039233
2.22117,0.248752,-0.0650464
2.19065,0.245334,-0.440872
2.2152,0.358387,0
2.25142,0.141253,-0.0262623
2.18496,0.353496,-0.344349
2.21221,0.247749,-0.283346
2.21066,0.469487,0.0131349
2.1946,0.355056,-0.239469
2.23388,0.140153,-0.208938
2.22249,0.359568,0.0523886
2.2594,0.141754,0.0263554
2.22267,0.24892,-0.182582
2.20585,0.468466,0.0656282
2.24562,0.25149,0.0394424
2.24378,0.140774,-0.130929
2.23116,0.36097,0.131627
2.2128,0.357999,-0.104416
2.23494,0.250294,-0.117861
2.24572,0.363325,0.279325
2.25832,0.252913,0.185511
2.18932,0.464955,-0.0911843
2.27602,0.254894,0.417571
2.22644,0.360206,-0.0524816
2.2004,0.458485,-0.039233
2.22211,0.240221,-0.0650464
2.19548,0.237342,-0.441656
2.21656,0.349878,0
2.24396,0.132137,-0.0261692
2.1824,0.344487,-0.343735
2.21709,0.239678,-0.283851
2.21636,0.461811,0.0131582
2.19988,0.347246,-0.239897
2.23837,0.131808,-0.20931
2.22386,0.351031,0.0523886
2.26392,0.133312,0.026402
2.2236,0.240383,-0.182582
2.20763,0.459992,0.0656282
2.25054,0.243295,0.0395123
2.23633,0.131687,-0.130464
2.23253,0.3524,0.131627
2.2181,0.350122,-0.104602
2.25102,0.355318,0.279812
2.19109,0.456544,-0.0911843
2.28089,0.246576,0.418288
2.2308,0.234074,-0.0652792
2.19621,0.230444,-0.441656
2.21764,0.342914,0
2.24836,0.125309,-0.0262157
2.18738,0.338233,-0.344349
2.20994,0.231884,-0.282841
2.20996,0.453239,0.0131117
2.23878,0.124775,-0.20931
2.2289,0.344654,0.0524816
2.26433,0.1262,0.026402
2.22038,0.23298,-0.182256
2.20515,0.452251,0.0655119
2.24732,0.235806,0.0394424
2.24072,0.124884,-0.130697
2.22968,0.344774,0.131394
2.20735,0.341321,-0.104044
2.23663,0.234685,-0.117861
2.24814,0.235893,0.184535
2.20034,0.451265,-0.09151
2.27774,0.238999,0.417571
2.23161,0.226285,-0.0652792
2.2009,0.223171,-0.442441
2.22674,0.336365,0
2.25278,0.117668,-0.0262623
2.21468,0.224569,-0.283346
2.21545,0.446311,0.0131349
2.24445,0.227587,-0.0131117
2.19427,0.33146,-0.239041
2.24318,0.117167,-0.209682
2.238,0.338066,0.0526678
2.22515,0.22563,-0.182582
2.21063,0.44534,0.0656282
2.25211,0.228363,0.0395123
2.19139,0.441463,-0.143265
2.23715,0.116853,-0.130464
2.23087,0.336989,0.131394
2.21247,0.33421,-0.10423
2.25332,0.34038,0.279812
2.24895,0.228043,0.184535
2.2019,0.443581,-0.09151
2.27856,0.231046,0.417571
2.19386,0.214725,-0.440872
2.21998,0.327424,0
2.24518,0.109416,-0.0261692
2.18578,0.322379,-0.343735
2.2115,0.216451,-0.282841
2.21307,0.4378,0.0131117
2.23164,0.108756,-0.208567
2.2273,0.328503,0.0523886
2.23386,0.218639,-0.183233
2.2161,0.438398,0.0657446
2.25289,0.220502,0.0395123
2.189,0.433038,-0.143009
2.24154,0.109239,-0.130697
2.23598,0.329784,0.131627
2.25932,0.221132,0.0924869
2.21758,0.32707,-0.104416
2.2537,0.220581,0.18486
2.19951,0.435118,-0.0913472
2.27935,0.223092,0.417571
2.2273,0.328503,-0.0523886
2.20259,0.427341,-0.0391632
2.22919,0.209935,-0.0651628
2.19854,0.207049,-0.441656
2.21721,0.318715,0
2.25756,0.101725,-0.0263088
2.21623,0.208715,-0.283346
2.22252,0.431208,0.0131582
2.25001,0.211895,-0.0131349
2.19659,0.31575,-0.239041
2.23998,0.100933,-0.20931
2.22849,0.320335,0.0523886
2.26555,0.102085,0.026402
2.20391,0.316803,-0.155696
2.23465,0.210449,-0.183233
2.22161,0.431033,0.065861
2.25368,0.212242,0.0395123
2.23793,0.100841,-0.130464
2.23322,0.321016,0.131394
2.26012,0.212848,0.0924869
2.21481,0.318369,-0.10423
2.23901,0.21086,-0.117861
2.2557,0.324247,0.279812
2.25449,0.212318,0.18486
2.2011,0.427052,-0.0913472
2.28407,0.215104,0.418288
2.20799,0.420399,-0.039233
2.22991,0.202154,-0.0651628
2.20315,0.199729,-0.442441
2.23019,0.312641,0
2.24991,0.0935134,-0.0262157
2.22485,0.201696,-0.284356
2.22401,0.423449,0.0131582
2.24032,0.0931149,-0.20931
2.22959,0.312556,0.0523886
2.26189,0.0940117,0.0263554
2.22743,0.201929,-0.182582
2.21132,0.421033,0.0655119
2.19204,0.417363,-0.143009
2.25024,0.0935274,-0.131162
2.23828,0.313775,0.131627
2.22382,0.311747,-0.104602
2.23973,0.203044,-0.117861
2.25682,0.316373,0.279812
2.25522,0.204448,0.18486
2.19865,0.41862,-0.0911843
2.28089,0.206776,0.417571
2.20551,0.411955,-0.0391632
2.2306,0.194368,-0.0651628
2.20384,0.192036,-0.442441
2.23127,0.304853,0
2.25421,0.0858108,-0.0262623
2.21764,0.193239,-0.283346
2.21761,0.414214,0.0131117
2.20662,0.301485,-0.239897
2.24461,0.0854451,-0.209682
2.23067,0.304771,0.0523886
2.2702,0.0864193,0.0264485
2.23209,0.194498,-0.182907
2.21671,0.414045,0.0656282
2.24714,0.19581,0.0393726
2.23937,0.305959,0.131627
2.22094,0.303441,-0.104416
2.25398,0.307955,0.279325
2.25592,0.196574,0.18486
2.20402,0.411676,-0.0913472
2.28552,0.199154,0.418288
2.23522,0.187303,-0.0652792
2.20055,0.184399,-0.441656
2.22434,0.296395,0
2.25848,0.0784733,-0.0263088
2.19398,0.29235,-0.344349
2.21826,0.185883,-0.283346
2.21504,0.406136,0.0130884
2.24488,0.0780006,-0.209682
2.23563,0.297899,0.0524816
2.27048,0.07889,0.0264485
2.23272,0.187094,-0.182907
2.21807,0.406692,0.0656282
2.25176,0.18869,0.0394424
2.25083,0.0782072,-0.131162
2.23641,0.298003,0.131394
2.22193,0.296074,-0.104416
2.25892,0.301003,0.279812
2.25259,0.188759,0.184535
2.20144,0.403643,-0.0911843
2.27832,0.190916,0.416853
2.2044,0.39584,-0.0390934
2.16594,0.280539,-0.611397
2.20513,0.176646,-0.442441
2.22938,0.288755,0
2.25476,0.0700713,-0.0262623
2.22289,0.178069,-0.283851
2.22438,0.399429,0.0131349
2.20078,0.285051,-0.239041
2.24117,0.069649,-0.20931
2.23274,0.28919,0.0523886
2.20812,0.286001,-0.155696
2.23339,0.17891,-0.182907
2.21954,0.39856,0.0656282
2.25643,0.180756,0.0395123
2.2511,0.0699575,-0.131162
2.24145,0.290318,0.131627
2.26287,0.181272,0.0924869
2.21508,0.286902,-0.104044
2.26001,0.292722,0.279812
2.26121,0.181139,0.185186
2.20291,0.395573,-0.0911843
2.28293,0.182879,0.417571
2.20964,0.389221,-0.0391632
2.23647,0.171694,-0.0652792
2.17068,0.273836,-0.612475
2.19788,0.168731,-0.440872
2.25898,0.0627042,-0.0263088
2.20381,0.278015,-0.345579
2.22742,0.171,-0.284356
2.22176,0.391356,0.0131117
2.24537,0.0623265,-0.209682
2.23369,0.281784,0.0523886
2.27097,0.0630372,0.0264485
2.23795,0.171808,-0.183233
2.22085,0.391197,0.0656282
2.261,0.173577,0.0395821
2.25132,0.0624916,-0.131162
2.23844,0.282383,0.131394
2.21998,0.280055,-0.10423
2.24232,0.172143,-0.117861
2.25309,0.284232,0.278837
2.25782,0.173333,0.18486
2.20027,0.387571,-0.0910215
2.28352,0.175307,0.417571
2.21099,0.381506,-0.0391632
2.23706,0.163887,-0.0652792
2.17927,0.267195,-0.614632
2.21019,0.161919,-0.443225
2.23129,0.273573,0
2.25518,0.054722,-0.0262623
2.193,0.268878,-0.343735
2.228,0.163224,-0.284356
2.22705,0.384279,0.0131349
2.20662,0.270548,-0.239469
2.24955,0.0545854,-0.210054
2.23863,0.274472,0.0524816
2.27118,0.0551101,0.0264485
2.23456,0.163704,-0.182907
2.21827,0.382763,0.0655119
2.26159,0.165685,0.0395821
2.24753,0.0545363,-0.130929
2.24337,0.275054,0.131627
2.22491,0.272791,-0.104416
2.26195,0.277332,0.279812
2.25841,0.165452,0.18486
2.20161,0.379889,-0.0910215
2.28412,0.167335,0.417571
2.2123,0.373787,-0.0391632
2.23761,0.156078,-0.0652792
2.17637,0.259132,-0.613554
2.20683,0.15393,-0.442441
2.2362,0.266256,0
2.25536,0.04685,-0.0262623
2.19785,0.261689,-0.344349
2.2246,0.15517,-0.283851
2.22443,0.375836,0.0131117
2.2036,0.262374,-0.239041
2.25371,0.0468158,-0.210425
2.23163,0.265711,0.0522955
2.27136,0.0471823,0.0264485
2.23512,0.155903,-0.182907
2.21565,0.374352,0.0653955
2.25817,0.157511,0.0395123
2.25968,0.0469398,-0.131627
2.24432,0.267222,0.131627
2.22982,0.265495,-0.104602
2.2629,0.269435,0.279812
2.20687,0.372868,-0.0911843
2.28862,0.159635,0.418288
2.20958,0.365795,-0.0390934
2.24211,0.148921,-0.0653955
2.18104,0.252355,-0.614632
2.20733,0.146611,-0.442441
2.2595,0.0394399,-0.0263088
2.19478,0.253945,-0.343735
2.2251,0.147791,-0.283851
2.22962,0.369111,0.0131349
2.25499,0.149777,-0.0131349
2.23647,0.258769,0.0523886
2.21973,0.256832,-0.156255
2.2396,0.148754,-0.183233
2.22477,0.368308,0.0656282
2.26267,0.150286,0.0395821
2.25184,0.0393062,-0.131162
2.23068,0.258099,-0.104602
2.26378,0.261929,0.279812
2.25949,0.150075,0.18486
2.28521,0.151784,0.417571
2.24044,0.259228,-0.0524816
2.21486,0.358333,-0.0391632
2.17047,0.243074,-0.611397
2.20785,0.13852,-0.442441
2.23801,0.250638,0
2.25963,0.0311587,-0.0263088
2.20355,0.246779,-0.344964
2.22959,0.139884,-0.284356
2.23095,0.360937,0.0131349
2.21328,0.247869,-0.239897
2.25,0.0310259,-0.210054
2.23343,0.250125,0.0522955
2.24013,0.140545,-0.183233
2.22215,0.359513,0.0655119
2.25921,0.141742,0.0395123
2.25197,0.031053,-0.131162
2.24216,0.251103,0.131394
2.26965,0.142397,0.0926498
2.22367,0.249033,-0.10423
2.26473,0.25363,0.279812
2.26798,0.142293,0.185511
2.20547,0.356814,-0.0910215
2.28575,0.143407,0.417571
2.24138,0.251015,-0.0524816
2.1713,0.235496,-0.611397
2.20832,0.130812,-0.442441
2.23092,0.241961,0
2.26373,0.0233115,-0.0263554
2.19654,0.238233,-0.343735
2.23403,0.132334,-0.284861
2.22825,0.352521,0.0131117
2.20622,0.239283,-0.239041
2.24612,0.0231301,-0.209682
2.23826,0.242758,0.0523886
2.27173,0.0233938,0.0264485
2.21358,0.240081,-0.155696
2.24061,0.132724,-0.183233
2.22734,0.352378,0.0656282
2.25206,0.0231914,-0.131162
2.24302,0.243274,0.131394
2.27013,0.134473,0.0926498
2.2285,0.241699,-0.104416
2.26165,0.245295,0.279325
2.26448,0.134139,0.185186
2.21065,0.349737,-0.0911843
2.29016,0.13566,0.418288
2.21731,0.34286,-0.0391632
2.17977,0.228718,-0.613554
2.21268,0.12332,-0.443225
2.23175,0.234172,0
2.26379,0.0154089,-0.0263554
2.19736,0.230563,-0.343735
2.23448,0.124535,-0.284861
2.23342,0.345352,0.0131349
2.211,0.231995,-0.239469
2.25813,0.0153703,-0.210797
2.24308,0.23536,0.0524816
2.27979,0.0155178,0.0265417
2.23707,0.12468,-0.182907
2.22066,0.343379,0.0653955
2.26414,0.126188,0.0395821
2.20127,0.340381,-0.142753
2.25213,0.0153295,-0.131162
2.24783,0.235859,0.131627
2.27059,0.126548,0.0926498
2.22536,0.233501,-0.10423
2.26644,0.237812,0.279812
2.26096,0.126011,0.18486
2.21186,0.342018,-0.0911843
2.29062,0.127664,0.418288
2.17669,0.2211,-0.612475
2.20916,0.115777,-0.442441
2.24047,0.227579,0
2.26383,0.00790223,-0.0263554
2.23091,0.116917,-0.284356
2.2306,0.337346,0.0131117
2.26086,0.118487,-0.0131582
2.21176,0.224662,-0.239469
2.25419,0.00786855,-0.210425
2.23987,0.227517,0.0523886
2.27583,0.00794411,0.0264951
2.21913,0.225411,-0.155975
2.23748,0.117261,-0.182907
2.22178,0.336013,0.0653955
2.26455,0.11868,0.0395821
2.26415,0.00790333,-0.131859
2.2486,0.228404,0.131627
2.271,0.119018,0.0926498
2.23407,0.226928,-0.104602
2.26722,0.230296,0.279812
2.26534,0.118722,0.185186
2.20903,0.334084,-0.0910215
2.29497,0.120274,0.419006
2.24439,0.109377,-0.0653955
2.17748,0.213121,-0.612475
2.2174,0.108062,-0.44401
2.23333,0.218587,0
2.26385,-0.000394704,-0.0263554
2.20285,0.215603,-0.344349
2.23133,0.10874,-0.284356
2.23577,0.329752,0.0131349
2.21257,0.216555,-0.239469
2.24864,0.220086,0.0525747
2.27585,-0.000396796,0.0264951
2.24585,0.109448,-0.183558
2.23091,0.329035,0.0656282
2.26497,0.11038,0.0395821
2.25618,-0.000393367,-0.131394
2.24545,0.219773,0.131394
2.23886,0.219128,-0.104788
2.26805,0.221985,0.279812
2.26576,0.110418,0.185186
2.21419,0.326569,-0.0911843
2.28753,0.111479,0.417571
2.24466,0.219696,-0.0524816
2.17822,0.205519,-0.612475
2.21385,0.100144,-0.443225
2.24204,0.211542,0
2.26783,-0.00831117,-0.026402
2.20359,0.207913,-0.344349
2.23169,0.100951,-0.284356
2.23691,0.321946,0.0131349
2.26565,0.102487,-0.0131814
2.21727,0.209204,-0.239897
2.25418,-0.00826116,-0.210425
2.24144,0.211484,0.0523886
2.27983,-0.00835514,0.0265417
2.22069,0.209527,-0.155975
2.24224,0.101428,-0.183233
2.22809,0.320676,0.0655119
2.26534,0.102473,0.0395821
2.26016,-0.00828304,-0.131627
2.25018,0.212309,0.131627
2.27179,0.102765,0.0926498
2.22768,0.210186,-0.10423
2.26881,0.214067,0.279812
2.27012,0.102689,0.185511
2.21136,0.318269,-0.0910215
2.29184,0.103672,0.418288
2.21786,0.311701,-0.0390934
2.18272,0.198643,-0.613554
2.21025,0.0926371,-0.442441
2.26779,-0.0158322,-0.026402
2.20426,0.200604,-0.344349
2.23598,0.0937156,-0.284861
2.23005,0.313413,0.0130884
2.26597,0.0949727,-0.0131814
2.21795,0.20185,-0.239897
2.25415,-0.0157369,-0.210425
2.24212,0.20405,0.0523886
2.27579,-0.015888,0.0264951
2.24655,0.0941585,-0.183558
2.2331,0.313842,0.0656282
2.26567,0.0949598,0.0395821
2.26012,-0.0157786,-0.131627
2.24689,0.204483,0.131394
2.27611,0.0953976,0.0928126
2.22836,0.202797,-0.10423
2.25093,0.0943423,-0.11807
2.26646,0.0949933,0.185186
2.2124,0.310933,-0.0910215
2.29217,0.0960705,0.418288
2.24611,0.204412,-0.0524816
2.1834,0.191024,-0.613554
2.21448,0.0850724,-0.443225
2.23546,0.195578,0
2.26372,-0.0237058,-0.0263554
2.23629,0.0859105,-0.284861
2.23113,0.305627,0.0130884
2.21864,0.194107,-0.239897
2.25009,-0.023563,-0.210054
2.27972,-0.0238733,0.0265417
2.24686,0.0863165,-0.183558
2.23022,0.305503,0.0655119
2.26598,0.087051,0.0395821
2.26404,-0.0237091,-0.131859
2.25555,0.197336,0.131859
2.27643,0.0874524,0.0928126
2.23304,0.195366,-0.104416
2.25524,0.0866383,-0.118279
2.27021,0.198619,0.279812
2.29642,0.0882203,0.419006
2.24681,0.196571,-0.0524816
2.18789,0.183723,-0.614632
2.21868,0.0774782,-0.44401
2.24012,0.188108,0
2.26763,-0.0316639,-0.026402
2.23658,0.0781032,-0.284861
2.23614,0.298366,0.0131117
2.22327,0.186693,-0.240326
2.26194,-0.0315846,-0.211169
2.24748,0.188726,0.0524816
2.27562,-0.0317756,0.0264951
2.24317,0.0783332,-0.183233
2.22731,0.297187,0.0653955
2.26228,0.0790006,0.0395123
2.26794,-0.0316683,-0.132092
2.25622,0.18946,0.131859
2.23769,0.187904,-0.104602
2.26694,0.19036,0.279325
2.27106,0.0793072,0.185511
2.31009,0.193984,0.621166
2.29278,0.0800659,0.418288
2.18852,0.176085,-0.614632
2.21502,0.0696104,-0.443225
2.24475,0.180609,0
2.2715,-0.0396486,-0.0264485
2.20624,0.177511,-0.344349
2.23684,0.0702961,-0.284861
2.23321,0.290043,0.0130884
2.26684,0.071239,-0.0131814
2.21598,0.178294,-0.239469
2.2658,-0.0395491,-0.211541
2.24414,0.18056,0.0523886
2.2875,-0.0399278,0.0266348
2.22735,0.179209,-0.156255
2.24741,0.0706283,-0.183558
2.2323,0.289926,0.0655119
2.26654,0.0712294,0.0395821
2.25983,-0.0394448,-0.131627
2.24891,0.180944,0.131394
2.27699,0.0715578,0.0928126
2.23833,0.180093,-0.104602
2.26759,0.182446,0.279325
2.27132,0.0713797,0.185511
2.21554,0.287749,-0.0910215
2.29698,0.0721861,0.419006
2.18528,0.168148,-0.613554
2.22309,0.0620965,-0.444794
2.24137,0.172464,0
2.26735,-0.0474942,-0.026402
2.21473,0.170414,-0.345579
2.23707,0.0624871,-0.284861
2.23817,0.282747,0.0131117
2.26708,0.0633252,-0.0131814
2.22452,0.171167,-0.240326
2.25769,-0.0472918,-0.210797
2.24476,0.172725,0.0523886
2.28734,-0.047913,0.0266348
2.22796,0.171432,-0.156255
2.24764,0.0627824,-0.183558
2.2333,0.282131,0.0655119
2.27477,0.06354,0.0397217
2.20987,0.279171,-0.142753
2.26766,-0.0475007,-0.132092
2.24953,0.173092,0.131394
2.27323,0.063497,0.0926498
2.23496,0.171971,-0.104416
2.26002,0.063128,-0.118489
2.27613,0.175139,0.2803
2.27155,0.0634503,0.185511
2.21653,0.280013,-0.0910215
2.29722,0.0641671,0.419006
2.22296,0.272946,-0.0390934
2.19354,0.161084,-0.61571
2.21545,0.0541449,-0.443225
2.27117,-0.0555056,-0.0264485
2.21137,0.162393,-0.344964
2.23728,0.0546783,-0.284861
2.24312,0.275421,0.0131349
2.27128,0.0555095,-0.0132047
2.26547,-0.0553664,-0.211541
2.24933,0.165181,0.0524816
2.28316,-0.0557988,0.0265882
2.24386,0.0548393,-0.183233
2.23427,0.274334,0.0655119
2.27098,0.0555019,0.0396519
2.26748,-0.0554155,-0.132092
2.25808,0.165824,0.131859
2.28143,0.0557573,0.0929754
2.2475,0.165047,-0.104974
2.26022,0.0552391,-0.118489
2.27277,0.166902,0.279812
2.27575,0.0556186,0.185836
2.22146,0.272762,-0.0911843
2.312,0.169783,0.621166
2.29743,0.0561484,0.419006
2.22788,0.265658,-0.0391632
2.19024,0.153157,-0.614632
2.21955,0.0464928,-0.44401
2.24252,0.156812,0
2.20798,0.154397,-0.344349
2.24539,0.047034,-0.285871
2.24406,0.267588,0.0131349
2.27146,0.0475803,-0.0132047
2.21772,0.155078,-0.239469
2.26128,-0.0631635,-0.211169
2.24591,0.157049,0.0523886
2.28695,-0.0638805,0.0266348
2.22512,0.155595,-0.155975
2.24404,0.0470059,-0.183233
2.23124,0.266059,0.0653955
2.27515,0.0476576,0.0397217
2.21176,0.263736,-0.142753
2.27126,-0.0634423,-0.132324
2.25865,0.15794,0.131859
2.28161,0.0477927,0.0929754
2.24408,0.156921,-0.104788
2.2773,0.159244,0.2803
2.27194,0.0475903,0.185511
2.31643,0.16198,0.622201
2.30154,0.0482104,0.419723
2.22482,0.257419,-0.0390934
2.19461,0.145765,-0.61571
2.2197,0.0387442,-0.44401
2.27472,-0.0714868,-0.0264951
2.20851,0.146688,-0.344349
2.24157,0.039126,-0.285366
2.23306,0.258374,0.0130652
2.26901,-0.0713073,-0.211912
2.25841,0.150003,0.0526678
2.29071,-0.0719893,0.0266814
2.24419,0.0391718,-0.183233
2.23216,0.258269,0.0653955
2.27131,0.0396451,0.0396519
2.26305,-0.0711198,-0.131859
2.2552,0.14979,0.131627
2.28176,0.0398275,0.0929754
2.24063,0.148822,-0.104602
2.27784,0.151293,0.2803
2.22331,0.257245,-0.0911843
2.30927,0.153381,0.62013
2.3017,0.0401756,0.419723
2.25442,0.149738,-0.0525747
2.19126,0.137863,-0.614632
2.22374,0.0310521,-0.444794
2.25155,0.141656,0
2.27446,-0.079425,-0.0264951
2.21295,0.139228,-0.344964
2.23773,0.0312474,-0.284861
2.2419,0.25147,0.0131117
2.27174,0.0317224,-0.0132047
2.26875,-0.0792256,-0.211912
2.25493,0.141869,0.0525747
2.28645,-0.0798438,0.0266348
2.23013,0.140309,-0.156255
2.2483,0.0313951,-0.183558
2.23702,0.250923,0.0655119
2.27543,0.0317739,0.0397217
2.26278,-0.0790173,-0.131859
2.25571,0.141918,0.131627
2.28188,0.031864,0.0929754
2.24911,0.141503,-0.104974
2.28231,0.143592,0.280787
2.30979,0.145321,0.62013
2.30183,0.0321425,0.419723
2.25493,0.141869,-0.0525747
2.22656,0.241882,-0.0390934
2.18788,0.129984,-0.613554
2.21991,0.023248,-0.44401
2.24804,0.133558,0
2.27817,-0.087518,-0.0265417
2.22131,0.131971,-0.346194
2.24576,0.0235186,-0.285871
2.24674,0.244075,0.0131349
2.27184,0.0237917,-0.0132047
2.26846,-0.0871451,-0.211912
2.25541,0.133996,0.0525747
2.29016,-0.0879787,0.0266814
2.24256,0.133233,-0.157092
2.25637,0.0236298,-0.184209
2.24186,0.243544,0.0656282
2.27953,0.0238723,0.0397915
2.26648,-0.0870693,-0.132092
2.25619,0.134043,0.131627
2.28198,0.023898,0.0929754
2.23762,0.13294,-0.104416
2.2828,0.135624,0.280787
2.2763,0.0238385,0.185836
2.22108,0.241287,-0.0910215
2.31414,0.137486,0.621166
2.30192,0.0241068,0.419723
2.18828,0.123111,-0.613554
2.2239,0.016303,-0.444794
2.24844,0.126496,0
2.28188,-0.0948403,-0.0265882
2.21383,0.124548,-0.344964
2.24582,0.0164637,-0.285871
2.2759,0.0166842,-0.0132279
2.26419,-0.0941054,-0.211541
2.25582,0.126911,0.0525747
2.28587,-0.0950064,0.0266348
2.23898,0.125963,-0.156813
2.25245,0.0165122,-0.183884
2.23863,0.236081,0.0655119
2.21912,0.234022,-0.143009
2.27418,-0.0945205,-0.132557
2.26059,0.127179,0.131859
2.28205,0.0167292,0.0929754
2.24202,0.126134,-0.104602
2.27925,0.128229,0.2803
2.28035,0.0167168,0.186162
2.22183,0.234308,-0.0910215
2.31456,0.130215,0.621166
2.30199,0.0168754,0.419723
2.22815,0.226722,-0.0390934
2.19641,0.115495,-0.61571
2.22002,0.00813797,-0.44401
2.24889,0.118254,0
2.27352,-0.102841,-0.0264951
2.24983,0.00824726,-0.286376
2.24835,0.228777,0.0131349
2.22404,0.116948,-0.239897
2.26781,-0.102583,-0.211912
2.2895,-0.103564,0.0266814
2.24851,0.00824239,-0.183558
2.23948,0.227875,0.0655119
2.28364,0.00837118,0.0398613
2.26983,-0.102674,-0.132324
2.25705,0.118683,0.131627
2.28609,0.00838016,0.0931383
2.24646,0.118126,-0.104788
2.26887,0.00831705,-0.118907
2.27971,0.119875,0.2803
2.22267,0.226164,-0.0910215
2.31502,0.121732,0.621166
2.30203,0.00843862,0.419723
2.23287,0.219723,-0.0391632
2.19678,0.10821,-0.61571
2.22788,0.000778206,-0.445579
2.24927,0.110795,0
2.21464,0.109089,-0.344964
2.24985,0.00078588,-0.286376
2.24512,0.220928,0.0131117
2.22839,0.109767,-0.240326
2.27542,-0.11049,-0.212656
2.25665,0.111159,0.0525747
2.28515,-0.110962,0.0266348
2.23582,0.110133,-0.156534
2.25649,0.000788202,-0.184209
2.24421,0.220838,0.0656282
2.27965,0.000796291,0.0397915
2.27346,-0.110395,-0.132557
2.25482,0.111069,-0.10516
2.26889,0.00079253,-0.118907
2.27613,0.112118,0.279812
2.31541,0.114053,0.621166
2.30598,0.000805489,0.420441
2.26065,0.111356,-0.0526678
2.19715,0.10054,-0.61571
2.22787,-0.00699914,-0.445579
2.25364,0.103126,0
2.21501,0.101358,-0.344964
2.24587,-0.00705569,-0.285871
2.24189,0.212711,0.0130884
2.27595,-0.0071502,-0.0132279
2.26502,0.103646,0.0527608
2.29673,-0.119563,0.0267745
2.24417,0.102692,-0.157092
2.25648,-0.00708904,-0.184209
2.24098,0.212624,0.0655119
2.27564,-0.00714923,0.0397217
2.27307,-0.118331,-0.132557
2.2618,0.103499,0.131859
2.29009,-0.00719462,0.0933011
2.24721,0.102831,-0.104788
2.2884,0.104716,0.281274
2.28439,-0.00717671,0.186487
2.22814,0.211406,-0.0911843
2.26102,0.103463,-0.0526678
2.23037,0.203765,-0.0390934
2.20133,0.0930333,-0.616788
2.23175,-0.0148014,-0.446363
2.24999,0.0950898,0
2.27634,-0.126469,-0.0265417
2.22325,0.0939595,-0.346194
2.2498,-0.014921,-0.286376
2.24661,0.205248,0.0131117
2.27991,-0.0151208,-0.0132512
2.26664,-0.125931,-0.211912
2.25737,0.0954018,0.0525747
2.29231,-0.127357,0.0267279
2.2485,0.0950266,-0.157371
2.26043,-0.0149916,-0.184535
2.24171,0.204801,0.0655119
2.2796,-0.0151187,0.0397915
2.27663,-0.126486,-0.13279
2.28605,-0.0151615,0.0931383
2.24755,0.0949868,-0.104788
2.28082,0.0963927,0.2803
2.22886,0.203627,-0.0911843
2.25737,0.0954018,-0.0525747
2.23107,0.195978,-0.0390934
2.20164,0.0853481,-0.616788
2.22384,-0.0225127,-0.444794
2.22751,0.0863509,-0.346809
