2.35083,0.267843,0.0963948
2.27439,0.487588,-0.0947666
2.27762,0.479971,-0.0406292
2.38338,0.145775,-0.0277989
2.35064,0.259513,-0.301023
2.34968,0.259408,-0.0137394
2.38515,0.145883,-0.223066
2.38738,0.146019,0.0278455
2.3128,0.370451,-0.163788
2.38749,0.146026,-0.139301
2.34778,0.259198,0.096232
2.31782,0.371255,-0.0546219
2.2792,0.472415,-0.0406292
2.33765,0.250235,-0.0684209
2.31571,0.363045,0
2.39184,0.138332,-0.027892
2.35148,0.251716,-0.301023
2.27168,0.470855,0.0134836
2.35451,0.25204,-0.0137626
2.3896,0.138202,-0.223438
2.38785,0.138101,0.0278455
2.26684,0.469852,0.0673737
2.35419,0.252006,0.0413273
2.39194,0.138338,-0.139534
2.34465,0.250985,0.0960692
2.33881,0.25036,0.19202
2.28476,0.465253,-0.040699
2.31697,0.354959,0
2.3963,0.130198,-0.0279386
2.3563,0.243915,-0.301529
2.27723,0.46372,0.0135069
2.35537,0.243819,-0.0137626
2.39405,0.130075,-0.223809
2.3963,0.130198,0.0279386
2.31527,0.354699,-0.163788
2.26846,0.461936,0.0673737
2.35903,0.244198,0.0413971
2.3964,0.130203,-0.139766
2.35346,0.243621,0.0963948
2.27538,0.463344,-0.0946037
2.3473,0.234706,-0.0686537
2.31819,0.346871,0
2.39674,0.121834,-0.0279386
2.34924,0.2349,-0.300518
2.27099,0.454201,0.0134604
2.36019,0.235995,-0.0137859
2.32453,0.347819,-0.253177
2.39846,0.121922,-0.224181
2.39674,0.121834,0.0279386
2.32044,0.347207,-0.164067
2.35191,0.235168,0.0412575
2.28203,0.45641,-0.149149
2.35032,0.235009,0.096232
2.36097,0.236073,-0.12435
2.28874,0.457751,-0.0950922
2.2801,0.447751,-0.0405594
2.3481,0.226511,-0.0686537
2.32731,0.339932,0
2.38916,0.113088,-0.0278455
2.35794,0.22746,-0.301529
2.35304,0.226987,-0.0137394
2.32179,0.339127,-0.252749
2.3949,0.11336,-0.223809
2.27948,0.44763,0.0676064
2.36466,0.228108,0.0414669
2.28753,0.44921,-0.149405
2.39326,0.113282,-0.139534
2.36306,0.227954,0.0967205
2.34924,0.226621,0.192671
2.2864,0.448989,-0.0949294
2.28165,0.43979,-0.0405594
2.34888,0.218313,-0.0686537
2.32452,0.331243,0
2.40153,0.105274,-0.0279852
2.35872,0.219228,-0.301529
2.36178,0.219512,-0.0137859
2.3269,0.331582,-0.253177
2.39528,0.105,-0.223809
2.33181,0.332281,0.054808
2.40153,0.105274,0.0279852
2.33071,0.332125,-0.164625
2.28103,0.439671,0.0676064
2.36544,0.219853,0.0414669
2.293,0.441979,-0.149661
2.39763,0.105103,-0.139766
2.33245,0.332372,0.137208
2.35986,0.219334,0.0965577
2.35002,0.218419,0.192671
2.29188,0.441762,-0.0950922
2.29103,0.433309,-0.040699
2.35361,0.210468,-0.06877
2.32566,0.323126,0
2.40188,0.0968898,-0.0279852
2.28741,0.432624,0.0135301
2.36652,0.211623,-0.0138091
2.3241,0.32291,-0.252749
2.40359,0.0969585,-0.224553
2.33295,0.324139,0.054808
2.39389,0.0965674,0.027892
2.32395,0.322888,-0.164067
2.29041,0.433191,0.0678391
2.36221,0.211238,0.0413971
2.29453,0.433971,-0.149661
2.40197,0.0968934,-0.139999
2.36061,0.211095,0.0965577
2.35474,0.210569,0.192997
2.29646,0.426038,-0.0407688
2.35433,0.202251,-0.06877
2.32677,0.315005,0
2.40221,0.0885044,-0.0279852
2.36415,0.203094,-0.302034
2.2889,0.424636,0.0135301
2.36724,0.20336,-0.0138091
2.32521,0.314794,-0.252749
2.40789,0.0887138,-0.224925
2.33407,0.315993,0.054808
2.4062,0.0886517,0.0280317
2.33297,0.315844,-0.164625
2.28404,0.423734,0.0676064
2.36692,0.203332,0.0414669
2.39831,0.0883607,-0.139766
2.36134,0.202853,0.0965577
2.36802,0.203427,-0.12456
2.29491,0.42575,-0.0950922
2.294,0.417304,-0.040699
2.359,0.19436,-0.0688864
2.33182,0.307405,0
2.4065,0.0802525,-0.0280317
2.3688,0.195167,-0.302539
2.28644,0.415929,0.0135069
2.37591,0.195753,-0.0138556
2.33418,0.307716,-0.253606
2.41217,0.0804414,-0.225296
2.4105,0.0803858,0.0280783
2.33801,0.308221,-0.164904
2.28944,0.416475,0.0677228
2.3716,0.195398,0.0415367
2.2975,0.417942,-0.149661
2.41057,0.0803883,-0.140464
2.36601,0.194938,0.0967205
2.29638,0.417737,-0.0950922
2.29544,0.409294,-0.040699
2.36365,0.186439,-0.0690027
2.33288,0.299264,0
2.37737,0.187522,-0.303549
2.28788,0.407945,0.0135069
2.3686,0.18683,-0.0138091
2.32736,0.298555,-0.252749
2.41243,0.0720214,-0.225296
2.34019,0.3002,0.054901
2.41076,0.0719716,0.0280783
2.33512,0.29955,-0.164625
2.28695,0.40778,0.0676064
2.36828,0.186804,0.0414669
2.29502,0.409219,-0.149405
2.40685,0.0718547,-0.140231
2.37066,0.186992,0.0968833
2.30176,0.41042,-0.095255
2.29678,0.401679,-0.040699
2.33783,0.292021,0
2.41099,0.0639761,-0.0280783
2.37403,0.179337,-0.303044
2.29316,0.401045,0.0135301
2.37719,0.179576,-0.0138556
2.33623,0.29182,-0.253606
2.40868,0.0639148,-0.224925
2.3372,0.291942,0.054808
2.41099,0.0639761,0.0280783
2.3361,0.291804,-0.164625
2.29222,0.400882,0.0677228
2.36889,0.178949,0.0414669
2.3003,0.402293,-0.149661
2.40308,0.0637663,-0.139999
2.37526,0.17943,0.0970462
2.30704,0.403473,-0.0954179
2.30218,0.393934,-0.0407688
2.3649,0.169933,-0.0690027
2.33492,0.28297,0
2.41521,0.055231,-0.0281249
2.37783,0.170863,-0.0138556
2.33728,0.283256,-0.253606
2.41686,0.0552688,-0.225668
2.34619,0.284337,0.0549941
2.40721,0.0550481,0.0280317
2.34111,0.283721,-0.164904
2.29762,0.393153,0.0678391
2.30962,0.395207,-0.150172
2.41927,0.0553239,-0.140929
2.3759,0.170724,0.0970462
2.37859,0.170918,-0.124978
2.36601,0.170013,0.193647
2.30457,0.394341,-0.095255
2.30355,0.385894,-0.0407688
2.37346,0.162222,-0.0692355
2.34383,0.275752,0
2.41538,0.0467994,-0.0281249
2.29597,0.384625,0.0135301
2.3824,0.162833,-0.0138789
2.33825,0.275095,-0.253606
2.42102,0.0469085,-0.22604
2.41938,0.0468768,0.0281714
2.34209,0.275546,-0.164904
2.29503,0.384469,0.0677228
2.37809,0.162539,0.0416065
2.31099,0.387142,-0.150172
2.38047,0.162701,0.097209
2.34923,0.276387,-0.110186
2.30593,0.386294,-0.095255
2.3008,0.378008,-0.040699
2.37395,0.154765,-0.0692355
2.34469,0.268388,0
2.41952,0.0392764,-0.0281714
2.38763,0.155657,-0.304559
2.30111,0.378059,0.0135534
2.3829,0.155349,-0.0138789
2.34306,0.268201,-0.254034
2.42352,0.0393413,0.028218
2.34691,0.268641,-0.165183
2.30018,0.377905,0.0678391
2.38258,0.155328,0.0416763
2.30432,0.378586,-0.149661
2.42357,0.0393422,-0.141162
2.38097,0.155222,0.097209
2.34693,0.268645,0.290049
2.37106,0.154577,0.193973
2.31107,0.379696,-0.0954179
2.30223,0.36917,-0.040699
2.37852,0.145893,-0.0693518
2.34968,0.259822,0
2.42765,0.0300843,-0.0282646
2.33353,0.258037,-0.365256
2.39147,0.146687,-0.0139253
2.34012,0.258765,-0.253606
2.42925,0.0301042,-0.226784
2.34792,0.259627,-0.165183
2.30161,0.36907,0.0678391
2.38316,0.146177,0.0416763
2.31364,0.370998,-0.150172
2.4277,0.030085,-0.141394
2.38553,0.146323,0.0973718
2.35584,0.260503,0.291024
2.31646,0.371451,-0.0955807
2.31536,0.362991,-0.0409084
2.39254,0.138373,-0.479311
2.35057,0.25162,0
2.42374,0.0215762,-0.028218
2.3887,0.138151,-0.304559
2.30382,0.361182,0.0135534
2.39196,0.13834,-0.0139253
2.33705,0.250173,-0.253177
2.42536,0.0215906,-0.226412
2.35391,0.251977,0.0550871
2.42774,0.0216118,0.0282646
2.34881,0.251432,-0.165183
2.30683,0.361655,0.0679555
2.38365,0.137859,0.0416763
2.31492,0.362922,-0.150172
2.4238,0.0215767,-0.141162
2.38204,0.137766,0.097209
2.35597,0.252198,-0.110372
2.35279,0.251857,0.290537
2.38009,0.137653,0.194624
2.38464,0.137916,0.435508
2.31662,0.354906,-0.0409084
2.38518,0.129595,-0.477742
2.34746,0.243001,0
2.4278,0.0131366,-0.0282646
2.39643,0.130206,-0.0139486
2.35373,0.243651,-0.254891
2.42542,0.0131237,-0.226412
2.35478,0.243759,0.0550871
2.4238,0.0131149,0.028218
2.34968,0.243231,-0.165183
2.31204,0.354205,0.0680718
2.3961,0.130188,0.0418858
2.31222,0.354234,-0.149916
2.42386,0.0131153,-0.141162
2.39049,0.129883,0.0975347
2.3576,0.244051,0.291024
2.38056,0.129344,0.194624
2.319,0.355272,-0.0955807
2.32173,0.347814,-0.0409782
2.39734,0.122283,-0.480095
2.35223,0.235613,0
2.42783,0.00508497,-0.0282646
2.39751,0.122292,-0.305569
2.31414,0.346676,0.0135999
2.39684,0.122258,-0.0139486
2.34662,0.235051,-0.254034
2.43342,0.00509667,-0.227155
2.43583,0.00510173,0.0283577
2.35444,0.235835,-0.165462
2.31715,0.347128,0.0681882
2.40051,0.122445,0.0419556
2.32128,0.347746,-0.150428
2.43587,0.00510181,-0.141859
2.39889,0.122362,0.0978603
2.3584,0.236231,0.291024
2.32412,0.348171,-0.0957435
2.40124,0.122482,0.438377
2.3843,0.113274,-0.0694682
2.361,0.22817,0
2.43183,-0.00339602,-0.0283111
2.34474,0.226598,-0.366486
2.39793,0.113922,-0.305569
2.31138,0.338017,0.0135766
2.40125,0.11408,-0.0139718
2.35534,0.227623,-0.254891
2.43342,-0.00339823,-0.227155
2.36036,0.228108,0.0551802
2.43583,-0.00340161,0.0283577
2.35525,0.227614,-0.165462
2.31044,0.337879,0.0679555
2.40093,0.114064,0.0419556
2.32248,0.339641,-0.150428
2.43188,-0.00339608,-0.141627
2.39132,0.113608,0.0975347
2.36711,0.22876,0.291999
2.32532,0.340055,-0.0957435
2.40559,0.114286,0.439095
2.32009,0.331438,-0.0409084
2.39812,0.105963,-0.480095
2.36174,0.220341,0
2.43181,-0.0114586,-0.0283111
2.34941,0.21919,-0.367101
2.40225,0.106146,-0.306074
2.31248,0.330352,0.0135766
2.35212,0.219443,-0.254463
2.44136,-0.0115036,-0.227899
2.43981,-0.0114963,0.0284042
2.36394,0.220545,-0.16602
2.31946,0.331348,0.0681882
2.40129,0.106103,0.0419556
2.32755,0.332503,-0.150684
2.43585,-0.0114776,-0.141859
2.3657,0.22071,0.138371
2.39967,0.106032,0.0978603
2.33039,0.332909,-0.0959064
2.39809,0.105962,0.43766
2.36509,0.220653,-0.0552732
2.33317,0.324585,-0.0411179
2.40241,0.0973313,-0.48088
2.36254,0.211682,0
2.43575,-0.0204057,-0.0283577
2.3502,0.210577,-0.367101
2.40263,0.09734,-0.306074
2.3216,0.322975,0.0136231
2.35291,0.21082,-0.254463
2.43732,-0.0204188,-0.227527
2.36588,0.211982,0.0552732
2.43175,-0.0203722,0.0283111
2.36473,0.211879,-0.16602
2.32066,0.322844,0.0681882
2.40566,0.0974629,0.0420254
2.32875,0.32397,-0.150684
2.4278,-0.0203391,-0.141394
2.39605,0.0970733,0.0976975
2.36794,0.212166,-0.110744
2.39008,0.0968317,0.195275
2.41026,0.0976491,0.439812
2.40274,0.0889452,-0.48088
2.36326,0.203435,0
2.43966,-0.0289548,-0.0284042
2.35486,0.202712,-0.367716
2.32272,0.31487,0.0136231
2.41031,0.0892255,-0.0140183
2.35363,0.202606,-0.254463
2.4452,-0.0290205,-0.228271
2.37059,0.204066,0.0553663
2.43566,-0.0289074,0.0283577
2.36545,0.203624,-0.16602
2.32573,0.315279,0.0683046
2.32987,0.315839,-0.150684
2.43969,-0.0289552,-0.142092
2.39637,0.0887095,0.0976975
2.37264,0.204243,-0.11093
2.37333,0.204302,0.292486
2.33271,0.316225,-0.0959064
2.40665,0.0890901,0.439095
2.33538,0.308288,-0.0411179
2.39764,0.080376,-0.0698173
2.40303,0.0805569,-0.48088
2.36396,0.195184,0
2.43955,-0.0374713,-0.0284042
2.35555,0.19449,-0.367716
2.40721,0.0806971,-0.306579
2.31984,0.306236,0.0135999
2.41061,0.0808108,-0.0140183
2.35829,0.194716,-0.254891
2.44508,-0.0375563,-0.228271
2.37129,0.195789,0.0553663
2.43955,-0.0374713,0.0284042
2.36217,0.195037,-0.165741
2.32286,0.306635,0.0681882
2.41428,0.0809338,0.042165
2.44756,-0.0375945,-0.142557
2.40465,0.0806112,0.0980231
2.33639,0.300542,-0.0411179
2.41113,0.0728239,-0.482449
2.37257,0.187975,0
2.43941,-0.0455616,-0.0284042
2.32481,0.299051,0.0136231
2.41486,0.0729365,-0.0140416
2.36288,0.187208,-0.255319
2.45291,-0.0458137,-0.229014
2.45541,-0.0458604,0.0285905
2.37076,0.187832,-0.166299
2.33179,0.29995,0.0684209
2.41453,0.0729267,0.042165
2.33592,0.300481,-0.15094
2.44743,-0.0457114,-0.142557
2.4089,0.0727567,0.098186
2.37796,0.188402,-0.111116
2.41507,0.0729429,0.44053
2.33351,0.291481,-0.0410481
2.40746,0.0638827,-0.481664
2.36925,0.178977,0
2.45122,-0.0547697,-0.0285439
2.36473,0.178636,-0.368946
2.41565,0.0641001,-0.307589
2.32589,0.290529,0.0136231
2.41511,0.0640857,-0.0140416
2.36355,0.178546,-0.255319
2.4567,-0.0548922,-0.229386
2.38057,0.179832,0.0555524
2.45522,-0.0548591,0.0285905
2.37542,0.179442,-0.166578
2.32494,0.290411,0.0681882
2.41478,0.064077,0.042165
2.34097,0.292413,-0.151196
2.44325,-0.0545916,-0.142324
2.38117,0.179877,0.139069
2.40915,0.0639277,0.098186
2.3793,0.179736,0.292974
2.41925,0.0641956,0.441247
2.33848,0.283815,-0.0411179
2.41551,0.0556588,-0.483233
2.38183,0.171567,0
2.45501,-0.0634297,-0.0285905
2.36929,0.170663,-0.369561
2.41586,0.0556669,-0.307589
2.33483,0.283372,0.0136696
2.36813,0.17058,-0.255748
2.45252,-0.0633651,-0.229014
2.3772,0.171233,0.0554593
2.45901,-0.063533,0.0286371
2.37205,0.170862,-0.166299
2.33785,0.283738,0.0685373
2.34197,0.284239,-0.151196
2.44304,-0.0631204,-0.142324
2.40936,0.0555171,0.098186
2.37526,0.171094,-0.11093
2.37991,0.171429,0.292974
2.40337,0.0553789,0.196251
2.34483,0.284586,-0.096232
2.41946,0.0557498,0.441247
2.3473,0.277406,-0.0412575
2.41175,0.0479924,-0.482449
2.37038,0.163259,0
2.4508,-0.0710257,-0.0285439
2.36587,0.162948,-0.368946
2.33571,0.276036,0.0136696
2.36865,0.16314,-0.255748
2.45629,-0.0711845,-0.229386
2.3857,0.164314,0.0556454
2.4548,-0.0711416,0.0285905
2.37257,0.16341,-0.166299
2.33873,0.276393,0.0685373
2.42315,0.0482192,0.0423046
2.34682,0.277349,-0.151451
2.45082,-0.071026,-0.142789
2.41352,0.0480276,0.0983488
2.38376,0.164181,-0.111302
2.3844,0.164225,0.293461
2.40751,0.0479081,0.196577
2.42356,0.0482274,0.441965
2.34433,0.268347,-0.0411877
2.41583,0.0392167,-0.483233
2.37496,0.154831,0
2.44653,-0.0798768,-0.0284974
2.42412,0.0393513,-0.3086
2.34068,0.267928,0.0136929
2.36924,0.154458,-0.255748
2.45999,-0.0803162,-0.229758
2.3823,0.155309,0.0555524
2.45852,-0.0802684,0.0286371
2.37714,0.154973,-0.166578
2.33575,0.267365,0.0684209
2.42731,0.0394031,0.0423744
2.34782,0.268746,-0.151451
2.45852,-0.0802683,-0.143255
2.42167,0.0393115,0.0986745
2.38833,0.155703,-0.111489
2.38499,0.155485,0.293461
2.42372,0.0393448,0.441965
2.34525,0.260161,-0.0411877
2.4238,0.030883,-0.484802
2.45423,-0.0887059,-0.0285905
2.37092,0.146258,-0.369561
2.42821,0.0309392,-0.309105
2.3416,0.259756,0.0136929
2.37373,0.146431,-0.256176
2.46765,-0.089191,-0.230501
2.38682,0.147238,0.0556454
2.45823,-0.0888504,0.0286371
2.38165,0.146919,-0.166857
2.34462,0.260091,0.0686537
2.42343,0.0308783,0.0423046
2.35271,0.260989,-0.151707
2.46222,-0.0889946,-0.143487
2.42979,0.0309593,0.0990001
2.38886,0.147365,-0.111489
2.38948,0.147403,0.293949
2.35161,0.260867,-0.0963948
2.42384,0.0308835,0.441965
2.3461,0.252383,-0.0411877
2.41997,0.0228087,-0.484018
2.38394,0.139128,0
2.45792,-0.0970012,-0.0286371
2.37534,0.138625,-0.370176
2.4283,0.0228873,-0.309105
2.34245,0.25199,0.0136929
2.43185,0.0229207,-0.0141346
2.3742,0.138559,-0.256176
2.47132,-0.0975302,-0.230873
2.39128,0.139556,0.0557385
2.46591,-0.0973166,0.0287302
2.38212,0.139021,-0.166857
2.34149,0.251887,0.0685373
2.3496,0.252759,-0.151451
2.45393,-0.0968437,-0.143022
2.42988,0.0229021,0.0990001
2.38934,0.139443,-0.111489
2.38996,0.139478,0.293949
2.35246,0.253068,-0.0963948
2.42787,0.0228832,0.442682
2.35099,0.244196,-0.0412575
2.42395,0.0139621,-0.484802
2.38444,0.13039,0
2.46154,-0.106181,-0.0286836
2.38372,0.13035,-0.371406
2.43233,0.0140103,-0.30961
2.34733,0.243816,0.0137161
2.43592,0.014031,-0.0141578
2.47095,-0.106587,-0.230873
2.39178,0.130791,0.0557385
2.46554,-0.106353,0.0287302
2.3866,0.130508,-0.167137
2.34638,0.243717,0.0686537
2.43559,0.0140291,0.0425141
2.35448,0.244558,-0.151707
2.46154,-0.106181,-0.143487
2.42595,0.0139736,0.0988373
2.38185,0.130248,-0.111116
2.39441,0.130935,0.294436
2.35338,0.244444,-0.0963948
2.42793,0.013985,0.442682
2.35979,0.236786,-0.0413971
2.41614,0.00548236,-0.483233
2.38887,0.122269,0
2.46515,-0.11496,-0.0287302
2.38416,0.122028,-0.371406
2.43634,0.00552817,-0.310115
2.35215,0.23602,0.0137394
2.37911,0.12177,-0.256605
2.47454,-0.115398,-0.231245
2.39621,0.122645,0.0558315
2.46515,-0.11496,0.0287302
2.38305,0.121972,-0.166857
2.34721,0.235525,0.0686537
2.43562,0.00552656,0.0425141
2.35929,0.236736,-0.151963
2.46115,-0.114773,-0.143487
2.40078,0.122879,0.139999
2.42998,0.00551375,0.0990001
2.39028,0.122341,-0.111489
2.39089,0.122373,0.293949
2.42393,0.00550002,0.197878
2.36217,0.237025,-0.0967205
2.4319,0.00551811,0.4434
2.35658,0.228573,-0.0413273
2.43184,-0.00254699,-0.486371
2.38927,0.114346,0
2.46476,-0.123135,-0.0287302
2.3806,0.113932,-0.370791
2.35292,0.228218,0.0137394
2.43996,-0.0025555,-0.0141811
2.38347,0.114069,-0.257033
2.39661,0.114698,0.0558315
2.47275,-0.123534,0.0288233
2.38345,0.114068,-0.166857
2.4359,-0.00255124,-0.198855
2.35196,0.228125,0.06877
2.35609,0.228525,-0.151707
2.46873,-0.123333,-0.143952
2.43398,-0.00254924,0.0991629
2.39466,0.114604,-0.111675
2.39525,0.114633,0.294436
2.35896,0.228804,-0.0965577
2.43978,-0.00255531,0.444835
2.36138,0.220306,-0.0413971
2.43181,-0.0114596,-0.486371
2.38567,0.105412,0
2.46429,-0.132167,-0.0287302
2.43632,-0.0114808,-0.310115
2.34976,0.219221,0.0137161
2.44393,-0.0115167,-0.0142043
2.38387,0.105333,-0.257033
2.39701,0.105913,0.0558315
2.47228,-0.132595,0.0288233
2.43986,-0.0114975,-0.19918
2.35278,0.219504,0.06877
2.4436,-0.0115151,0.0426537
2.36486,0.22063,-0.152219
2.47225,-0.132594,-0.144185
2.43795,-0.0114885,0.0993258
2.39906,0.106004,-0.111861
2.40359,0.106204,0.295411
2.36377,0.220528,-0.0967205
2.43975,-0.011497,0.444835
2.36214,0.212063,-0.0413971
2.43176,-0.0199476,-0.486371
2.39402,0.09741,0
2.4718,-0.141224,-0.0288233
2.38926,0.0972162,-0.37202
2.44023,-0.0200171,-0.31062
2.35449,0.211376,0.0137394
2.44388,-0.020047,-0.0142043
2.48115,-0.141758,-0.231988
2.40136,0.0977087,0.0559246
2.47979,-0.14168,0.0289165
2.39217,0.0973349,-0.167416
2.3615,0.212005,0.0690027
2.44755,-0.0200771,0.0427235
2.36561,0.212375,-0.152219
2.47177,-0.141222,-0.144185
2.44589,-0.0200635,0.0996514
2.4034,0.0977918,-0.112047
2.40394,0.0978137,0.295411
2.42784,-0.0199155,0.198204
2.36452,0.212277,-0.0967205
2.43576,-0.0199804,0.444117
2.36681,0.204573,-0.0414669
2.43952,-0.0281014,-0.48794
2.47132,-0.149419,-0.0288233
2.39352,0.0894407,-0.372635
2.44412,-0.0281543,-0.311125
2.36315,0.204256,0.0137859
2.4478,-0.0281967,-0.0142276
2.48464,-0.150225,-0.23236
2.39768,0.0895962,0.0558315
2.4793,-0.149902,0.0289165
2.39248,0.0894021,-0.167416
2.35821,0.203829,0.0688864
2.44347,-0.0281468,0.0426537
2.3663,0.204529,-0.152219
2.47528,-0.149659,-0.144417
2.40624,0.0899162,0.140231
2.44181,-0.0281277,0.0994886
2.39972,0.0896726,-0.111861
2.40425,0.0898419,0.295411
2.43175,-0.0280118,0.198529
2.43962,-0.0281025,0.444835
2.36751,0.19631,-0.0414669
2.44333,-0.0366762,-0.488724
2.39862,0.0812475,0
2.47877,-0.158556,-0.0289165
2.39776,0.0812184,-0.37325
2.444,-0.0366863,-0.311125
2.36783,0.196336,0.0138091
2.45168,-0.0368016,-0.0142508
2.40997,0.0816317,0.0561107
2.47877,-0.158556,0.0289165
2.45157,-0.0367999,-0.200157
2.36289,0.195926,0.0690027
2.45135,-0.0367966,0.0427933
2.37496,0.196927,-0.152731
2.47873,-0.158554,-0.14465
2.41053,0.0816508,0.140464
2.40401,0.08143,-0.112047
2.44836,-0.0367518,-0.128328
2.40455,0.0814483,0.295411
2.43562,-0.0365605,0.198855
2.37388,0.196837,-0.0970462
2.4395,-0.0366188,0.444835
2.37217,0.18836,-0.0415367
2.43927,-0.0451329,-0.48794
2.39408,0.0727275,-0.372635
2.44783,-0.0452913,-0.31163
2.36851,0.188069,0.0138091
2.39702,0.0728168,-0.258318
2.41024,0.0732182,0.0561107
2.4782,-0.167209,0.0289165
2.45142,-0.0453579,-0.200157
2.36356,0.187676,0.0690027
2.3637,0.187687,-0.151963
2.48214,-0.167475,-0.144882
2.4108,0.0732354,0.140464
2.44955,-0.0453232,0.0998143
2.40428,0.0730373,-0.112047
2.45221,-0.0453725,-0.128537
2.40482,0.0730537,0.295411
2.36658,0.187916,-0.0967205
2.4433,-0.0452075,0.445552
2.3768,0.180382,-0.0416065
2.44302,-0.053733,-0.488724
2.39913,0.0645,0
2.48558,-0.176424,-0.0290096
2.40222,0.0645831,-0.373865
2.44369,-0.0537478,-0.311125
2.36516,0.179498,0.0137859
2.45536,-0.0540046,-0.0142741
2.49485,-0.177082,-0.233476
2.41048,0.0648049,0.0561107
2.48558,-0.176424,0.0290096
2.45524,-0.0540018,-0.200482
2.37217,0.18003,0.0692355
2.45503,-0.0539973,0.0428631
2.37628,0.180342,-0.152731
2.48951,-0.176703,-0.145348
2.41903,0.0650348,0.140929
2.45337,-0.0539608,0.0999771
2.41251,0.0648597,-0.112419
2.40903,0.0647661,0.295899
2.37519,0.18026,-0.0970462
2.44706,-0.0538219,0.44627
2.36944,0.171506,-0.0414669
2.4585,-0.0626605,-0.491862
2.40734,0.0563118,0
2.48495,-0.1851,-0.0290096
2.40243,0.056197,-0.373865
2.45142,-0.0624801,-0.312135
2.37375,0.171818,0.0138324
2.45516,-0.0625755,-0.0142741
2.41469,0.0564836,0.0562037
2.48495,-0.1851,0.0290096
2.40148,0.0561746,-0.167974
2.37677,0.172037,0.0693518
2.37689,0.172046,-0.152731
2.48489,-0.185096,-0.145115
2.41525,0.0564967,0.140696
2.45716,-0.0626265,0.10014
2.40873,0.0563442,-0.112233
2.41321,0.0564491,0.296386
2.44686,-0.0623638,0.44627
2.37398,0.163923,-0.0415367
2.41151,0.0484087,0
2.49229,-0.19396,-0.0291027
2.41446,0.0484679,-0.37571
2.4512,-0.070609,-0.312135
2.37431,0.163946,0.0138324
2.45894,-0.0708319,-0.0142973
2.50153,-0.194678,-0.234219
2.41086,0.0483956,0.0561107
2.49229,-0.19396,0.0291027
2.40564,0.0482908,-0.168253
2.38531,0.164705,0.0695846
2.45861,-0.0708223,0.0429329
2.38143,0.164438,-0.152986
2.49223,-0.193954,-0.14558
2.45295,-0.0706593,0.0999771
2.4089,0.0483563,-0.112233
2.41736,0.048526,0.296874
2.45057,-0.0705908,0.446987
2.37856,0.155482,-0.0416065
2.46192,-0.0799497,-0.492647
2.40768,0.0395041,0
2.49157,-0.203093,-0.0291027
2.41067,0.0395533,-0.375095
2.46282,-0.0799789,-0.31365
2.37888,0.155503,0.0138556
2.46666,-0.0801036,-0.0143438
2.40576,0.0394726,-0.259175
2.41902,0.0396902,0.0562968
2.49157,-0.203093,0.0291027
2.46251,-0.0799687,-0.201133
2.38191,0.155701,0.0694682
2.37804,0.155448,-0.152731
2.50344,-0.204061,-0.146278
2.42357,0.0397648,0.141162
2.46466,-0.0800385,0.100466
2.41306,0.0395924,-0.112419
2.40958,0.0395353,0.295899
2.38493,0.155898,-0.0973718
2.45816,-0.0798276,0.448422
2.38308,0.147425,-0.0416763
2.46163,-0.0885429,-0.492647
2.4118,0.0311512,0
2.4108,0.0311382,-0.375095
2.46253,-0.0885753,-0.31365
2.37941,0.147198,0.0138556
2.41781,0.0312288,-0.26046
2.41914,0.031246,0.0562968
2.49084,-0.211789,0.0291027
2.46221,-0.088564,-0.201133
2.37445,0.146892,0.0692355
2.47003,-0.0888451,0.0431423
2.38653,0.147639,-0.153242
2.50669,-0.213137,-0.14651
2.42768,0.0313563,0.141394
2.46436,-0.0886413,0.100466
2.42117,0.0312722,-0.112791
2.46702,-0.0887368,-0.129375
2.41764,0.0312266,0.296874
2.38546,0.147572,-0.0973718
2.45787,-0.0884077,0.448422
2.38757,0.139339,-0.0417462
2.46522,-0.0972897,-0.493431
2.41589,0.0227699,0
2.49407,-0.220835,-0.0291493
2.41484,0.02276,-0.37571
2.45824,-0.0970141,-0.313145
2.37592,0.138659,0.0138324
2.46604,-0.097322,-0.0143438
2.42724,0.0228768,0.0564829
2.49806,-0.221188,0.0291958
2.46587,-0.0973154,-0.201458
2.37894,0.138835,0.0693518
2.4697,-0.0974665,0.0431423
2.38703,0.139308,-0.153242
2.50196,-0.221533,-0.146278
2.43177,0.0229196,0.141627
2.46004,-0.0970854,0.100303
2.42127,0.0228206,-0.112791
2.41774,0.0227873,0.296874
2.38596,0.139245,-0.0973718
2.45754,-0.0969867,0.448422
2.38802,0.131421,-0.0417462
2.4688,-0.105632,-0.494216
2.42395,0.0148073,0
2.41886,0.0147761,-0.376325
2.46583,-0.105505,-0.314155
2.4697,-0.10567,-0.0143671
2.4273,0.0148277,0.0564829
2.50129,-0.229836,0.0292424
2.46952,-0.105662,-0.201784
2.38338,0.131166,0.0694682
2.46936,-0.105656,0.0431423
2.37951,0.130952,-0.152731
2.50518,-0.230194,-0.14651
2.42385,0.0148066,0.141162
2.47169,-0.105755,0.100791
2.47434,-0.105869,-0.129793
2.4178,0.0147697,0.296874
2.3904,0.131552,-0.0975347
2.45721,-0.105136,0.448422
2.39246,0.12329,-0.041816
2.42799,0.00635648,0
2.50446,-0.238946,-0.029289
2.4268,0.00635336,-0.377555
2.46941,-0.114295,-0.31466
2.38879,0.123101,0.0139021
2.46931,-0.11429,-0.0143671
2.418,0.00633033,-0.26046
2.51757,-0.240197,-0.236078
2.43133,0.00636523,0.056576
2.51242,-0.239706,0.0293821
2.4771,-0.114651,-0.202435
2.39581,0.123462,0.0698173
2.47697,-0.114645,0.043282
2.3959,0.123467,-0.153754
2.50039,-0.238558,-0.146278
2.42788,0.00635618,0.141394
2.4713,-0.114382,0.100791
2.43735,0.00638098,-0.113536
2.42974,0.00636107,0.298336
2.46515,-0.114098,0.201458
2.39483,0.123412,-0.0976975
2.46862,-0.114258,0.450575
2.39689,0.114712,-0.0418858
2.4719,-0.123491,-0.495
2.428,-0.0025426,0
2.50754,-0.248518,-0.0293355
2.42681,-0.00254135,-0.377555
2.47294,-0.123543,-0.315165
2.39322,0.114536,0.0139253
2.47687,-0.123739,-0.0144135
2.43534,-0.00255028,0.056669
2.50754,-0.248518,0.0293355
2.47268,-0.12353,-0.202109
2.40024,0.114872,0.0699336
2.47254,-0.123523,0.0432122
2.39634,0.114685,-0.153754
2.50745,-0.248509,-0.146743
2.43188,-0.00254666,0.141627
2.47087,-0.123439,0.100791
2.43736,-0.00255239,-0.113536
2.46472,-0.123132,0.201458
2.39926,0.114825,-0.0978603
2.47211,-0.123502,0.451292
2.39326,0.106585,-0.041816
2.4754,-0.131896,-0.495785
2.43198,-0.0106116,0
2.50671,-0.256832,-0.0293355
2.43074,-0.0106061,-0.37817
2.47648,-0.131954,-0.315671
2.39359,0.106599,0.0139253
2.42197,-0.0105679,-0.260888
2.43532,-0.0106261,0.056669
2.51069,-0.25724,0.0293821
2.47624,-0.131941,-0.202435
2.39261,0.106556,0.0697009
2.4841,-0.13236,0.0434216
2.3967,0.106738,-0.153754
2.51853,-0.258043,-0.147441
2.43984,-0.0106459,0.142092
2.47443,-0.131845,0.100954
2.43334,-0.0106175,-0.11335
2.48107,-0.132199,-0.130212
2.42576,-0.0105844,0.297849
2.39564,0.10669,-0.0976975
2.46776,-0.131489,0.450575
2.39762,0.098394,-0.0418858
2.48275,-0.140981,-0.497353
2.43593,-0.0191321,0
2.43068,-0.0190909,-0.37817
2.47204,-0.140373,-0.315165
2.39394,0.0982433,0.0139253
2.48396,-0.141049,-0.01446
2.42589,-0.0190533,-0.261317
2.43926,-0.0191583,0.0567621
2.51375,-0.266424,0.0294287
2.48372,-0.141036,-0.203086
2.40496,0.0986952,0.07005
2.47563,-0.140577,0.043282
2.39307,0.0982075,-0.153498
2.52158,-0.267254,-0.147673
2.43979,-0.0191625,0.142092
2.47795,-0.140708,0.101117
2.44527,-0.0192055,-0.113908
2.48458,-0.141085,-0.130421
2.43365,-0.0191142,0.298824
2.39999,0.0984913,-0.0978603
2.47121,-0.140326,0.451292
2.39395,0.0898741,-0.041816
2.48616,-0.149883,-0.498138
2.43184,-0.0275896,0
2.52076,-0.276068,-0.0295218
2.43455,-0.0276203,-0.378784
2.4755,-0.14924,-0.315671
2.40227,0.0901864,0.0139718
2.48744,-0.14996,-0.0144833
2.44318,-0.0277182,0.0568551
2.52473,-0.276503,0.0295684
2.42991,-0.0275676,-0.169927
2.48322,-0.149705,-0.203086
2.3973,0.0899998,0.0698173
2.48311,-0.149699,0.0434216
2.39739,0.0900033,-0.153754
2.51666,-0.275619,-0.147441
2.43971,-0.0276788,0.142092
2.48143,-0.149597,0.10128
2.44919,-0.0277863,-0.114094
2.44151,-0.0276992,0.299799
2.40032,0.0901132,-0.0978603
2.40224,0.0817893,-0.0419556
2.48954,-0.15881,-0.498922
2.43973,-0.0361968,0
2.51978,-0.284865,-0.0295218
2.44235,-0.0362356,-0.380014
2.48684,-0.158638,-0.317186
2.40657,0.0819365,0.0139951
2.4869,-0.158642,-0.0144833
2.52883,-0.285888,-0.237565
2.43907,-0.036187,0.0567621
2.51978,-0.284865,0.0295218
2.48268,-0.158372,-0.203086
2.40958,0.0820392,0.0701664
2.49056,-0.158875,0.0435612
2.40168,0.0817701,-0.15401
2.52759,-0.285748,-0.148138
2.44758,-0.0363133,0.142557
2.4809,-0.158258,0.10128
2.44536,-0.0362804,0.300286
2.47472,-0.157865,0.202435
2.40461,0.0818699,-0.0980231
2.40251,0.0734034,-0.0419556
2.48505,-0.167235,-0.498138
2.43959,-0.0447128,0
2.52671,-0.294585,-0.0296149
2.44221,-0.0447608,-0.380014
2.49023,-0.167584,-0.317691
2.40684,0.0735355,0.0139951
2.49432,-0.167859,-0.0145298
2.43749,-0.0446743,-0.262602
2.53177,-0.295175,-0.237937
2.44293,-0.044774,0.0568551
2.51877,-0.293659,0.0295218
2.49007,-0.167573,-0.203737
2.40985,0.0736277,0.0701664
2.48999,-0.167567,0.0435612
2.40594,0.0735081,-0.154266
2.53054,-0.295032,-0.148371
2.43946,-0.0447104,0.142092
2.48432,-0.167186,0.101443
2.49493,-0.1679,-0.131049
2.44125,-0.0447433,0.299799
2.48211,-0.167037,0.203086
2.40888,0.0735979,-0.098186
2.47746,-0.166724,0.452727
2.41075,0.065233,-0.0420952
2.44342,-0.0533156,0
2.52567,-0.303403,-0.0296149
2.44203,-0.0532854,-0.380014
2.49359,-0.176555,-0.318196
2.41108,0.0652418,0.0140183
2.4977,-0.176847,-0.014553
2.44527,-0.053356,-0.263459
2.53468,-0.304486,-0.238309
2.44676,-0.0533884,0.0569482
2.52567,-0.303403,0.0296149
2.48549,-0.175982,-0.203411
2.4061,0.0651072,0.07005
2.41017,0.0652173,-0.154521
2.53346,-0.30434,-0.148603
2.44328,-0.0533125,0.142324
2.49169,-0.176421,0.101768
2.49432,-0.176608,-0.131049
2.40912,0.0651888,-0.098186
2.48079,-0.175649,0.453444
2.40696,0.0571434,-0.0420254
2.48014,-0.183871,-0.0723772
2.49559,-0.185017,-0.500491
2.45123,-0.061619,0
2.52862,-0.312267,-0.0296615
2.44184,-0.0613832,-0.380014
2.49299,-0.184824,-0.318196
2.41128,0.057246,0.0140183
2.4971,-0.185129,-0.014553
2.4411,-0.0613645,-0.26303
2.45456,-0.0617028,0.0571343
2.53259,-0.312758,0.029708
2.49284,-0.184813,-0.204062
2.4103,0.0572228,0.0701664
2.49278,-0.184808,0.043631
2.41037,0.0572245,-0.154521
2.54037,-0.313718,-0.149068
2.45107,-0.0616151,0.142789
2.49508,-0.184978,0.101931
2.46055,-0.0618535,-0.114653
2.44486,-0.061459,0.300286
2.41332,0.0572944,-0.0983488
2.48804,-0.184457,0.454879
2.40714,0.0487412,-0.0420254
2.48746,-0.193146,-0.07261
2.44882,-0.0701126,-0.6858
2.45499,-0.0702895,0
2.53545,-0.3221,-0.0297546
2.44557,-0.0700196,-0.380629
2.49233,-0.193525,-0.318196
2.40747,0.0487478,0.0139951
2.49644,-0.193844,-0.014553
2.44485,-0.069999,-0.263459
2.5444,-0.323237,-0.239424
2.45433,-0.0702704,0.0571343
2.53148,-0.321596,0.029708
2.49616,-0.193822,-0.204388
2.41049,0.0488089,0.0701664
2.49611,-0.193818,0.0437008
2.41056,0.0488104,-0.154521
2.52737,-0.321074,-0.148371
2.45084,-0.0701706,0.142789
2.50239,-0.194306,0.102257
2.45257,-0.07022,0.301261
2.4135,0.04887,-0.0983488
2.4679,-0.0706589,0.661542
2.48738,-0.193141,0.454879
2.40729,0.0407585,-0.0420254
2.45875,-0.0785579,0
2.53437,-0.330506,-0.0297546
2.45322,-0.0783814,-0.381859
2.49958,-0.202429,-0.319206
2.41561,0.0408995,0.0140416
2.49977,-0.202444,-0.0145763
2.4446,-0.0781061,-0.263459
2.54726,-0.332188,-0.239796
2.45408,-0.0784089,0.0571343
2.53833,-0.331023,0.0298012
2.41463,0.0408829,0.0702827
2.50342,-0.20274,0.0438404
2.41869,0.0409516,-0.155033
2.54609,-0.332035,-0.149534
2.45858,-0.0785525,0.143255
2.49774,-0.20228,0.102094
2.46407,-0.078728,-0.114839
2.46423,-0.078733,0.302723
2.48755,-0.201455,0.203737
2.41365,0.0408663,-0.0983488
2.46765,-0.0788423,0.661542
2.49065,-0.201706,0.455597
2.46607,-0.078792,-0.0574134
2.41941,0.0325165,-0.0422348
2.44443,-0.0866429,-0.684721
2.50528,-0.211695,-0.502845
2.45446,-0.0869983,0
2.54906,-0.341475,-0.0299409
2.46083,-0.0872243,-0.383089
2.50677,-0.211821,-0.320216
2.41974,0.0325209,0.0140648
2.50304,-0.211506,-0.0145995
2.44829,-0.0867797,-0.263887
2.55004,-0.341606,-0.240167
2.45779,-0.0871164,0.0572273
2.53716,-0.339882,0.0298012
2.5067,-0.211815,-0.205364
2.42276,0.0325615,0.0705155
2.51067,-0.212151,0.0439801
2.4268,0.0326158,-0.155545
2.54492,-0.340921,-0.149534
2.45031,-0.0868511,0.142789
2.50499,-0.211671,0.10242
2.45203,-0.0869124,0.301261
2.49081,-0.210472,0.204062
2.42577,0.032602,-0.0988373
2.49385,-0.21073,0.456314
2.46578,-0.0873997,-0.0574134
2.44796,-0.095325,-0.6858
2.45814,-0.0957211,0
2.54389,-0.349826,-0.0298943
2.45261,-0.095506,-0.381859
2.50997,-0.220918,-0.320721
2.42384,0.0241141,0.0140881
2.51025,-0.220943,-0.014646
2.54883,-0.350506,-0.240167
2.45747,-0.0956952,0.0572273
2.53992,-0.349281,0.0298477
2.50594,-0.220564,-0.205364
2.42285,0.0241043,0.0705155
2.50991,-0.220913,0.0439801
2.41892,0.0240651,-0.155033
2.45797,-0.0957146,0.143255
2.50821,-0.220764,0.102582
2.46745,-0.0960838,-0.115025
2.45965,-0.09578,0.302236
2.41787,0.0240547,-0.0985116
2.49702,-0.219779,0.457032
2.42358,0.015228,-0.0423046
2.4553,-0.104625,-0.687956
2.46177,-0.1049,0
2.54655,-0.359707,-0.0299409
2.4562,-0.104663,-0.382474
2.51309,-0.230478,-0.321226
2.42391,0.0152301,0.0140881
2.51341,-0.230508,-0.0146693
2.45953,-0.104805,-0.265172
2.55147,-0.360402,-0.240539
2.4611,-0.104872,0.0573204
2.55051,-0.360266,0.0299874
2.45976,-0.104815,-0.172159
2.50909,-0.230111,-0.205689
2.42293,0.0152239,0.0705155
2.50909,-0.230111,0.0439801
2.41899,0.0151992,-0.155033
2.55032,-0.36024,-0.149999
2.46159,-0.104893,0.143487
2.51137,-0.23032,0.102745
2.45928,-0.104794,0.302236
2.43393,0.015293,-0.0991629
2.47439,-0.105438,0.663612
2.50404,-0.229648,0.458467
2.47309,-0.105383,-0.0575995
2.41962,0.00717917,-0.0422348
2.50365,-0.237987,-0.0731918
2.46648,-0.113296,-0.691191
2.4654,-0.113247,0
2.5493,-0.368722,-0.0299874
2.46373,-0.11317,-0.383704
2.51231,-0.238811,-0.321226
2.41995,0.00718015,0.0140648
2.50865,-0.238463,-0.014646
2.55814,-0.370001,-0.241283
2.46873,-0.1134,0.0575065
2.54534,-0.368149,0.0299409
2.51625,-0.239185,-0.20634
2.43096,0.00721282,0.0707482
2.42302,0.00718925,-0.155289
2.54911,-0.368695,-0.149999
2.46522,-0.113238,0.14372
2.50661,-0.238269,0.102582
2.46685,-0.113314,0.303211
2.43397,0.00722175,-0.0991629
2.47403,-0.113643,0.663612
2.50326,-0.23795,0.458467
2.47672,-0.113767,-0.0576926
2.42763,-0.0012711,-0.0423744
2.47298,-0.122247,0
2.55195,-0.378205,-0.030034
2.46332,-0.12177,-0.383704
2.42396,-0.00126918,0.0140881
2.51974,-0.248395,-0.0147158
2.4667,-0.121937,-0.266029
2.55684,-0.378929,-0.241283
2.46832,-0.122016,0.0575065
2.55591,-0.378791,0.0300806
2.46297,-0.121752,-0.172438
2.43097,-0.00127285,0.0707482
2.51542,-0.247969,0.0441197
2.43101,-0.00127287,-0.155801
2.55966,-0.379347,-0.150696
2.47677,-0.122434,0.144417
2.50974,-0.247409,0.102745
2.47828,-0.122509,-0.115583
2.46644,-0.121924,0.303211
2.43798,-0.00127652,-0.0993258
2.47747,-0.122469,0.664647
2.51025,-0.247459,0.459902
2.47631,-0.122411,-0.0576926
2.42761,-0.00974511,-0.0423744
2.46178,-0.130309,-0.690113
2.51681,-0.25698,-0.505983
2.47254,-0.130878,0
2.55853,-0.388311,-0.0301271
2.47472,-0.130994,-0.385548
2.52243,-0.257553,-0.322742
2.43194,-0.00976248,0.0141346
2.52284,-0.257595,-0.014739
2.47023,-0.130756,-0.266457
2.5555,-0.387852,-0.241283
2.46788,-0.130632,0.0575065
2.52245,-0.257556,-0.206991
2.43095,-0.00975852,0.0707482
2.51852,-0.257154,0.0441895
2.427,-0.00974266,-0.155545
2.56227,-0.388879,-0.150929
2.47234,-0.130868,0.144185
2.51284,-0.256574,0.102908
2.48183,-0.13137,-0.115769
2.51943,-0.257247,-0.132724
2.466,-0.130532,0.303211
2.50659,-0.255936,0.205689
2.43396,-0.0097706,-0.0991629
2.48475,-0.131525,0.666718
2.50937,-0.25622,0.459902
2.47586,-0.131054,-0.0576926
2.43156,-0.018249,-0.0424443
2.50897,-0.265032,-0.0734245
2.469,-0.139336,-0.69227
2.48005,-0.139959,0
2.5532,-0.396625,-0.0300806
2.43989,-0.0183115,0.0141811
2.46579,-0.139154,-0.266029
2.56594,-0.398604,-0.242398
2.4714,-0.139471,0.0575995
2.55715,-0.397239,0.0301271
2.46605,-0.139169,-0.172717
2.52154,-0.266359,-0.206991
2.4309,-0.0182441,0.0707482
2.43494,-0.0182743,-0.156056
2.56484,-0.398433,-0.151161
2.47985,-0.139947,0.14465
2.5159,-0.265764,0.103071
2.48535,-0.140258,-0.115956
2.47742,-0.139811,0.304673
2.43391,-0.0182666,-0.0991629
2.48813,-0.140415,0.667753
2.51629,-0.265805,0.461337
2.48338,-0.140147,-0.0578787
2.43948,-0.0272503,-0.0425839
2.51593,-0.275095,-0.0736572
2.47617,-0.148846,-0.694426
2.47553,-0.148808,0
2.55963,-0.407238,-0.0301737
2.48161,-0.149174,-0.386778
2.52841,-0.276459,-0.323752
2.43581,-0.0272094,0.0141578
2.52889,-0.276511,-0.0147855
2.4732,-0.148668,-0.266886
2.57232,-0.409257,-0.243142
2.48285,-0.149248,0.0578787
2.56358,-0.407866,0.0302203
2.47747,-0.148924,-0.173554
2.52847,-0.276466,-0.207642
2.52457,-0.276039,0.0443291
2.43485,-0.0271987,-0.156056
2.56731,-0.408459,-0.151394
2.4833,-0.149275,0.144882
2.51889,-0.275418,0.103234
2.52943,-0.276571,-0.133352
2.47689,-0.14889,0.304673
2.44182,-0.0272765,-0.0994886
2.5153,-0.275025,0.461337
2.48684,-0.149488,-0.0579717
2.43537,-0.0357069,-0.0425141
2.51496,-0.283876,-0.0736572
2.47947,-0.157733,-0.695504
2.48298,-0.157956,0
2.56609,-0.417454,-0.0302668
2.47319,-0.157333,-0.385548
2.53137,-0.285728,-0.324257
2.4317,-0.0356531,0.0141346
2.53188,-0.285786,-0.0148088
2.47267,-0.1573,-0.266886
2.57481,-0.418873,-0.243513
2.4863,-0.158167,0.0579717
2.57004,-0.418097,0.0303134
2.48091,-0.157825,-0.173833
2.53145,-0.285737,-0.207968
2.43871,-0.0357558,0.0709809
2.53154,-0.285747,0.0444687
2.43873,-0.0357563,-0.156312
2.56192,-0.416777,-0.151161
2.47878,-0.157689,0.14465
2.52188,-0.284657,0.103397
2.48428,-0.158039,0.305648
2.4497,-0.0359171,-0.0998143
2.52214,-0.284687,0.462772
2.48231,-0.157914,-0.0578787
2.44324,-0.0435,-0.0426537
2.47512,-0.165265,-0.694426
2.49445,-0.166555,0
2.57266,-0.426823,-0.0303599
2.48451,-0.165892,-0.387393
2.43957,-0.0434347,0.0141811
2.53494,-0.2942,-0.014832
2.47613,-0.165333,-0.267314
2.56562,-0.425656,-0.24277
2.47781,-0.165445,0.0577856
2.57266,-0.426823,0.0303599
2.48439,-0.165884,-0.174112
2.43858,-0.0434171,0.0709809
2.5346,-0.29416,0.0445385
2.43462,-0.0433465,-0.156056
2.57242,-0.426784,-0.151859
2.49023,-0.166274,0.145348
2.52494,-0.293039,0.103559
2.48774,-0.166108,0.306136
2.44558,-0.0435417,-0.0996514
2.52514,-0.293062,0.463489
2.48579,-0.165978,-0.0579717
2.44306,-0.0528811,-0.0426537
2.47831,-0.175039,-0.695504
2.53136,-0.303639,-0.509905
2.4898,-0.17585,0
2.57889,-0.438038,-0.0304531
2.48386,-0.175431,-0.387393
2.44339,-0.0528882,0.0142043
2.47944,-0.175119,-0.267743
2.57182,-0.436838,-0.243513
2.48115,-0.175239,0.0578787
2.571,-0.436698,0.0303599
2.47975,-0.175141,-0.173833
2.4384,-0.0527802,0.0709809
2.54139,-0.304842,0.0446782
2.43843,-0.0527808,-0.156312
2.57076,-0.436658,-0.151859
2.48957,-0.175834,0.145348
2.5238,-0.302732,0.103559
2.49507,-0.176223,-0.116514
2.48312,-0.175379,0.305648
2.45739,-0.0531912,-0.10014
2.52791,-0.303225,0.464207
2.48912,-0.175803,-0.0580648
2.48537,-0.184259,-0.697661
2.49715,-0.185132,0
2.5734,-0.446354,-0.0304065
2.48717,-0.184392,-0.388008
2.44719,-0.0615174,0.0142276
2.54066,-0.313754,-0.0148785
2.48675,-0.184361,-0.268599
2.57813,-0.447174,-0.244257
2.48451,-0.184195,0.0579717
2.58128,-0.447721,0.0304996
2.48708,-0.184386,-0.174391
2.54019,-0.313696,-0.208944
2.44219,-0.061392,0.0710973
2.54031,-0.313712,0.0446782
2.44222,-0.0613925,-0.156568
2.57316,-0.446311,-0.152092
2.49292,-0.184819,0.14558
2.53463,-0.313009,0.104048
2.49437,-0.184926,0.307111
2.4452,-0.0614675,-0.0996514
2.53464,-0.313011,0.465642
2.4885,-0.18449,-0.0580648
2.44265,-0.0690827,-0.0426537
2.53069,-0.320598,-0.074239
2.50014,-0.193253,-0.701974
2.49655,-0.192976,0
2.5838,-0.456524,-0.0305462
2.48658,-0.192205,-0.388008
2.54299,-0.322157,-0.326277
2.44298,-0.0690921,0.0142043
2.49409,-0.192786,-0.269456
2.58456,-0.456657,-0.245001
2.49588,-0.192924,0.0582509
2.58774,-0.45722,0.0305928
2.49445,-0.192813,-0.174949
2.54315,-0.322176,-0.209269
2.44998,-0.0692901,0.07133
2.54725,-0.322696,0.0448178
2.446,-0.0691775,-0.156824
2.57567,-0.455088,-0.152324
2.54156,-0.321975,0.104373
2.50169,-0.193373,0.308086
2.45298,-0.0693749,-0.0999771
2.53755,-0.321467,0.466359
2.49189,-0.192615,-0.0581579
2.54366,-0.331718,-0.513043
2.49583,-0.202125,0
2.58605,-0.466701,-0.0305928
2.49374,-0.201956,-0.389238
2.54573,-0.331988,-0.326782
2.45071,-0.0783011,0.0142508
2.5464,-0.332075,-0.014925
2.58679,-0.466835,-0.245372
2.49914,-0.202393,0.058344
2.58605,-0.466701,0.0305928
2.50168,-0.202599,-0.175507
2.45371,-0.0783969,0.0714464
2.55002,-0.332547,0.0448876
2.57792,-0.465234,-0.152557
2.49559,-0.202105,0.145813
2.54036,-0.331288,0.104373
2.50097,-0.202541,0.308086
2.4647,-0.078748,-0.100466
2.53245,-0.330257,0.465642
2.49515,-0.20207,-0.0582509
2.50312,-0.211073,0
2.58448,-0.475274,-0.0305928
2.49306,-0.210224,-0.389238
2.45044,-0.0864275,0.0142508
2.54924,-0.341048,-0.0149482
2.49665,-0.210527,-0.269885
2.58522,-0.47541,-0.245372
2.49845,-0.210679,0.058344
2.58842,-0.475998,0.0306393
2.501,-0.210894,-0.175507
2.45743,-0.0866742,0.0715627
2.44945,-0.0863927,-0.15708
2.58422,-0.475225,-0.153022
2.49888,-0.210715,0.146045
2.53529,-0.339181,0.104211
2.50837,-0.211515,-0.117258
2.50424,-0.211167,0.308573
2.53293,-0.338865,0.208619
2.46842,-0.0870617,-0.100628
2.49845,-0.210679,-0.058344
2.53908,-0.348714,-0.0745881
2.54911,-0.350092,-0.514612
2.50236,-0.219809,0
2.5946,-0.486504,-0.0307325
2.50018,-0.219617,-0.390468
2.46211,-0.0954454,0.0143206
2.55596,-0.351032,-0.0149947
2.50382,-0.219937,-0.270741
2.59138,-0.485899,-0.246116
2.50567,-0.220099,0.0585301
2.58674,-0.48503,0.0306393
2.49627,-0.219273,-0.175228
2.55148,-0.350417,-0.210246
2.46111,-0.0954066,0.0716791
2.55562,-0.350985,0.0450272
2.58647,-0.484978,-0.153254
2.51007,-0.220485,0.146743
2.53805,-0.348572,0.104373
2.50762,-0.22027,-0.117258
2.50349,-0.219907,0.308573
2.53963,-0.34879,0.209269
2.4681,-0.0956776,-0.100628
2.4977,-0.219399,-0.058344
2.53779,-0.358018,-0.0745881
2.5517,-0.35998,-0.515396
2.50154,-0.228979,0
2.58888,-0.495259,-0.0306859
2.49542,-0.228419,-0.389853
2.45775,-0.104299,0.0142973
2.49508,-0.228387,-0.269885
2.59349,-0.496142,-0.246488
2.50883,-0.229646,0.0586231
2.59673,-0.496762,0.030779
2.5034,-0.229149,-0.175786
2.55808,-0.36088,-0.210897
2.45675,-0.104257,0.0715627
2.46073,-0.104426,-0.157847
2.58467,-0.494455,-0.153254
2.50924,-0.229684,0.146743
2.54863,-0.359547,0.104862
2.50662,-0.229443,0.309061
2.46773,-0.104723,-0.100628
2.50485,-0.229281,-0.0585301
2.54054,-0.367003,-0.0747045
2.5167,-0.238784,0
2.59507,-0.505371,-0.030779
2.56055,-0.369893,-0.329308
2.45739,-0.112449,0.0142973
2.56137,-0.370012,-0.0150412
2.50618,-0.237787,-0.27117
2.60356,-0.507024,-0.247603
2.51204,-0.238342,0.0587162
2.60292,-0.5069,0.0308722
2.50262,-0.237449,-0.175786
2.55706,-0.36939,0.045097
2.59086,-0.50455,-0.15372
2.51642,-0.238758,0.147208
2.55929,-0.369711,0.10535
2.5098,-0.238129,0.309548
2.46737,-0.112906,-0.100628
2.50407,-0.237587,-0.0585301
2.54716,-0.37704,-0.0749372
2.51585,-0.247568,0
2.59329,-0.514426,-0.030779
2.50561,-0.24656,-0.391698
2.56317,-0.37941,-0.329813
2.46497,-0.12142,0.0143438
2.56402,-0.379536,-0.0150645
2.50929,-0.246923,-0.271598
2.60177,-0.516109,-0.247603
2.51915,-0.247892,0.0589023
2.60898,-0.517539,0.0309653
2.51766,-0.247746,-0.176902
2.55971,-0.378899,0.0451668
2.593,-0.514368,-0.153952
2.51954,-0.247931,0.147441
2.55403,-0.378057,0.105188
2.5171,-0.247691,-0.117817
2.5129,-0.247278,0.310036
2.47494,-0.121911,-0.100954
2.50323,-0.246326,-0.0585301
2.52288,-0.2576,0
2.59923,-0.525513,-0.0308722
2.56568,-0.389397,-0.330318
2.46451,-0.130453,0.0143438
2.56656,-0.389531,-0.0150877
2.51233,-0.256522,-0.272027
2.60377,-0.52643,-0.247975
2.51822,-0.257124,0.0589023
2.61099,-0.527891,0.0310118
2.51277,-0.256567,-0.176623
2.46351,-0.1304,0.0717954
2.55831,-0.388278,0.0451668
2.59501,-0.524659,-0.154185
2.52259,-0.25757,0.147673
2.55263,-0.387416,0.105188
2.52413,-0.257727,-0.118189
2.51988,-0.257293,0.311011
2.48246,-0.131404,-0.10128
2.51027,-0.256312,-0.0587162
2.51799,-0.265985,0
2.6013,-0.535389,-0.0309187
2.56823,-0.39896,-0.330823
2.47202,-0.139506,0.0143903
2.51537,-0.265708,-0.272455
2.60972,-0.537122,-0.248718
2.52129,-0.266333,0.0589953
2.60913,-0.537002,0.0310118
2.51583,-0.265756,-0.176902
2.46703,-0.139224,0.0719118
2.56879,-0.399048,0.0453763
2.46701,-0.139223,-0.158359
2.60098,-0.535325,-0.15465
2.52167,-0.266374,0.147673
2.57101,-0.399391,0.106002
2.52321,-0.266536,-0.118189
2.51501,-0.26567,0.310523
2.48199,-0.140068,-0.10128
2.51731,-0.265913,-0.0589023
2.55893,-0.405753,-0.0754027
2.52112,-0.274326,0
2.60352,-0.544377,-0.0309653
2.57088,-0.407647,-0.331328
2.47557,-0.147509,0.0144135
2.52243,-0.274469,-0.273312
2.61581,-0.546948,-0.249462
2.52839,-0.275117,0.0591814
2.61135,-0.546014,0.0310584
2.51498,-0.273658,-0.176902
2.57543,-0.408368,0.0455159
2.47054,-0.14721,-0.158615
2.6032,-0.54431,-0.154882
2.52479,-0.274726,0.147906
2.56974,-0.407466,0.106002
2.51811,-0.273999,0.311011
2.47356,-0.14739,-0.100954
2.52044,-0.274252,-0.0589953
2.5575,-0.414683,-0.0754027
2.5281,-0.284018,0
2.60942,-0.555126,-0.0310584
2.57336,-0.417254,-0.331833
2.52541,-0.283717,-0.27374
2.61778,-0.556904,-0.249834
2.53139,-0.284388,0.0592745
2.61334,-0.555959,0.031105
2.51797,-0.282881,-0.177181
2.57004,-0.416716,0.0454461
2.47798,-0.156335,-0.159126
2.60519,-0.554225,-0.155115
2.52779,-0.283984,0.148138
2.57619,-0.417713,0.106327
2.52503,-0.283674,0.311986
2.48898,-0.15703,-0.101605
2.52344,-0.283495,-0.0590884
2.55991,-0.424708,-0.075519
2.52704,-0.293282,0
2.60737,-0.564687,-0.0310584
2.52448,-0.292986,-0.395387
2.47445,-0.16522,0.0144135
2.57673,-0.4275,-0.0151807
2.5204,-0.292512,-0.273312
2.5343,-0.294125,0.0593675
2.6191,-0.567226,0.0311981
2.52485,-0.293028,-0.17774
2.58003,-0.428047,-0.2135
2.48142,-0.165686,0.0723772
2.57639,-0.427442,0.0455857
2.48137,-0.165683,-0.159382
2.61094,-0.56546,-0.15558
2.53466,-0.294167,0.148603
2.57464,-0.427153,0.106327
2.53186,-0.293842,0.312961
2.49238,-0.166417,-0.101768
2.52635,-0.293203,-0.0591814
2.48153,-0.173961,-0.0434216
2.53002,-0.302135,0
2.6133,-0.575049,-0.0311515
2.5235,-0.301356,-0.395387
2.58212,-0.437196,-0.333348
2.48187,-0.173984,0.01446
2.52337,-0.30134,-0.27374
2.6255,-0.577734,-0.250949
2.52934,-0.302053,0.0592745
2.6172,-0.575908,0.0311981
2.52386,-0.301399,-0.17774
2.48081,-0.17391,-0.159382
2.61295,-0.574973,-0.155813
2.57321,-0.435688,0.106327
2.53125,-0.302281,-0.118747
2.53876,-0.303178,0.313935
2.4958,-0.174961,-0.101931
2.53331,-0.302527,-0.0593675
2.48889,-0.183209,-0.0435612
2.52895,-0.310964,0
2.61518,-0.585041,-0.0311981
2.5342,-0.311609,-0.397232
2.48124,-0.182647,0.01446
2.58559,-0.447073,-0.0152505
2.5302,-0.311117,-0.274597
2.54018,-0.312344,0.0595536
2.61518,-0.585041,0.0311981
2.52279,-0.310207,-0.17774
2.48815,-0.183155,-0.159894
2.62262,-0.586706,-0.15651
2.54053,-0.312388,0.149068
2.58349,-0.44671,0.106816
2.54208,-0.312578,-0.119306
2.52981,-0.311069,0.312961
2.5692,-0.44424,0.212849
2.49916,-0.183965,-0.102094
2.53621,-0.311856,-0.0594606
2.4882,-0.19233,-0.0435612
2.53573,-0.321237,0
2.52912,-0.320399,-0.396617
2.48853,-0.192356,0.0145065
2.58787,-0.457243,-0.0152737
2.53299,-0.320889,-0.275025
2.54298,-0.322155,0.0596467
2.62862,-0.598172,0.0313844
2.53352,-0.320956,-0.178577
2.58719,-0.457122,-0.214477
2.58752,-0.457181,0.0458649
2.49542,-0.192888,-0.160406
2.62435,-0.597201,-0.156743
2.54333,-0.322199,0.149301
2.58577,-0.456872,0.106979
2.54488,-0.322396,-0.119492
2.53259,-0.320838,0.313448
2.50245,-0.193432,-0.102257
2.53901,-0.321653,-0.0595536
2.48755,-0.20058,-0.0435612
2.53862,-0.33016,0
2.52804,-0.328784,-0.396617
2.58911,-0.466322,-0.334863
2.48788,-0.200607,0.0145065
2.53585,-0.3298,-0.275454
2.54983,-0.331618,0.0598328
2.63052,-0.607786,0.0314309
2.54035,-0.330385,-0.179135
2.58993,-0.466468,0.0459347
2.49079,-0.200842,-0.16015
2.62624,-0.606799,-0.156975
2.55017,-0.331661,0.149766
2.58817,-0.466152,0.107142
2.5438,-0.330833,-0.119492
2.53938,-0.330259,0.314423
2.50578,-0.202051,-0.10242
2.54586,-0.331102,-0.0597397
2.57963,-0.474382,-0.0763336
2.54136,-0.339992,0
2.53074,-0.338572,-0.397232
2.59519,-0.477244,-0.335873
2.59642,-0.477469,-0.0153435
2.53463,-0.339092,-0.275454
2.54463,-0.340431,0.0597397
2.63216,-0.618338,0.0314775
2.53912,-0.339693,-0.179135
2.5957,-0.477336,-0.215453
2.59607,-0.477404,0.0460744
2.49799,-0.21064,-0.160661
2.624,-0.61642,-0.156975
2.54102,-0.339947,0.149301
2.59038,-0.476358,0.107304
2.55049,-0.341214,-0.119864
2.54603,-0.340617,0.315398
2.58001,-0.474452,0.214151
2.54463,-0.340431,-0.0597397
2.49402,-0.219075,-0.0437008
2.54412,-0.349406,0
2.6261,-0.626594,-0.0314309
2.53737,-0.348479,-0.398462
2.59741,-0.487031,-0.336379
2.59474,-0.486529,-0.0153435
2.53737,-0.348478,-0.275882
2.54343,-0.349311,0.0597397
2.63388,-0.62845,0.0315241
2.54583,-0.34964,-0.179693
2.59401,-0.486394,-0.215453
2.59045,-0.485726,0.0460045
2.49724,-0.219359,-0.160661
2.6296,-0.62743,-0.15744
2.54773,-0.349901,0.149766
2.59656,-0.486871,0.10763
2.54532,-0.349571,-0.119678
2.54875,-0.350042,0.315885
2.58618,-0.484924,0.214802
2.54739,-0.349855,-0.0598328
2.50124,-0.228071,-0.0438404
2.54295,-0.35784,0
2.54403,-0.357993,-0.399691
2.59968,-0.496386,-0.336884
2.5362,-0.356891,-0.275882
2.5581,-0.359972,0.060112
2.63178,-0.637181,0.0315241
2.5407,-0.357525,-0.179414
2.60022,-0.496489,-0.216104
2.60061,-0.496564,0.046214
2.50843,-0.228726,-0.161429
2.63527,-0.638026,-0.157906
2.55446,-0.359461,0.150231
2.59493,-0.495478,0.10763
2.55206,-0.359123,-0.12005
2.60137,-0.496708,-0.138795
2.58455,-0.493498,0.214802
2.51547,-0.229368,-0.102908
2.50839,-0.237555,-0.0439801
2.54564,-0.367286,0
2.53885,-0.366307,-0.399076
2.54281,-0.366877,-0.276739
2.56078,-0.369471,0.060205
2.63342,-0.647318,0.0315706
2.53944,-0.366391,-0.179414
2.59847,-0.505562,-0.216104
2.60279,-0.506403,0.0462838
2.51159,-0.237857,-0.161685
2.64078,-0.649127,-0.158371
2.55714,-0.368946,0.150464
2.60103,-0.50606,0.107956
2.55475,-0.3686,-0.120236
2.54238,-0.366816,0.315398
2.51863,-0.238524,-0.103071
2.56078,-0.369471,-0.060205
2.5483,-0.376755,0
2.54538,-0.376323,-0.400306
2.60394,-0.516065,-0.337894
2.60921,-0.51711,-0.0154597
2.56343,-0.378992,0.0602981
