2.67054,0.867194,-0.0326882
2.6139,0.992406,-0.0162501
2.65537,0.862269,-0.260615
2.67054,0.867194,0.0326882
2.62103,0.99511,0.0489365
2.6662,0.865786,-0.163254
2.62299,0.995856,0.114306
2.67751,0.858623,-0.0327347
2.65851,0.852531,-0.260615
2.66989,0.85618,0.0326416
2.62466,0.985498,0.0489365
2.67316,0.857228,-0.163487
2.62662,0.986236,0.114306
2.60846,0.969559,-0.080988
2.67271,0.847322,-0.0326416
2.62452,0.975528,-0.0162734
2.66512,0.844915,-0.260987
2.68415,0.850948,0.0327813
2.67218,0.847153,-0.163254
2.62988,0.977521,0.114306
2.68711,0.841573,-0.0327813
2.62415,0.96498,-0.0162501
2.66805,0.835606,-0.260987
2.69092,0.842768,0.0328279
2.67893,0.839013,-0.163487
2.62952,0.966955,0.114143
2.68621,0.831006,-0.0327347
2.63502,0.958549,-0.0162966
2.67095,0.826288,-0.260987
2.68238,0.829824,0.0326882
2.63842,0.959786,0.0490064
2.68184,0.829657,-0.163487
2.64039,0.960503,0.114469
2.62599,0.944898,-0.0812208
2.68144,0.819287,-0.0326416
2.63459,0.94799,-0.0162734
2.67763,0.818123,-0.261359
2.68909,0.821624,0.0327347
2.6259,0.944863,-0.227821
2.63997,0.949927,0.114306
2.62534,0.934844,-0.0811044
2.6918,0.812703,-0.0327347
2.64148,0.940591,-0.0162966
2.68414,0.810391,-0.261731
2.6918,0.812703,0.0327347
2.62902,0.936151,-0.227821
2.64113,0.940463,0.0489365
2.65064,0.943849,0.114632
2.69462,0.803302,-0.0327347
2.64098,0.930036,-0.0162734
2.68695,0.801017,-0.261731
2.70229,0.805588,0.0328279
2.63227,0.926969,-0.227821
2.68642,0.800857,-0.163254
2.65391,0.934591,0.114632
2.70892,0.797278,-0.0328744
2.65176,0.923442,-0.0163199
2.68209,0.789383,-0.260987
2.70508,0.796149,0.0328279
2.63925,0.919085,-0.228146
2.6514,0.923317,0.0490064
2.70069,0.794856,-0.163952
2.64584,0.921378,0.114143
2.71182,0.787345,-0.0328744
2.65513,0.913717,-0.0163199
2.68879,0.780659,-0.261359
2.7003,0.783999,0.0327347
2.6426,0.909406,-0.228146
2.65855,0.914895,0.0490762
2.70742,0.786066,-0.164185
2.6492,0.911675,0.114143
2.6952,0.772835,-0.261731
2.6456,0.900637,-0.228146
2.66157,0.906073,0.0490762
2.71001,0.777083,-0.164185
2.65599,0.904172,0.114306
2.71327,0.767779,-0.0328279
2.70171,0.764507,-0.262102
2.72097,0.769957,0.032921
2.64495,0.890126,-0.227821
2.66472,0.896778,0.0490762
2.71271,0.767619,-0.164185
2.66292,0.896171,0.114469
2.71593,0.758304,-0.0328279
2.66819,0.887591,-0.0163431
2.70436,0.755072,-0.262102
2.72364,0.760455,0.032921
2.65183,0.882147,-0.228146
2.66404,0.886209,0.0490064
2.71922,0.75922,-0.164417
2.66603,0.886871,0.114469
2.66696,0.88718,0.229448
2.59926,0.997242,0
2.72641,0.750465,-0.032921
2.67143,0.877804,-0.0163431
2.71095,0.74621,-0.262474
2.72255,0.749404,0.0328744
2.72198,0.749247,-0.164417
2.67306,0.878339,0.114632
2.59645,0.996162,-0.129543
2.67398,0.878642,0.229773
2.72888,0.74142,-0.032921
2.65297,0.862001,-0.355066
2.67433,0.868941,-0.0163431
2.70957,0.736173,-0.262102
2.6168,0.99403,0.0651368
2.72888,0.74142,0.032921
2.66171,0.864843,-0.228471
2.72445,0.740216,-0.164417
2.67596,0.86947,0.114632
2.60347,0.988966,-0.129729
2.66691,0.86653,-0.146959
2.67309,0.868538,0.229448
2.72759,0.730856,-0.0328744
2.65596,0.852735,-0.355066
2.67734,0.859601,-0.0163431
2.71212,0.726711,-0.262102
2.72759,0.730856,0.0328744
2.59591,0.975738,-0.193923
2.66472,0.855547,-0.228471
2.6846,0.86193,0.0492158
2.73087,0.731736,-0.16465
2.68658,0.862568,0.114957
2.61065,0.981278,-0.129915
2.60939,0.970424,0
2.73786,0.723373,-0.0329675
2.65514,0.842259,-0.354561
2.68414,0.851459,-0.0163664
2.72234,0.719273,-0.262846
2.63118,0.978525,0.0653229
2.73399,0.722351,0.032921
2.60304,0.96806,-0.194202
2.66389,0.845034,-0.228146
2.68759,0.852553,0.0492158
2.73341,0.722198,-0.16465
2.68196,0.850767,0.114632
2.61031,0.970766,-0.129729
2.7365,0.712805,-0.032921
2.65806,0.832987,-0.354561
2.68328,0.84089,-0.0163431
2.72484,0.709768,-0.262846
2.63457,0.969336,0.0653229
2.74037,0.713814,0.0329675
2.61014,0.960348,-0.194481
2.69055,0.843168,0.0492158
2.73978,0.713661,-0.164882
2.69254,0.843793,0.114957
2.61743,0.96303,-0.129915
2.68584,0.841693,0.229773
2.62362,0.954921,0
2.74284,0.704243,-0.0329675
2.66853,0.82605,-0.355571
2.69002,0.832701,-0.0163664
2.73115,0.701242,-0.263218
2.63043,0.957398,0.0651368
2.74672,0.705238,0.0330141
2.60973,0.949865,-0.194202
2.68114,0.829954,-0.229122
2.6973,0.834953,0.0492856
2.73452,0.702106,-0.164417
2.63795,0.960135,0.163487
2.68783,0.832024,0.114632
2.62078,0.953887,-0.129915
2.69257,0.83349,0.230099
2.67652,0.818294,-0.0814535
2.75304,0.696626,-0.0330607
2.67519,0.817889,-0.356076
2.73358,0.691703,-0.263218
2.74528,0.694663,0.0329675
2.61303,0.940749,-0.194202
2.69637,0.824363,0.0492158
2.74857,0.695495,-0.165115
2.6488,0.953625,0.163952
2.69454,0.823805,0.114795
2.62033,0.943378,-0.129729
2.68926,0.82219,-0.147378
2.69546,0.824086,0.230099
2.74381,0.684109,-0.032921
2.67803,0.808547,-0.356076
2.6996,0.815057,-0.0163896
2.74371,0.684085,-0.263961
2.75545,0.687012,0.0330607
2.68306,0.810063,-0.228797
2.70306,0.816102,0.0492856
2.75098,0.685897,-0.165115
2.64082,0.940355,0.163254
2.70123,0.81555,0.114957
2.62738,0.935567,-0.129915
2.68572,0.80167,-0.0815699
2.62938,0.926984,0
2.74983,0.676442,-0.0329675
2.67676,0.798995,-0.355571
2.74585,0.675462,-0.263961
2.6513,0.934711,0.0654159
2.7576,0.678353,0.0330607
2.62298,0.924726,-0.194481
2.68941,0.802771,-0.229122
2.70561,0.807607,0.0492856
2.757,0.678205,-0.165347
2.6513,0.93471,0.16372
2.70761,0.808203,0.11512
2.6303,0.927309,-0.129915
2.69248,0.79295,-0.0816862
2.63654,0.918656,0
2.76395,0.669182,-0.0331072
2.68347,0.790299,-0.356076
2.69741,0.794402,-0.0163431
2.63264,0.917298,-0.3003
2.75605,0.667267,-0.264705
2.76007,0.668241,0.0330607
2.62258,0.913793,-0.194202
2.71239,0.798814,0.0493554
2.7517,0.666216,-0.164882
2.65093,0.923672,0.163487
2.71055,0.798273,0.11512
2.63368,0.917661,-0.129915
2.69509,0.784016,-0.0816862
2.63957,0.909907,0
2.77005,0.66094,-0.0331538
2.68989,0.782504,-0.356581
2.70771,0.787687,-0.0163896
2.7505,0.656275,-0.263961
2.65398,0.914874,0.0653229
2.76616,0.660012,0.0331072
2.63314,0.907691,-0.19476
2.69878,0.785088,-0.229448
2.71502,0.789814,0.0493554
2.7539,0.657086,-0.164882
2.65776,0.916177,0.16372
2.71318,0.78928,0.11512
2.64049,0.910224,-0.130101
2.76844,0.650353,-0.0331072
2.69642,0.774205,-0.357087
2.71813,0.780438,-0.0164361
2.6313,0.896791,-0.299443
2.75277,0.646671,-0.263961
2.65716,0.905605,0.0653229
2.76455,0.649438,0.0330607
2.71776,0.780333,0.0493554
2.76784,0.65021,-0.16558
2.65716,0.905606,0.163487
2.71208,0.778702,0.114957
2.63987,0.899713,-0.129915
2.7707,0.640684,-0.0331072
2.70292,0.765869,-0.357592
2.72084,0.770945,-0.0164361
2.63064,0.88633,-0.299015
2.76277,0.638851,-0.264705
2.6603,0.896324,0.0653229
2.7707,0.640684,0.0331072
2.63563,0.888012,-0.194481
2.70419,0.766228,-0.229448
2.72047,0.770841,0.0493554
2.77009,0.640543,-0.16558
2.67166,0.90015,0.164185
2.71863,0.770319,0.11512
2.64678,0.891768,-0.130101
2.77303,0.630525,-0.0331072
2.69807,0.753822,-0.356581
2.72365,0.760968,-0.0164361
2.63387,0.876683,-0.299015
2.77286,0.630488,-0.265448
2.77693,0.631412,0.0331538
2.64265,0.879607,-0.19476
2.71082,0.757385,-0.229773
2.72328,0.760865,0.0493554
2.77242,0.630387,-0.16558
2.67115,0.889091,0.163952
2.72913,0.762501,0.115446
2.65003,0.882061,-0.130101
2.71348,0.748438,-0.0819189
2.65582,0.874216,0
2.78681,0.623948,-0.0332469
2.70438,0.745927,-0.357087
2.72615,0.751932,-0.0164361
2.77494,0.62129,-0.265448
2.67409,0.880231,0.065509
2.78291,0.623075,0.0332004
2.64556,0.870839,-0.19476
2.71332,0.748392,-0.229773
2.7335,0.753958,0.049495
2.59342,0.99656,-0.178058
2.77449,0.62119,-0.16558
2.67029,0.87898,0.16372
2.73935,0.755573,0.115772
2.65674,0.874519,-0.130287
2.60032,0.99921,-0.113492
2.60929,0.992218,-0.0487271
2.66266,0.866177,0
2.79288,0.615076,-0.0332935
2.7108,0.737523,-0.357592
2.72876,0.742411,-0.0164361
2.76931,0.609886,-0.264705
2.67334,0.869654,0.0654159
2.78507,0.613356,0.0332004
2.64858,0.861598,-0.19476
2.72361,0.741009,-0.230424
2.61979,0.996213,0.0815699
2.73611,0.74441,0.049495
2.59688,0.9875,-0.178058
2.78444,0.613219,-0.166045
2.68094,0.872124,0.164185
2.73426,0.743907,0.115446
2.65597,0.864003,-0.130101
2.60379,0.990127,-0.113492
2.60899,0.981696,-0.0486573
2.7911,0.604478,-0.0332469
2.71335,0.728057,-0.357592
2.61309,0.983238,0.0162269
2.77531,0.601059,-0.265077
2.68017,0.861541,0.065509
2.7911,0.604478,0.0332469
2.72618,0.731498,-0.230424
2.61951,0.985655,0.0814535
2.74255,0.735892,0.0495648
2.60405,0.979836,-0.178314
2.78266,0.602651,-0.165813
2.67636,0.860317,0.16372
2.7407,0.735394,0.115609
2.66278,0.85595,-0.130287
2.7315,0.732925,-0.148215
2.61097,0.98244,-0.113655
2.61632,0.973523,-0.0487271
2.66879,0.847103,0
2.78938,0.593412,-0.0332004
2.71984,0.719122,-0.358097
2.61668,0.973654,0.0162269
2.74174,0.724912,-0.0164826
2.7736,0.590055,-0.264705
2.68712,0.852922,0.0656021
2.72499,0.720482,-0.230099
2.61936,0.974653,0.0813371
2.7491,0.726858,0.0496346
2.60762,0.970285,-0.178314
2.79267,0.59411,-0.166278
2.69091,0.854126,0.164417
2.74724,0.726366,0.115772
2.6697,0.847394,-0.130473
2.73803,0.72393,-0.148425
2.61081,0.97147,-0.113492
2.62329,0.966223,-0.0487969
2.67158,0.838247,0
2.79917,0.585797,-0.0332935
2.72221,0.710098,-0.358097
2.61614,0.963589,0.0162036
2.748,0.716825,-0.0165058
2.79114,0.584116,-0.266192
2.6823,0.841612,0.0654159
2.79917,0.585797,0.0332935
2.66507,0.836205,-0.195318
2.73122,0.712447,-0.230424
2.62258,0.965961,0.0813371
2.7515,0.717737,0.0496346
2.61083,0.961632,-0.178314
2.79853,0.585663,-0.16651
2.68992,0.844002,0.164185
2.75737,0.719269,0.116097
2.66869,0.837339,-0.130287
2.61401,0.962806,-0.113492
2.68612,0.842809,-0.065509
2.61913,0.954322,-0.0486573
2.73388,0.702958,-0.0821517
2.70471,0.69546,-0.558542
2.80511,0.576828,-0.0333401
2.72467,0.700592,-0.358097
2.73886,0.70424,-0.0164361
2.79316,0.57437,-0.266192
2.69286,0.834612,0.0656021
2.80511,0.576828,0.0333401
2.73755,0.703903,-0.23075
2.63345,0.959539,0.0815699
2.75398,0.708129,0.0496346
2.61792,0.95388,-0.178569
2.79273,0.574283,-0.166045
2.69667,0.83579,0.164417
2.75599,0.708645,0.115934
2.62111,0.955045,-0.113655
2.62604,0.946988,-0.0487271
2.71081,0.68745,-0.559327
2.81093,0.568315,-0.0333866
2.73083,0.692527,-0.358602
2.63016,0.948473,0.0162501
2.74506,0.696136,-0.0164593
2.79114,0.564315,-0.26582
2.69179,0.824506,0.065509
2.80701,0.567522,0.0333401
2.67833,0.820383,-0.195876
2.74373,0.6958,-0.231075
2.63662,0.9508,0.0815699
2.76019,0.699975,0.0497045
2.61731,0.943839,-0.178314
2.80245,0.566601,-0.16651
2.6956,0.825673,0.164185
2.75445,0.698518,0.115772
2.67432,0.819155,-0.130287
2.62427,0.946347,-0.113655
2.62933,0.937815,-0.0487271
2.8129,0.558499,-0.0333866
2.73708,0.683952,-0.359107
2.63346,0.939285,0.0162501
2.75135,0.687519,-0.0164826
2.80482,0.556894,-0.266935
2.70231,0.817419,0.0656951
2.80897,0.55772,0.0333401
2.67354,0.808717,-0.195318
2.63615,0.940247,0.0814535
2.7665,0.691304,0.0497743
2.62435,0.936037,-0.178569
2.80441,0.556814,-0.16651
2.70229,0.817414,0.164417
2.76075,0.689868,0.115934
2.67717,0.809814,-0.130287
2.63132,0.938523,-0.113818
2.63636,0.929962,-0.0487969
2.71935,0.669446,-0.560111
2.7433,0.675342,-0.359612
2.63672,0.930088,0.0162501
2.7615,0.679824,-0.0165291
2.81065,0.547863,-0.267307
2.69748,0.805693,0.065509
2.75239,0.677581,-0.231401
2.63942,0.93104,0.0814535
2.7689,0.681644,0.0497743
2.63137,0.928199,-0.178825
2.81418,0.54855,-0.166975
2.70896,0.809119,0.16465
2.75926,0.679272,0.115772
2.68381,0.801608,-0.130473
2.63081,0.928003,-0.113655
2.63236,0.917201,-0.0486573
2.75131,0.666121,-0.0823844
2.7219,0.659,-0.560111
2.81692,0.537865,-0.0333866
2.74202,0.663871,-0.359107
2.64027,0.919957,0.0162501
2.76409,0.669216,-0.0165291
2.81274,0.537067,-0.267307
2.70439,0.79646,0.0656021
2.81692,0.537865,0.0333866
2.69088,0.79248,-0.196155
2.7511,0.66607,-0.231075
2.64675,0.922214,0.0815699
2.77149,0.671008,0.0497743
2.62737,0.915462,-0.178314
2.82019,0.53849,-0.167208
2.70821,0.797584,0.164417
2.7735,0.671494,0.11626
2.6907,0.792426,-0.130659
2.63435,0.917895,-0.113655
2.63901,0.910231,-0.0487271
2.82252,0.529752,-0.0334332
2.75181,0.657097,-0.360117
2.64693,0.912963,0.0162734
2.76618,0.66053,-0.0165291
2.81441,0.528229,-0.267307
2.70304,0.786843,0.065509
2.82252,0.529752,0.0334332
2.69719,0.785139,-0.196434
2.76094,0.659277,-0.231726
2.65341,0.915199,0.0816862
2.77359,0.662298,0.0497743
2.63778,0.909807,-0.178825
2.81794,0.528891,-0.166975
2.71837,0.791305,0.164882
2.77171,0.66185,0.116097
2.68934,0.782853,-0.130473
2.63722,0.909615,-0.113655
2.71072,0.789078,-0.0656951
2.64596,0.902304,-0.0487969
2.75956,0.648775,-0.0825008
2.73003,0.641831,-0.560896
2.82435,0.519895,-0.0334332
2.75022,0.646579,-0.359612
2.6501,0.903717,0.0162734
2.76847,0.650869,-0.0165291
2.82015,0.519122,-0.267679
2.71346,0.779611,0.0656951
2.83222,0.521343,0.0335263
2.70375,0.77682,-0.196713
2.76322,0.649634,-0.231726
2.65659,0.905931,0.0816862
2.77978,0.653527,0.0498441
2.63716,0.899305,-0.178569
2.82369,0.519774,-0.167208
2.72496,0.782913,0.165115
2.774,0.65217,0.116097
2.64038,0.900403,-0.113655
2.65288,0.894339,-0.0488667
2.73225,0.632297,-0.560896
2.83009,0.510743,-0.0334798
2.76019,0.638763,-0.360622
2.65703,0.895738,0.0162966
2.77852,0.643004,-0.0165756
2.82587,0.509981,-0.268051
2.72386,0.772315,0.0658812
2.83009,0.510743,0.0334798
2.7026,0.766288,-0.196434
2.65974,0.896651,0.0816862
2.78204,0.643819,0.0498441
2.64029,0.890093,-0.178569
2.82942,0.510623,-0.16744
2.72383,0.772307,0.164882
2.77626,0.642482,0.116097
2.69858,0.765148,-0.130659
2.77476,0.642134,-0.149262
2.65108,0.893734,-0.11398
2.72001,0.771224,-0.0657882
2.65598,0.885074,-0.0488667
2.73827,0.623627,-0.56168
2.83185,0.500861,-0.0334798
2.76241,0.629125,-0.360622
2.66014,0.886458,0.0162966
2.78075,0.633302,-0.0165756
2.83155,0.500808,-0.268423
2.72269,0.761725,0.0657882
2.83579,0.501558,0.0335263
2.70526,0.75685,-0.196434
2.76769,0.630328,-0.231726
2.66285,0.887362,0.0816862
2.78817,0.634992,0.0499139
2.64716,0.882134,-0.178825
2.83905,0.502135,-0.167906
2.7342,0.764946,0.165347
2.79018,0.63545,0.116586
2.77698,0.632445,-0.149262
2.74136,0.766949,0.349521
2.6504,0.883211,-0.113818
2.65906,0.875797,-0.0488667
2.77011,0.620715,-0.0826171
2.74043,0.614064,-0.56168
2.7145,0.749227,0
2.75684,0.617743,-0.359612
2.65562,0.874664,0.0162501
2.69889,0.744918,-0.301585
2.83328,0.49092,-0.268423
2.72148,0.751152,0.0656951
2.84541,0.493021,0.0336195
2.71174,0.748464,-0.196713
2.77376,0.621534,-0.232052
2.79037,0.625255,0.0499139
2.64644,0.871639,-0.178569
2.84079,0.492221,-0.167906
2.73301,0.754334,0.165115
2.78848,0.624832,0.116423
2.74402,0.757374,0.349521
2.65346,0.873954,-0.113818
2.65845,0.864808,-0.0487969
2.75032,0.605704,-0.563249
2.72495,0.741374,0
2.84325,0.481921,-0.0335729
2.77071,0.610195,-0.361127
2.66641,0.8674,0.0162966
2.78911,0.614248,-0.0165988
2.84292,0.481864,-0.269166
2.73193,0.743273,0.0658812
2.71061,0.737473,-0.196434
2.77213,0.610506,-0.231726
2.67294,0.869521,0.0818026
2.79655,0.615885,0.0499837
2.6572,0.864404,-0.179081
2.8347,0.480471,-0.16744
2.7396,0.745361,0.165347
2.79856,0.616328,0.116748
2.75444,0.749397,0.350496
2.66045,0.865459,-0.11398
2.73193,0.743273,-0.0658812
2.66511,0.857213,-0.0488667
2.75615,0.597411,-0.564033
2.72739,0.732334,0
2.77272,0.601004,-0.361127
2.66928,0.858554,0.0162966
2.79505,0.605843,-0.0166221
2.70786,0.727091,-0.302014
2.84057,0.471782,-0.268794
2.73438,0.73421,0.0658812
2.84878,0.473146,0.0336195
2.78193,0.603,-0.232377
2.6758,0.860653,0.0818026
2.79467,0.605761,0.0499139
2.65246,0.853143,-0.178569
2.84415,0.472378,-0.167906
2.74206,0.736273,0.165347
2.79278,0.605351,0.116423
2.72058,0.730505,-0.131218
2.75691,0.74026,0.350496
2.66711,0.857857,-0.114143
2.73052,0.733173,-0.0657882
2.66808,0.847904,-0.0488667
2.75438,0.586969,-0.563249
2.85041,0.463198,-0.0336195
2.77868,0.592148,-0.361632
2.67988,0.851653,0.0163431
2.80106,0.596916,-0.0166453
2.71039,0.717633,-0.302014
2.85006,0.463141,-0.269538
2.73692,0.72466,0.0658812
2.85436,0.46384,0.033666
2.79182,0.594947,-0.233028
2.6826,0.852518,0.0819189
2.80459,0.597668,0.0500535
2.65922,0.845088,-0.178825
2.85367,0.463727,-0.168371
2.74847,0.727718,0.16558
2.79878,0.596431,0.116586
2.75948,0.730631,0.350496
2.80351,0.59744,0.234004
2.66628,0.84733,-0.11398
2.83265,0.603648,0.528062
2.74079,0.725683,-0.0659743
2.67484,0.839784,-0.0489365
2.76409,0.578959,-0.564818
2.78073,0.582446,-0.361632
2.67902,0.841096,0.0163199
2.80312,0.587135,-0.0166453
2.71672,0.709173,-0.302442
2.85166,0.45319,-0.269538
2.74331,0.716112,0.0659743
2.78997,0.584381,-0.232702
2.68175,0.841952,0.0818026
2.81057,0.588696,0.0501233
2.66977,0.838192,-0.179337
2.86316,0.455017,-0.168836
2.751,0.71812,0.16558
2.81258,0.589117,0.117074
2.72948,0.712503,-0.131404
2.79933,0.58634,-0.14989
2.76585,0.721997,0.350984
2.66922,0.838019,-0.11398
2.83089,0.592951,0.527344
2.68143,0.832094,-0.0490064
2.79217,0.575181,-0.0829662
2.77368,0.571372,-0.566387
2.74254,0.706204,0
2.85745,0.4444,-0.033666
2.78654,0.574021,-0.362137
2.6818,0.832206,0.0163199
2.85708,0.444342,-0.26991
2.74954,0.708008,0.0660673
2.86536,0.445629,0.0337591
2.79971,0.576734,-0.233353
2.68453,0.833053,0.0818026
2.80467,0.577757,0.0499837
2.66873,0.828151,-0.179081
2.85676,0.444292,-0.168371
2.75336,0.708993,0.16558
2.81061,0.578979,0.116911
2.73183,0.703447,-0.131404
2.76439,0.711831,0.350496
2.6758,0.830346,-0.114143
2.84055,0.585147,0.528779
2.74954,0.708008,-0.0660673
2.68432,0.822729,-0.0490064
2.77565,0.561687,-0.566387
2.74111,0.695643,0
2.78852,0.564291,-0.362137
2.68851,0.824013,0.0163431
2.81097,0.568835,-0.0166686
2.86649,0.435564,-0.270653
2.75587,0.69939,0.0661604
2.8669,0.435625,0.0337591
2.8017,0.566958,-0.233353
2.69506,0.826021,0.0820353
2.81059,0.568758,0.0500535
2.67542,0.82,-0.179337
2.85829,0.434318,-0.168371
2.75582,0.699378,0.16558
2.82436,0.571544,0.1174
2.73814,0.69489,-0.13159
2.77455,0.704131,0.351471
2.67868,0.821001,-0.114143
2.74812,0.697423,-0.0659743
2.68335,0.812196,-0.0489365
2.77375,0.551231,-0.565602
2.7474,0.687042,0
2.8684,0.425616,-0.0337591
2.79437,0.555328,-0.362642
2.69137,0.814624,0.0163431
2.81294,0.55902,-0.0166686
2.86799,0.425556,-0.270653
2.75441,0.688796,0.0660673
2.87236,0.426203,0.0338057
2.80757,0.557953,-0.233679
2.69793,0.816609,0.0820353
2.81648,0.559724,0.0501233
2.68208,0.811813,-0.179593
2.86769,0.425511,-0.168836
2.75825,0.689755,0.16558
2.8185,0.560124,0.117074
2.74055,0.685328,-0.13159
2.77699,0.694442,0.351471
2.82321,0.561061,0.234981
2.68918,0.813962,-0.114469
2.8407,0.564536,0.528062
2.69,0.803969,-0.0490064
2.77951,0.542296,-0.566387
2.87383,0.416173,-0.0338057
2.79629,0.54557,-0.362642
2.6942,0.805223,0.0163431
2.8188,0.549963,-0.0166918
2.8734,0.416112,-0.271025
2.76068,0.680133,0.0661604
2.81342,0.548912,-0.234004
2.70076,0.807186,0.0820353
2.82235,0.550654,0.0501931
2.6849,0.802445,-0.179593
2.87706,0.416642,-0.169301
2.76452,0.681077,0.165813
2.82436,0.551047,0.117237
2.81891,0.549983,-0.150518
2.7794,0.684744,0.351471
2.68818,0.803425,-0.114306
2.84652,0.55537,0.528779
2.69279,0.794575,-0.0490064
2.78138,0.532591,-0.566387
2.75602,0.668788,0
2.80207,0.536553,-0.363147
2.70083,0.796947,0.0163664
2.82856,0.541625,-0.0167383
2.87484,0.40608,-0.271025
2.75916,0.66955,0.0660673
2.88318,0.407258,0.0338988
2.80357,0.536839,-0.233028
2.70356,0.797754,0.0820353
2.82818,0.541551,0.0502629
2.69534,0.795328,-0.180104
2.88245,0.407156,-0.169533
2.77076,0.672365,0.166045
2.83019,0.541937,0.1174
2.74526,0.666179,-0.13159
2.82081,0.54014,-0.150518
2.78563,0.675974,0.351959
2.68713,0.792906,-0.114143
2.85617,0.546911,0.530214
2.76304,0.670493,-0.0661604
2.70323,0.787407,-0.049146
2.78708,0.523602,-0.567171
2.76222,0.660093,0
2.80003,0.526035,-0.362642
2.69975,0.786395,0.0163431
2.83437,0.532486,-0.0167616
2.7386,0.654447,-0.303299
2.88413,0.397128,-0.271768
2.76537,0.660844,0.0661604
2.88459,0.397191,0.0338988
2.81718,0.529257,-0.234004
2.70633,0.788312,0.0820353
2.82612,0.530937,0.0501931
2.6866,0.782565,-0.179337
2.88781,0.397635,-0.169766
2.77309,0.662689,0.166045
2.83992,0.533529,0.117725
2.75923,0.659378,-0.132148
2.78411,0.665323,0.351471
2.69756,0.785756,-0.114469
2.85419,0.53621,0.529497
2.76925,0.661773,-0.0662534
2.69827,0.775755,-0.0490064
2.79661,0.515291,-0.56874
2.76451,0.650446,0
2.88595,0.387119,-0.0338988
2.80965,0.517695,-0.363652
2.70633,0.778071,0.0163664
2.83227,0.521863,-0.0167383
2.8855,0.387058,-0.271768
2.77544,0.653018,0.0663465
2.89388,0.388182,0.033992
2.75001,0.647034,-0.19755
2.81901,0.519419,-0.234004
2.70907,0.778859,0.0820353
2.83189,0.521792,0.0502629
2.69699,0.775388,-0.179849
2.88523,0.387021,-0.169533
2.77538,0.653004,0.166045
2.84177,0.523612,0.117725
2.75763,0.648826,-0.131962
2.79801,0.658328,0.352934
2.70029,0.776334,-0.114469
2.85992,0.526956,0.530214
2.77544,0.653018,-0.0663465
2.70481,0.767425,-0.0490762
2.80225,0.506225,-0.569525
2.76676,0.640794,0
2.81925,0.509297,-0.364663
2.70902,0.768621,0.0163664
2.84195,0.513398,-0.0167848
2.88288,0.376469,-0.271397
2.76991,0.641523,0.0661604
2.89522,0.37808,0.033992
2.83258,0.511704,-0.234981
2.71562,0.770491,0.0821517
2.8455,0.514039,0.0504724
2.70352,0.76706,-0.180104
2.88656,0.376949,-0.169533
2.78154,0.644215,0.166278
2.84358,0.513691,0.117725
2.76377,0.6401,-0.132148
2.8381,0.512703,-0.151146
2.80416,0.649455,0.353421
2.84435,0.51383,0.235957
2.70298,0.766906,-0.114469
2.86174,0.516972,0.530214
2.77381,0.642425,-0.0662534
2.71132,0.759056,-0.049146
2.77288,0.63202,0
2.90049,0.368475,-0.0340385
2.82101,0.499452,-0.364663
2.71939,0.761316,0.0164128
2.84373,0.503474,-0.0167848
2.88813,0.366905,-0.271768
2.78383,0.634515,0.0664395
2.83042,0.501118,-0.234655
2.71829,0.761007,0.0821517
2.85122,0.5048,0.0505422
2.70618,0.757618,-0.180104
2.89974,0.36838,-0.170231
2.78377,0.634501,0.166278
2.84929,0.504458,0.117888
2.76988,0.631336,-0.132335
2.79867,0.637897,0.352446
2.70564,0.757465,-0.114469
2.87515,0.509037,0.532367
2.77993,0.633627,-0.0663465
2.80958,0.48732,-0.570309
2.77898,0.623213,0
2.82274,0.489603,-0.364663
2.72589,0.752884,0.0164361
2.84941,0.494228,-0.0168081
2.76299,0.619629,-0.305012
2.89335,0.35731,-0.27214
2.78993,0.62567,0.0665326
2.83608,0.491916,-0.234981
2.72093,0.751514,0.0821517
2.85296,0.494845,0.0505422
2.70496,0.747105,-0.179849
2.90497,0.358746,-0.170464
2.85497,0.495193,0.118051
2.77207,0.621664,-0.132335
2.8125,0.630731,0.353909
2.70827,0.748017,-0.114469
2.87303,0.498326,0.531649
2.78213,0.62392,-0.0663465
2.71656,0.740109,-0.049146
2.81513,0.478166,-0.571094
2.78114,0.613508,0
2.82443,0.479746,-0.364663
2.72464,0.742312,0.0164128
2.84717,0.483608,-0.0167848
2.76514,0.60998,-0.305012
2.90644,0.34863,-0.273256
2.78819,0.615065,0.0664395
2.83778,0.482013,-0.234981
2.72739,0.743062,0.082268
2.85073,0.484212,0.0504724
2.71141,0.738707,-0.180104
2.91414,0.349554,-0.170929
2.79593,0.616772,0.166743
2.85668,0.485223,0.118051
2.77812,0.612844,-0.132521
2.81468,0.620909,0.353909
2.71857,0.740659,-0.114795
2.88639,0.49027,0.533802
2.7921,0.615927,-0.0665326
2.82065,0.468979,-0.571878
2.79108,0.605492,0
2.91214,0.339006,-0.0341317
2.83392,0.471184,-0.365673
2.73108,0.733834,0.0164361
2.84884,0.473666,-0.0167848
2.76725,0.600323,-0.305012
2.91159,0.338943,-0.273627
2.79814,0.607024,0.0666256
2.91214,0.339006,0.0341317
2.77258,0.601479,-0.198387
2.84731,0.473411,-0.235632
2.72997,0.733536,0.082268
2.86029,0.47557,0.050612
2.71782,0.730273,-0.18036
2.90741,0.338455,-0.170464
2.8623,0.475903,0.118214
2.78415,0.603989,-0.132707
2.82071,0.611921,0.354396
2.725,0.732201,-0.114957
2.88032,0.4789,0.532367
2.79032,0.605328,-0.0664395
2.72552,0.722151,-0.0492158
2.82227,0.459131,-0.571878
2.78926,0.594912,0
2.9133,0.328839,-0.0341317
2.83554,0.46129,-0.365673
2.73363,0.724297,0.0164361
2.85443,0.464362,-0.0168081
2.9088,0.328331,-0.273256
2.79633,0.596419,0.0665326
2.91728,0.329288,0.0341782
2.85288,0.46411,-0.235957
2.73251,0.724003,0.082268
2.86588,0.466225,0.0506818
2.72422,0.721804,-0.180616
2.91651,0.329201,-0.170929
2.86394,0.46591,0.118214
2.78624,0.594267,-0.132707
2.85845,0.465016,-0.151774
2.81895,0.601243,0.353909
2.72368,0.721662,-0.114795
2.88975,0.470107,0.533802
2.79633,0.596419,-0.0665326
2.7279,0.713109,-0.0492158
2.82765,0.450387,-0.572663
2.92233,0.320048,-0.0342248
2.84098,0.452509,-0.366178
2.74762,0.718264,0.0165058
2.8599,0.455523,-0.0168313
2.91383,0.319117,-0.273627
2.80221,0.587965,0.0666256
2.85834,0.455275,-0.236282
2.73877,0.715949,0.0823844
2.87136,0.457349,0.0507516
2.72659,0.712767,-0.180616
2.91758,0.319528,-0.170929
2.80604,0.588769,0.166975
2.86942,0.457039,0.118377
2.79211,0.585846,-0.132893
2.85997,0.455535,-0.151774
2.82481,0.592708,0.354396
2.73379,0.714648,-0.11512
2.89129,0.460523,0.533802
2.80221,0.587965,-0.0666256
2.82921,0.440513,-0.572663
2.79716,0.57672,0
2.84646,0.443199,-0.366683
2.75399,0.709666,0.0165291
2.86938,0.446768,-0.0168778
2.78108,0.573403,-0.305869
2.92285,0.309783,-0.274371
2.81991,0.581409,0.0669978
2.85991,0.445294,-0.236282
2.74512,0.707382,0.0825008
2.86899,0.446707,0.0506818
2.73293,0.70424,-0.180872
2.93059,0.310604,-0.171626
2.80808,0.57897,0.166975
2.87495,0.447635,0.11854
2.80196,0.577709,-0.133265
2.86944,0.446777,-0.152193
2.82686,0.582843,0.354396
2.72853,0.703106,-0.114795
2.90066,0.451637,0.535237
2.80424,0.578179,-0.0666256
2.74057,0.696016,-0.0493554
2.86185,0.435369,-0.0842462
2.84236,0.432405,-0.575016
2.807,0.568541,0
2.92847,0.300046,-0.0342714
2.74482,0.697095,0.0164593
2.87092,0.436749,-0.0168778
2.79476,0.566061,-0.307154
2.92788,0.299985,-0.274743
2.81408,0.569975,0.0668117
2.79625,0.566364,-0.199504
2.86539,0.435908,-0.236608
2.74758,0.697796,0.0825008
2.87449,0.437292,0.0507516
2.93166,0.300373,-0.171626
2.88044,0.438198,0.118702
2.80396,0.567925,-0.133265
2.82888,0.572973,0.354396
2.73484,0.694561,-0.114957
2.90999,0.442694,0.536672
2.81016,0.569181,-0.0667187
2.74298,0.686445,-0.0493554
2.84385,0.42248,-0.575016
2.80897,0.558739,0
2.94144,0.291002,-0.034411
2.85341,0.423899,-0.367188
2.75111,0.68848,0.0164826
2.86847,0.426137,-0.0168546
2.93287,0.290154,-0.275114
2.82782,0.562488,0.0670909
2.93746,0.290609,0.0343645
2.7943,0.555821,-0.199224
2.75775,0.690141,0.0827335
2.88391,0.42843,0.0508912
2.73391,0.684175,-0.180616
2.93269,0.290137,-0.171626
2.88195,0.42814,0.118702
2.80985,0.558913,-0.133451
2.84255,0.565417,0.355859
2.74112,0.68598,-0.11512
2.90374,0.431376,0.535237
2.81213,0.559367,-0.0667187
2.74536,0.676865,-0.0493554
2.81875,0.550463,0
2.94244,0.280732,-0.034411
2.8588,0.414505,-0.367693
2.76127,0.680787,0.0165291
2.88578,0.418417,-0.0169475
2.79864,0.546534,-0.307154
2.93386,0.279914,-0.275114
2.82977,0.552613,0.0670909
2.94244,0.280732,0.034411
2.8933,0.419508,0.0510308
2.93766,0.280276,-0.171859
2.88739,0.41865,0.118865
2.81178,0.549101,-0.133451
2.8445,0.555491,0.355859
2.74738,0.677364,-0.115283
2.91301,0.422366,0.536672
2.81799,0.550314,-0.0668117
2.85062,0.403166,-0.5758
2.81673,0.539869,0
2.94738,0.270828,-0.0344576
2.86416,0.405081,-0.368198
2.76751,0.67209,0.0165523
2.88722,0.408343,-0.0169475
2.80053,0.536764,-0.307154
2.93879,0.270038,-0.275486
2.82775,0.541981,0.0669978
2.87769,0.406996,-0.237259
2.7625,0.670873,0.0827335
2.89871,0.409968,0.0511006
2.7425,0.666015,-0.180872
2.9426,0.270388,-0.172092
2.82765,0.541962,0.167673
2.88883,0.408571,0.118865
2.8176,0.540036,-0.133637
2.84252,0.544813,0.355371
2.74585,0.666828,-0.11512
2.92226,0.413299,0.538107
2.8199,0.540476,-0.0668117
2.87953,0.397007,-0.0845953
2.85589,0.393748,-0.576585
2.82253,0.530772,0
2.95229,0.260889,-0.0345042
2.86555,0.39508,-0.368198
2.76595,0.661494,0.0165291
2.89655,0.399354,-0.016994
2.80629,0.527719,-0.307583
2.94765,0.260478,-0.27623
2.83355,0.532845,0.0670909
2.81173,0.528742,-0.200062
2.8791,0.396947,-0.237259
2.89616,0.3993,0.0510308
2.74869,0.657366,-0.181128
2.95546,0.261168,-0.172789
2.82953,0.532088,0.167673
2.8942,0.39903,0.119028
2.8234,0.530935,-0.133824
2.84831,0.53562,0.355859
2.91979,0.402558,0.537389
2.82569,0.531367,-0.0669048
2.8809,0.386954,-0.0845953
2.86891,0.385344,-0.578938
2.8283,0.521642,0
2.95319,0.250582,-0.0345042
2.86692,0.385076,-0.368198
2.76824,0.651836,0.0165291
2.90189,0.389774,-0.0170173
2.81594,0.519364,-0.30844
2.94854,0.250188,-0.27623
2.84326,0.524402,0.067277
2.95717,0.250921,0.0345507
2.81356,0.518924,-0.200062
2.88837,0.387957,-0.23791
2.76712,0.651571,0.0827335
2.9015,0.389721,0.0511006
2.75097,0.647767,-0.181128
2.83529,0.522933,0.167906
2.9035,0.389989,0.119354
2.85016,0.525675,0.355859
2.76211,0.650391,-0.115609
2.92118,0.392364,0.537389
2.83146,0.522227,-0.0669978
2.8862,0.377413,-0.0847116
2.87413,0.375835,-0.579723
2.83404,0.512478,0
2.96202,0.24092,-0.0345973
2.87611,0.376094,-0.369208
2.7744,0.643071,0.0165523
2.89927,0.379122,-0.016994
2.80991,0.508115,-0.307583
2.95733,0.240539,-0.276973
2.84901,0.515185,0.0673701
2.96202,0.24092,0.0345973
2.82321,0.510519,-0.20062
2.91474,0.381145,0.0513101
2.95721,0.240529,-0.172789
2.84103,0.513742,0.168138
2.90484,0.379851,0.119354
2.8349,0.512633,-0.134196
2.8637,0.517842,0.357321
2.76047,0.639842,-0.115446
2.8254,0.510916,-0.0668117
2.76845,0.631518,-0.0495648
2.89146,0.36784,-0.084828
2.83581,0.502581,0
2.9748,0.23151,-0.034737
2.80599,0.497297,-0.44335
2.88134,0.366552,-0.369713
2.78053,0.634272,0.0165756
2.90851,0.370009,-0.0170405
2.81558,0.498997,-0.308011
2.95816,0.230214,-0.276973
2.84292,0.503841,0.067184
2.97082,0.231199,0.0346904
2.8289,0.501357,-0.200899
2.7755,0.633125,0.0828498
2.91605,0.370968,0.0513101
2.96997,0.231134,-0.173487
2.85067,0.505215,0.168603
2.83274,0.502037,-0.13401
2.86549,0.507842,0.357321
2.77048,0.631979,-0.115772
2.83504,0.502445,-0.0669978
2.87668,0.35576,-0.579723
2.83755,0.49268,0
2.96363,0.220235,-0.0345973
2.89048,0.357467,-0.370724
2.78663,0.625439,0.0165988
2.91375,0.360345,-0.0170638
2.82514,0.490526,-0.308868
2.96291,0.220182,-0.277345
2.85254,0.495283,0.0673701
2.90414,0.359157,-0.238886
2.91336,0.360296,0.0512403
2.97076,0.220766,-0.173487
2.85242,0.495262,0.168603
2.84235,0.493513,-0.134382
2.87116,0.498516,0.357808
2.77266,0.622305,-0.115772
2.8486,0.494599,-0.067277
2.7806,0.6139,-0.0497045
2.85502,0.485455,0
2.97635,0.210737,-0.034737
2.89565,0.347849,-0.371229
2.78879,0.615708,0.0165988
2.91499,0.350173,-0.0170638
2.83076,0.481329,-0.309296
2.96764,0.210121,-0.277717
2.85819,0.485994,0.0674631
2.83233,0.481596,-0.200899
2.90538,0.349018,-0.238886
2.92651,0.351556,0.0514497
2.76754,0.611016,-0.181639
2.97948,0.210959,-0.173952
2.85413,0.485303,0.168603
2.92453,0.351318,0.120005
2.85193,0.484929,-0.134754
2.86505,0.48716,0.356833
2.77872,0.613485,-0.115934
2.84636,0.483983,-0.067184
2.90707,0.338932,-0.0851771
2.89078,0.337033,-0.582076
2.84881,0.474173,0
2.98105,0.200616,-0.0347836
2.89291,0.33728,-0.370724
2.78702,0.605122,0.0165756
2.83635,0.472099,-0.309725
2.97233,0.200028,-0.278089
2.86776,0.477327,0.0676492
2.98505,0.200884,0.0348301
2.834,0.471707,-0.200899
2.92772,0.341339,0.0514497
2.9802,0.200558,-0.173952
2.86368,0.476649,0.169068
2.92574,0.341108,0.120005
2.84966,0.474315,-0.134568
2.87457,0.478461,0.357808
2.77694,0.602934,-0.115772
2.85593,0.475358,-0.0673701
2.90812,0.329796,-0.0851771
2.85423,0.465864,0
2.98167,0.191249,-0.0347836
2.89395,0.32819,-0.370724
2.79281,0.597199,0.0165988
2.9252,0.331733,-0.0171103
2.83389,0.462544,-0.309296
2.97691,0.190944,-0.27846
2.87319,0.468959,0.0677423
2.98566,0.191505,0.0348301
2.84334,0.464087,-0.201457
2.91555,0.330639,-0.239537
2.9248,0.331689,0.0513799
2.77934,0.594317,-0.182151
2.98081,0.191194,-0.173952
2.86517,0.467649,0.169068
2.93474,0.332815,0.120331
2.85508,0.466003,-0.134754
2.88389,0.470706,0.358783
2.79055,0.596714,-0.11626
2.85741,0.466382,-0.0673701
2.91323,0.32008,-0.0852934
2.86374,0.45716,0
2.9903,0.181324,-0.0348767
2.90297,0.318953,-0.371734
2.7988,0.58827,0.0166221
2.92634,0.321521,-0.0171103
2.84727,0.454531,-0.310581
2.98154,0.180793,-0.278832
2.87086,0.458297,0.0676492
2.9943,0.181566,0.0349233
2.84494,0.454159,-0.201457
2.80157,0.588853,0.0833153
2.93787,0.322788,0.0515893
2.98943,0.181272,-0.174417
2.87073,0.458275,0.169301
2.92794,0.321697,0.120005
2.85275,0.455405,-0.134568
2.88552,0.460637,0.358783
2.79652,0.587792,-0.116423
2.85902,0.456406,-0.0673701
2.79664,0.577122,-0.0498441
2.91836,0.309824,-0.0854098
2.9019,0.308076,-0.583645
2.86935,0.447277,0
3.00293,0.171046,-0.0350164
2.91201,0.30915,-0.372744
2.80877,0.579625,0.0166686
2.93545,0.311639,-0.0171568
2.84892,0.444092,-0.310581
2.98218,0.169864,-0.278832
2.87647,0.448388,0.0677423
2.85842,0.445573,-0.202294
2.93903,0.312019,0.0515893
2.99805,0.170768,-0.174882
2.88028,0.448981,0.169766
2.93704,0.311807,0.120331
2.86624,0.446793,-0.135126
2.79866,0.577539,-0.116423
2.86462,0.446541,-0.0674631
2.80256,0.56815,-0.0499139
2.89906,0.297544,-0.582861
2.86694,0.436656,0
2.99552,0.160135,-0.0349233
2.91702,0.299387,-0.373249
2.81077,0.569816,0.0166686
2.93652,0.301389,-0.0171568
2.85831,0.435342,-0.311438
2.98673,0.159665,-0.279204
2.88198,0.438946,0.0678353
2.85601,0.434991,-0.202015
2.9308,0.300802,-0.240513
2.94408,0.302165,0.0516591
2.78942,0.565487,-0.182407
2.99863,0.160301,-0.174882
2.88577,0.439525,0.169998
2.94209,0.301961,0.120494
2.87173,0.437386,-0.135313
2.89267,0.440575,0.359271
2.80066,0.567765,-0.116423
2.87012,0.43714,-0.0675562
2.80442,0.558852,-0.0499139
2.92836,0.29074,-0.0856425
2.87233,0.427735,0
3.00003,0.1504,-0.0349698
2.9101,0.288927,-0.372239
2.80873,0.55971,0.0166453
2.94547,0.292439,-0.0172033
2.86761,0.427032,-0.312295
2.9952,0.150158,-0.279948
3.00802,0.150801,0.0350629
2.86138,0.426105,-0.202294
2.93711,0.291609,0.0515195
3.00712,0.150756,-0.175347
2.87932,0.428776,0.169533
2.94705,0.292597,0.120656
2.87712,0.428449,-0.135499
2.89804,0.431564,0.359758
2.80253,0.558474,-0.116423
2.87155,0.427619,-0.0675562
2.80645,0.548571,-0.0499139
2.93736,0.280767,-0.0858753
2.87783,0.41778,0
3.00855,0.139775,-0.0350629
2.92694,0.27977,-0.374259
2.81861,0.550947,0.0166918
2.94254,0.281262,-0.01718
2.85735,0.414805,-0.31101
2.99573,0.13918,-0.279948
2.88893,0.41939,0.0679284
3.02054,0.140332,0.0352026
2.86687,0.416189,-0.202573
2.95408,0.282365,0.0517987
3.01164,0.139919,-0.17558
2.88877,0.419368,0.169998
2.95606,0.282555,0.120982
2.87867,0.417901,-0.135499
2.94253,0.281261,-0.154914
2.8996,0.42094,0.359758
2.8124,0.549733,-0.116748
2.8731,0.417092,-0.0675562
2.89116,0.409413,0
3.02101,0.129787,-0.0352026
2.9279,0.269551,-0.374259
2.82052,0.541104,0.0166918
2.94749,0.271355,-0.0172033
2.86665,0.405943,-0.311867
2.9962,0.128721,-0.279948
2.89829,0.410424,0.0681145
3.01701,0.129615,0.0351561
2.86831,0.406178,-0.202573
2.81937,0.540884,0.083548
2.96302,0.272784,0.0519384
3.01211,0.129405,-0.17558
2.89417,0.40984,0.170231
2.95305,0.271867,0.120819
2.8722,0.406729,-0.135126
2.90498,0.411371,0.360246
2.81823,0.540664,-0.116911
2.87454,0.40706,-0.0675562
2.88464,0.398225,0
3.02144,0.119242,-0.0352026
2.85427,0.394032,-0.448269
2.93277,0.25968,-0.374764
2.94841,0.261065,-0.0172033
2.86805,0.395935,-0.311867
3.00061,0.118419,-0.280319
2.89971,0.400305,0.0681145
3.01745,0.119084,0.0351561
2.86971,0.396164,-0.202573
2.82517,0.53178,0.0836644
2.96793,0.262793,0.0520082
3.02053,0.119205,-0.176045
2.9035,0.400828,0.170696
2.95796,0.26191,0.120982
2.88943,0.398887,-0.135871
2.9064,0.401229,0.360246
2.82795,0.532303,-0.117237
2.88386,0.398118,-0.0677423
2.82778,0.522057,-0.0501931
2.95209,0.251009,-0.0862243
2.89394,0.389221,0
3.02184,0.108695,-0.0352026
2.93761,0.249778,-0.375269
2.83209,0.522853,0.0167383
2.96525,0.252128,-0.0172963
2.8773,0.386982,-0.312723
3.01294,0.108375,-0.281435
2.90901,0.391247,0.0683006
3.02584,0.108838,0.0352492
2.87503,0.386677,-0.202852
2.96883,0.252432,0.0520082
3.02492,0.108805,-0.176278
2.91675,0.392288,0.171394
2.97081,0.2526,0.121471
2.89081,0.388799,-0.135871
2.818,0.520252,-0.116748
2.8892,0.388582,-0.0678353
2.82556,0.511963,-0.0501233
2.9569,0.241543,-0.0863407
2.89918,0.380141,0
3.03018,0.0989335,-0.0352958
2.93843,0.240034,-0.375269
2.97006,0.242618,-0.0173195
2.87857,0.377438,-0.312723
3.01329,0.0983819,-0.281435
2.91029,0.381598,0.0683006
3.03018,0.0989335,0.0352958
2.88025,0.377659,-0.203131
2.96965,0.242585,0.0520082
3.02925,0.0989031,-0.17651
2.91408,0.382094,0.171161
2.97163,0.242746,0.121471
2.92088,0.382985,0.361708
2.83151,0.513041,-0.117237
2.89047,0.378998,-0.0678353
2.90056,0.369513,0
3.03052,0.0878273,-0.0352958
2.9472,0.22988,-0.376279
2.83567,0.503069,0.0167383
2.96694,0.23142,-0.0172963
2.88388,0.367388,-0.313152
3.02159,0.0875684,-0.282178
2.91961,0.37194,0.0684867
3.03852,0.088059,0.0353889
2.89349,0.368613,-0.203968
2.9785,0.232322,0.0521478
3.03358,0.087916,-0.176743
2.91942,0.371916,0.171394
2.98047,0.232475,0.121796
2.90534,0.370123,-0.136429
2.92226,0.372278,0.361708
2.83337,0.502661,-0.117237
2.833,0.49291,-0.0501931
2.9625,0.221192,-0.0864571
2.90971,0.360876,0
3.03879,0.0779816,-0.0353889
2.95586,0.220696,-0.377289
2.84127,0.494348,0.0167616
2.97168,0.221877,-0.0173195
2.88508,0.357822,-0.313152
3.02186,0.0775471,-0.282178
2.91686,0.361763,0.0683936
3.04679,0.0781868,0.035482
2.90262,0.359997,-0.204526
2.96983,0.221739,-0.243117
2.98324,0.22274,0.0522176
3.03386,0.077855,-0.176743
2.92064,0.362232,0.171394
2.98122,0.22259,0.121796
2.90656,0.360485,-0.136429
2.9353,0.36405,0.363171
2.8429,0.494631,-0.117563
2.89701,0.359302,-0.0679284
2.84653,0.485032,-0.0504026
3.03905,0.067373,-0.0353889
2.96453,0.210939,-0.3783
2.84297,0.484426,0.0167616
2.98041,0.21207,-0.017366
2.89421,0.348699,-0.314009
3.03008,0.0671742,-0.282922
2.92207,0.352057,0.0684867
3.04305,0.0674616,0.0354355
2.8999,0.349385,-0.204247
2.984,0.212325,0.0522176
2.84114,0.484113,-0.184709
3.04609,0.0675291,-0.17744
2.93378,0.353467,0.172092
2.98995,0.212748,0.122122
2.91573,0.351293,-0.136801
2.92867,0.352851,0.362196
2.84855,0.485375,-0.117725
2.90222,0.349665,-0.0680214
2.85224,0.475254,-0.0504724
2.97198,0.200525,-0.0866898
2.91221,0.340046,0
3.04727,0.0563825,-0.035482
2.96924,0.20034,-0.378805
2.84868,0.474661,0.0167848
2.98117,0.201145,-0.017366
2.89942,0.338551,-0.314437
3.03031,0.0560686,-0.282922
2.92731,0.341809,0.0685797
3.04727,0.0563825,0.035482
2.90908,0.33968,-0.204805
2.97532,0.20075,-0.243443
2.99673,0.202195,0.052427
2.84683,0.474353,-0.184965
2.93505,0.342712,0.172092
2.98673,0.20152,0.121959
2.91303,0.340141,-0.136615
2.84636,0.474275,-0.117563
2.91937,0.340881,-0.0683936
2.85372,0.466292,-0.0504724
2.97659,0.191444,-0.0868062
2.92519,0.33225,0
3.05143,0.0468709,-0.0355286
2.96193,0.190502,-0.377795
2.98578,0.192036,-0.0173892
2.90046,0.329441,-0.314437
3.03843,0.0466712,-0.283665
2.93632,0.333514,0.0687658
3.05943,0.0469938,0.0356217
2.91014,0.33054,-0.204805
2.97593,0.191402,-0.243443
2.99735,0.19278,0.052427
3.05047,0.0468562,-0.177673
2.93611,0.33349,0.172092
2.99931,0.192906,0.122448
2.92202,0.33189,-0.136988
2.93889,0.333806,0.363171
2.85178,0.465976,-0.117725
2.92043,0.331709,-0.0683936
2.85138,0.455695,-0.0504026
2.98123,0.181295,-0.0869225
2.91838,0.321161,0
3.05158,0.0362183,-0.0355286
2.9705,0.180643,-0.378805
2.85571,0.456388,0.0168081
2.99043,0.181854,-0.0174125
2.9095,0.320184,-0.315294
3.05052,0.0362058,-0.284781
2.94144,0.323699,0.0688589
3.06358,0.0363607,0.0356683
2.91524,0.320815,-0.205084
2.98454,0.181496,-0.244093
2.998,0.182315,0.052427
3.05461,0.0362543,-0.177905
2.93726,0.323239,0.172092
3.00794,0.18292,0.122773
2.92714,0.322124,-0.137174
2.94399,0.323979,0.363658
2.86129,0.457279,-0.118051
2.91759,0.321074,-0.0683006
2.86101,0.445976,-0.0505422
2.93153,0.31122,0
3.06369,0.0245979,-0.0356683
2.9791,0.169687,-0.379815
2.9951,0.170599,-0.0174357
2.91071,0.309011,-0.315294
3.04267,0.0244292,-0.284037
2.93869,0.311981,0.0687658
3.06369,0.0245979,0.0356683
2.92439,0.310462,-0.205642
3.00268,0.171031,0.0524968
2.85559,0.445131,-0.185221
3.05473,0.0245259,-0.177905
2.94245,0.31238,0.172324
3.00463,0.171142,0.12261
2.92835,0.310883,-0.137174
2.94916,0.313092,0.364146
2.87092,0.447521,-0.118377
2.93073,0.311136,-0.0685797
2.87441,0.437794,-0.0507516
2.99046,0.159865,-0.0871552
2.93259,0.300986,0
3.07176,0.0139405,-0.0357614
2.98363,0.1595,-0.38032
2.86689,0.436649,0.0168546
2.99967,0.160357,-0.017459
2.91573,0.299255,-0.315722
3.05867,0.0138811,-0.285524
2.93976,0.301721,0.0687658
3.06776,0.0139223,0.0357148
2.92148,0.299846,-0.205363
3.01124,0.160976,0.0526365
2.85712,0.435161,-0.185221
3.05879,0.0138816,-0.178138
2.95147,0.302923,0.172789
3.0092,0.160867,0.122773
2.92942,0.30066,-0.137174
2.87246,0.437498,-0.118377
2.93578,0.301313,-0.0686728
2.87181,0.428171,-0.0506818
2.93353,0.291771,0
3.06779,0.00428374,-0.0357148
2.99204,0.150524,-0.38133
3.01613,0.151736,-0.017552
2.92061,0.290486,-0.316151
3.06268,0.00427661,-0.285896
2.95263,0.293671,0.069045
3.07179,0.00428932,0.0357614
2.93035,0.291455,-0.205921
3.0022,0.151035,-0.245395
3.01173,0.151514,0.0526365
2.86242,0.426771,-0.185477
3.0668,0.00428236,-0.178603
2.95241,0.293649,0.172789
3.01768,0.151813,0.123099
2.86987,0.427881,-0.118214
2.94069,0.292484,-0.0687658
2.88135,0.418289,-0.0508214
3.00349,0.139539,-0.0875043
2.93861,0.280885,0
2.9926,0.139033,-0.38133
3.0167,0.140153,-0.017552
2.92566,0.279648,-0.316579
2.95373,0.282331,0.069045
3.07978,-0.00752584,0.0358545
2.93542,0.28058,-0.2062
3.00674,0.13969,-0.245721
3.01629,0.140134,0.0527063
2.86404,0.415776,-0.185477
3.07079,-0.00750386,-0.178836
2.96544,0.283449,0.173487
3.02223,0.14041,0.123262
2.94338,0.281341,-0.137732
2.87545,0.417432,-0.118377
2.94577,0.28157,-0.0688589
2.87869,0.408674,-0.0507516
2.94744,0.272388,0
2.99302,0.129632,-0.38133
3.00913,0.130329,-0.0175055
2.92653,0.270456,-0.316579
2.96257,0.273786,0.0692311
3.08774,-0.0172453,0.0359477
2.94026,0.271725,-0.206479
3.02071,0.130831,0.0527761
2.86533,0.406777,-0.185477
3.07874,-0.017195,-0.179301
2.95836,0.273397,0.173022
3.02266,0.130915,0.123262
2.94823,0.272461,-0.137918
2.88466,0.409521,-0.118702
2.94664,0.272314,-0.0688589
2.88406,0.399172,-0.0508214
2.94837,0.262099,0
3.00535,0.119657,-0.382845
3.02555,0.120462,-0.0175985
2.93142,0.260591,-0.317007
2.96351,0.263444,0.0692311
3.09166,-0.0280591,0.0359942
2.94517,0.261814,-0.206758
3.02115,0.120286,0.0527761
2.87464,0.397868,-0.185989
3.08265,-0.0279773,-0.179533
2.96725,0.263777,0.173487
3.03108,0.120682,0.123587
2.95314,0.262522,-0.138104
2.89003,0.399997,-0.118865
2.95953,0.26309,-0.0691381
2.8894,0.389636,-0.0508912
3.08755,-0.0388013,-0.0359477
3.01368,0.109453,-0.383855
3.02995,0.110044,-0.0176217
2.94023,0.251033,-0.317864
2.96839,0.253437,0.0693242
2.93811,0.250852,-0.2062
2.89258,0.390064,0.0849444
3.03753,0.11032,0.0530553
2.88393,0.388897,-0.1865
3.08653,-0.0387885,-0.179766
2.97611,0.254096,0.173952
3.03149,0.1101,0.123587
2.95404,0.252212,-0.138104
2.89537,0.39044,-0.119028
2.96441,0.253097,-0.0692311
2.89478,0.379563,-0.050961
3.01803,0.098537,-0.38436
3.03433,0.0990693,-0.017645
2.9451,0.240579,-0.318292
2.97329,0.242882,0.0694172
2.95492,0.241381,-0.207316
3.02831,0.0988726,-0.247348
3.03792,0.0991864,0.0530553
2.89325,0.379363,-0.187012
3.09834,-0.0502947,-0.180464
2.981,0.243512,0.174185
3.03986,0.0992497,0.123913
2.95494,0.241383,-0.138104
2.89678,0.379826,-0.119028
2.90395,0.370976,-0.0511006
2.96292,0.232147,0
3.04264,0.0892417,-0.0176915
2.94588,0.230812,-0.318292
2.98604,0.233959,0.0696964
2.9557,0.231582,-0.207316
2.90317,0.370876,0.0851771
3.04223,0.0892296,0.0531251
3.10614,-0.0607244,-0.180929
2.98578,0.233938,0.174417
3.04816,0.0894035,0.124239
2.95971,0.231896,-0.13829
2.90199,0.370725,-0.119191
2.90529,0.360329,-0.0511006
3.10295,-0.072041,-0.0361339
2.9364,0.219244,-0.458108
3.03895,0.0779858,-0.0176682
2.9467,0.220013,-0.318292
2.98289,0.222714,0.0696033
2.96051,0.221043,-0.207595
3.03689,0.0779331,-0.247999
3.05053,0.0782831,0.0532647
2.89583,0.359155,-0.187012
3.10191,-0.0720167,-0.180696
2.98661,0.222992,0.174417
3.04847,0.0782301,0.124239
2.96452,0.221343,-0.138477
3.04282,0.0780852,-0.15952
3.00897,0.224661,0.370483
2.90729,0.360577,-0.119354
2.97092,0.221821,-0.0693242
2.91051,0.350665,-0.0511705
2.97248,0.211507,0
3.11068,-0.0830848,-0.0362271
2.94504,0.209554,-0.459338
3.0432,0.0674668,-0.0176915
2.95142,0.210008,-0.318721
2.98365,0.212301,0.0696033
2.96524,0.210992,-0.207874
3.03715,0.0673326,-0.247999
2.90972,0.35057,0.0852934
3.05079,0.0676349,0.0532647
2.90103,0.349523,-0.187268
3.10962,-0.0830565,-0.181161
2.99136,0.21285,0.17465
3.05671,0.0677663,0.124564
2.96927,0.211278,-0.138663
2.9125,0.350905,-0.119517
2.98365,0.212301,-0.0696033
2.91159,0.34152,-0.0511705
3.1184,-0.093095,-0.0363202
2.94568,0.200301,-0.459338
3.0474,0.0579826,-0.0177147
2.96,0.201275,-0.319578
2.98829,0.203199,0.0696964
2.96589,0.201676,-0.207874
3.05898,0.058203,0.0534044
2.90607,0.340873,-0.187524
3.11334,-0.0929438,-0.181394
2.99998,0.203994,0.175115
2.9739,0.20222,-0.138849
3.05126,0.0580561,-0.159939
2.92153,0.342686,-0.119842
2.92077,0.331747,-0.0513101
2.98184,0.191781,0
3.05559,0.0469336,-0.0177612
2.96072,0.190423,-0.319578
2.99699,0.192756,0.0698825
2.97059,0.191058,-0.208153
3.04551,0.0467787,-0.24865
3.05917,0.0469886,0.0534044
2.91524,0.331118,-0.188035
3.00071,0.192995,0.175115
3.0651,0.0470796,0.12489
2.9826,0.19183,-0.139221
3.05944,0.0469927,-0.160357
2.9188,0.331522,-0.119679
2.9339,0.32235,-0.0515195
3.06374,0.0358282,-0.0178077
2.96934,0.180052,-0.320434
3.00167,0.182013,0.0699755
2.97526,0.180411,-0.208432
3.04566,0.0356168,-0.24865
2.92515,0.32139,0.0856425
3.06332,0.0358233,0.0534742
2.91643,0.320431,-0.188035
3.00538,0.182237,0.175347
3.06525,0.0358458,0.12489
2.98727,0.181139,-0.139407
2.92794,0.321696,-0.120005
2.93489,0.313132,-0.0515195
2.99106,0.17194,0
3.05984,0.0261694,-0.0177845
2.96989,0.170723,-0.320434
3.00622,0.172812,0.0700686
2.98378,0.171522,-0.20899
3.05373,0.0261171,-0.249301
2.93012,0.312623,0.0857589
3.07142,0.0262684,0.0536138
2.92139,0.311692,-0.188291
3.00594,0.172795,0.175347
2.97984,0.171296,-0.139035
3.06768,0.0262364,-0.160776
2.93291,0.31292,-0.120168
2.99824,0.172353,-0.0698825
2.93204,0.301964,-0.0514497
2.99567,0.161192,0
3.07191,0.0150137,-0.0178542
2.99885,0.161363,0.0698825
2.98438,0.160585,-0.20899
3.05779,0.0149447,-0.249626
2.9392,0.302701,0.0859916
3.07949,0.0150507,0.0537534
2.93046,0.301801,-0.188803
3.01054,0.161992,0.17558
3.07175,0.0150129,-0.160985
2.93801,0.302579,-0.120331
3.00684,0.161793,-0.0700686
2.94104,0.292518,-0.0515893
2.93348,0.291766,0.0171335
3.08395,0.00430654,-0.0179239
3.01138,0.151496,0.0701616
3.06979,0.00428677,-0.250603
2.94024,0.292439,0.0859916
3.07553,0.00429479,0.0536836
2.93149,0.291569,-0.188803
3.02305,0.152084,0.176278
2.99696,0.150771,-0.139779
3.07578,0.00429513,-0.161195
2.93905,0.29232,-0.120331
3.01138,0.151496,-0.0701616
2.94199,0.282765,-0.0515893
2.93841,0.28242,0.0171568
3.09194,-0.00593496,-0.0179704
2.99535,0.140734,-0.323005
3.01985,0.141885,0.0703477
3.07377,-0.00590007,-0.250928
3.07953,-0.00591112,0.0537534
2.93244,0.281847,-0.188803
3.02354,0.142059,0.176278
3.00143,0.14102,-0.139966
3.07577,-0.00590392,-0.161195
2.94398,0.282956,-0.120494
3.01586,0.141698,-0.0702547
2.95491,0.273599,-0.0517987
3.00916,0.130857,0
3.0839,-0.0166853,-0.0179239
2.99582,0.130277,-0.323005
3.01633,0.131169,0.0702547
2.99784,0.130365,-0.209827
3.0817,-0.0166734,-0.251579
2.95013,0.273156,0.0862243
3.08748,-0.0167047,0.053893
2.93738,0.271976,-0.189058
3.028,0.131676,0.17651
3.0059,0.130715,-0.140152
3.08772,-0.016706,-0.161823
2.94893,0.273045,-0.120656
2.95191,0.262412,-0.0517289
3.01761,0.120144,0
2.94832,0.262093,0.0172033
3.09182,-0.0280617,-0.0179704
2.99628,0.119295,-0.323005
3.02478,0.12043,0.0704408
3.00627,0.119693,-0.210386
2.95509,0.262695,0.0863407
2.94631,0.261914,-0.18957
3.03246,0.120735,0.176743
3.01035,0.119855,-0.140338
3.02478,0.12043,-0.0704408
2.95679,0.252448,-0.0517987
3.0917,-0.0388519,-0.0179704
3.00463,0.109126,-0.323862
3.02519,0.109873,0.0704408
3.01066,0.109345,-0.210665
2.95997,0.25272,0.0864571
2.95119,0.25197,-0.189826
3.03685,0.110296,0.176975
3.01474,0.109493,-0.140524
3.02918,0.110018,-0.0705338
2.96558,0.243295,-0.0519384
3.10356,-0.0492955,-0.0180402
3.00895,0.0992921,-0.32429
3.02953,0.0999714,0.0705338
3.01898,0.0996232,-0.211223
2.96478,0.243229,0.0865734
2.96394,0.24316,-0.190593
3.0372,0.100224,0.176975
3.01908,0.0996265,-0.14071
