2.93389,0.764224,-0.0352958
2.9495,0.735393,-0.0353889
2.95205,0.725092,-0.0353889
2.95067,0.713844,-0.0353423
2.96482,0.70632,-0.035482
2.94147,0.700758,0.0352026
2.96337,0.695053,-0.0354355
2.96634,0.695748,-0.17744
2.96968,0.685605,-0.035482
2.97653,0.687187,-0.177905
2.96425,0.673462,0.0353889
2.97891,0.676792,-0.177905
2.9822,0.666601,-0.0355752
2.97439,0.664856,0.035482
2.98515,0.667261,-0.178138
2.97647,0.655508,-0.035482
2.97256,0.654648,0.0354355
2.99113,0.658738,-0.178371
2.98276,0.645441,-0.0355286
2.97494,0.643749,0.0354355
2.98962,0.646926,-0.178138
2.98488,0.635545,-0.0355286
2.99956,0.638671,-0.178603
2.99491,0.626761,-0.0356217
2.98708,0.625123,0.0355286
3.00177,0.628198,-0.178603
2.98533,0.613887,-0.035482
2.99316,0.615498,0.0355752
3.00786,0.618521,-0.178836
3.00314,0.60663,-0.0356683
2.99529,0.605046,0.0355752
3.01,0.608017,-0.178836
3.00131,0.595365,-0.0356217
3.00131,0.595365,0.0356217
3.00819,0.59673,-0.178603
3.0073,0.585649,-0.0356683
2.94418,0.724249,-0.0176217
3.0073,0.585649,0.0356683
3.01417,0.586988,-0.178836
3.00932,0.575149,-0.0356683
2.95835,0.716794,-0.0176915
3.03171,0.579427,-0.288127
3.00147,0.573647,0.0355752
3.0162,0.576464,-0.178836
2.96211,0.717705,-0.159729
3.01131,0.56464,-0.0356683
3.03371,0.56884,-0.288127
3.01131,0.56464,0.0356683
3.02997,0.568139,-0.179533
2.9646,0.70736,-0.159729
3.01327,0.554124,-0.0356683
2.96718,0.697037,-0.0177147
3.0396,0.558966,-0.288498
3.0172,0.554848,0.0357148
3.03194,0.557558,-0.179533
2.97094,0.69792,-0.159939
2.96047,0.685112,-0.0884352
3.01509,0.544129,-0.0356683
2.96168,0.68539,-0.0176682
3.04927,0.550299,-0.289242
3.01902,0.54484,0.0357148
3.02984,0.546792,-0.179301
2.97323,0.688065,-0.159939
3.02878,0.535692,-0.035808
2.96795,0.675937,-0.0176915
3.05117,0.539652,-0.289242
3.01697,0.533602,0.0356683
2.97562,0.677683,-0.159939
3.02275,0.52375,-0.0357148
2.9781,0.667321,-0.017738
3.05304,0.528997,-0.289242
3.02275,0.52375,0.0357148
3.04539,0.527671,-0.179998
2.97797,0.667291,-0.159939
3.06665,0.520338,-0.290357
3.02456,0.513197,0.0357148
2.99783,0.660763,-0.250603
3.04721,0.51704,-0.179998
2.98808,0.658614,-0.160357
3.03423,0.503946,-0.035808
3.06844,0.509629,-0.290357
3.03423,0.503946,0.035808
2.97837,0.64558,0.0531949
3.05294,0.507053,-0.180231
2.99036,0.648178,-0.160357
3.03597,0.493351,-0.035808
2.99275,0.637766,-0.0177845
3.0702,0.498914,-0.290357
3.03992,0.493993,0.0358545
2.98452,0.636013,0.0532647
3.05469,0.496393,-0.180231
3.00042,0.6394,-0.160776
3.04162,0.483379,-0.0358545
2.99104,0.626496,-0.0177612
3.07193,0.488195,-0.290357
3.04557,0.484007,0.0359011
3.02019,0.632603,-0.251904
2.98281,0.624772,0.0531949
3.0564,0.485728,-0.180231
2.99872,0.628105,-0.160567
2.94451,0.768634,-0.070813
3.04724,0.473372,-0.0359011
2.99713,0.616857,-0.0177845
3.07755,0.47808,-0.290729
3.04724,0.473372,0.0359011
3.01457,0.620448,-0.251254
2.9928,0.615968,0.0533346
3.05808,0.475055,-0.180231
2.94478,0.757734,-0.141641
3.0009,0.617633,-0.160567
2.94717,0.75835,-0.070813
3.04888,0.462733,-0.0359011
2.99926,0.606392,-0.0177845
3.08314,0.467932,-0.291101
3.04888,0.462733,0.0359011
3.02063,0.610712,-0.251579
2.99494,0.605518,0.0533346
3.07156,0.466176,-0.180929
3.00303,0.607155,-0.160567
2.9498,0.748059,-0.070813
3.05443,0.452673,-0.0359477
3.00528,0.596697,-0.0178077
3.08869,0.45775,-0.291473
3.05443,0.452673,0.0359477
3.02665,0.60094,-0.251904
2.99311,0.59428,0.0532647
3.07712,0.456036,-0.181161
2.95,0.737157,-0.141641
3.00905,0.597445,-0.160776
2.9524,0.737757,-0.070813
3.05995,0.442581,-0.0359942
3.00735,0.586204,-0.0178077
3.09815,0.448107,-0.292216
3.05995,0.442581,0.0359942
3.03656,0.591898,-0.252555
3.07869,0.445292,-0.181161
2.95643,0.727811,-0.141827
3.01504,0.587703,-0.160985
2.95495,0.727447,-0.070813
3.06148,0.431898,-0.0359942
3.01331,0.576455,-0.017831
3.09181,0.436178,-0.291473
3.05752,0.431339,0.0359477
3.04252,0.582044,-0.252881
3.00897,0.575625,0.0534742
3.08023,0.434544,-0.181161
2.95507,0.716546,-0.141641
3.02884,0.579427,-0.161613
2.96136,0.718071,-0.0709061
3.06685,0.422288,-0.0360408
3.0152,0.566458,-0.017831
3.10113,0.427008,-0.292216
3.05893,0.421197,0.0359477
3.04444,0.571951,-0.252881
3.00693,0.564905,0.0534044
3.08956,0.425415,-0.181626
2.95743,0.706742,-0.141641
3.0229,0.567904,-0.161195
2.96761,0.709175,-0.0709991
3.06831,0.411579,-0.0360408
3.02109,0.556654,-0.0178542
3.10655,0.416709,-0.292588
3.06831,0.411579,0.0360408
3.04641,0.56132,-0.252881
3.01282,0.555129,0.0534742
3.09895,0.415689,-0.182091
2.97155,0.699158,-0.142199
3.02879,0.558072,-0.161404
2.96618,0.697895,-0.0709061
3.08162,0.402422,-0.0361805
3.02302,0.546107,-0.0178542
3.11193,0.406381,-0.29296
3.07369,0.401387,0.0360874
3.04835,0.550684,-0.252881
3.01867,0.545322,0.053544
3.10434,0.405389,-0.182324
2.97397,0.688784,-0.142199
3.03465,0.548208,-0.161613
2.97249,0.688442,-0.0709991
3.08301,0.391662,-0.0361805
3.02884,0.536248,-0.0178774
3.11728,0.396016,-0.293332
3.07111,0.39015,0.0360408
3.05418,0.540734,-0.253206
3.02056,0.534781,0.053544
3.10177,0.394046,-0.182091
2.98025,0.679285,-0.142385
3.03654,0.537611,-0.161613
2.97488,0.678061,-0.0709991
2.96242,0.664352,0
3.08833,0.381389,-0.0362271
3.03464,0.526356,-0.0179007
3.11865,0.385133,-0.293332
3.07245,0.379428,0.0360408
3.06391,0.531433,-0.253857
3.02241,0.524235,0.053544
3.11106,0.384196,-0.182557
3.02036,0.52388,0.12489
2.97871,0.668005,-0.142199
3.04234,0.527692,-0.161823
2.97723,0.667673,-0.0709991
3.08567,0.370129,-0.0361805
3.0404,0.516429,-0.0179239
3.11997,0.374244,-0.293332
2.99647,0.661009,-0.214571
3.06575,0.520734,-0.253857
3.11634,0.373808,-0.182789
2.98882,0.659324,-0.142571
3.04022,0.516399,-0.161613
2.98735,0.658998,-0.0711852
2.9709,0.644501,0
3.03824,0.505156,-0.0179007
3.12522,0.363811,-0.293703
2.97009,0.644327,0.0707199
3.08297,0.358893,0.0361339
2.99485,0.649699,-0.214292
3.05968,0.508721,-0.253206
3.03388,0.504432,0.0536836
3.1216,0.363389,-0.183022
2.99892,0.65058,-0.142944
3.04989,0.507093,-0.162032
2.92957,0.787168,-0.123587
2.98963,0.648566,-0.0711852
2.97313,0.634128,0
3.04393,0.495191,-0.0179239
3.13043,0.353347,-0.294075
2.97623,0.63479,0.070813
3.08818,0.348578,0.0361805
3.00101,0.640074,-0.214571
3.06537,0.498678,-0.253532
3.03957,0.494481,0.0537534
3.12681,0.352939,-0.183254
3.00508,0.640942,-0.14313
3.05953,0.497727,-0.162451
3.00241,0.488436,0.248324
2.98315,0.625388,0
3.10528,0.339536,-0.0363667
3.08402,0.490668,-0.397492
3.04959,0.485191,-0.0179472
3.1356,0.342851,-0.294447
2.98234,0.625218,0.0709061
3.09335,0.338232,0.0362271
3.01494,0.632051,-0.215408
3.07497,0.489229,-0.254183
3.04128,0.483869,0.0537534
3.12406,0.341589,-0.183022
3.03922,0.483542,0.125378
3.0073,0.630449,-0.14313
3.06519,0.487673,-0.16266
3.01197,0.479206,0.248975
2.998,0.6285,-0.0712783
2.98532,0.614971,0
3.11042,0.329116,-0.0364133
3.08571,0.479901,-0.397492
3.04731,0.473929,-0.0179239
3.13678,0.331904,-0.294447
2.98059,0.613998,0.070813
3.10247,0.328274,0.0363202
3.02103,0.622329,-0.215687
3.08454,0.479718,-0.254834
3.04295,0.473251,0.0537534
3.13714,0.331943,-0.183719
3.00556,0.619142,-0.142944
3.07477,0.478199,-0.163079
3.01363,0.46869,0.248975
3.00018,0.618032,-0.0712783
2.98745,0.604546,0
3.10758,0.317849,-0.0363667
3.09129,0.469722,-0.397997
3.05686,0.46449,-0.0179704
3.13792,0.320952,-0.294447
2.99056,0.605176,0.0709991
3.01146,0.609405,-0.21485
3.05249,0.463827,0.053893
3.13828,0.320989,-0.183719
3.04252,0.462312,0.125378
3.01162,0.609439,-0.14313
3.06852,0.466262,-0.16266
3.00231,0.607555,-0.0712783
2.94098,0.735449,-0.0529157
2.98954,0.594113,0
3.11265,0.307392,-0.0364133
3.09291,0.458928,-0.397997
3.05846,0.453816,-0.0179704
3.14298,0.310387,-0.294819
2.98873,0.593953,0.0709061
3.01748,0.599666,-0.215129
3.04412,0.451688,0.125378
3.02157,0.600479,-0.143502
3.07013,0.455547,-0.16266
3.01226,0.598629,-0.0714644
2.9434,0.725691,-0.0529157
2.99542,0.584962,0
3.10227,0.449806,-0.399008
3.06391,0.444245,-0.0179937
3.14399,0.299962,-0.294819
2.99461,0.584804,0.0709991
3.10967,0.296687,0.0363667
3.02728,0.591185,-0.215687
3.08931,0.447928,-0.254834
3.05558,0.443037,0.053893
3.05351,0.442737,0.125704
3.08743,0.447656,-0.163498
3.02618,0.438775,0.249626
3.01031,0.58787,-0.0713713
2.99744,0.574505,0
3.11865,0.286565,-0.0364599
3.09989,0.438421,-0.398503
3.06544,0.433549,-0.0179937
3.15295,0.289717,-0.295562
3.00056,0.575102,0.0710922
3.11068,0.285833,0.0363667
3.02933,0.580617,-0.215687
3.1027,0.438818,-0.25581
3.05711,0.43237,0.053893
3.14937,0.289388,-0.184184
3.05899,0.432637,0.125867
3.02559,0.5799,-0.143502
3.0277,0.428211,0.249626
3.01234,0.57736,-0.0713713
3.13955,0.277436,-0.0366927
3.10926,0.428681,-0.399513
3.07486,0.423938,-0.0180402
3.15394,0.278708,-0.295562
3.11963,0.275676,0.0364599
3.02742,0.569301,-0.215408
3.10421,0.427984,-0.25581
3.07048,0.423334,0.0541025
3.15434,0.278744,-0.184417
3.05653,0.42141,0.125704
3.02367,0.568596,-0.143316
3.09048,0.426092,-0.163498
3.03312,0.418183,0.249952
3.01827,0.56758,-0.0714644
3.00531,0.55429,0
3.13253,0.2658,-0.0365996
3.11074,0.417826,-0.399513
2.95513,0.695842,0.017645
3.07632,0.413203,-0.0180402
3.0045,0.55414,0.0710922
3.03331,0.559454,-0.215687
3.10964,0.417678,-0.256135
3.07194,0.412614,0.0541025
3.16325,0.268407,-0.184882
3.00023,0.553353,0.177673
3.0659,0.411803,0.12603
3.03349,0.559488,-0.143688
3.09195,0.415302,-0.163498
3.03852,0.408125,0.250277
3.02416,0.557767,-0.0715574
3.01116,0.544507,0
3.13743,0.255187,-0.0366461
3.11612,0.407478,-0.400018
2.96533,0.687328,0.0176915
3.08171,0.40298,-0.0180634
3.16772,0.257651,-0.296678
3.00641,0.543648,0.0710922
3.03132,0.548151,-0.215408
3.11108,0.406819,-0.256135
3.07336,0.401888,0.0541025
2.97487,0.689537,-0.19571
3.16417,0.257363,-0.184882
3.00214,0.542876,0.177673
3.10131,0.405542,-0.163916
3.03992,0.397515,0.250277
3.03003,0.547918,-0.0716505
3.01699,0.53469,0
2.95992,0.675193,0.017645
3.0831,0.392219,-0.0180634
3.06229,0.542719,-0.335
3.1686,0.246592,-0.296678
3.01617,0.534546,0.0712783
3.13032,0.243613,0.036553
3.045,0.539655,-0.216245
3.11643,0.39646,-0.256461
3.07871,0.391661,0.0541723
3.17301,0.246935,-0.185347
3.07663,0.391396,0.126355
3.04519,0.539689,-0.14406
3.1027,0.394713,-0.163916
3.03192,0.537337,-0.0716505
3.02277,0.524841,0
3.1511,0.234167,-0.0367858
2.95835,0.663981,0.0176217
3.08445,0.381455,-0.0180634
3.06025,0.531347,-0.334571
3.18136,0.236416,-0.297793
3.0259,0.525383,0.0714644
3.13514,0.232981,0.0365996
3.04686,0.529023,-0.216245
3.1178,0.385579,-0.256461
2.95715,0.663711,0.0882025
3.08006,0.380913,0.0541723
3.16987,0.235562,-0.185115
3.00192,0.521221,0.17744
3.07401,0.380165,0.126193
3.04706,0.529057,-0.14406
3.11199,0.384861,-0.164335
3.03772,0.527435,-0.0717435
3.02853,0.514957,0
3.1519,0.223167,-0.0367858
3.12809,0.375772,-0.401028
2.97237,0.656238,0.0176915
3.08973,0.371164,-0.0180867
3.066,0.521329,-0.335
3.18216,0.22531,-0.297793
3.03165,0.515488,0.0715574
3.14392,0.222602,0.0366927
3.05262,0.519054,-0.216524
3.12704,0.375646,-0.257112
3.08534,0.370637,0.0542421
2.98582,0.659208,-0.195966
3.17466,0.224779,-0.185347
3.00766,0.511409,0.177673
3.07929,0.369909,0.126355
3.04889,0.518418,-0.14406
3.11331,0.373997,-0.164335
3.04348,0.517499,-0.0718366
3.02636,0.503726,0
3.16463,0.21297,-0.0369255
3.14121,0.36623,-0.402543
2.97464,0.645859,0.0176915
3.09498,0.36084,-0.0181099
3.07565,0.51193,-0.335856
3.18293,0.214201,-0.297793
3.02555,0.50359,0.0713713
3.05048,0.507741,-0.216245
3.12833,0.364729,-0.257112
3.09456,0.360792,0.0543817
2.98811,0.648783,-0.195966
3.17941,0.213964,-0.18558
3.00943,0.500908,0.177673
3.08453,0.359622,0.126518
3.11063,0.362665,-0.164126
3.05705,0.356418,0.251254
3.04527,0.506873,-0.0718366
3.09894,0.350341,-0.0907625
3.03205,0.493802,0
3.15737,0.201412,-0.0368324
3.14247,0.355262,-0.402543
2.97688,0.635471,0.0176915
3.09622,0.350034,-0.0181099
3.07742,0.50119,-0.335856
3.19161,0.203596,-0.298536
3.03123,0.493668,0.0714644
3.14539,0.200648,0.0366927
3.06011,0.498371,-0.216803
3.12959,0.353806,-0.257112
2.96785,0.633543,0.0883189
3.09978,0.350436,0.0544515
3.00206,0.640848,-0.196733
3.02298,0.492324,0.178371
3.08577,0.348852,0.126518
3.06426,0.499047,-0.144619
3.12379,0.35315,-0.164754
3.05097,0.496882,-0.0719296
3.03376,0.483214,0
3.13974,0.343857,-0.402038
2.98299,0.625896,0.0177147
3.09743,0.339223,-0.0181099
3.07915,0.490444,-0.335856
3.20025,0.192932,-0.29928
3.04084,0.484341,0.0716505
3.15406,0.190148,0.0367858
3.06577,0.488313,-0.217082
3.13873,0.343746,-0.257763
2.97395,0.624,0.0884352
3.09701,0.339177,0.0543817
2.99647,0.628724,-0.196222
3.19278,0.192482,-0.186277
3.0168,0.480512,0.177905
3.09094,0.338513,0.126681
3.06599,0.488347,-0.144619
3.125,0.342243,-0.164754
3.05268,0.486228,-0.0719296
3.04728,0.474468,0
3.17467,0.180271,-0.0370186
2.98908,0.616288,0.017738
3.10257,0.328831,-0.0181332
3.07691,0.479081,-0.335428
3.20488,0.181987,-0.299652
3.1547,0.179137,0.0367858
3.0714,0.478224,-0.217361
3.14387,0.333209,-0.258088
2.97611,0.613616,0.0884352
3.10215,0.328787,0.0544515
3.00646,0.619874,-0.196733
3.19344,0.181337,-0.186277
3.09608,0.328143,0.126844
3.13412,0.332175,-0.165172
3.07251,0.325646,0.25223
3.05041,0.474955,-0.0718366
3.04892,0.463827,0
3.18327,0.169613,-0.0371118
3.15786,0.323547,-0.404058
2.99513,0.606644,0.0177612
3.10768,0.318406,-0.0181564
3.0825,0.468935,-0.335856
3.2055,0.170798,-0.299652
3.04414,0.4631,0.0716505
3.1593,0.168336,0.0368324
3.077,0.468099,-0.21764
3.14898,0.322638,-0.258414
2.97824,0.603223,0.0884352
3.10726,0.318363,0.0545213
3.0047,0.608582,-0.196478
3.02403,0.46004,0.178138
3.09323,0.316925,0.126681
3.07327,0.467532,-0.144805
3.13526,0.321232,-0.165172
3.07363,0.314918,0.25223
2.99662,0.606945,-0.124564
3.05996,0.465506,-0.0720227
3.04657,0.452596,0
3.18384,0.158503,-0.0371118
3.16291,0.312915,-0.404563
2.98938,0.594627,0.0177147
3.12071,0.30874,-0.0182262
3.09198,0.459344,-0.336713
3.21005,0.159807,-0.300023
3.04574,0.452474,0.0716505
3.16387,0.157508,0.036879
3.07072,0.456185,-0.217082
2.98425,0.593605,0.0885516
3.12029,0.308698,0.0547307
3.01855,0.600428,-0.197245
3.20659,0.159635,-0.186975
3.03351,0.450657,0.178603
3.09829,0.306522,0.126844
3.07884,0.45739,-0.144991
3.14431,0.311075,-0.165591
3.07868,0.304581,0.252555
3.06552,0.455412,-0.0721157
3.05193,0.443596,0
3.18432,0.148497,-0.0371118
3.17178,0.303731,-0.405574
2.99909,0.586766,0.0177612
3.11769,0.298551,-0.0182029
3.09735,0.450197,-0.337142
3.21452,0.149905,-0.300395
3.05902,0.444626,0.0719296
3.16834,0.147752,0.0369255
3.08004,0.447681,-0.21764
2.9861,0.584225,0.0885516
3.11328,0.298129,0.0545911
3.01259,0.589407,-0.196733
3.03491,0.441122,0.178603
3.10322,0.297165,0.127007
3.08421,0.448288,-0.145177
3.1413,0.300812,-0.165382
3.07485,0.446927,-0.0723018
3.05742,0.433504,0
3.18482,0.137383,-0.0371118
3.16492,0.291931,-0.404563
2.99719,0.575542,0.017738
3.12269,0.288036,-0.0182262
3.09496,0.438827,-0.336713
3.21502,0.138686,-0.300395
3.05659,0.433386,0.0718366
3.17283,0.136866,0.0369721
3.08948,0.438049,-0.218198
3.16003,0.29148,-0.259064
2.99204,0.574554,0.0886679
3.11829,0.287629,0.0546609
3.04039,0.431089,0.178836
3.10822,0.2867,0.12717
3.08971,0.438082,-0.145363
3.07243,0.435632,-0.0722088
3.06295,0.422841,0
3.19729,0.126182,-0.0372515
3.16992,0.280678,-0.405068
3.00321,0.565292,0.0177612
3.12373,0.276588,-0.0182262
3.09655,0.427479,-0.336713
3.22745,0.127371,-0.301511
3.06212,0.422726,0.0719296
3.17731,0.125393,0.0370186
3.09107,0.426722,-0.218198
2.9902,0.562843,0.0885516
3.1233,0.27655,0.0547307
3.02457,0.569313,-0.197245
3.04986,0.421033,0.179301
3.11323,0.275658,0.127332
3.15531,0.279384,-0.16601
3.07797,0.424914,-0.0723018
3.06441,0.412147,0
3.20171,0.115165,-0.037298
3.18274,0.27062,-0.406584
3.00516,0.554806,0.0177612
3.12866,0.266022,-0.0182494
3.10591,0.417729,-0.33757
3.21991,0.115819,-0.300767
3.06358,0.412036,0.0719296
3.18572,0.114589,0.0371118
3.09649,0.416462,-0.218477
2.99608,0.553128,0.0886679
3.13222,0.266324,0.0548704
3.03439,0.560201,-0.197757
3.22445,0.115982,-0.187905
3.04339,0.409321,0.178836
3.11019,0.264451,0.12717
3.09673,0.416494,-0.145549
3.0834,0.414701,-0.0723949
3.20172,0.261542,-0.64248
3.20607,0.104676,-0.0373446
3.01486,0.546263,0.0178077
3.13351,0.25597,-0.0182727
3.10727,0.407426,-0.33757
3.22824,0.1054,-0.301511
3.06096,0.401353,0.0718366
3.0939,0.405672,-0.218198
3.17483,0.259345,-0.260041
3.00183,0.543902,0.0887843
3.13707,0.256261,0.0549402
3.0323,0.549424,-0.197501
3.05265,0.400264,0.179301
3.11503,0.254461,0.127332
3.10206,0.406741,-0.145735
3.1651,0.258551,-0.166428
3.09933,0.253178,0.253857
3.08872,0.404993,-0.072488
3.21439,0.250721,-0.644834
3.07515,0.391755,0
3.20244,0.0928096,-0.037298
3.19247,0.249011,-0.407594
3.01684,0.53521,0.0178077
3.13841,0.244795,-0.0182959
3.11269,0.396538,-0.337998
3.23656,0.0937986,-0.302254
3.07828,0.392154,0.0722088
3.19444,0.0925779,0.0372049
3.10724,0.395843,-0.219035
3.17973,0.248018,-0.260366
3.0038,0.532897,0.0887843
3.14198,0.245073,0.05501
3.04216,0.539701,-0.198013
3.23715,0.0938157,-0.188603
3.06202,0.390083,0.179766
3.1279,0.243975,0.127821
3.17001,0.247259,-0.166638
3.02222,0.525289,-0.053544
3.21915,0.23979,-0.645618
3.08047,0.381509,0
3.21074,0.0818334,-0.0373912
3.19332,0.237865,-0.407594
3.01475,0.52399,0.0177845
3.14324,0.234135,-0.0183192
3.12195,0.386647,-0.338855
3.24882,0.0828039,-0.303369
3.20274,0.0816296,0.037298
3.11256,0.385484,-0.219314
3.13882,0.233806,0.0549402
3.24145,0.0826162,-0.188836
3.07129,0.380373,0.180231
3.12873,0.233054,0.127821
3.10885,0.385024,-0.145922
3.17484,0.236488,-0.166847
3.04962,0.377689,0.377308
3.09947,0.383863,-0.0726741
3.15469,0.22447,-0.0920424
3.23167,0.229947,-0.647972
3.08569,0.371769,0
3.21899,0.0713622,-0.0374843
3.19409,0.227273,-0.407594
3.02041,0.514661,0.0178077
3.14799,0.223993,-0.0183424
3.12322,0.376291,-0.338855
3.24907,0.0720291,-0.303369
3.08485,0.371668,0.0723018
3.203,0.0710076,0.037298
3.11778,0.375637,-0.219593
3.0113,0.513108,0.0889007
3.14357,0.223679,0.05501
3.04183,0.518309,-0.197757
3.24171,0.0718658,-0.188836
3.06461,0.36923,0.179766
3.13347,0.22296,0.127984
3.11408,0.37519,-0.146108
3.0548,0.368048,0.377795
3.08914,0.219806,0.564653
3.03765,0.506149,-0.0537534
3.23249,0.218102,-0.647972
3.09895,0.361849,0
3.22323,0.0596382,-0.0375309
3.1949,0.215566,-0.407594
3.15278,0.212724,-0.0183656
3.12457,0.364842,-0.338855
3.2533,0.0601945,-0.303741
3.08619,0.36036,0.0723018
3.21123,0.0594162,0.0373912
3.11518,0.363745,-0.219314
3.15634,0.212964,0.0552194
3.04764,0.507814,-0.198013
3.24195,0.0599846,-0.188836
3.06991,0.358459,0.179998
3.13826,0.211744,0.128147
3.1194,0.364238,-0.146294
3.06007,0.35731,0.378282
3.03954,0.506463,-0.125541
3.09385,0.208747,0.565371
3.09414,0.361288,-0.072488
3.16017,0.202698,-0.0921588
3.23319,0.207382,-0.647972
3.09615,0.351121,0
3.23141,0.0490713,-0.037624
3.20352,0.205478,-0.408604
3.03183,0.494852,0.0178542
3.16145,0.20278,-0.0184121
3.12577,0.354479,-0.338855
3.25746,0.049467,-0.304113
3.09134,0.350575,0.0723949
3.21541,0.0488284,0.0374377
3.12033,0.353863,-0.219593
3.01876,0.492718,0.089017
3.05719,0.498991,-0.198524
3.24612,0.0492948,-0.189068
3.07901,0.349177,0.180464
3.14293,0.201592,0.128309
3.12059,0.353892,-0.146294
3.18906,0.204551,-0.167475
3.05335,0.346267,0.377308
3.04909,0.497669,-0.125867
3.10238,0.198991,0.566806
3.10326,0.351927,-0.0726741
3.24173,0.196569,-0.649541
3.09736,0.34031,0
3.22356,0.0376969,-0.0375309
3.20818,0.194534,-0.409109
3.03354,0.484265,0.0178542
3.17012,0.192227,-0.0184586
3.13094,0.343999,-0.339283
3.26956,0.0382349,-0.305228
3.10447,0.341092,0.0726741
3.21956,0.0376502,0.0374843
3.12155,0.342968,-0.219593
3.02441,0.482808,0.0891334
3.16171,0.191717,0.0552892
3.06286,0.488945,-0.19878
3.25426,0.038056,-0.189533
3.08418,0.338862,0.180696
3.1476,0.190861,0.128472
3.06243,0.336473,0.378282
3.09912,0.187922,0.566088
3.11242,0.341965,-0.0728602
3.0427,0.474843,-0.0537534
3.17348,0.181315,-0.0925079
3.2424,0.185253,-0.649541
3.10649,0.330343,0
3.23567,0.0265435,-0.0376705
3.20883,0.183335,-0.409109
3.03521,0.473674,0.0178542
3.16678,0.180932,-0.0184354
3.27366,0.0268551,-0.3056
3.10564,0.330254,0.0726741
3.22367,0.026445,0.0375309
3.13066,0.332914,-0.220151
3.2041,0.183064,-0.261994
3.16236,0.18068,0.0552892
3.08932,0.328517,0.180929
3.15224,0.180102,0.128635
3.13093,0.332943,-0.146666
3.05249,0.47637,-0.125867
3.10762,0.177552,0.567523
3.12155,0.331945,-0.0730463
3.17412,0.169683,-0.0925079
3.25089,0.173787,-0.651109
3.11165,0.319364,0
3.24375,0.014721,-0.0377637
3.21345,0.171785,-0.409614
3.17142,0.169539,-0.0184586
3.2817,0.0148932,-0.306344
3.10286,0.318461,0.072581
3.23575,0.0146847,0.0376705
3.13186,0.321438,-0.220151
3.21271,0.171746,-0.262645
3.03569,0.462359,0.0893661
3.17099,0.169516,0.0554288
3.07022,0.467618,-0.199036
3.25845,0.0147877,-0.189766
3.08653,0.316785,0.180696
3.15687,0.168761,0.128798
3.13611,0.321874,-0.146852
3.19904,0.171015,-0.167894
3.07661,0.315767,0.379745
3.05817,0.465782,-0.12603
3.10039,0.165741,0.566088
3.11479,0.319686,-0.0728602
3.17863,0.159911,-0.0926243
3.25533,0.163769,-0.651894
3.11662,0.309982,0
3.24378,0.00452948,-0.0377637
3.2219,0.162087,-0.410624
3.17593,0.159775,-0.0184819
3.28173,0.00458247,-0.306344
3.1118,0.309502,0.0727671
3.23178,0.00451272,0.037624
3.14477,0.312781,-0.220989
3.07957,0.459147,-0.199548
3.26646,0.00456116,-0.190231
3.09546,0.307877,0.181161
3.15738,0.158842,0.128798
3.1371,0.312019,-0.146852
3.07364,0.305707,0.379257
3.06357,0.45676,-0.126193
3.10482,0.156197,0.566806
3.11976,0.310294,-0.0729532
3.05946,0.444145,-0.0539628
3.25986,0.15145,-0.652678
3.11381,0.297631,0
3.25177,-0.00794611,-0.0378568
3.22646,0.149898,-0.411129
3.048,0.442481,0.0179007
3.18052,0.147764,-0.0185051
3.28571,-0.00802904,-0.306715
3.11297,0.297551,0.0727671
3.24377,-0.00792656,0.0377637
3.138,0.299944,-0.22043
3.2218,0.149681,-0.263295
3.18009,0.147744,0.0555685
3.08131,0.447318,-0.199548
3.27444,-0.00800151,-0.190696
3.09662,0.295988,0.181161
3.16196,0.146902,0.128961
3.13828,0.29997,-0.146852
3.20813,0.149047,-0.168312
3.07479,0.293902,0.379257
3.0653,0.444993,-0.126193
3.12112,0.145004,0.569676
3.12889,0.299073,-0.0731393
3.06099,0.433464,-0.0539628
3.27212,0.140575,-0.655032
3.12279,0.287494,0
3.25572,-0.0193199,-0.0379034
3.23489,0.138976,-0.41214
3.189,0.137005,-0.0185516
3.29362,-0.0195448,-0.307459
3.12593,0.287783,0.0730463
3.24372,-0.0192487,0.0377637
3.14698,0.28972,-0.220989
3.2223,0.138435,-0.263295
3.18857,0.136986,0.0557081
3.08286,0.43656,-0.199548
3.11354,0.286642,0.182091
3.17044,0.136207,0.129286
3.13931,0.289014,-0.146852
3.21262,0.138019,-0.168522
3.0758,0.283168,0.379257
3.12554,0.134278,0.570393
3.0663,0.424394,-0.0540326
3.26471,0.129984,-0.653463
3.13165,0.278391,0
3.25964,-0.0295836,-0.0379499
3.23531,0.128813,-0.41214
3.19342,0.127145,-0.0185749
3.30151,-0.0299636,-0.308203
3.25165,-0.029511,0.0378568
3.14787,0.279833,-0.220989
3.23068,0.128629,-0.263946
3.09212,0.427968,-0.200059
3.1184,0.277213,0.182324
3.17485,0.126406,0.129449
3.14418,0.279505,-0.147038
3.21703,0.128085,-0.168731
3.08853,0.274558,0.38072
3.07214,0.425203,-0.126355
3.12988,0.124616,0.57111
3.20053,0.11624,-0.0932061
3.2769,0.119013,-0.655816
3.13659,0.267798,0
3.26352,-0.0410128,-0.0379965
3.23574,0.117518,-0.41214
3.06025,0.412674,0.0179472
3.19384,0.115996,-0.0185749
3.30537,-0.0415387,-0.308574
3.25152,-0.040862,0.0378568
3.15678,0.269521,-0.221547
3.2351,0.117495,-0.264272
3.19341,0.115981,0.0557779
3.0936,0.417171,-0.200059
3.29017,-0.0413477,-0.191626
3.11537,0.265986,0.182091
3.18326,0.115612,0.129775
3.15708,0.269547,-0.147597
3.22544,0.117144,-0.16915
3.08153,0.415544,-0.126681
3.12637,0.113546,0.570393
3.14371,0.268405,-0.0734185
3.07322,0.402961,-0.0541025
3.27731,0.107003,-0.655816
3.14154,0.256626,0
3.26735,-0.0530382,-0.0380431
3.24408,0.105918,-0.41315
3.20224,0.104551,-0.0186214
3.30918,-0.0537171,-0.308946
3.1367,0.256231,0.0732324
3.25935,-0.0529083,0.0379499
3.16172,0.258275,-0.221826
3.10302,0.406868,-0.200571
3.29798,-0.0535354,-0.192091
3.11234,0.254241,0.181859
3.17967,0.103814,0.129612
3.15805,0.257975,-0.147597
3.22585,0.105322,-0.16915
3.09438,0.252774,0.381207
3.08699,0.404767,-0.126844
3.13856,0.102472,0.572545
3.14467,0.256882,-0.0734185
3.28157,0.0962496,-0.656601
3.13838,0.245895,0
3.27915,-0.0641067,-0.0381828
3.19171,0.250073,-0.498077
3.25235,0.0953925,-0.41416
3.20657,0.0940497,-0.0186446
3.31694,-0.0648455,-0.30969
3.13753,0.245828,0.0732324
3.26316,-0.063794,0.0379965
3.16256,0.24779,-0.221826
3.24381,0.095142,-0.264923
3.10435,0.396576,-0.200571
3.30177,-0.064549,-0.192324
3.11715,0.244231,0.182091
3.18399,0.0933875,0.129775
3.1549,0.247189,-0.147411
3.22219,0.0945079,-0.16894
3.09916,0.242822,0.381695
3.10021,0.396048,-0.127332
3.13888,0.0920645,0.572545
3.15348,0.247078,-0.0736046
3.20957,0.0829249,-0.0934388
3.28189,0.0847933,-0.656601
3.13922,0.234938,0
3.27491,-0.0754614,-0.0381362
3.25266,0.0840382,-0.41416
3.21087,0.0829586,-0.0186679
3.32068,-0.076516,-0.310061
3.14236,0.235173,0.0733254
3.26291,-0.075185,0.0379965
3.16341,0.236748,-0.221826
3.24412,0.0838176,-0.264923
3.21044,0.0829473,0.0560571
3.10968,0.386229,-0.200827
3.12993,0.234242,0.182789
3.1843,0.0822718,0.129775
3.16371,0.236771,-0.147783
3.2225,0.083259,-0.16894
3.10394,0.232298,0.382182
3.09364,0.384237,-0.127007
3.14705,0.0813096,0.57398
3.08919,0.372193,-0.0543119
3.29786,0.0731125,-0.659739
3.14804,0.223999,0
3.27461,-0.0874633,-0.0381362
3.25692,0.0722047,-0.414665
3.21915,0.0713676,-0.0187144
3.15118,0.224222,0.0735115
3.27461,-0.0874633,0.0381362
3.17221,0.225719,-0.222384
3.25238,0.0721041,-0.265574
3.21072,0.0711806,0.0560571
3.10711,0.374352,-0.200571
3.13475,0.223053,0.183022
3.19656,0.0708667,0.130263
3.16854,0.225458,-0.147969
3.23077,0.0716251,-0.169359
3.10874,0.221202,0.38267
3.099,0.373375,-0.12717
3.15126,0.0698624,0.574698
3.15675,0.214099,0
3.2863,-0.0986829,-0.0382759
3.20204,0.21717,-0.499307
3.26507,0.0615527,-0.415675
3.21537,0.0606158,-0.0186911
3.1519,0.21377,0.0735115
3.2823,-0.0985628,0.0382293
3.18091,0.215737,-0.222942
3.07368,0.359987,0.0900643
3.21894,0.060683,0.0561968
3.1123,0.36451,-0.200827
3.31688,-0.0996014,-0.193254
3.20078,0.0603406,0.130426
3.17326,0.215219,-0.148155
3.23499,0.0609855,-0.169569
3.11737,0.211428,0.383645
3.10816,0.364025,-0.127495
3.14754,0.0593371,0.57398
3.17185,0.215123,-0.0739768
3.09966,0.351518,-0.0544515
3.30614,0.0502064,-0.661308
3.15751,0.202528,0
3.2979,-0.11113,-0.0384156
3.20675,0.205686,-0.499922
3.27321,0.0497064,-0.416685
3.22357,0.0489526,-0.0187376
3.33162,-0.112266,-0.311177
3.15267,0.202217,0.0735115
3.28191,-0.110592,0.0382293
3.18168,0.204078,-0.222942
3.26078,0.0495176,-0.266225
3.22314,0.048946,0.0562666
3.12155,0.354001,-0.201338
3.32049,-0.111891,-0.193487
3.14022,0.201419,0.183254
3.20098,0.0486095,0.130426
3.17403,0.203587,-0.148155
3.24318,0.0492503,-0.169987
3.11813,0.200002,0.383645
3.10947,0.352631,-0.127495
3.17661,0.203753,-0.0740698
3.10484,0.341132,-0.0545213
3.31021,0.0387105,-0.662092
3.1582,0.191504,0
3.30149,-0.122791,-0.0384621
3.21534,0.194969,-0.501152
3.27733,0.038326,-0.41719
3.22773,0.0377459,-0.0187609
3.33916,-0.124192,-0.31192
3.15734,0.191452,0.0736046
3.28551,-0.122197,0.0382759
3.23129,0.0377875,0.0564062
3.13467,0.344409,-0.202106
3.15286,0.19118,0.183952
3.21311,0.037575,0.130915
3.17871,0.192748,-0.148341
3.24333,0.0379283,-0.169987
3.11881,0.189115,0.383645
3.11863,0.342647,-0.127821
3.1059,0.331377,-0.0545213
3.30247,0.0282445,-0.660523
3.15879,0.181582,0
3.2971,-0.133001,-0.0384156
3.2814,0.0280643,-0.417695
3.23983,0.0277088,-0.0188306
3.34274,-0.134842,-0.312292
3.16592,0.181992,0.0737907
3.2891,-0.132678,0.0383224
3.18694,0.183201,-0.223221
3.26901,0.0279583,-0.266876
3.23539,0.0276708,0.056476
3.15344,0.181275,0.183952
3.21721,0.0275153,0.131077
3.17531,0.182532,-0.148155
3.24742,0.0277737,-0.170197
3.12731,0.179773,0.38462
3.11969,0.332849,-0.127821
3.18588,0.183139,-0.0742559
3.11505,0.320811,-0.0546609
3.17141,0.170649,0
3.30058,-0.145259,-0.0384621
3.28942,0.0160767,-0.418705
3.23591,0.0158152,-0.0188074
3.17055,0.170603,0.0738837
3.29259,-0.144908,0.038369
3.18759,0.171519,-0.223221
3.27307,0.0159968,-0.267201
3.23147,0.0157935,0.0564062
3.13694,0.323066,-0.202106
3.16206,0.170145,0.184417
3.22529,0.0157633,0.131403
3.18394,0.171323,-0.148527
3.25949,0.0159304,-0.170825
3.13192,0.168523,0.385107
3.12089,0.321413,-0.127821
3.11217,0.309539,-0.0545911
3.24262,0.00452813,-0.0943697
3.16799,0.159376,0
3.31603,-0.15754,-0.0386484
3.22902,0.162446,-0.502996
3.29342,0.00459907,-0.419211
3.23994,0.00452438,-0.0188306
3.17512,0.159734,0.0739768
3.30005,-0.156781,0.0384621
3.19614,0.160792,-0.223779
3.28108,0.00458183,-0.267852
3.09541,0.307872,0.0905297
3.2435,0.00452936,0.0566156
3.14202,0.312508,-0.202362
3.33857,-0.15861,-0.194649
3.15865,0.158905,0.184184
3.23331,0.00451513,0.131729
3.1925,0.160608,-0.1489
3.26751,0.00456288,-0.171243
3.13248,0.157589,0.385107
3.12995,0.311307,-0.128147
3.18711,0.160337,-0.0742559
3.1725,0.149058,0
3.31949,-0.168738,-0.038695
3.23349,0.151923,-0.503611
3.30136,-0.00633693,-0.420221
3.25594,-0.00624975,-0.0189236
3.35307,-0.170445,-0.313407
3.17564,0.149205,0.0739768
3.31549,-0.168535,0.0386484
3.20065,0.15038,-0.224058
3.10039,0.297989,0.0906461
3.2475,-0.00623355,0.0566854
3.14701,0.30247,-0.202618
3.17112,0.148993,0.184882
3.23331,-0.00620631,0.131729
3.197,0.150209,-0.149086
3.2755,-0.00628729,-0.171662
3.13299,0.147201,0.385107
3.20533,-0.0061526,0.261668
3.13892,0.301692,-0.128472
3.1262,0.288909,-0.0548006
3.23798,0.140241,-0.504226
3.30925,-0.0184821,-0.421231
3.11468,0.287844,0.0181797
3.25989,-0.0182065,-0.0189468
3.36436,-0.183385,-0.314523
3.18016,0.137737,0.0740698
3.30687,-0.180251,0.0385553
3.11341,0.287727,0.0909952
3.17564,0.137541,0.185115
3.24126,-0.0181024,0.132054
3.19354,0.138316,-0.1489
3.27146,-0.0182711,-0.171453
3.13351,0.135716,0.385107
3.14,0.290184,-0.128472
3.20013,0.138602,-0.0745351
3.13516,0.278702,-0.0549402
3.18148,0.126669,0
3.33018,-0.193184,-0.0388347
3.31313,-0.0300703,-0.421736
3.26781,-0.029659,-0.0189933
3.18861,0.126953,0.0742559
3.3142,-0.192257,0.0386484
3.20961,0.127789,-0.224616
3.2969,-0.029923,-0.269154
3.16102,0.281001,-0.203385
3.17211,0.126296,0.184882
3.24917,-0.0294898,0.13238
3.20997,0.127803,-0.149644
3.27537,-0.0297276,-0.171662
3.1419,0.125093,0.386082
3.14498,0.279575,-0.128635
3.13606,0.268304,-0.0549402
3.18588,0.116264,0
3.32952,-0.204225,-0.0388347
3.24676,0.118486,-0.505456
3.31301,-0.0410562,-0.421736
3.23115,0.117916,-0.34828
3.37098,-0.206768,-0.315266
3.18901,0.116379,0.0742559
3.31754,-0.20349,0.038695
3.21799,0.117436,-0.225174
3.1153,0.266528,0.0909952
3.25525,-0.0403405,0.056825
3.15796,0.270178,-0.203129
3.18049,0.116068,0.185347
3.24506,-0.0402141,0.132217
3.21038,0.117158,-0.149644
3.27925,-0.0406378,-0.171871
3.14626,0.114819,0.38657
3.14589,0.269145,-0.128635
3.14097,0.257683,-0.05501
3.19426,0.105407,0
3.2511,0.107283,-0.506071
3.32475,-0.0528089,-0.423251
3.27553,-0.0520271,-0.0190398
3.37819,-0.219049,-0.31601
3.1934,0.105379,0.074349
3.33277,-0.216104,0.0388812
3.23035,0.106598,-0.226011
3.12019,0.255979,0.0911116
3.16286,0.25948,-0.203385
3.18088,0.104966,0.185347
3.25289,-0.0516675,0.132543
3.21476,0.106084,-0.14983
3.29506,-0.0523373,-0.172709
3.15061,0.103967,0.387057
3.15876,0.259143,-0.129124
3.21738,0.10617,-0.0749073
3.14189,0.246169,-0.05501
3.19463,0.0936982,0
3.34792,-0.229412,-0.0390675
3.25542,0.0954813,-0.506686
3.27932,-0.0641112,-0.0190631
3.24383,0.0951414,-0.349565
3.38531,-0.231974,-0.316753
3.19776,0.0937901,0.0744421
3.33595,-0.228592,0.0389278
3.23471,0.0948738,-0.22629
3.1251,0.244853,0.0912279
3.27088,-0.0639462,0.0571043
3.17175,0.248508,-0.203897
3.19321,0.0936568,0.186045
3.25268,-0.0635905,0.132543
3.21513,0.0942996,-0.14983
3.15891,0.0926506,0.388032
3.23263,-0.0631984,0.263946
3.16367,0.247875,-0.129286
3.14672,0.235499,-0.0550798
3.35508,-0.241672,-0.0391606
3.26364,0.0843221,-0.507915
3.27907,-0.0755571,-0.0190631
3.24415,0.0838184,-0.349565
3.38845,-0.244075,-0.317125
3.20606,0.0828345,0.0746282
3.32715,-0.23966,0.0388347
3.23103,0.0834796,-0.226011
3.13391,0.23454,0.0914606
3.27063,-0.0753626,0.0571043
3.17658,0.237734,-0.204152
3.19352,0.0825105,0.186045
3.26043,-0.0751275,0.132869
3.21943,0.08318,-0.150016
3.16452,0.236831,-0.129286
3.1555,0.225082,-0.0552194
3.28545,-0.0871802,-0.0956497
3.35422,-0.253382,-0.0391606
3.26391,0.0729286,-0.507915
3.13997,0.223974,0.0182959
3.28679,-0.0872157,-0.0191096
3.25237,0.0726707,-0.350422
3.39552,-0.256503,-0.317869
3.21033,0.0717314,0.0747212
3.33826,-0.252177,0.0389743
3.24327,0.0724674,-0.226848
3.31978,-0.0880912,-0.271106
3.13869,0.223883,0.091577
3.27835,-0.0869917,0.0572439
3.18137,0.226927,-0.204408
3.19778,0.071451,0.186277
3.27213,-0.0868268,0.133357
3.23568,0.0722979,-0.150761
3.3063,-0.0877334,-0.173337
3.16345,0.0706839,0.388519
3.16533,0.225783,-0.129286
3.23032,0.072178,-0.0751865
3.15623,0.214617,-0.0552194
3.28515,-0.0980747,-0.0956497
3.36133,-0.265133,-0.0392537
3.34352,-0.0998175,-0.425776
3.29448,-0.0983533,-0.0191561
3.25657,0.0619607,-0.35085
3.39862,-0.268074,-0.318241
3.21455,0.0611612,0.0748143
3.35336,-0.264504,0.0391606
3.24349,0.0617119,-0.226848
3.13942,0.213474,0.091577
3.27804,-0.0978626,0.0572439
3.17414,0.215835,-0.203897
3.20199,0.0609224,0.18651
3.27183,-0.0976771,0.133357
3.31397,-0.0989354,-0.173755
3.16763,0.0602686,0.389007
3.17004,0.215556,-0.129449
3.15696,0.203598,-0.0552194
3.30077,-0.110074,-0.0961151
3.36836,-0.277521,-0.0393469
3.27619,0.0508945,-0.50976
3.29411,-0.109853,-0.0191561
3.26074,0.0506546,-0.351278
3.4056,-0.28059,-0.318984
3.21874,0.0500021,0.0749073
3.3564,-0.276536,0.0392072
3.25167,0.0505136,-0.227406
3.14413,0.202771,0.0916934
3.28168,-0.109438,0.0573137
3.18284,0.205267,-0.204408
3.20618,0.049807,0.186743
3.27945,-0.109364,0.133683
3.24809,0.050458,-0.151319
3.17576,0.0493345,0.389982
3.24739,-0.108294,0.265248
3.17875,0.205004,-0.129775
3.16164,0.192821,-0.0552892
3.30036,-0.121596,-0.0961151
3.2803,0.0395058,-0.510375
3.15409,0.19236,0.0183656
3.3017,-0.121645,-0.0192026
3.2609,0.0392722,-0.351278
3.2149,0.0387181,0.0748143
3.36338,-0.288935,0.0393003
3.25581,0.0392109,-0.227685
3.1528,0.192281,0.0919261
3.28927,-0.121187,0.0574533
3.19151,0.194642,-0.20492
3.20633,0.038615,0.186743
3.27506,-0.120663,0.13352
3.25224,0.0391679,-0.151505
3.18386,0.0383443,0.390957
3.25894,-0.120069,0.266225
3.18344,0.19415,-0.129938
3.24289,0.0390552,-0.0754656
3.17025,0.182795,-0.0554288
3.30793,-0.13286,-0.0963479
3.38233,-0.301865,-0.0395331
3.28832,0.0286967,-0.511605
3.1587,0.18213,0.0183889
3.30528,-0.132754,-0.0192258
3.27692,0.0285972,-0.352992
3.22301,0.0281267,0.0750004
3.36639,-0.300442,0.0393469
3.25992,0.0284489,-0.227964
3.15742,0.182056,0.0920424
3.29684,-0.132415,0.0575929
3.19214,0.184058,-0.20492
3.21443,0.0280519,0.187208
3.28263,-0.131844,0.133846
3.25235,0.0283828,-0.151505
3.25852,-0.130876,0.266225
3.18407,0.183592,-0.129938
3.17886,0.172161,-0.0555685
3.31144,-0.144581,-0.0964642
3.38523,-0.314039,-0.0395797
3.16331,0.171319,0.0184121
3.31279,-0.144639,-0.0192723
3.28098,0.0171793,-0.35342
3.22708,0.0168971,0.0750934
3.3693,-0.312561,0.0393934
3.26398,0.0170903,-0.228243
3.34567,-0.146075,-0.273385
3.15803,0.171033,0.0920424
3.30435,-0.144271,0.0577326
3.19675,0.17313,-0.205176
3.2185,0.0168522,0.18744
3.29013,-0.14365,0.134171
3.25642,0.0170508,-0.151691
3.18469,0.172476,-0.129938
3.18346,0.16071,-0.0556383
3.32287,-0.157284,-0.0968133
3.38804,-0.326828,-0.0396262
3.16791,0.159925,0.0184354
3.31224,-0.15678,-0.0192723
3.28499,0.00516006,-0.353849
3.23112,0.00507544,0.0751865
3.3761,-0.325676,0.0394866
3.276,0.00514593,-0.22908
3.16663,0.15986,0.0922752
3.3038,-0.156381,0.0577326
3.19736,0.161412,-0.205176
3.22254,0.00506195,0.187673
3.29757,-0.156086,0.134497
3.19328,0.161206,-0.130263
3.18001,0.149409,-0.0555685
3.3263,-0.169085,-0.0969297
3.39086,-0.339051,-0.0396728
3.31566,-0.168544,-0.0192956
3.28897,-0.00631437,-0.354277
3.23512,-0.00621099,0.0752795
3.37892,-0.337857,0.0395331
3.27599,-0.00628946,-0.22908
3.17116,0.148993,0.0923915
3.31122,-0.168319,0.0578722
3.20189,0.150437,-0.205432
3.21854,-0.00617916,0.18744
3.297,-0.167596,0.134497
3.20393,-0.00615111,0.393394
3.19782,0.150246,-0.130426
3.26311,-0.00626473,-0.0759309
3.18448,0.139037,-0.0556383
3.32572,-0.180114,-0.0969297
3.24396,-0.0169855,0
3.30816,-0.0173216,-0.514679
3.37181,-0.182611,-0.429817
3.18491,0.139056,0.0185284
3.32307,-0.179971,-0.019342
3.29688,-0.0172626,-0.355134
3.23908,-0.0169599,0.0753726
3.3937,-0.350704,0.0397194
3.28394,-0.0171948,-0.229638
3.17962,0.138825,0.0926243
3.31464,-0.179514,0.057942
3.21035,0.140167,-0.205943
3.22649,-0.016894,0.187905
3.30042,-0.178744,0.13466
3.19596,-0.0167341,0.392419
3.20229,0.139815,-0.130589
3.26707,-0.0171065,-0.0760239
3.19694,0.128402,-0.0558477
3.33704,-0.192413,-0.0972787
3.30413,-0.0288347,-0.514065
3.18937,0.128099,0.0185516
3.33441,-0.192261,-0.0194118
3.2968,-0.0287708,-0.355134
3.247,-0.0283361,0.0755587
3.39643,-0.362973,0.0397659
3.28785,-0.0286926,-0.229917
3.18009,0.127726,0.0926243
3.21481,0.12912,-0.206199
3.2304,-0.0281913,0.188138
3.30776,-0.190724,0.134985
3.27962,-0.189102,0.268177
3.20675,0.128796,-0.130752
3.26699,-0.0285106,-0.0760239
3.20136,0.117389,-0.0559175
3.34433,-0.204548,-0.0975115
3.25176,-0.0397297,0
3.40707,-0.376144,-0.0399056
3.1938,0.117111,0.0185749
3.30464,-0.0403757,-0.355991
3.25488,-0.0397678,0.0757448
3.40309,-0.375705,0.0398591
3.29571,-0.0402666,-0.230475
3.17652,0.116478,0.0925079
3.21524,0.117897,-0.206199
3.23827,-0.0395649,0.188603
3.31106,-0.202513,0.135148
3.28819,-0.0401748,-0.15318
3.2037,-0.0391425,0.393394
3.20718,0.117602,-0.130752
3.27887,-0.0400609,-0.0763031
3.20175,0.106213,-0.0559175
3.34759,-0.216479,-0.0976278
3.2556,-0.051143,0
3.41766,-0.389393,-0.0400453
3.19819,0.106095,0.0185981
3.34097,-0.216051,-0.0194583
3.30845,-0.0519733,-0.356419
3.25872,-0.051192,0.0758378
3.40573,-0.388034,0.0399056
3.19289,0.105919,0.0929733
3.33253,-0.215505,0.058291
3.22361,0.106938,-0.206711
3.23811,-0.0508683,0.188603
3.31831,-0.214586,0.135474
3.21942,-0.0505747,0.395344
3.21157,0.106539,-0.130915
3.34681,-0.228163,-0.0976278
3.2634,-0.0626605,0
3.42422,-0.402253,-0.0401385
3.32735,-0.0638884,-0.517754
3.20254,0.095049,0.0186214
3.34418,-0.227983,-0.0194815
3.30825,-0.0635216,-0.356419
3.25852,-0.0625667,0.0758378
3.19324,0.0947732,0.0929733
3.33575,-0.227409,0.0583608
3.22396,0.095685,-0.206711
3.24191,-0.0622478,0.188836
3.32153,-0.226439,0.135637
3.2232,-0.0618885,0.395832
3.21192,0.0953276,-0.130915
3.28251,-0.0630273,-0.0763962
3.20641,0.0839629,-0.0559873
3.34599,-0.239844,-0.0976278
3.27116,-0.074233,0
3.33501,-0.075682,-0.518984
3.21085,0.0840789,0.0186679
3.35134,-0.240227,-0.019528
3.31596,-0.0752497,-0.357276
3.25828,-0.0739407,0.0758378
3.41485,-0.413243,0.0400453
3.19755,0.0837308,0.0930897
3.22827,0.0845352,-0.206967
3.24167,-0.0735638,0.188836
3.3247,-0.238318,0.135799
3.22693,-0.0732293,0.396319
3.22422,0.0844292,-0.131403
3.28626,-0.0745758,-0.0764892
3.21068,0.0728606,-0.0560571
3.3571,-0.252421,-0.0979769
3.27088,-0.085651,0
3.33473,-0.0873229,-0.518984
3.21112,0.0728705,0.0186679
3.3276,-0.0871364,-0.358561
3.266,-0.0855231,0.0760239
3.42133,-0.426149,0.0401385
3.31078,-0.0866958,-0.231591
3.20981,0.0728409,0.0934388
3.24052,0.0735376,-0.207734
3.24938,-0.085088,0.189301
3.32784,-0.250221,0.135962
3.30328,-0.0864996,-0.153925
3.22665,-0.0844929,0.396319
3.22449,0.073174,-0.131403
3.28998,-0.0861512,-0.0765823
3.21892,0.0618063,-0.0561968
3.36417,-0.264766,-0.0982096
3.28255,-0.0974239,0
3.43172,-0.439614,-0.0402782
3.21935,0.0618147,0.0187144
3.36554,-0.264873,-0.019621
3.33125,-0.0988693,-0.358989
3.26967,-0.0970417,0.076117
3.42379,-0.438597,0.040185
3.20205,0.0614826,0.0932061
3.35312,-0.263896,0.0587099
3.24075,0.0622256,-0.207734
3.25305,-0.0965484,0.189533
3.34288,-0.26309,0.136614
3.23428,-0.0959911,0.397294
3.29366,-0.0977535,-0.0766753
3.22711,0.0506955,-0.0563364
3.36322,-0.276507,-0.0982096
3.29019,-0.109147,0
3.4381,-0.452634,-0.0403713
3.21955,0.0505767,0.0187144
3.36858,-0.276947,-0.0196443
3.33486,-0.110629,-0.359418
3.2853,-0.108985,0.0764892
3.21024,0.0504306,0.0934388
3.36015,-0.276255,0.0588495
3.24095,0.0509129,-0.207734
3.26866,-0.108433,0.190463
3.34991,-0.275413,0.136939
3.23789,-0.107412,0.397782
3.22892,0.050724,-0.131566
3.29729,-0.109382,-0.0767684
3.22327,0.0393816,-0.0562666
3.37419,-0.28927,-0.0985587
3.30178,-0.121071,0
3.44839,-0.46624,-0.040511
3.22371,0.0393869,0.0187376
3.37158,-0.289046,-0.0196675
3.33048,-0.122123,-0.358989
3.2929,-0.120745,0.0766753
3.2224,0.0393709,0.0937879
3.36315,-0.288324,0.0589193
3.2451,0.0396483,-0.20799
3.26427,-0.119695,0.190231
3.34893,-0.287104,0.136939
3.23308,0.0395014,-0.131729
3.30089,-0.121038,-0.0768614
3.22739,0.028165,-0.0563364
3.37316,-0.301046,-0.0985587
3.29334,-0.132274,0
3.45466,-0.479374,-0.0406041
3.23182,0.0282037,0.0187841
3.37055,-0.300813,-0.0196675
3.33798,-0.134067,-0.359846
3.28047,-0.131757,0.0763962
3.33317,-0.133874,-0.233266
3.21452,0.0280527,0.0935552
3.37009,-0.300772,0.0590589
3.24522,0.0283206,-0.20799
3.26782,-0.131249,0.190463
3.35189,-0.299148,0.137102
3.23719,0.0282506,-0.131892
3.30045,-0.13256,-0.0768614
3.23946,0.0175274,-0.0565458
3.38011,-0.312968,-0.0987915
3.29688,-0.143369,0
3.2359,0.0175081,0.0188074
3.38546,-0.313464,-0.0197605
3.34547,-0.145481,-0.360703
3.292,-0.143156,0.0766753
3.34068,-0.145273,-0.233824
3.22259,0.0174361,0.0937879
3.26525,0.0176669,-0.209269
3.27535,-0.142432,0.190929
3.36281,-0.311367,0.137591
3.24926,0.0175804,-0.13238
3.31996,-0.144372,-0.0773267
3.2435,0.0062271,-0.0566156
3.38695,-0.32553,-0.0990242
3.30436,-0.155251,0
3.23994,0.00622026,0.0188306
3.38435,-0.325279,-0.0197605
3.34891,-0.157345,-0.361131
3.30346,-0.155209,0.0769545
3.34414,-0.15712,-0.234103
3.22263,0.00618703,0.0937879
3.26929,0.0062766,-0.209525
3.28281,-0.154239,0.191394
3.2493,0.00623823,-0.13238
3.32743,-0.156335,-0.0775128
3.39375,-0.338143,-0.0992569
3.31578,-0.16739,0
3.23994,-0.0050893,0.0188306
3.39513,-0.338281,-0.0198303
3.35231,-0.169234,-0.36156
3.22663,-0.00506839,0.0939042
3.26929,-0.0051354,-0.209525
3.29422,-0.166301,0.192091
3.37647,-0.336421,0.138242
3.24747,-0.0158703,-0.0566854
3.40454,-0.350624,-0.099606
3.30722,-0.177955,0
3.25191,-0.015892,0.0189003
3.39399,-0.349538,-0.0198303
3.35571,-0.180564,-0.361988
3.3183,-0.178551,0.0773267
3.35096,-0.180308,-0.234661
3.23059,-0.0157878,0.0940206
3.26925,-0.0159767,-0.209525
3.28966,-0.17701,0.191859
3.26126,-0.0159377,-0.132869
3.39926,-0.362676,-0.0994896
3.32651,-0.191223,0
3.25183,-0.0278107,0.0189003
3.40462,-0.363248,-0.0199
3.35899,-0.19309,-0.362416
3.31762,-0.190712,0.0773267
3.24651,-0.0277652,0.0944861
3.27716,-0.0280273,-0.210037
3.30095,-0.189753,0.192556
3.37801,-0.360409,0.138405
3.35083,-0.192621,-0.156345
3.27716,-0.0280274,-0.13352
3.34158,-0.192089,-0.077885
3.25927,-0.0392525,-0.0568948
3.40195,-0.374978,-0.099606
3.32582,-0.202833,0
3.25571,-0.0392096,0.0189236
3.39935,-0.374692,-0.0198767
3.36624,-0.205298,-0.363273
3.32492,-0.202778,0.0775128
3.36551,-0.205254,-0.235777
3.24239,-0.0390493,0.0943697
3.293,-0.0396588,-0.21106
3.30824,-0.201761,0.193022
3.35412,-0.204559,-0.156531
3.28104,-0.0395147,-0.133683
3.26711,-0.0507535,-0.0570345
3.41651,-0.388658,-0.100071
3.33707,-0.215214,0
3.26755,-0.0507604,0.0189933
3.41392,-0.388364,-0.0199697
3.37344,-0.217559,-0.36413
3.36876,-0.217257,-0.236056
3.40551,-0.387407,0.0598269
3.29285,-0.0511533,-0.21106
3.31548,-0.213822,0.193487
3.27689,-0.0509054,-0.13352
3.27491,-0.0623097,-0.0571741
3.4191,-0.401047,-0.100188
3.34029,-0.227132,0
3.26335,-0.0620898,0.0189701
3.42049,-0.40121,-0.0200162
3.37594,-0.229557,-0.236614
3.25403,-0.0619125,0.0947188
3.41208,-0.400224,0.0599665
3.30063,-0.0627991,-0.211572
3.32268,-0.225935,0.193952
3.28468,-0.0624956,-0.133846
3.27467,-0.0737409,-0.0571741
3.42165,-0.413459,-0.100304
3.34346,-0.239076,0
3.27112,-0.0736608,0.0190166
3.34256,-0.239011,0.0779781
3.3791,-0.241624,-0.236893
3.2538,-0.0732708,0.0947188
3.30837,-0.0744998,-0.212083
3.31789,-0.237247,0.193719
3.29643,-0.0742308,-0.134334
3.27842,-0.0841308,-0.0572439
3.42827,-0.425191,-0.100537
3.35067,-0.250174,0
3.27487,-0.0840395,0.0190398
3.3378,-0.249213,0.077885
3.26154,-0.0836977,0.0949515
3.42126,-0.424322,0.0601759
3.3251,-0.248264,0.194184
3.37494,-0.251986,-0.157647
3.30017,-0.084689,-0.134497
3.28607,-0.0969542,-0.0573835
3.43058,-0.438859,-0.100653
3.35368,-0.263351,0
3.27852,-0.0967314,0.0190631
3.34081,-0.262341,0.0779781
3.38926,-0.266146,-0.23773
3.26919,-0.0964563,0.0951842
3.42754,-0.43847,0.0603155
3.33208,-0.261655,0.194649
3.38191,-0.265568,-0.15802
3.30382,-0.097478,-0.13466
3.28971,-0.108556,-0.0574533
3.44092,-0.452395,-0.101002
3.36071,-0.27571,0
3.28216,-0.108307,0.0190863
3.35183,-0.274982,0.0782572
3.39627,-0.278627,-0.238288
3.27283,-0.107999,0.0953006
3.34309,-0.274264,0.195347
3.30745,-0.109142,-0.134823
3.30534,-0.119468,-0.0577326
3.44741,-0.46427,-0.101235
3.36381,-0.286606,0
3.2858,-0.118762,0.0191096
3.3629,-0.286529,0.0785364
3.27248,-0.118281,0.0953006
3.34619,-0.285104,0.19558
3.30088,-0.131423,-0.0576628
3.36672,-0.299288,0
3.29334,-0.131123,0.0191561
3.28001,-0.130592,0.0955333
3.3491,-0.297721,0.195812
3.31862,-0.132129,-0.135311
3.30442,-0.142541,-0.0577326
3.3697,-0.310818,0
3.29688,-0.142215,0.0191793
3.36878,-0.310734,0.0787225
3.28755,-0.141813,0.095766
3.35604,-0.309558,0.196277
3.31986,-0.155399,-0.0580118
3.37252,-0.323548,0
3.29634,-0.154298,0.0191793
3.3716,-0.323461,0.0788155
3.41196,-0.327333,-0.239683
3.291,-0.154048,0.0958824
3.32329,-0.167188,-0.0580816
3.37933,-0.33611,0
3.30776,-0.166406,0.0192491
3.38239,-0.336415,0.0790947
3.29444,-0.165736,0.0959988
3.33467,-0.179432,-0.058291
3.38609,-0.348724,0
3.30716,-0.177952,0.0192491
3.30182,-0.177664,0.0962315
3.33805,-0.190717,-0.0583608
3.39287,-0.360797,0
3.32253,-0.18983,0.019342
3.31319,-0.189297,0.0965806
3.34132,-0.203193,-0.0584307
3.38755,-0.372792,0
3.31781,-0.201764,0.0193188
3.39061,-0.373129,0.0793738
3.31248,-0.201439,0.0965806
3.34059,-0.214855,-0.0584307
3.4061,-0.386872,0
3.32907,-0.214114,0.0193885
3.39723,-0.385864,0.0795599
3.32372,-0.21377,0.0969297
3.35187,-0.226157,-0.0586401
3.40884,-0.398034,0
3.33636,-0.22511,0.019435
3.39997,-0.396999,0.079653
3.32702,-0.22448,0.097046
3.35899,-0.239008,-0.0587797
3.41133,-0.411004,0
3.33551,-0.237337,0.019435
3.41041,-0.410893,0.0799322
3.33416,-0.237241,0.0972787
3.36213,-0.251029,-0.0588495
3.42178,-0.424386,0
3.33865,-0.249277,0.0194583
3.41689,-0.423779,0.0801183
3.34128,-0.249473,0.0975115
3.36526,-0.262488,-0.0589193
3.42829,-0.436742,0
3.34977,-0.26128,0.019528
3.36827,-0.275146,-0.0589891
3.42667,-0.449304,0
3.36075,-0.274532,0.0195978
3.35141,-0.27377,0.0978606
3.37924,-0.287921,-0.0591986
3.44094,-0.463398,0
3.36376,-0.286601,0.019621
3.35841,-0.286146,0.0980933
3.3822,-0.300068,-0.0592684
3.45119,-0.47705,0
3.37469,-0.299402,0.0196908
3.36137,-0.29822,0.0982096
3.38517,-0.311649,-0.0593382
3.37368,-0.310591,0.0196908
3.36434,-0.309732,0.098326
3.38798,-0.324435,-0.059408
3.38446,-0.324098,0.0197605
3.37114,-0.322823,0.0985587
3.39877,-0.337445,-0.0596174
3.39763,-0.348714,-0.0596174
3.3808,-0.346987,0.0989078
3.40832,-0.361838,-0.0598269
3.40704,-0.373734,-0.0598269
3.40353,-0.373348,0.0199
3.41771,-0.386377,-0.0600363
3.41229,-0.398437,-0.0599665
3.40343,-0.397402,0.0997224
3.43967,-0.438192,-0.0605249
3.44613,-0.450633,-0.0606646
3.44329,-0.475345,0.0202022
