2.01291,0.437782,-0.0119725
2.11348,0.352539,-0.200016
2.1028,0.350757,0.0248188
2.11908,0.353473,-0.125115
2.02225,0.432425,-0.012019
2.11863,0.3458,-0.200387
2.11636,0.34543,-0.124883
2.02342,0.432675,-0.10844
2.02375,0.425364,-0.012019
2.12769,0.339659,-0.201131
2.12544,0.3393,-0.125348
2.02882,0.426431,-0.108649
2.12606,0.332173,-0.0250516
2.03298,0.420271,-0.0120655
2.13274,0.333217,-0.201503
2.13445,0.333483,-0.125813
2.03023,0.419702,-0.108649
2.04627,0.415202,-0.0121353
2.14182,0.326598,-0.202246
2.04207,0.414351,0.0363708
2.1396,0.326259,-0.126045
2.03958,0.413846,-0.109068
2.05148,0.409554,-0.0121585
2.14678,0.320455,-0.202618
2.15246,0.321303,-0.126743
2.04871,0.409,-0.109487
2.14927,0.312395,-0.0252844
2.05304,0.401674,-0.0121585
2.14799,0.31221,-0.202618
2.14927,0.312395,0.0252844
2.04884,0.400852,0.0364406
2.14973,0.312462,-0.126511
2.05418,0.401898,-0.109696
2.05836,0.39526,-0.0121818
2.15696,0.305829,-0.203362
2.05808,0.395207,0.0365802
2.15871,0.306078,-0.126976
2.06454,0.396447,0.0856481
2.06734,0.396985,-0.110324
2.16318,0.299781,-0.0254241
2.07138,0.391017,-0.0122515
2.16185,0.299597,-0.203733
2.07238,0.391206,-0.172167
2.0711,0.390964,0.0367897
2.17153,0.300939,-0.127673
2.06858,0.390488,-0.110324
2.16823,0.292386,-0.0254707
2.08067,0.384878,-0.012298
2.16688,0.292204,-0.204105
2.07772,0.384334,-0.172493
2.07645,0.384098,0.0368595
2.17262,0.292978,-0.127673
2.08178,0.385084,-0.110952
1.9927,0.470319,-0.0476429
2.1732,0.285335,-0.0255173
2.082,0.377612,-0.012298
2.0869,0.378501,-0.173144
2.08172,0.377561,0.0369293
2.18551,0.286951,-0.128371
2.08031,0.377306,0.0861366
2.08311,0.377814,-0.110952
1.99822,0.464265,-0.047736
2.18604,0.27965,-0.0256569
2.08324,0.370706,-0.012298
2.18462,0.279469,-0.205592
2.18207,0.279143,0.0256104
2.09599,0.372976,-0.173795
2.08689,0.371357,0.0369991
2.18249,0.279196,-0.128138
2.08942,0.371806,0.0864623
2.09222,0.372304,-0.111371
2.00365,0.458529,-0.047829
2.19891,0.273499,-0.0257966
2.08846,0.36412,-0.0123213
2.187,0.272018,0.0256569
2.10121,0.366342,-0.17412
2.1,0.366131,0.0372085
2.19137,0.272562,-0.128604
2.0907,0.364511,0.0864623
2.10137,0.366371,-0.11179
2.01304,0.453289,-0.0480151
2.20386,0.265917,-0.0258432
2.10161,0.35848,-0.012391
2.19989,0.265438,0.0257966
2.1104,0.359979,-0.174771
2.10921,0.359776,0.0373482
2.20425,0.265963,-0.129301
2.09596,0.357517,0.0866251
2.10664,0.359338,-0.111999
2.01859,0.446772,-0.0481082
2.20473,0.258607,-0.0258432
2.10673,0.352169,-0.0124142
2.20325,0.258433,-0.207079
2.11551,0.353636,-0.175096
2.12223,0.354759,0.0375576
2.20909,0.259118,-0.129534
2.10108,0.351224,0.0867879
2.11176,0.353009,-0.112208
2.02397,0.440927,-0.0482012
2.21357,0.251813,-0.0259363
2.11979,0.346749,-0.012484
2.21205,0.251641,-0.207823
2.22152,0.252718,0.0260295
2.1246,0.347536,-0.175747
2.1195,0.346702,0.0374878
2.21791,0.252307,-0.129999
2.11413,0.345822,0.0872764
2.12086,0.346925,-0.112627
2.03331,0.435534,-0.0483873
2.02363,0.426078,0
2.21841,0.244524,-0.0259829
2.11704,0.338716,-0.0124607
2.21688,0.244354,-0.208195
2.22636,0.2454,0.026076
2.12974,0.340748,-0.176073
2.1286,0.340566,0.0376274
2.21878,0.244564,-0.129999
2.11532,0.338441,0.0872764
2.12601,0.340151,-0.112836
2.027,0.426786,-0.0482012
2.03287,0.420987,0
2.23114,0.238441,-0.0261226
2.13001,0.333551,-0.0125305
2.22319,0.237591,0.0260295
2.13873,0.334918,-0.176724
2.13762,0.334743,0.037767
2.22355,0.23763,-0.130231
2.12828,0.33328,0.0877649
2.13502,0.334335,-0.113255
2.03623,0.421684,-0.0483873
2.13035,0.325609,-0.0627192
2.23598,0.230672,-0.0261692
2.13912,0.32695,-0.012577
2.232,0.230262,0.0261226
2.15177,0.328883,-0.1777
2.23235,0.230298,-0.130697
2.13738,0.326684,0.0880906
2.14807,0.328318,-0.113883
2.04168,0.415014,-0.0484804
2.24473,0.223659,-0.0262623
2.14421,0.320072,-0.0126002
2.05881,0.411017,0.0488526
2.24473,0.223659,0.0262623
2.04652,0.408564,-0.145931
2.1529,0.32137,-0.1777
2.15183,0.32121,0.0379764
2.14247,0.319812,0.0882534
2.15316,0.321408,-0.114092
2.05096,0.409451,-0.0486665
2.15235,0.313611,-0.063301
2.2455,0.215822,-0.0262623
2.14781,0.312949,-0.276275
2.15323,0.313738,-0.0126467
2.25179,0.216426,-0.211169
2.05238,0.402289,0.0486665
2.26142,0.217352,0.0264485
2.05968,0.40372,-0.146768
2.15796,0.314428,-0.178025
2.15689,0.314272,0.0380462
2.15148,0.313483,0.0885791
2.05071,0.401962,-0.0973431
2.15822,0.314465,-0.114302
2.0563,0.403058,-0.0487595
2.15338,0.306471,-0.063301
2.05819,0.396344,0
2.26213,0.209851,-0.0264485
2.15276,0.306383,-0.27678
2.15426,0.306596,-0.0126467
2.26439,0.210061,-0.212284
2.05763,0.396237,0.0487595
2.26213,0.209851,0.0264485
2.06493,0.397642,-0.147047
2.16294,0.307831,-0.178351
2.17376,0.309372,0.0383255
2.15646,0.30691,0.0887419
2.0638,0.397426,-0.0979015
2.1632,0.307869,-0.114511
2.0537,0.39548,-0.0486665
2.15845,0.299126,-0.0634174
2.06749,0.390282,0
2.26289,0.201559,-0.0264485
2.16725,0.300346,-0.0127165
2.06693,0.390176,0.0489456
2.27086,0.202269,0.0265417
2.07029,0.390812,-0.147326
2.17195,0.300997,-0.179002
2.17884,0.301952,0.0383953
2.15757,0.299004,0.0887419
2.17223,0.301036,-0.11493
2.063,0.389434,-0.0488526
2.16665,0.292943,-0.278295
2.18013,0.294765,-0.0127862
2.27771,0.195269,-0.2134
2.07214,0.384049,0.0490387
2.27151,0.194738,0.0265417
2.07158,0.383944,-0.147326
2.18084,0.294861,-0.179653
2.2718,0.194763,-0.13279
2.17043,0.293455,0.0892304
2.07046,0.383737,-0.0980876
2.18509,0.295437,-0.115558
2.16898,0.293259,0.178676
2.17233,0.285992,-0.0637664
2.07797,0.37763,0
2.18339,0.287449,-0.280315
2.18907,0.288197,-0.0128327
2.28234,0.187643,-0.213771
2.08134,0.378243,0.0492248
2.28015,0.187463,0.0266348
2.08468,0.378851,-0.148163
2.1858,0.287767,-0.179978
2.19274,0.28868,0.0386047
2.28043,0.187485,-0.133255
2.18333,0.287441,0.0897188
2.07965,0.377936,-0.0984599
2.18611,0.287807,-0.115558
2.16999,0.285685,0.178676
2.18124,0.279424,-0.0639992
2.08321,0.371076,0
2.18045,0.279322,-0.27981
2.198,0.281571,-0.0128792
2.28695,0.179988,-0.214143
2.09052,0.372379,0.0494109
2.28877,0.18013,0.0267279
2.08599,0.371572,-0.148163
2.1868,0.280135,-0.179978
2.19374,0.281025,0.0386047
2.18829,0.280327,0.0898817
2.08489,0.371375,-0.098646
2.19899,0.281697,-0.116186
2.17889,0.279122,0.179327
2.08265,0.370976,-0.0492248
2.18617,0.272302,-0.0641155
2.09237,0.365177,0
2.20691,0.274885,-0.0129257
2.30346,0.173198,-0.21563
2.10362,0.367141,0.0496901
2.29337,0.172439,0.0267745
2.09121,0.364974,-0.148442
2.19567,0.273485,-0.180629
2.20264,0.274353,0.0387443
2.19719,0.273674,0.0902073
2.09404,0.365469,-0.0990182
2.20392,0.274513,-0.116395
2.1838,0.272007,0.179653
2.08787,0.364391,-0.0493179
2.09758,0.358546,0
2.1981,0.266,-0.281831
2.20388,0.2667,-0.0129024
2.31199,0.165726,-0.216374
2.10095,0.359123,0.049597
2.30194,0.165005,0.0268676
2.10033,0.359017,-0.149
2.20057,0.266299,-0.180955
2.2155,0.268105,0.0389538
2.30218,0.165023,-0.134417
2.10584,0.359958,0.124418
2.19416,0.265523,0.0900445
2.10318,0.359504,-0.0993905
2.21676,0.268258,-0.117023
2.20057,0.266299,0.180955
2.10276,0.351881,0
2.20296,0.258787,-0.282336
2.21672,0.260404,-0.0129722
2.31653,0.157925,-0.216746
2.11008,0.353106,0.0497831
2.10551,0.352341,-0.149279
2.21337,0.260011,-0.181931
2.22039,0.260836,0.0390236
2.03199,0.443046,-0.133288
2.31071,0.157528,-0.134883
2.1189,0.354581,0.125115
2.20698,0.25926,0.090533
2.10837,0.352819,-0.0995766
2.21372,0.260052,-0.116814
2.20545,0.25908,0.18128
2.10219,0.351786,-0.049597
2.11187,0.345832,0
2.21567,0.252444,-0.283851
2.01811,0.432646,0.0119958
2.22556,0.253571,-0.0130187
2.32501,0.150352,-0.217489
2.11919,0.347031,0.0499692
2.319,0.149963,0.0270539
2.1146,0.34628,-0.149837
2.21426,0.252283,-0.181931
2.22924,0.25399,0.0391632
2.31922,0.149977,-0.135348
2.12406,0.347829,0.125348
2.21581,0.25246,0.0908587
2.11747,0.346749,-0.0999489
2.22652,0.25368,-0.117442
2.20634,0.251381,0.18128
2.1113,0.345739,-0.0497831
2.12096,0.339724,0
2.22048,0.245144,-0.284356
2.02352,0.426424,0.012019
2.23439,0.246679,-0.0130652
2.11662,0.339028,-0.230901
2.34143,0.143208,-0.218976
2.12829,0.340897,0.0501553
2.3235,0.142112,0.0271004
2.12368,0.340159,-0.150395
2.21909,0.244991,-0.182256
2.23011,0.246207,0.0391632
2.12921,0.341044,0.12558
2.2286,0.24604,0.0913472
2.12261,0.339988,-0.100135
2.2393,0.247222,-0.11807
2.21909,0.244991,0.182256
2.12039,0.339632,-0.0499692
2.12214,0.332318,0
2.22527,0.237813,-0.284861
2.23126,0.238453,-0.0130419
2.34589,0.135263,-0.219348
2.13737,0.334703,0.0503414
2.33596,0.134691,0.0272401
2.1288,0.33336,-0.150674
2.22786,0.23809,-0.182907
2.23891,0.23927,0.0393028
2.13433,0.334227,0.125813
2.23342,0.238684,0.09151
2.12773,0.333194,-0.100321
2.24015,0.239403,-0.11807
2.23182,0.238513,0.183233
2.12947,0.333465,-0.0501553
2.13515,0.326724,0
2.23398,0.23086,-0.285871
2.24401,0.231897,-0.0131117
2.35032,0.12729,-0.21972
2.14248,0.327845,0.0504345
2.34441,0.126969,0.0273333
2.13783,0.327135,-0.151232
2.24057,0.231541,-0.183884
2.24371,0.231865,0.0393726
2.34459,0.126979,-0.136743
2.14732,0.328587,0.126511
2.23821,0.231297,0.0916728
2.13283,0.32637,-0.100507
2.24892,0.232404,-0.118489
2.23661,0.231132,0.183558
2.13062,0.326031,-0.0501553
2.25277,0.224856,-0.0131582
2.35473,0.119285,-0.220092
2.14361,0.320364,0.0504345
2.2493,0.22451,-0.184535
2.25644,0.225223,0.0395821
2.35698,0.119399,-0.137441
2.15636,0.32227,0.126976
2.24696,0.224277,0.0919985
2.13791,0.319513,-0.100693
2.25369,0.224948,-0.118698
2.24534,0.224114,0.184209
2.14756,0.320955,-0.0505275
2.14529,0.312964,0
2.26548,0.218141,-0.0132279
2.36309,0.11144,-0.220835
2.15263,0.314034,0.0506206
2.35722,0.111163,0.027473
2.14402,0.312777,-0.151511
2.2612,0.217728,0.0396519
2.36137,0.111359,-0.137673
2.15352,0.314164,0.126743
2.25967,0.21758,0.0924869
2.14297,0.312625,-0.100879
2.26639,0.218228,-0.119326
2.25404,0.217039,0.18486
2.15658,0.314611,-0.0507136
2.15033,0.306038,0
2.36559,0.103285,-0.0275661
2.27021,0.210602,-0.0132512
2.3754,0.103713,-0.22195
2.16163,0.307646,0.0508067
2.36958,0.103459,0.0276127
2.15694,0.30698,-0.152348
2.25876,0.209539,-0.185186
2.26194,0.209835,0.0396519
2.37371,0.103639,-0.138371
2.16646,0.308334,0.127441
2.26041,0.209693,0.0924869
2.15196,0.30627,-0.101252
2.26714,0.210317,-0.119326
2.25479,0.209171,0.18486
2.16163,0.307646,-0.0508067
2.16322,0.300557,0
2.3779,0.0959225,-0.0277058
2.27488,0.203429,-0.0132744
2.38767,0.0963164,-0.223066
2.17056,0.301576,0.0509928
2.37391,0.0957613,0.0276592
2.15795,0.299825,-0.152348
2.27135,0.203113,-0.186162
2.26661,0.202689,0.0397217
2.17143,0.301697,0.127673
2.27304,0.203263,0.0929754
2.16088,0.300231,-0.101624
2.27976,0.203865,-0.119954
2.26738,0.202757,0.185836
2.17452,0.302126,-0.0510859
2.16426,0.293003,0
2.39421,0.0882099,-0.027892
2.27957,0.195828,-0.0132977
2.39197,0.0881273,-0.223438
2.17556,0.294533,0.0510859
2.39022,0.0880627,0.0278455
2.1748,0.294431,-0.153464
2.27602,0.195523,-0.186487
2.27926,0.195802,0.0399311
2.39033,0.0880667,-0.139301
2.17642,0.294651,0.127906
2.27373,0.195327,0.0929754
2.28046,0.195905,-0.119954
2.26807,0.194841,0.185836
2.17952,0.29507,-0.0511789
2.40249,0.0805384,-0.0279852
2.29216,0.189256,-0.0133674
2.39623,0.0803287,-0.223809
2.18842,0.288888,0.051365
2.3905,0.0801364,0.0278455
2.17181,0.286696,-0.153185
2.28857,0.188959,-0.187464
2.27989,0.188243,0.0399311
2.39859,0.0804076,-0.139766
2.18531,0.288477,0.128371
2.28632,0.188773,0.0934639
2.28508,0.188671,-0.120163
2.27665,0.187975,0.186487
2.18445,0.288365,-0.051272
2.17815,0.279415,0
2.29284,0.180854,-0.0133674
2.40845,0.0719026,-0.224925
2.18946,0.280866,0.051365
2.40277,0.0717329,0.0279852
2.28925,0.180571,-0.187464
2.28854,0.180515,0.0400707
2.40286,0.0717355,-0.139999
2.19031,0.280974,0.128604
2.29496,0.181021,0.0937896
2.29372,0.180923,-0.120582
2.29884,0.181327,0.420441
2.19739,0.281883,-0.0515511
2.415,0.0636619,-0.0281249
2.30143,0.173451,-0.0134139
2.42461,0.0639154,-0.226412
2.19836,0.274212,0.0515511
2.415,0.0636619,0.0281249
2.29782,0.173178,-0.188115
2.29713,0.173127,0.0402103
2.41108,0.0635585,-0.140464
2.20317,0.27481,0.129301
2.30754,0.173911,0.0942781
2.30629,0.173816,-0.12121
2.28987,0.172579,0.187464
2.30731,0.173894,0.421876
2.2063,0.275201,-0.0517372
2.30428,0.165982,-0.462052
2.43119,0.056021,-0.0283111
2.09347,0.358597,0.0123445
2.30599,0.166105,-0.0134371
2.42879,0.0559658,-0.226784
2.2072,0.267883,0.0517372
2.41919,0.0557446,0.0281714
2.31031,0.166416,-0.189091
2.30966,0.16637,0.0404198
2.41926,0.0557461,-0.140929
2.20803,0.267983,0.129534
2.31209,0.166544,0.0944409
2.19747,0.266702,-0.103113
2.31482,0.166741,-0.121629
2.21105,0.26835,0.273475
2.29838,0.165557,0.188115
2.09571,0.35898,-0.0866251
2.30788,0.166241,0.421876
2.20323,0.267401,-0.0516442
2.3127,0.158069,-0.463621
2.20082,0.258926,0
2.43938,0.0472642,-0.0284042
2.31855,0.158469,-0.0135069
2.44093,0.0472943,-0.227899
2.21611,0.260725,0.0519233
2.43538,0.0471868,0.0283577
2.31886,0.15849,-0.189742
2.31824,0.158448,0.0405594
2.42743,0.0470328,-0.141394
2.20503,0.259422,0.129301
2.30869,0.157796,0.0942781
2.33135,0.159344,-0.122466
2.21202,0.260244,0.273475
2.1049,0.352617,-0.0869508
2.31632,0.158317,0.423311
2.21214,0.260258,-0.0518303
2.43952,0.039174,-0.0284042
2.21084,0.252674,-0.346194
2.32705,0.151298,-0.0135534
2.44505,0.0392629,-0.228271
2.21696,0.253374,0.0519233
2.43952,0.039174,0.0284042
2.33528,0.151834,-0.191044
2.1148,0.34707,0.0623701
2.32673,0.151278,0.040699
2.43556,0.0391104,-0.141859
2.21778,0.253468,0.129999
2.32915,0.151435,0.0950922
2.32788,0.151353,-0.122257
2.21287,0.252906,0.273475
2.31539,0.150541,0.189416
2.11394,0.346929,-0.0872764
2.32469,0.151145,0.424745
2.22094,0.253828,-0.0520164
2.44765,0.0303322,-0.0284974
2.33158,0.143014,-0.0135766
2.45315,0.0304003,-0.229014
2.2298,0.246566,0.0522025
2.45964,0.0304808,0.0286371
2.33185,0.14303,-0.190718
2.33925,0.143484,0.0409084
2.22663,0.246216,0.130464
2.32969,0.142898,0.0950922
2.3364,0.143309,-0.122675
2.22167,0.245667,0.27445
2.11915,0.339812,-0.0874392
2.33308,0.143106,0.42618
2.23378,0.247006,-0.0522955
2.45574,0.021861,-0.0285905
2.34005,0.135338,-0.0136231
2.47315,0.022016,-0.230873
2.23463,0.239208,0.0522955
2.46374,0.0219322,0.0286836
2.35223,0.136042,-0.192346
2.12118,0.332549,0.0624865
2.34373,0.13555,0.0409782
2.46373,0.0219321,-0.143487
2.23145,0.238868,0.130697
2.33815,0.135228,0.0954179
2.22486,0.238163,-0.10423
2.34885,0.135846,-0.123304
2.23041,0.238757,0.275425
2.12427,0.333033,-0.0876021
2.34928,0.135871,0.42905
2.2386,0.239634,-0.0523886
2.34601,0.127467,-0.469897
2.4638,0.0133314,-0.0286836
2.23306,0.231159,-0.349269
2.3445,0.127385,-0.0136464
2.47719,0.0134038,-0.231245
2.23942,0.231818,0.0523886
2.4718,0.0133746,0.0287768
2.35667,0.128046,-0.192671
2.13023,0.326353,0.0627192
2.35217,0.127802,0.0411179
2.46379,0.0133313,-0.143487
2.24021,0.231899,0.131162
2.34659,0.127498,0.0957435
2.23363,0.231218,-0.104602
2.36127,0.128296,-0.123932
2.23913,0.231787,0.2764
2.13727,0.327431,-0.0880906
2.34581,0.127456,0.428333
2.2434,0.23223,-0.0524816
2.24075,0.224843,0
2.47183,0.00560967,-0.0287768
2.13607,0.320383,0.0125537
2.36087,0.120837,-0.0137394
2.48917,0.00564904,-0.23236
2.24014,0.224782,0.0523886
2.47983,0.00562783,0.0288699
2.24323,0.225092,-0.15765
2.36901,0.121254,-0.193647
2.14311,0.321438,0.0630683
2.36854,0.12123,0.0413971
2.13568,0.320324,-0.138404
2.48379,0.00563681,-0.14465
2.24093,0.224861,0.131162
2.35097,0.12033,0.0959064
2.36964,0.121286,-0.12435
2.25565,0.226338,0.27835
2.14224,0.321308,-0.0882534
2.35406,0.120489,0.429768
2.25208,0.225979,-0.0526678
2.25036,0.217082,-0.351728
2.36227,0.111816,-0.301023
2.14916,0.313912,0.0126235
2.36531,0.11196,-0.0137626
2.49316,-0.00391559,-0.232732
2.24895,0.216946,0.0525747
2.48383,-0.00390093,0.0289165
2.37742,0.112533,-0.194298
2.14829,0.313785,0.0631846
2.37298,0.112323,0.0414669
2.49178,-0.00391341,-0.145115
2.24973,0.217021,0.131627
2.3594,0.11168,0.096232
2.2511,0.217153,-0.105346
2.37408,0.112375,-0.12456
2.24465,0.216531,0.276887
2.14741,0.313657,-0.0884162
2.37023,0.112192,0.432638
2.25691,0.217714,-0.0527608
2.37851,0.104264,-0.303044
2.1542,0.306972,0.0126467
2.38167,0.104403,-0.0138556
2.25716,0.209788,-0.244181
2.50906,-0.0126996,-0.234219
2.4918,-0.0126122,0.0290096
2.25674,0.209749,-0.158487
2.3778,0.104233,-0.194298
2.15728,0.307411,0.0634174
2.38535,0.104564,0.0416763
2.49973,-0.0126524,-0.14558
2.25445,0.209536,0.131859
2.37175,0.103968,0.0967205
2.26378,0.210403,-0.105905
2.38244,0.104436,-0.124978
2.2612,0.210163,0.278837
2.3824,0.104434,0.43479
2.26164,0.210204,-0.0528539
2.2629,0.203153,0
2.49975,-0.0205055,-0.0291027
2.37882,0.0967914,-0.303044
2.15912,0.300755,0.01267
2.38599,0.0970829,-0.0138789
2.26177,0.203052,-0.24461
2.52494,-0.0207122,-0.235706
2.26627,0.203456,0.0529469
2.50375,-0.0205383,0.0291493
2.26931,0.203729,-0.159324
2.39405,0.097411,-0.1956
2.1622,0.301184,0.0635337
2.38966,0.0972323,0.0417462
2.15869,0.300695,-0.139683
2.51965,-0.0206688,-0.146743
2.27498,0.204238,0.133022
2.38005,0.0968416,0.0970462
2.26841,0.203648,-0.106091
2.39872,0.0976011,-0.125816
2.26976,0.203769,0.279812
2.15736,0.300511,-0.0887419
2.38665,0.0971098,0.435508
2.27025,0.203813,-0.05304
2.27558,0.195888,0
2.38709,0.0883661,-0.304054
2.16813,0.293915,0.0127165
2.38633,0.0883377,-0.0138789
2.53679,-0.0301076,-0.236822
2.27895,0.196178,0.0532261
2.51165,-0.0298093,0.0292424
2.27004,0.19541,-0.159324
2.39837,0.0887837,-0.195926
2.17518,0.294869,0.0638828
2.39799,0.0887696,0.0418858
2.52355,-0.0299504,-0.146975
2.27571,0.195899,0.133022
2.38838,0.0884138,0.0973718
2.2771,0.196018,-0.106463
2.28236,0.19647,0.281274
2.16637,0.293676,-0.0890675
2.39878,0.0887989,0.43766
2.27098,0.195492,-0.05304
2.39519,0.0802941,-0.479311
2.27625,0.187942,0
2.39928,0.0804312,-0.305569
2.18104,0.287914,0.0127862
2.39461,0.0802747,-0.0139253
2.54065,-0.0390243,-0.237193
2.27962,0.188221,0.0532261
2.52753,-0.0388228,0.0294287
2.29059,0.189126,-0.160719
2.41062,0.0808113,-0.196902
2.17223,0.286751,0.0637664
2.41428,0.0809338,0.042165
2.5354,-0.0389437,-0.147673
2.28036,0.188282,0.133255
2.39666,0.0803434,0.0976975
2.28573,0.188725,-0.106835
2.41932,0.0811029,-0.126862
2.29094,0.189155,0.282249
2.17927,0.287681,-0.089556
2.40301,0.0805562,0.438377
2.27962,0.188221,-0.0532261
2.17772,0.280131,-0.0383255
2.53539,-0.0473542,-0.0295218
2.40747,0.0727134,-0.306579
2.18992,0.2817,0.0128327
2.41086,0.0728158,-0.0140183
2.54449,-0.0475243,-0.237565
2.28821,0.181291,0.0534122
2.52739,-0.0472048,0.0294287
2.28723,0.181214,-0.16044
2.41088,0.0728163,-0.196902
2.18903,0.281586,0.0642319
2.41853,0.0730474,0.0422348
2.54325,-0.047501,-0.148138
2.2969,0.18198,0.134185
2.41689,0.072998,0.0985116
2.29033,0.181459,-0.107022
2.42357,0.0731996,-0.127072
2.29156,0.181556,0.282249
2.39892,0.0724552,0.195926
2.18814,0.281472,-0.0898817
2.419,0.0730617,0.441247
2.28821,0.181291,-0.0534122
2.29347,0.173252,0
2.53919,-0.0567353,-0.0295684
2.41169,0.0639949,-0.307084
2.19094,0.273672,0.0128327
2.42311,0.0642979,-0.0140881
2.3001,0.173753,-0.248465
2.55625,-0.0571163,-0.23868
2.29683,0.173506,0.0535983
2.54319,-0.0568247,0.0296149
2.30379,0.174032,-0.161556
2.42707,0.0644031,-0.198204
2.19005,0.273561,0.0642319
2.42678,0.0643953,0.0423744
2.18649,0.273117,-0.141218
2.55503,-0.0570892,-0.148836
2.30153,0.173861,0.134417
2.42114,0.0642457,0.0986745
2.30293,0.173967,-0.10758
2.43181,0.0645287,-0.12749
2.30408,0.174054,0.283712
2.18916,0.27345,-0.0898817
2.42712,0.0644044,0.442682
2.29683,0.173506,-0.0535983
2.42335,0.0558395,-0.484802
2.30603,0.166107,0
2.55098,-0.065909,-0.029708
2.42776,0.0559411,-0.309105
2.20379,0.267468,0.0129024
2.43531,0.0561151,-0.0141578
2.30466,0.166009,-0.248894
2.57196,-0.0664511,-0.240167
2.31338,0.166636,0.0539705
2.55098,-0.065909,0.029708
2.31235,0.166562,-0.162114
2.43525,0.0561136,-0.198855
2.19496,0.266396,0.0643483
2.42699,0.0559232,0.0423744
2.57078,-0.0664208,-0.149766
2.31009,0.166399,0.134883
2.43733,0.0561616,0.0993258
2.31548,0.166788,-0.108138
2.44,0.0562232,-0.127909
2.3126,0.16658,0.284687
2.19803,0.266769,-0.0902073
2.4352,0.0561124,0.444117
2.30141,0.165774,-0.0536913
2.31457,0.158605,0
2.55873,-0.075046,-0.0298012
2.20471,0.259775,0.0129024
2.43549,0.0476156,-0.0141578
2.57967,-0.0756603,-0.240911
2.32591,0.159382,0.0542496
2.56672,-0.0752805,0.0298943
2.32486,0.159309,-0.162951
2.43942,0.0476923,-0.19918
2.20779,0.260138,0.0646974
2.44316,0.0477655,0.0426537
2.57453,-0.0755095,-0.149999
2.31862,0.158882,0.135348
2.44151,0.0477332,0.0994886
2.32004,0.158979,-0.108324
2.45217,0.0479415,-0.128537
2.32109,0.159051,0.285662
2.43145,0.0475364,0.198529
2.20292,0.259564,-0.0903702
2.43931,0.0476902,0.444835
2.30996,0.158288,-0.0538774
2.44329,0.039236,-0.488724
2.33108,0.151562,0
2.58243,-0.0847651,-0.0300806
2.44793,0.0393105,-0.31163
2.2215,0.253894,0.0129954
2.45164,0.0393701,-0.0142508
2.32164,0.150948,-0.250607
2.57939,-0.0846652,-0.240911
2.32247,0.151002,0.0541566
2.57444,-0.0845027,0.0299874
2.33336,0.15171,-0.163509
2.45153,0.0393682,-0.200157
2.2206,0.253791,0.0650464
2.45531,0.039429,0.0428631
2.59021,-0.0850205,-0.150929
2.32714,0.151305,0.135813
2.44166,0.0392098,0.0994886
2.32457,0.151138,-0.108511
2.33747,0.151978,0.287612
2.43957,0.0391762,0.19918
2.20778,0.252327,-0.090533
2.4434,0.0392377,0.445552
2.31848,0.150742,-0.0540635
2.33159,0.143423,0
2.59411,-0.0942152,-0.0302203
2.45202,0.0308146,-0.312135
2.22237,0.246138,0.0129954
2.45976,0.0309119,-0.0142973
2.32612,0.143087,-0.251036
2.59102,-0.0941028,-0.242026
2.33495,0.14363,0.0544357
2.58612,-0.0939248,0.0301271
2.33786,0.143809,-0.163788
2.46361,0.0309602,-0.201133
2.22544,0.246478,0.0651628
2.45543,0.0308574,0.0428631
2.59788,-0.094352,-0.151394
2.33961,0.143916,0.13651
2.45377,0.0308366,0.0999771
2.33704,0.143759,-0.109069
2.46442,0.0309704,-0.129165
2.33799,0.143817,0.287612
2.45165,0.0308099,0.200157
2.2166,0.245498,-0.0908587
2.45533,0.0308561,0.447705
2.33895,0.143875,-0.0545288
2.34002,0.136564,0
2.5978,-0.102522,-0.0302668
2.46401,0.0232238,-0.31365
2.23507,0.240438,0.0130652
2.46785,0.02326,-0.0143438
2.3345,0.136242,-0.251892
2.60663,-0.10287,-0.243513
2.35136,0.137226,0.054808
2.5978,-0.102522,0.0302668
2.34229,0.136696,-0.164067
2.47167,0.023296,-0.201784
2.23018,0.239913,0.0652792
2.46751,0.0232569,0.0430725
2.60555,-0.102828,-0.151859
2.35201,0.137264,0.137208
2.46585,0.0232411,0.100466
2.34546,0.136882,-0.109441
2.4685,0.0232662,-0.129375
2.34636,0.136934,0.288587
2.45174,0.0231081,0.200157
2.22133,0.238961,-0.0910215
2.46328,0.023217,0.44914
2.34338,0.13676,-0.0546219
2.47102,0.0142332,-0.494216
2.35249,0.128642,0
2.6054,-0.112386,-0.0303599
2.46805,0.014216,-0.314155
2.24389,0.233072,0.0131117
2.47992,0.0142844,-0.0144135
2.34293,0.12812,-0.252749
2.61419,-0.112766,-0.244257
2.35584,0.128826,0.054901
2.61339,-0.112731,0.0304531
2.35472,0.128765,-0.164904
2.48768,0.0143292,-0.203086
2.23502,0.232151,0.0653955
2.46758,0.0142134,0.0430725
2.61713,-0.112892,-0.152557
2.36047,0.129079,0.137673
2.4779,0.0142728,0.100954
2.35792,0.128939,-0.11
2.48455,0.0143111,-0.130212
2.3627,0.129201,0.290537
2.45978,0.0141684,0.200808
2.23014,0.231644,-0.0913472
2.48302,0.0143023,0.452727
2.35983,0.129044,-0.0549941
2.48282,0.00563366,-0.496569
2.34893,0.120225,0
2.62097,-0.122226,-0.0305462
2.47602,0.00561821,-0.315165
2.24469,0.225237,0.0131117
2.48795,0.00564529,-0.01446
2.6297,-0.122633,-0.245744
2.36826,0.121214,0.0551802
2.62097,-0.122226,0.0305462
2.35914,0.120748,-0.165183
2.49968,0.0056719,-0.204062
2.24378,0.225146,0.0656282
2.47962,0.00562638,0.043282
2.24013,0.22478,-0.144288
2.62071,-0.122214,-0.152789
2.35692,0.120634,0.137441
2.48993,0.00564978,0.101443
2.36633,0.121116,-0.110372
2.49257,0.00565578,-0.130631
2.46778,0.00559953,0.201458
2.23889,0.224655,-0.0916728
2.48306,0.00563419,0.452727
2.36027,0.120805,-0.0549941
2.4946,-0.00261272,-0.498922
2.36929,0.11339,0
2.62455,-0.131117,-0.0305928
2.49189,-0.00260989,-0.317186
2.25339,0.218564,0.0131582
2.49596,-0.00261415,-0.0145065
2.63325,-0.131552,-0.246116
2.37264,0.113551,0.0552732
2.64053,-0.131916,0.030779
2.37149,0.113496,-0.16602
2.50367,-0.00262223,-0.204388
2.24849,0.218089,0.0657446
2.49162,-0.0026096,0.0434914
2.63225,-0.131502,-0.153487
2.37326,0.11358,0.138371
2.49393,-0.00261202,0.101605
2.36672,0.113267,-0.110372
2.50456,-0.00262316,-0.131259
2.37542,0.113684,0.291999
2.48374,-0.00260135,0.20276
2.24758,0.218001,-0.0919985
2.49487,-0.00261301,0.454879
2.36865,0.11336,-0.0551802
2.50634,-0.0118107,-0.501276
2.36969,0.104706,0
2.64402,-0.141806,-0.0308256
2.4998,-0.01178,-0.318196
2.26214,0.211047,0.0132047
2.50793,-0.0118183,-0.0145763
2.36798,0.104631,-0.255319
2.64468,-0.141842,-0.247231
2.38103,0.105207,0.0554593
2.64801,-0.142021,0.0308722
2.37189,0.104803,-0.16602
2.51159,-0.0118355,0.0438404
2.63973,-0.141576,-0.153952
2.38164,0.105234,0.138836
2.4979,-0.011771,0.101768
2.37111,0.104769,-0.110558
2.50454,-0.0118023,-0.131259
2.37979,0.105152,0.292486
2.49567,-0.0117605,0.203737
2.25632,0.210504,-0.0923241
2.50271,-0.0117937,0.456314
2.38503,0.105384,-0.0555524
2.51805,-0.0206554,-0.503629
2.37803,0.0967595,0
2.64351,-0.151034,-0.0308256
2.51165,-0.020603,-0.319711
2.27083,0.203865,0.0132512
2.51587,-0.0206376,-0.0146228
2.66008,-0.151981,-0.248718
2.39337,0.0973836,0.0557385
2.65549,-0.151719,0.0309653
2.38021,0.0968482,-0.166578
2.52352,-0.0207003,-0.206015
2.51153,-0.020602,0.0438404
2.65118,-0.151472,-0.15465
2.39396,0.0974075,0.139534
2.50983,-0.0205881,0.102257
2.38344,0.0969796,-0.111116
2.51247,-0.0206097,-0.131677
2.38808,0.0971681,0.293461
2.49561,-0.0204714,0.203737
2.26102,0.202985,-0.0924869
2.5184,-0.0206583,0.459184
2.39337,0.0973836,-0.0557385
2.5258,-0.0295373,-0.505198
2.65894,-0.16123,-0.0310118
2.5195,-0.0294636,-0.320721
2.27153,0.195937,0.0132512
2.51579,-0.0294202,-0.0146228
2.67543,-0.16223,-0.250205
2.40169,0.0893252,0.0559246
2.66692,-0.161714,0.031105
2.38851,0.0888351,-0.167137
2.53539,-0.0296495,-0.206991
2.26662,0.195513,0.0662101
2.51544,-0.0294162,0.0439103
2.66259,-0.161452,-0.155347
2.39828,0.0891982,0.139766
2.52573,-0.0295365,0.102908
2.38776,0.0888071,-0.111302
2.53635,-0.0296606,-0.132933
2.4003,0.0892736,0.294924
2.51147,-0.0293697,0.205038
2.26968,0.195778,-0.0928126
2.51831,-0.0294497,0.459184
2.39769,0.0891766,-0.0558315
2.52961,-0.0379714,-0.505983
2.66637,-0.170557,-0.031105
2.39381,0.0810846,-0.372635
2.53129,-0.0379965,-0.322237
2.28014,0.189065,0.0132977
2.53167,-0.0380023,-0.0147158
2.6868,-0.171864,-0.251321
2.40997,0.0816317,0.0561107
2.67435,-0.171067,0.0311981
2.39677,0.0811847,-0.167695
2.54325,-0.0381761,-0.207642
2.53933,-0.0381172,0.0443291
2.27948,0.18901,-0.146591
2.674,-0.171044,-0.156045
2.40255,0.0813804,0.139999
2.53361,-0.0380314,0.103234
2.39603,0.0811595,-0.111675
2.54422,-0.0381907,-0.133352
2.40455,0.0814483,0.295411
2.52332,-0.0378769,0.206015
2.28227,0.189241,-0.0933011
2.53,-0.0379772,0.461337
2.40997,0.0816317,-0.0561107
2.54907,-0.0471646,-0.509905
2.39889,0.0728736,0
2.67374,-0.180402,-0.0311981
2.55098,-0.0471999,-0.324762
2.54352,-0.0470619,-0.0147855
2.69414,-0.181778,-0.252064
2.41423,0.0733396,0.0562037
2.68571,-0.18121,0.0313378
2.409,0.0731808,-0.168532
2.28384,0.181346,0.0666755
2.54718,-0.0471295,0.0444687
2.28809,0.181684,-0.147102
2.68533,-0.181185,-0.156743
2.41479,0.0733566,0.140696
2.53746,-0.0469498,0.103397
2.40029,0.072916,-0.111861
2.55206,-0.0472199,-0.133771
2.40879,0.0731743,0.295899
2.53513,-0.0469067,0.206991
2.29088,0.181906,-0.0936268
2.54166,-0.0470274,0.463489
2.42223,0.0735824,-0.0563898
2.5423,-0.0563606,-0.0740063
2.54496,-0.0564196,-0.509121
2.68902,-0.191336,-0.0313844
2.41409,0.0644804,-0.37571
2.55872,-0.0567247,-0.325772
2.55533,-0.0566495,-0.0148553
2.71331,-0.193064,-0.253923
2.42248,0.0647046,0.0563898
2.697,-0.191903,0.0314775
2.40926,0.0643514,-0.168532
2.29246,0.173579,0.0669082
2.55898,-0.0567304,0.0446782
2.30068,0.174201,-0.14787
2.6966,-0.191875,-0.15744
2.42303,0.0647192,0.141162
2.54926,-0.0565149,0.103885
2.40853,0.0643319,-0.112233
2.56385,-0.0568384,-0.134399
2.41301,0.0644517,0.296386
2.53893,-0.0562859,0.207317
2.30748,0.174715,-0.0942781
2.5572,-0.056691,0.466359
2.42648,0.0648113,-0.0564829
2.30166,0.166196,-0.0402802
2.56043,-0.0657058,-0.512258
2.69232,-0.201019,-0.0314309
2.56644,-0.0658599,-0.326782
2.56711,-0.0658771,-0.014925
2.43069,0.0564334,0.056576
2.7003,-0.201615,0.0315241
2.57459,-0.0660689,-0.210246
2.57476,-0.0660734,0.0449574
2.30526,0.166456,-0.148126
2.71184,-0.202477,-0.158371
2.43122,0.0564459,0.141627
2.56103,-0.0657211,0.104373
2.56763,-0.0658904,-0.134608
2.42513,0.0563043,0.297849
2.30408,0.166372,-0.0941152
2.56092,-0.0657184,0.467077
2.43868,0.056619,-0.0567621
2.56582,-0.0748072,-0.0747045
2.57195,-0.0749859,-0.514612
2.70756,-0.211663,-0.0316172
2.57809,-0.075165,-0.328297
2.30652,0.158456,0.0134371
2.57886,-0.0751873,-0.0149947
2.73572,-0.213865,-0.256154
2.44286,0.0481849,0.0568551
2.70756,-0.211663,0.0316172
2.42959,0.0479232,-0.169927
2.58231,-0.0752879,-0.210897
2.57451,-0.0750606,0.0449574
2.31379,0.158955,-0.148637
2.72306,-0.212875,-0.159068
2.4354,0.0480377,0.141859
2.57277,-0.0750098,0.104862
2.58336,-0.0753184,-0.135445
2.43325,0.0479953,0.298824
2.5584,-0.0745908,0.208944
2.31661,0.15915,-0.0946037
2.31471,0.151308,-0.0404896
2.56556,-0.0833154,-0.0747045
2.58345,-0.0838963,-0.516965
2.44367,0.0400947,0
2.72278,-0.22194,-0.0318034
2.44229,0.040072,-0.380014
2.58576,-0.0839714,-0.329308
2.58659,-0.0839984,-0.0150412
2.455,0.0402807,0.0571343
2.72278,-0.22194,0.0318034
2.4457,0.040128,-0.171043
2.31408,0.151267,0.06749
2.59424,-0.0842466,0.0453064
2.32227,0.151803,-0.149149
2.73428,-0.222877,-0.159766
2.44353,0.0400924,0.142324
2.58449,-0.0839302,0.10535
2.43703,0.0399857,-0.113536
2.59507,-0.0842737,-0.136073
2.44133,0.0400564,0.299799
2.57806,-0.0837213,0.210571
2.32909,0.152249,-0.0950922
2.58795,-0.0840425,0.472099
2.455,0.0402807,-0.0571343
2.3232,0.143721,-0.0406292
2.57724,-0.0927015,-0.0750536
2.5949,-0.0933367,-0.519319
2.4518,0.0316678,0
2.72996,-0.232121,-0.0318966
2.45427,0.0316997,-0.381859
2.59338,-0.0932822,-0.330318
2.59828,-0.0934581,-0.015111
2.75405,-0.234168,-0.258013
2.45513,0.0317109,0.0571343
2.73395,-0.23246,0.0319431
2.4538,0.0316937,-0.171601
2.32257,0.143682,0.0677228
2.33474,0.144435,-0.149916
2.74543,-0.233435,-0.160464
2.44765,0.0316142,0.142557
2.58818,-0.0930949,0.105513
2.45337,0.0316881,0.301261
2.59369,-0.0932931,0.211873
2.34956,0.145351,-0.0959064
2.59551,-0.0933585,0.473534
2.46313,0.0318141,-0.0573204
2.33567,0.13631,-0.0408386
2.58889,-0.10217,-0.0754027
2.6024,-0.102703,-0.520888
2.45989,0.0231846,0
2.74507,-0.24306,-0.0320828
2.45832,0.0231698,-0.382474
2.6089,-0.10296,-0.332338
2.60992,-0.103,-0.0151807
2.76511,-0.244834,-0.259128
2.46322,0.023216,0.0573204
2.74507,-0.24306,0.0320828
2.45789,0.0231657,-0.17188
2.33105,0.13604,0.0679555
2.34718,0.136982,-0.150684
2.76448,-0.244778,-0.161626
2.46372,0.0232207,0.143487
2.6118,-0.103074,0.10649
2.45323,0.0231218,-0.11428
2.61437,-0.103176,-0.13712
2.46141,0.0231989,0.302236
2.59733,-0.102503,0.212199
2.35005,0.137149,-0.0959064
2.60303,-0.102728,0.474969
2.47122,0.0232914,-0.0575065
2.34012,0.128375,-0.0409084
2.6005,-0.111721,-0.0757518
2.61378,-0.112292,-0.523241
2.47196,0.0146691,0
2.75616,-0.25374,-0.0322225
2.46629,0.0146354,-0.383704
2.62439,-0.112748,-0.334358
2.34444,0.128612,0.0136464
2.62154,-0.112625,-0.0152505
2.78011,-0.255945,-0.260615
2.46729,0.0146414,0.0574134
2.75616,-0.25374,0.0322225
2.47791,0.0147044,-0.173275
2.62086,-0.112596,-0.214151
2.35163,0.129006,-0.15094
2.77952,-0.255891,-0.162557
2.47177,0.0146679,0.143952
2.6234,-0.112705,0.106979
2.46528,0.0146295,-0.114839
2.62597,-0.112816,-0.137748
2.46544,0.0146304,0.302723
2.60492,-0.111911,0.212849
2.3545,0.129164,-0.0960692
2.47929,0.0147126,-0.0576926
2.35651,0.121438,-0.0411877
2.62515,-0.121503,-0.525594
2.47999,0.00649262,0
2.77123,-0.264398,-0.0324088
2.47818,0.00648787,-0.385548
2.624,-0.12145,-0.334358
2.63314,-0.121873,-0.0153202
2.47368,0.0064761,-0.266457
2.79114,-0.266298,-0.261731
2.48332,0.00650133,0.0577856
2.76725,-0.264018,0.0323622
2.48592,0.00650814,-0.173833
2.6364,-0.122024,-0.215453
2.35188,0.121199,0.0685373
2.63278,-0.121856,0.0460045
2.36002,0.121618,-0.151451
2.7866,-0.265865,-0.163022
2.48778,0.006513,0.144882
2.631,-0.121774,0.107304
2.4853,0.00650651,-0.115769
2.48533,0.00650659,0.305161
2.6125,-0.120918,0.2135
2.36689,0.121973,-0.0965577
2.49132,0.00652227,-0.0579717
2.36094,0.112991,-0.0412575
2.63643,-0.131711,-0.527948
2.492,-0.00260962,0
2.79412,-0.27692,-0.0326882
2.63542,-0.13166,-0.335873
2.64066,-0.131922,-0.0153667
2.49532,-0.0026131,0.0580648
2.78616,-0.276131,0.032595
2.50189,-0.00261997,-0.174949
2.64788,-0.132282,-0.21643
2.36429,0.113151,0.0688864
2.6403,-0.131904,0.0461442
2.36842,0.113349,-0.151963
2.79356,-0.276865,-0.163487
2.49178,-0.00260938,0.145115
2.64251,-0.132014,0.107793
2.4933,-0.00261097,-0.116142
2.50121,-0.00261927,0.307111
2.62797,-0.131288,0.214802
2.37531,0.113679,-0.0968833
2.49595,-0.00261376,0.668788
2.63325,-0.131552,0.480709
2.49132,-0.00260891,-0.0579717
2.36931,0.105104,-0.0413971
2.64771,-0.141541,-0.530301
2.49597,-0.0113265,0
2.80507,-0.287897,-0.0328279
2.65476,-0.141918,-0.338399
2.65616,-0.141993,-0.0154597
2.4993,-0.0113415,0.0581579
2.8011,-0.287489,0.0327813
2.51384,-0.0114075,-0.175786
2.37666,0.105429,0.0692355
2.64782,-0.141547,0.0462838
2.38077,0.105612,-0.152731
2.80449,-0.287837,-0.164185
2.50373,-0.0113617,0.145813
2.65001,-0.141664,0.108119
2.50126,-0.0113504,-0.116514
2.65656,-0.142014,-0.139423
2.5131,-0.0114042,0.308573
2.6474,-0.141525,0.21643
2.38767,0.105918,-0.0973718
2.4993,-0.0113415,-0.0581579
2.38163,0.097738,-0.0416065
2.65506,-0.150765,-0.53187
2.50792,-0.0196976,0
2.81206,-0.298041,-0.032921
2.50578,-0.0196807,-0.389853
2.65824,-0.150946,-0.338904
2.37796,0.0975873,0.0138324
2.50543,-0.019678,-0.269885
2.51124,-0.0197237,0.058437
2.81206,-0.298041,0.032921
2.51777,-0.0197749,-0.176065
2.66682,-0.151433,-0.218057
2.38498,0.0978755,0.0694682
2.65931,-0.151007,0.0464932
2.38908,0.0980438,-0.153242
2.52365,-0.0198211,0.146975
2.65751,-0.150904,0.108444
2.5132,-0.019739,-0.117072
2.65607,-0.150823,-0.139423
2.51305,-0.0197378,0.308573
2.64692,-0.150303,0.21643
2.392,0.0981635,-0.0975347
2.51124,-0.0197237,-0.058437
2.38596,0.089574,-0.0416763
2.66626,-0.16074,-0.534224
2.51984,-0.0285879,0
2.82293,-0.309161,-0.0330607
2.66957,-0.16094,-0.340419
2.38628,0.0895862,0.0138789
2.51728,-0.0285588,-0.27117
2.52315,-0.0286255,0.0587162
2.8269,-0.309596,0.0331072
2.52567,-0.028654,-0.176623
2.67025,-0.160981,-0.218382
2.3893,0.0896998,0.0695846
2.67074,-0.16101,0.0467026
2.40138,0.090153,-0.15401
2.52755,-0.0286754,0.147208
2.67293,-0.161142,0.109096
2.5251,-0.0286476,-0.117631
2.67546,-0.161295,-0.14047
2.65831,-0.160261,0.217406
2.40032,0.0901132,-0.0978603
2.51125,-0.0284904,0.67293
2.51916,-0.0285801,-0.0586231
2.39425,0.0815171,-0.041816
2.53043,-0.0375425,-0.708444
2.68525,-0.171295,-0.538146
2.53972,-0.0376803,0
2.83376,-0.320361,-0.0332004
2.52139,-0.0374083,-0.392312
2.68088,-0.171015,-0.341934
2.40257,0.0818003,0.0139718
2.6825,-0.171119,-0.0156224
2.52511,-0.0374636,-0.272027
2.54303,-0.0377294,0.0591814
2.83773,-0.32081,0.0332469
2.53752,-0.0376477,-0.17746
2.68559,-0.171316,-0.219684
2.3976,0.0816311,0.0698173
2.67416,-0.170587,0.0467725
2.40168,0.0817701,-0.15401
2.54341,-0.037735,0.148138
2.68032,-0.17098,0.109421
2.53697,-0.0376395,-0.118189
2.68684,-0.171396,-0.141098
2.54064,-0.0376939,0.311986
2.67365,-0.170555,0.218708
2.4126,0.0821419,-0.0983488
2.52704,-0.0374921,-0.0588092
2.39852,0.0732813,-0.0418858
2.53414,-0.0464457,-0.709522
2.53957,-0.0465453,0
2.84851,-0.332103,-0.0333866
2.68818,-0.180905,-0.342945
2.40684,0.0735355,0.0139951
2.68987,-0.181019,-0.0156689
2.52894,-0.0463505,-0.272455
2.55088,-0.0467526,0.0593675
2.85248,-0.332567,0.0334332
2.54935,-0.0467244,-0.178298
2.40586,0.0735056,0.07005
2.68153,-0.180457,0.0469121
2.40993,0.07363,-0.154521
2.85975,-0.333414,-0.167673
2.54326,-0.0466129,0.148138
2.54481,-0.0466413,-0.118561
2.6942,-0.18131,-0.141516
2.54446,-0.0466349,0.312473
2.681,-0.180422,0.219359
2.41687,0.073842,-0.0985116
2.53489,-0.0464594,-0.0589953
2.41075,0.065233,-0.0420952
2.55139,-0.0556716,0
2.85925,-0.343476,-0.0335263
2.54082,-0.0554409,-0.395387
2.70732,-0.191689,-0.34547
2.42307,0.0655664,0.0140881
2.70119,-0.191255,-0.0157387
2.5547,-0.0557438,0.0594606
2.86719,-0.34443,0.0336195
2.56114,-0.0558842,-0.179135
2.41409,0.0653235,0.0702827
2.69684,-0.190946,0.0471913
2.41815,0.0654333,-0.155033
2.55506,-0.0557516,0.148836
2.69501,-0.190817,0.110073
2.55662,-0.0557856,-0.11912
2.70949,-0.191842,-0.142354
2.56016,-0.0558629,0.314423
2.6883,-0.190342,0.22001
2.4211,0.0655132,-0.0986745
2.5507,-0.0556565,-0.0593675
2.41896,0.057006,-0.0422348
2.55518,-0.0646785,0
2.87391,-0.355418,-0.0337126
2.55642,-0.0647098,-0.397847
2.71851,-0.20202,-0.346985
2.43128,0.0572964,0.0141346
2.72045,-0.202165,-0.0158549
2.55241,-0.0646084,-0.275025
2.57048,-0.0650657,0.0598328
2.86994,-0.354927,0.033666
2.56491,-0.0649248,-0.179414
2.4263,0.0571789,0.0706318
2.71211,-0.201544,0.0474705
2.42236,0.057086,-0.155289
2.57082,-0.0650743,0.149766
2.71027,-0.201408,0.110724
2.5604,-0.0648106,-0.119306
2.72075,-0.202187,-0.142982
2.56392,-0.0648996,0.31491
2.70353,-0.200907,0.221311
2.42931,0.0572499,-0.0990001
2.55849,-0.0647622,-0.0595536
2.56694,-0.0739429,0
2.88852,-0.367466,-0.0338988
2.56013,-0.0737468,-0.398462
2.44747,0.0491304,0.0142276
2.72771,-0.21228,-0.0159014
2.56012,-0.0737466,-0.275882
2.57424,-0.0741532,0.0599259
2.88455,-0.366962,0.0338523
2.56866,-0.0739926,-0.179693
2.42648,0.0487092,0.0706318
2.72734,-0.212251,0.0477498
2.43052,0.0487903,-0.155801
2.58255,-0.0743927,0.150464
2.72549,-0.212108,0.111375
2.57214,-0.0740929,-0.119864
2.70678,-0.210652,0.221637
2.43749,0.0489301,-0.0993258
2.58223,-0.0743834,-0.060112
2.43529,0.0403824,-0.0425141
2.72186,-0.221386,-0.0794753
2.57066,-0.0830318,0
2.90705,-0.38014,-0.0341317
2.57171,-0.0830656,-0.400306
2.74472,-0.223246,-0.350521
2.44762,0.0405869,0.0142276
2.73492,-0.222449,-0.0159479
2.57177,-0.0830678,-0.277167
2.90309,-0.379622,0.0340851
2.58434,-0.0834737,-0.180809
2.44263,0.0405041,0.0710973
2.72658,-0.22177,0.0477498
2.43866,0.0404382,-0.156312
2.7327,-0.222268,0.111701
2.58385,-0.0834579,-0.120423
2.58721,-0.0835664,0.317835
2.72193,-0.221392,0.222939
2.44164,0.0404876,-0.0994886
2.59395,-0.0837839,-0.0603911
2.72903,-0.231562,-0.0797081
2.58634,-0.0925769,0
2.5793,-0.0923248,-0.401536
2.45175,0.0320952,0.0142508
2.74609,-0.233009,-0.0160176
2.60163,-0.0931241,0.0605772
2.9176,-0.391883,0.0342714
2.59201,-0.0927796,-0.181367
2.44675,0.0320298,0.0712136
2.74571,-0.232977,0.0480988
2.44677,0.03203,-0.156824
2.59793,-0.0929917,0.151394
2.74386,-0.23282,0.112189
2.59153,-0.0927625,-0.120795
2.59484,-0.092881,0.31881
2.72511,-0.231229,0.223264
2.44976,0.0320691,-0.0998143
2.59763,-0.092981,-0.0604842
2.74016,-0.242142,-0.0800572
2.598,-0.102076,0
2.93206,-0.40425,-0.0344576
2.60661,-0.102414,-0.40584
2.76681,-0.244497,-0.353551
2.46385,0.0236519,0.0143206
2.75721,-0.243649,-0.0160874
2.61328,-0.102676,0.0608564
2.9281,-0.403703,0.034411
2.59964,-0.10214,-0.181925
2.45885,0.0236039,0.0715627
2.76082,-0.243968,0.0483781
2.60557,-0.102373,0.151859
2.75099,-0.2431,0.112515
2.59518,-0.101965,-0.120981
2.60243,-0.10225,0.319785
2.74414,-0.242495,0.224891
2.46584,0.0236711,-0.100466
2.60928,-0.102519,-0.0607633
2.75522,-0.253169,-0.0805226
2.60623,-0.111512,-0.40584
2.47591,0.0151246,0.0143903
2.77227,-0.254736,-0.0161804
2.62089,-0.112139,0.0610425
2.93856,-0.415602,0.0345507
2.60724,-0.111555,-0.182483
2.46291,0.0150452,0.0716791
2.7719,-0.254702,0.0485875
2.4629,0.0150452,-0.157847
2.61318,-0.111809,0.152324
2.75808,-0.253432,0.112841
2.60279,-0.111365,-0.121353
2.60603,-0.111503,0.320273
2.75122,-0.252802,0.225542
2.4739,0.0151124,-0.100791
2.6169,-0.111968,-0.0609494
2.76635,-0.262959,-0.0808717
2.62124,-0.120405,0
2.61772,-0.120243,-0.407685
2.48395,0.00737003,0.0144368
2.62852,-0.120739,0.0612286
2.61884,-0.120295,-0.18332
2.47494,0.00734331,0.0720282
2.48689,0.00737876,-0.159382
2.62478,-0.120568,0.153022
2.78115,-0.264365,0.113818
2.6184,-0.120275,-0.122098
2.62153,-0.120418,0.322223
2.76232,-0.262575,0.226519
2.46994,0.00732847,-0.100628
2.48362,-0.00173386,-0.0433518
2.78129,-0.274668,-0.0813371
2.63305,-0.13062,-0.410145
2.48796,-0.00173689,0.01446
2.63351,-0.130643,-0.284021
2.63604,-0.130769,0.0614147
2.63831,-0.130881,-0.184715
2.48295,-0.00173339,0.0722609
2.79796,-0.276315,0.0490762
2.4869,-0.00173615,-0.159382
2.64027,-0.130979,0.153952
2.79607,-0.276128,0.114469
2.63789,-0.13086,-0.123028
2.63296,-0.130616,0.323685
2.78117,-0.274657,0.228146
2.49393,-0.00174106,-0.101605
2.64403,-0.131165,-0.0616008
2.4916,-0.0104368,-0.0434914
2.78827,-0.285189,-0.0815699
2.63229,-0.139795,0
2.64836,-0.140649,-0.412604
2.49194,-0.0104383,0.0144833
2.63701,-0.140046,-0.28445
2.64755,-0.140606,0.0616939
2.64182,-0.140301,-0.184994
2.49892,-0.0104675,0.0727263
2.50284,-0.0104839,-0.160406
2.63581,-0.139982,0.15372
2.80701,-0.287106,0.114957
2.64141,-0.14028,-0.123214
2.63249,-0.139806,0.323685
2.78813,-0.285175,0.228797
2.5099,-0.0105135,-0.102257
2.65554,-0.14103,-0.06188
2.49955,-0.0187593,-0.043631
2.64779,-0.149425,0
2.65972,-0.150099,-0.414449
2.49989,-0.0187618,0.0145298
2.82026,-0.297914,-0.0164826
2.64844,-0.149462,-0.285735
2.65106,-0.14961,0.0617869
2.66126,-0.150185,-0.186389
2.50287,-0.0187842,0.0728427
2.51078,-0.0188435,-0.160917
2.6473,-0.149397,0.154417
2.81002,-0.296833,0.11512
2.65689,-0.149939,-0.123959
2.64391,-0.149206,0.325147
2.80303,-0.296094,0.230099
2.51784,-0.0188965,-0.102582
2.65905,-0.150061,-0.061973
2.50747,-0.0275721,-0.0437706
2.80613,-0.30633,-0.0821517
2.65923,-0.159385,0
2.66707,-0.159855,-0.415679
2.51181,-0.0276198,0.0145995
2.66378,-0.159658,-0.287448
2.65851,-0.159341,0.061973
2.66072,-0.159474,-0.186389
2.51079,-0.0276086,0.0730754
2.83473,-0.309452,0.0497743
2.51469,-0.0276515,-0.161173
2.67067,-0.160071,0.155813
2.82883,-0.308808,0.115934
2.6723,-0.160168,-0.124703
2.65526,-0.159147,0.32661
2.81783,-0.307607,0.231401
2.52975,-0.0278171,-0.103071
2.67448,-0.160298,-0.0623452
2.53134,-0.0371141,-0.0441895
2.82486,-0.318856,-0.0827335
2.67459,-0.170146,0
2.6783,-0.170382,-0.417524
2.51969,-0.0369432,0.014646
2.68302,-0.170682,-0.28959
2.68185,-0.170608,0.0625313
2.67604,-0.170238,-0.187505
2.51866,-0.0369282,0.0733081
2.84549,-0.321185,0.0499837
2.53852,-0.0372193,-0.162708
2.67405,-0.170112,0.156045
2.8396,-0.320519,0.116423
2.68765,-0.170976,-0.125448
2.66654,-0.169634,0.328072
2.53762,-0.0372061,-0.103397
2.68185,-0.170608,-0.0625313
2.5392,-0.0456519,-0.0443291
2.83967,-0.330068,-0.0831989
2.682,-0.179549,0
2.6935,-0.180318,-0.419983
2.52755,-0.0454424,0.0146925
2.69038,-0.18011,-0.290447
2.68526,-0.179767,0.0626244
2.69139,-0.180177,-0.188622
2.53052,-0.0454958,0.0736572
2.84839,-0.331081,0.0500535
2.54237,-0.0457089,-0.162964
2.68543,-0.179778,0.156743
2.85837,-0.332241,0.117237
2.69903,-0.180689,-0.126006
2.68577,-0.179801,0.33051
2.54947,-0.0458366,-0.103885
2.69324,-0.180301,-0.0628105
2.53903,-0.0545151,-0.0443291
2.85041,-0.341405,-0.083548
2.69332,-0.189753,0
2.69679,-0.189997,-0.420598
2.54337,-0.0546083,0.0147855
2.87143,-0.343922,-0.0168081
2.70164,-0.190338,-0.291732
2.70456,-0.190545,0.0630896
2.70667,-0.190693,-0.189738
2.54633,-0.054672,0.0741227
2.55816,-0.0549259,-0.163987
2.69275,-0.189712,0.157208
2.56128,-0.054993,-0.104373
2.6926,-0.189701,-0.0628105
2.5548,-0.0642227,-0.0446084
2.86501,-0.35381,-0.0840135
2.70458,-0.20051,0
2.7079,-0.200757,-0.422443
2.55515,-0.0642314,0.0148553
2.71679,-0.201415,-0.293446
2.70783,-0.200752,0.0631827
2.72187,-0.201792,-0.190854
2.56211,-0.0644063,0.0745881
2.56991,-0.0646026,-0.164755
2.70797,-0.200761,0.158138
2.87972,-0.355626,0.118214
2.72157,-0.20177,-0.127123
2.71213,-0.20107,0.333922
2.57305,-0.0646815,-0.104862
2.70783,-0.200752,-0.0631827
2.57458,-0.0728139,-0.0449574
2.87975,-0.364819,-0.0844789
2.7159,-0.209931,0
2.71514,-0.209872,-0.423673
2.56293,-0.0724845,0.0149017
2.72407,-0.210562,-0.294303
2.72314,-0.21049,0.0635549
2.56988,-0.0726811,0.0748209
2.57768,-0.0729016,-0.165266
2.72325,-0.210499,0.159068
2.89445,-0.36668,0.118865
2.72336,-0.210508,0.335384
2.71915,-0.210182,-0.0634618
2.5823,-0.0820545,-0.045097
2.89829,-0.377451,-0.0850607
2.7311,-0.220698,0
2.71833,-0.219667,-0.424288
2.58265,-0.0820656,0.015018
2.73917,-0.221351,-0.296016
2.73434,-0.220961,0.0638341
2.57761,-0.0819052,0.0750536
2.58938,-0.0822793,-0.166034
2.90504,-0.37833,0.119354
2.73053,-0.220652,0.336359
2.59254,-0.0823797,-0.105676
2.73434,-0.220961,-0.0638341
2.58597,-0.0921115,-0.0451668
2.91663,-0.391234,-0.0856425
2.74219,-0.232196,0
2.74898,-0.232771,-0.429207
2.59031,-0.0922664,0.0150645
2.74623,-0.232538,-0.296873
2.58926,-0.0922289,0.0754027
2.59702,-0.0925053,-0.166545
2.74944,-0.23281,0.338797
2.59765,-0.1007,-0.0453763
2.93123,-0.402571,-0.086108
2.75738,-0.24221,0
2.598,-0.100714,0.015111
2.75341,-0.241861,-0.29773
2.60869,-0.101128,-0.167313
2.76067,-0.242499,0.161394
2.74474,-0.241099,0.338309
2.61187,-0.101251,-0.10649
2.60927,-0.110273,-0.0455857
2.94961,-0.41559,-0.0866898
2.76847,-0.252925,0
2.61362,-0.110457,0.015204
2.75651,-0.251832,-0.298158
2.77762,-0.253761,-0.195039
2.61656,-0.110581,0.0762172
2.62028,-0.110739,-0.16808
2.61949,-0.110705,-0.106816
2.61285,-0.12002,-0.0456555
2.95598,-0.427543,-0.0869225
2.77549,-0.263827,0
2.62918,-0.12077,0.015297
2.7714,-0.263439,-0.299872
2.78462,-0.264695,-0.195597
2.62812,-0.120721,0.0765663
2.62384,-0.120525,-0.168336
2.78442,-0.264676,-0.130287
2.63104,-0.120855,-0.107304
2.62442,-0.129274,-0.0458649
2.78256,-0.273813,0
2.64075,-0.130078,0.0153667
2.79426,-0.274965,-0.302442
2.79564,-0.2751,-0.196434
2.6277,-0.129435,0.0765663
2.63539,-0.129814,-0.169104
2.79943,-0.275473,-0.131032
2.63861,-0.129973,-0.10763
2.63194,-0.138855,-0.0460045
2.79353,-0.284741,0
2.65227,-0.139928,0.0154364
2.8012,-0.285523,-0.303299
2.80657,-0.286071,-0.197271
2.63921,-0.139239,0.0769154
2.63891,-0.139223,-0.16936
2.8064,-0.286054,-0.131404
2.65011,-0.139814,-0.108119
2.80838,-0.296659,0
2.66372,-0.150324,0.0155062
2.82386,-0.298295,-0.305869
2.81344,-0.297194,-0.197829
2.65066,-0.149587,0.0772645
2.65432,-0.149794,-0.170383
2.66155,-0.150202,-0.108607
2.65483,-0.159121,-0.0464234
2.8272,-0.308631,0
2.67116,-0.1601,0.0155527
2.83071,-0.309013,-0.306726
2.82246,-0.308113,0.0660673
2.83618,-0.309611,-0.199504
2.6581,-0.159317,0.0774972
2.67371,-0.160252,-0.171662
2.83036,-0.308975,0.165813
2.67298,-0.160209,-0.109096
2.67425,-0.169186,-0.0467725
2.83014,-0.318451,0
2.68259,-0.169714,0.0156224
2.83732,-0.31926,0.0664395
2.66953,-0.168888,0.0778463
2.68511,-0.169874,-0.17243
2.84123,-0.319699,0.16651
2.68162,-0.179053,-0.0469121
2.8449,-0.330173,0
2.68996,-0.17961,0.0156689
2.84811,-0.330545,0.0667187
2.6769,-0.178738,0.078079
2.69645,-0.180044,-0.173197
2.84803,-0.330535,0.166975
2.69576,-0.179997,-0.110073
2.69291,-0.189724,-0.0471215
2.86353,-0.342976,0
2.69727,-0.190031,0.0157154
2.86673,-0.343359,0.067184
2.68421,-0.18911,0.0783117
2.70374,-0.190486,-0.173709
2.85869,-0.342396,0.167673
2.8707,-0.343835,-0.067277
2.70028,-0.19877,-0.0472611
2.70065,-0.198797,0.0157387
2.69955,-0.198716,0.0787772
2.87345,-0.353325,0.168603
2.88151,-0.354316,-0.0675562
2.71951,-0.209732,-0.0476102
2.7119,-0.209146,0.0158084
2.89216,-0.365878,0.0678353
2.71877,-0.209675,0.079359
2.73467,-0.220987,-0.0478894
2.90745,-0.378644,0
2.72706,-0.220372,0.0159014
2.73393,-0.220927,0.0798244
2.74986,-0.231396,-0.0481686
2.74625,-0.231092,0.0160176
2.73318,-0.229992,0.0798244
2.75339,-0.241375,0.0160641
2.76024,-0.241975,0.080639
2.76411,-0.25204,-0.0484479
2.76847,-0.252438,0.0161571
2.77132,-0.252698,0.080988
2.77909,-0.26368,-0.0487271
2.78345,-0.264094,0.0162501
2.7901,-0.274555,-0.0489365
2.80509,-0.285425,-0.0492158
2.8083,-0.285752,0.0821517
2.81198,-0.296543,-0.0493554
2.81633,-0.297003,0.0164593
2.81917,-0.297301,0.0825008
2.82688,-0.307597,-0.0496346
2.84169,-0.319249,-0.0499139
2.84605,-0.319738,0.0166453
