1.76341,-0.0569574,-0.164697
1.89941,0.124494,0.044293
1.76296,-0.0569429,0.0205349
1.88335,0.123442,-0.131979
1.82568,0.030274,-0.14906
1.94638,0.223483,0.0570174
1.82347,0.0302375,0.0318332
1.95115,0.224031,-0.125868
1.77207,-0.0572372,-0.103255
1.87679,0.123011,0.109534
1.82224,0.030217,0.0742501
1.89787,0.124393,-0.0885953
1.82924,0.0303331,-0.0958795
1.88972,0.123859,0.232527
1.80574,0.0299435,0.147432
1.94559,0.223393,-0.0797863
1.82171,0.0302083,0.332191
1.89542,0.124233,-0.0442
1.9437,0.216304,-0.0341369
1.80708,0.0236559,-0.0525957
1.82372,0.0238737,-0.364778
1.88438,0.116904,0
1.76675,-0.06324,-0.0205814
1.81718,0.0237881,-0.231323
1.94794,0.216775,0.0113914
1.82381,0.0238749,-0.0106009
1.88545,0.11697,-0.203484
1.75922,-0.0629705,-0.164325
1.88387,0.116872,0.0439208
1.74277,-0.0623816,0.020302
1.88377,0.116866,-0.131979
1.81381,0.023744,-0.148083
1.94715,0.216687,0.0570174
1.82357,0.0238717,0.0318332
1.94399,0.216335,-0.125357
1.76787,-0.0632802,-0.103022
1.86923,0.115964,0.109069
1.82233,0.0238555,0.0742501
1.89031,0.117272,-0.088223
1.81735,0.0237903,-0.0952514
1.87826,0.116524,0.231064
1.80584,0.0236396,0.147432
1.93842,0.215715,-0.0794606
1.81394,0.0237457,0.330756
1.88387,0.116872,-0.0439208
1.94047,0.20909,-0.0340671
1.79516,0.0172331,-0.0522466
1.81595,0.0174327,-0.363209
1.88877,0.11056,0
1.74653,-0.0686212,-0.0203486
1.87421,0.109707,-0.292082
1.81329,0.0174071,-0.230818
1.94073,0.209118,0.0113449
1.81589,0.0174321,-0.0105544
1.87393,0.109691,-0.202199
1.75501,-0.0689543,-0.163953
1.88426,0.110296,0.0439208
1.75852,-0.0690923,0.0204883
1.88417,0.11029,-0.131979
1.81787,0.0174511,-0.148409
1.93597,0.208605,0.0566684
1.81564,0.0174297,0.0316936
1.93679,0.208693,-0.124845
1.76764,-0.0694504,-0.103022
1.8776,0.109906,0.109534
1.81041,0.0173795,0.0737616
1.88273,0.110207,-0.0878508
1.81742,0.0174468,-0.0952514
1.88262,0.1102,0.231552
1.79395,0.0172215,0.146456
1.93518,0.20852,-0.0792978
1.81401,0.0174141,0.330756
1.88027,0.110062,-0.0438278
1.94119,0.202314,-0.0340671
1.79521,0.0109662,-0.0522466
1.80816,0.0110453,-0.36164
1.86518,0.102647,0
1.75028,-0.0748888,-0.0203952
1.81334,0.011077,-0.230818
1.93747,0.201927,0.0113216
1.81594,0.0110929,-0.0105544
1.87431,0.103149,-0.202199
1.75476,-0.0750804,-0.163953
1.87266,0.103058,0.0436417
1.74229,-0.0745468,0.020302
1.86462,0.102616,-0.130584
1.80995,0.0110563,-0.147758
1.93669,0.201845,0.0566684
1.81569,0.0110914,0.0316936
1.93354,0.201517,-0.124589
1.75941,-0.0752793,-0.102557
1.86601,0.102693,0.108836
1.81446,0.0110839,0.0739244
1.87912,0.103414,-0.0876646
1.81348,0.0110778,-0.0950421
1.8711,0.102972,0.230089
1.79799,0.0109832,0.146782
1.93192,0.201349,-0.079135
1.81012,0.0110574,0.330039
1.87266,0.103058,-0.0436417
1.93389,0.195074,-0.0339275
1.79123,0.00500224,-0.0521302
1.80034,0.00502767,-0.360071
1.8695,0.096668,0
1.74203,-0.0803237,-0.020302
1.86307,0.0963353,-0.290237
1.81733,0.00507512,-0.231323
1.93813,0.195501,0.0113216
1.80796,0.00504896,-0.0105079
1.87464,0.0969334,-0.202199
1.74654,-0.0805318,-0.16321
1.865,0.0964353,0.0434555
1.73404,-0.0799553,0.0202089
1.86495,0.0964325,-0.130584
1.802,0.0050323,-0.147107
1.92143,0.193817,0.0562029
1.81972,0.00508178,0.0317634
1.93817,0.195505,-0.124845
1.75516,-0.080929,-0.102325
1.86634,0.0965044,0.108836
1.80649,0.00504486,0.0735988
1.87945,0.0971822,-0.0876646
1.8135,0.00506443,-0.0950421
1.8635,0.0963574,0.229114
1.79004,0.0049989,0.146131
1.92463,0.194139,-0.0788093
1.80622,0.00504408,0.329321
1.87299,0.0968483,-0.0436417
1.92657,0.187883,-0.0337879
1.78724,-0.000936128,-0.0520139
1.80035,-0.000942991,-0.360071
1.85383,0.0896942,0
1.73776,-0.0859031,-0.0202555
1.85943,0.0899651,-0.289623
1.80146,-0.000943577,-0.229303
1.92285,0.18752,0.0112286
1.80397,-0.000944889,-0.0104847
1.86303,0.0901393,-0.200914
1.75024,-0.0865202,-0.163582
1.86931,0.0904429,0.0435486
1.72977,-0.0855081,0.0201624
1.85729,0.0898614,-0.130026
1.79403,-0.000939684,-0.146456
1.92206,0.187444,0.0562029
1.80772,-0.000946856,0.031554
1.91894,0.187139,-0.123566
1.75488,-0.0867494,-0.102325
1.85867,0.0899284,0.108371
1.8025,-0.000944122,0.0734359
1.8638,0.0901763,-0.0869201
1.80552,-0.000945702,-0.0946234
1.85984,0.0899849,0.228627
1.78606,-0.000935508,0.145805
1.92128,0.187368,-0.0786465
1.81016,-0.000948131,0.330039
1.86531,0.0902497,-0.0434555
1.91131,0.179326,-0.0335086
1.78323,-0.00746955,-0.0518975
1.79641,-0.00752476,-0.359287
1.85015,0.0827207,0
1.72545,-0.091635,-0.0201158
1.85185,0.0827966,-0.288393
1.80145,-0.00754587,-0.229303
1.91954,0.180098,0.0112054
1.79995,-0.00753961,-0.0104614
1.85938,0.0831331,-0.200486
1.74992,-0.0929342,-0.163582
1.86963,0.0835914,0.0435486
1.72945,-0.0918471,0.0201624
1.8576,0.0830539,-0.130026
1.79402,-0.00751474,-0.146456
1.91876,0.180025,0.0560866
1.79971,-0.00753859,0.0314143
1.91564,0.179732,-0.12331
1.74259,-0.092545,-0.101627
1.84303,0.0824024,0.107441
1.7945,-0.00751675,0.0731103
1.86411,0.083345,-0.0869201
1.79752,-0.0075294,-0.0942047
1.86016,0.0831681,0.228627
1.77807,-0.00744794,0.145154
1.91798,0.179952,-0.0784836
1.79047,-0.00749987,0.326451
1.86164,0.0832342,-0.0433625
1.90794,0.172294,-0.0334388
1.77919,-0.0136631,-0.0517812
1.79245,-0.0137648,-0.358502
1.85043,0.0762623,0
1.72911,-0.097883,-0.0201624
1.85608,0.0764951,-0.289008
1.79744,-0.0138032,-0.228798
1.9082,0.172317,0.0111356
1.79592,-0.0137915,-0.0104382
1.85568,0.0764788,-0.200057
1.74163,-0.0985914,-0.162838
1.85792,0.076571,0.0432694
1.72512,-0.097657,0.0201158
1.8539,0.0764052,-0.129747
1.79398,-0.0137766,-0.146456
1.90743,0.172247,0.0557375
1.79567,-0.0137896,0.0313445
1.91626,0.173045,-0.12331
1.74225,-0.0986269,-0.101627
1.8473,0.0761333,0.107673
1.79046,-0.0137496,0.0729474
1.84843,0.0761797,-0.0861756
1.80147,-0.0138342,-0.0944141
1.8525,0.0763478,0.227652
1.77405,-0.0136235,0.144829
1.91461,0.172896,-0.0783208
1.79437,-0.0137796,0.327169
1.85792,0.076571,-0.0432694
1.90054,0.165274,-0.0332992
1.77914,-0.0195627,-0.0517812
1.78455,-0.0196221,-0.356934
1.83069,0.0693688,0
1.72878,-0.103616,-0.0201624
1.84842,0.0700408,-0.287778
1.79342,-0.0197197,-0.228293
1.90876,0.165989,0.0111356
1.78786,-0.0196586,-0.0103917
1.85592,0.0703251,-0.200057
1.74129,-0.104366,-0.162838
1.85017,0.0701071,0.0430833
1.7208,-0.103138,0.0200692
1.84218,0.0698041,-0.12891
1.78595,-0.0196375,-0.145805
1.90002,0.165229,0.0555047
1.79562,-0.0197439,0.0313445
1.91284,0.166344,-0.123054
1.73395,-0.103926,-0.101162
1.83956,0.069705,0.107208
1.78241,-0.0195987,0.0726218
1.84867,0.0700501,-0.0861756
1.79343,-0.0197198,-0.0939954
1.84481,0.069904,0.226677
1.77,-0.0194622,0.144503
1.89925,0.165162,-0.0776695
1.78644,-0.0196429,0.325734
1.85017,0.0701071,-0.0430833
1.89313,0.157973,-0.0331596
1.77506,-0.0257154,-0.0516648
1.78447,-0.0258517,-0.356934
1.83092,0.0629776,0
1.71643,-0.108891,-0.0200227
1.84075,0.0633159,-0.286548
1.78937,-0.0259228,-0.227788
1.90535,0.158992,0.0111124
1.78378,-0.0258418,-0.0103685
1.83629,0.0631622,-0.197915
1.73694,-0.110192,-0.162466
1.84641,0.0635104,0.0429903
1.71244,-0.108638,0.0199761
1.83045,0.0629613,-0.128073
1.7779,-0.0257565,-0.145154
1.8966,0.158263,0.0553884
1.79554,-0.0260121,0.0313445
1.90148,0.158669,-0.122287
1.72959,-0.109725,-0.100929
1.83979,0.0632828,0.107208
1.78633,-0.0258787,0.0727846
1.8489,0.0635961,-0.0861756
1.78936,-0.0259225,-0.093786
1.82917,0.0629176,0.224727
1.76195,-0.0255255,0.143852
1.89583,0.158198,-0.0775067
1.78636,-0.0258791,0.325734
1.84641,0.0635104,-0.0429903
1.89768,0.151351,-0.0332294
1.76296,-0.0320031,-0.0513157
1.78436,-0.0323916,-0.356934
1.83913,0.0565126,0
1.71203,-0.114913,-0.0199761
1.84097,0.0565692,-0.286548
1.78133,-0.0323365,-0.226778
1.89794,0.151372,0.0110659
1.78768,-0.0324517,-0.0103917
1.8365,0.0564319,-0.197915
1.7246,-0.115757,-0.161351
1.84263,0.0566201,0.0428972
1.71602,-0.115181,0.0200227
1.83864,0.0564975,-0.128631
1.78178,-0.0323447,-0.14548
1.8892,0.150675,0.0551557
1.79143,-0.0325199,0.0312747
1.89807,0.151382,-0.122031
1.73316,-0.116331,-0.101162
1.84001,0.0565396,0.107208
1.77424,-0.0322077,0.0722961
1.84513,0.0566968,-0.0859895
1.78925,-0.0324803,-0.093786
1.83733,0.0564572,0.225702
1.89242,0.150931,-0.0773438
1.78232,-0.0323545,0.325016
1.84663,0.0567429,-0.0429903
1.88225,0.14351,-0.0329501
1.77084,-0.0383303,-0.0515484
1.78032,-0.0385356,-0.356149
1.83132,0.0498742,0
1.71561,-0.121171,-0.0200227
1.83326,0.049927,-0.285318
1.78121,-0.0385548,-0.226778
1.89048,0.144137,0.0110194
1.77555,-0.0384325,-0.010322
1.82476,0.0496956,-0.19663
1.73214,-0.122338,-0.162094
1.84282,0.0501873,0.0428972
1.71162,-0.120889,0.0199761
1.82686,0.0497527,-0.127794
1.77767,-0.0384782,-0.145154
1.78331,-0.0386003,0.0311351
1.89062,0.144148,-0.121519
1.72079,-0.121536,-0.100464
1.82822,0.0497898,0.106511
1.7821,-0.0385742,0.0726218
1.84132,0.0501465,-0.0858034
1.78513,-0.0386398,-0.0935767
1.83355,0.0499348,0.225215
1.75375,-0.0379606,0.143201
1.88895,0.14402,-0.077181
1.77039,-0.0383207,0.322864
1.83882,0.0500784,-0.0428042
1.88274,0.136938,-0.0329501
1.7587,-0.0442103,-0.0511993
1.77233,-0.0445529,-0.35458
1.82749,0.0433862,0
1.7072,-0.126567,-0.0199295
1.83342,0.0435271,-0.285318
1.77313,-0.044573,-0.225768
1.88698,0.137247,0.0109961
1.77141,-0.0445298,-0.0102987
1.84083,0.043703,-0.198344
1.71978,-0.1275,-0.160979
1.83898,0.0436592,0.0428042
1.71119,-0.126863,0.0199761
1.82702,0.0433752,-0.127794
1.77752,-0.0446835,-0.145154
1.88223,0.136901,0.0549229
1.77917,-0.0447248,0.0310653
1.8951,0.137837,-0.121775
1.71637,-0.127247,-0.100232
1.82839,0.0434076,0.106511
1.76598,-0.0443932,0.0719705
1.83349,0.0435289,-0.0854311
1.777,-0.0446703,-0.093158
1.82974,0.0434397,0.224727
1.75361,-0.0440823,0.143201
1.88545,0.137136,-0.0770182
1.76238,-0.0443028,0.321429
1.83499,0.0435643,-0.0427111
1.8752,0.13014,-0.0328105
1.75854,-0.0500421,-0.0511993
1.76825,-0.0503183,-0.353796
1.81162,0.0369991,0
1.71076,-0.132537,-0.0199761
1.8296,0.0373664,-0.284703
1.77694,-0.0505655,-0.226273
1.87945,0.130435,0.0109496
1.76726,-0.05029,-0.0102755
1.81711,0.0371111,-0.195773
1.71935,-0.133202,-0.160979
1.83112,0.0373974,0.0426181
1.69082,-0.130992,0.0197433
1.81519,0.0370719,-0.126957
1.77338,-0.0504643,-0.144829
1.8747,0.130105,0.0546902
1.77101,-0.0503969,0.0309257
1.87961,0.130446,-0.120752
1.71992,-0.133247,-0.100464
1.82054,0.0371811,0.106046
1.76182,-0.0501354,0.0718077
1.82164,0.0372038,-0.0848728
1.77285,-0.0504491,-0.0929487
1.8259,0.0372908,0.22424
1.88191,0.130606,-0.0768554
1.77009,-0.0503707,0.322864
1.83512,0.037479,-0.0427111
1.87565,0.123594,-0.0328105
1.75436,-0.0560525,-0.051083
1.76807,-0.0564904,-0.353796
1.81174,0.0306751,0
1.69832,-0.137539,-0.0198364
1.81392,0.030712,-0.282244
1.76882,-0.0565144,-0.225263
1.8759,0.123611,0.0109264
1.76307,-0.0563308,-0.0102522
1.81723,0.030768,-0.195773
1.71094,-0.13856,-0.160236
1.83524,0.031073,0.0427111
1.69832,-0.137539,0.0198364
1.80733,0.0306004,-0.126399
1.76522,-0.0563996,-0.144178
1.86716,0.123035,0.0544575
1.77882,-0.056834,0.0310653
1.88006,0.123885,-0.120752
1.71149,-0.138605,-0.0999991
1.82065,0.0308261,0.106046
1.76164,-0.0562851,0.0718077
1.81777,0.0307772,-0.0846866
1.76468,-0.0563821,-0.09253
1.81808,0.0307826,0.223265
1.87039,0.123247,-0.0763669
1.76204,-0.0562978,0.321429
1.83124,0.0310053,-0.0426181
1.8681,0.116222,-0.0326709
1.75414,-0.0624822,-0.051083
1.76393,-0.0628306,-0.353011
1.80784,0.0239815,0
1.69382,-0.143425,-0.0197898
1.81402,0.0240634,-0.282244
1.76463,-0.0628559,-0.224757
1.86836,0.116238,0.0108799
1.76685,-0.0629348,-0.0102755
1.81335,0.0240546,-0.195345
1.71439,-0.145166,-0.160607
1.82734,0.0242402,0.042525
1.69382,-0.143425,0.0197898
1.81541,0.0240819,-0.126957
1.76102,-0.0627272,-0.143852
1.85962,0.115694,0.0542248
1.75862,-0.0626415,0.0307162
1.86855,0.116249,-0.119984
1.71097,-0.144877,-0.0999991
1.81277,0.0240469,0.10558
1.75343,-0.0624569,0.071482
1.81787,0.0241145,-0.0846866
1.76845,-0.0629918,-0.0927393
1.81421,0.0240661,0.222777
1.7411,-0.0620176,0.142225
1.87083,0.116391,-0.0763669
1.75789,-0.0626155,0.320712
1.83134,0.0242933,-0.0426181
1.86047,0.109881,-0.0325313
1.75394,-0.0679927,-0.051083
1.80791,0.0183019,0
1.69336,-0.148746,-0.0197898
1.81408,0.0183644,-0.282244
1.76046,-0.0682456,-0.224252
1.86472,0.110132,0.0108567
1.75465,-0.0680204,-0.0102057
1.81342,0.0183577,-0.195345
1.70995,-0.150203,-0.160236
1.83141,0.0185398,0.0426181
1.68938,-0.148396,0.0197433
1.8035,0.0182573,-0.12612
1.76082,-0.0682593,-0.143852
1.86396,0.110087,0.0543411
1.75442,-0.0680111,0.0306464
1.86492,0.110143,-0.119729
1.70653,-0.149902,-0.0997666
1.81284,0.0183518,0.10558
1.75323,-0.0679651,0.071482
1.82193,0.0184439,-0.0848728
1.76824,-0.0685472,-0.0927393
1.81031,0.0183262,0.22229
1.86321,0.110042,-0.0760412
1.74982,-0.0678329,0.319277
1.81941,0.0184184,-0.0423389
1.85286,0.102942,-0.0323917
1.74171,-0.0736082,-0.0507339
1.79596,0.0119114,0
1.68885,-0.154292,-0.0197433
1.80623,0.0119796,-0.281014
1.76021,-0.0743903,-0.224252
1.86909,0.103844,0.0108799
1.75041,-0.0739759,-0.0101825
1.79756,0.0119221,-0.193631
1.70149,-0.155446,-0.159492
1.81947,0.0120673,0.0423389
1.68885,-0.154292,0.0197433
1.79957,0.0119354,-0.125841
1.75658,-0.0742369,-0.143527
1.85635,0.103136,0.0541084
1.75816,-0.0743036,0.0307162
1.85732,0.10319,-0.119217
1.69804,-0.155131,-0.0993015
1.8049,0.0119707,0.105115
1.74499,-0.0737471,0.0711563
1.80201,0.0119515,-0.0839422
1.76001,-0.0743818,-0.0923206
1.81036,0.012007,0.22229
1.73268,-0.0732269,0.141574
1.85959,0.103316,-0.0758784
1.74957,-0.0739405,0.319277
1.81947,0.0120673,-0.0423389
1.84522,0.096058,-0.032252
1.74144,-0.0796875,-0.0507339
1.75145,-0.0801453,-0.350658
1.78799,0.00561716,0
1.69228,-0.160564,-0.0197898
1.80231,0.00566214,-0.280399
1.75994,-0.0805342,-0.224252
1.86145,0.0969028,0.0108334
1.74215,-0.0797199,-0.010136
1.80555,0.00567231,-0.194488
1.69697,-0.161008,-0.15912
1.8075,0.00567845,0.0420598
1.6883,-0.160186,0.0197433
1.79561,0.00564108,-0.125562
1.75233,-0.0801858,-0.143201
1.8567,0.0966556,0.0541084
1.7539,-0.0802575,0.0306464
1.85767,0.0967061,-0.119217
1.69351,-0.16068,-0.0990689
1.80094,0.00565784,0.104883
1.74073,-0.0796551,0.0709935
1.79804,0.00564873,-0.083756
1.75176,-0.0801597,-0.0919019
1.80245,0.0056626,0.221315
1.72445,-0.0789102,0.140923
1.85595,0.0966164,-0.0757155
1.73358,-0.0793277,0.316407
1.8115,0.00569102,-0.0421528
1.84558,0.0889722,-0.032252
1.72914,-0.0857792,-0.0503848
1.74721,-0.0866754,-0.349873
1.788,-0.00124826,0
1.67573,-0.165488,-0.0196036
1.78256,-0.00124446,-0.277324
1.74773,-0.0867015,-0.222737
1.86181,0.0897547,0.0108334
1.73783,-0.0862104,-0.0101127
1.7976,-0.00125496,-0.193631
1.69237,-0.167132,-0.158748
1.81151,-0.00126467,0.0421528
1.67573,-0.165488,0.0196036
1.79162,-0.00125079,-0.125283
1.74803,-0.0867162,-0.142876
1.84508,0.0889481,0.0537593
1.74958,-0.0867932,0.0305766
1.85404,0.0893802,-0.118961
1.68891,-0.166789,-0.0988363
1.80494,-0.00126009,0.105115
1.73243,-0.0859424,0.0706678
1.79405,-0.00125248,-0.0835699
1.75144,-0.0868854,-0.0919019
1.79055,-0.00125004,0.219852
1.84433,0.088912,-0.0752271
1.73326,-0.0859835,0.316407
1.81151,-0.00126467,-0.0421528
1.84585,0.0831737,-0.032252
1.72088,-0.0907897,-0.0501521
1.74301,-0.0919573,-0.349089
1.78799,-0.00686541,0
1.67123,-0.170346,-0.019557
1.7865,-0.00685968,-0.277939
1.74349,-0.0919826,-0.222232
1.85009,0.083365,0.0107637
1.73356,-0.0914588,-0.0100895
1.80157,-0.00691755,-0.19406
1.68788,-0.172044,-0.158377
1.8075,-0.00694033,0.0420598
1.67123,-0.170346,0.019557
1.78363,-0.00684869,-0.124725
1.74377,-0.0919973,-0.142551
1.83736,0.0827912,0.0535266
1.7493,-0.0922893,0.0305766
1.84235,0.0830161,-0.118194
1.69235,-0.172499,-0.0990689
1.80094,-0.00691513,0.104883
1.72816,-0.091174,0.070505
1.79404,-0.00688866,-0.0835699
1.75116,-0.0923873,-0.0919019
1.79451,-0.00689046,0.22034
1.83661,0.0827576,-0.0749014
1.72512,-0.0910136,0.314972
1.8115,-0.00695568,-0.0421528
1.83414,0.0762318,-0.0320426
1.72853,-0.0972453,-0.0503848
1.77995,-0.013048,0
1.67062,-0.176179,-0.019557
1.78646,-0.0130957,-0.277939
1.73523,-0.0976222,-0.221222
1.84238,0.0765743,0.0107172
1.72924,-0.0972848,-0.0100662
1.79358,-0.0131478,-0.193203
1.80346,-0.0132203,0.0419667
1.67062,-0.176179,0.019557
1.7836,-0.0130747,-0.124725
1.74343,-0.0980836,-0.142551
1.83763,0.0763771,0.0535266
1.733,-0.0974963,0.0302974
1.83864,0.0764188,-0.117938
1.67982,-0.177149,-0.0983712
1.78892,-0.0131137,0.104185
1.73182,-0.0974303,0.0706678
1.79001,-0.0131217,-0.0833838
1.73886,-0.0978263,-0.0912739
1.79051,-0.0131253,0.219852
1.83689,0.0763461,-0.0749014
1.79547,-0.0131617,-0.0417806
1.82241,0.0690545,-0.0318332
1.72417,-0.103341,-0.0502684
1.73839,-0.104193,-0.348304
1.77589,-0.0195277,0
1.67394,-0.182735,-0.0196036
1.7864,-0.0196433,-0.277939
1.73486,-0.103982,-0.221222
1.84664,0.0699726,0.0107404
1.72488,-0.103383,-0.010043
1.77761,-0.0195466,-0.19149
1.67869,-0.183253,-0.157633
1.79541,-0.0197423,0.0417806
1.66997,-0.182301,0.019557
1.78354,-0.0196118,-0.124725
1.7351,-0.103996,-0.1419
1.8379,0.0696414,0.0535266
1.74061,-0.104326,0.030437
1.83492,0.0695282,-0.117682
1.67916,-0.183305,-0.0983712
1.78886,-0.0196703,0.104185
1.72347,-0.103299,0.0703422
1.78196,-0.0195945,-0.0830115
1.74646,-0.104677,-0.0916926
1.79045,-0.0196878,0.219852
1.70725,-0.102326,0.139621
1.82917,0.0693104,-0.0745757
1.79541,-0.0197423,-0.0417806
1.82263,0.0630108,-0.0318332
1.71983,-0.108805,-0.0501521
1.77582,-0.0254167,0
1.66935,-0.187838,-0.019557
1.77842,-0.025454,-0.276709
1.73055,-0.109483,-0.220717
1.83887,0.0635721,0.0106939
1.71654,-0.108597,-0.00999649
1.76958,-0.0253274,-0.190633
1.67807,-0.188819,-0.157633
1.79933,-0.0257532,0.0418737
1.66538,-0.187391,0.0195105
1.7675,-0.0252977,-0.123608
1.73475,-0.109749,-0.1419
1.83013,0.06327,0.0532939
1.73227,-0.109592,0.0302974
1.83115,0.0633051,-0.117426
1.67458,-0.188426,-0.0981387
1.7808,-0.025488,0.10372
1.71515,-0.108509,0.0700165
1.77789,-0.0254464,-0.0828254
1.73415,-0.109711,-0.0910646
1.7864,-0.0255682,0.219365
1.7069,-0.107987,0.139621
1.83338,0.0633824,-0.0747386
1.79933,-0.0257532,-0.0418737
1.81885,0.0562065,-0.0317634
1.71144,-0.114574,-0.0499194
1.72979,-0.115803,-0.346735
1.76771,-0.0317814,0
1.65673,-0.19257,-0.0194173
1.76646,-0.0317589,-0.274865
1.72618,-0.11556,-0.220212
1.83909,0.0568319,0.0106939
1.72012,-0.115155,-0.0100197
1.76948,-0.0318131,-0.190633
1.68132,-0.195428,-0.158005
1.78723,-0.0321322,0.0415945
1.66071,-0.193031,0.0194639
1.7674,-0.0317757,-0.123608
1.7224,-0.115308,-0.140923
1.82236,0.0563148,0.0530611
1.72787,-0.115674,0.0302276
1.82738,0.0564699,-0.11717
1.66991,-0.194101,-0.0979061
1.7767,-0.031943,0.103487
1.71075,-0.114528,0.0698537
1.77778,-0.0319625,-0.0828254
1.72975,-0.1158,-0.0908552
1.77439,-0.0319014,0.217902
1.81762,0.0561685,-0.0740873
1.78723,-0.0321322,-0.0415945
1.81904,0.0498572,-0.0317634
1.71901,-0.121109,-0.0501521
1.72547,-0.121564,-0.345951
1.76359,-0.0378658,0
1.65208,-0.197876,-0.0193708
1.77029,-0.0380096,-0.27548
1.71785,-0.121027,-0.219202
1.82728,0.0500831,0.0106242
1.71971,-0.121159,-0.0100197
1.7614,-0.0378188,-0.189776
1.67272,-0.200348,-0.157261
1.78311,-0.0382848,0.0415014
1.66002,-0.198827,0.0194639
1.77127,-0.0380306,-0.123888
1.72199,-0.121319,-0.140923
1.81855,0.0498437,0.0529448
1.7115,-0.12058,0.0299483
1.82357,0.0499815,-0.116914
1.67319,-0.200404,-0.0981387
1.77658,-0.0381447,0.103487
1.70635,-0.120218,0.0696909
1.76967,-0.0379964,-0.0824532
1.72535,-0.121556,-0.0906459
1.77823,-0.0381802,0.21839
1.81781,0.0498235,-0.0740873
1.7911,-0.0384565,-0.0416875
1.8112,0.0436321,-0.0316238
1.71062,-0.126221,-0.0499194
1.75546,-0.0435157,0
1.64744,-0.202864,-0.0193242
1.76225,-0.043684,-0.27425
1.70952,-0.126139,-0.218191
1.82744,0.0440234,0.0106242
1.7193,-0.126861,-0.0100197
1.75729,-0.0435611,-0.189348
1.66809,-0.205407,-0.15689
1.78297,-0.0441976,0.0415014
1.65538,-0.203842,0.0194173
1.76315,-0.0437063,-0.123329
1.7176,-0.126736,-0.140598
1.8187,0.0438129,0.0529448
1.71508,-0.126549,0.0300181
1.81575,0.0437417,-0.116403
1.66459,-0.204975,-0.0976736
1.77245,-0.0439368,0.103255
1.70196,-0.125581,0.069528
1.76554,-0.0437656,-0.082267
1.72494,-0.127277,-0.0906459
1.77413,-0.0439784,0.217902
1.68977,-0.124682,0.13832
1.81397,0.0436989,-0.0739244
1.77098,-0.0439003,-0.0412223
1.80334,0.0371449,-0.0314841
1.69821,-0.131267,-0.0495703
1.7553,-0.0496431,0
1.65466,-0.209619,-0.0194173
1.76604,-0.0499469,-0.274865
1.71698,-0.132718,-0.219202
1.82358,0.0375618,0.0106009
1.71087,-0.132245,-0.00997324
1.75315,-0.0495825,-0.188919
1.65946,-0.210228,-0.156146
1.76682,-0.0499688,0.0411292
1.65069,-0.209117,0.0193708
1.77097,-0.0500862,-0.123888
1.71317,-0.132423,-0.140272
1.81485,0.0373818,0.0528284
1.71064,-0.132227,0.0299483
1.8119,0.0373211,-0.116147
1.65594,-0.209781,-0.0972084
1.76031,-0.0497849,0.102557
1.69752,-0.131213,0.0693652
1.76139,-0.0498153,-0.0820809
1.72448,-0.133297,-0.0906459
1.76999,-0.0500588,0.217415
1.68535,-0.130272,0.137994
1.81011,0.0372844,-0.0737616
1.77481,-0.0501949,-0.0413153
1.80346,0.0308498,-0.0314841
1.69774,-0.137194,-0.0495703
1.75112,-0.0556429,0
1.64995,-0.214877,-0.0193708
1.75795,-0.0558602,-0.273635
1.7086,-0.138071,-0.218191
1.8197,0.0311277,0.0105777
1.70242,-0.137572,-0.00992675
1.75694,-0.0558281,-0.189348
1.66267,-0.216533,-0.156518
1.77862,-0.0565169,0.0414084
1.65392,-0.215394,0.0194173
1.75483,-0.0557608,-0.122771
1.71667,-0.138724,-0.140598
1.81497,0.0310466,0.0528284
1.71016,-0.138197,0.0299483
1.81601,0.0310644,-0.116403
1.65519,-0.21556,-0.0972084
1.76013,-0.0559293,0.102557
1.68909,-0.136494,0.0690396
1.75721,-0.0558364,-0.0818948
1.70808,-0.138029,-0.0898085
1.76981,-0.0562369,0.217415
1.68488,-0.136155,0.137994
1.81023,0.0309657,-0.0737616
1.77862,-0.0565169,-0.0414084
1.79956,0.0241859,-0.0314143
1.68528,-0.142405,-0.0492212
1.7469,-0.061919,0
1.6333,-0.218799,-0.0191845
1.74194,-0.061743,-0.271175
1.70017,-0.143664,-0.217181
1.8198,0.0244579,0.0105777
1.69393,-0.143137,-0.00988025
1.74878,-0.0619855,-0.188491
1.65792,-0.222097,-0.156146
1.77041,-0.0627522,0.0412223
1.64519,-0.220392,0.0193242
1.75062,-0.0620509,-0.122492
1.69629,-0.143336,-0.138971
1.80307,0.024233,0.0524793
1.70566,-0.144128,0.0298785
1.80414,0.0242473,-0.115635
1.65439,-0.221625,-0.0972084
1.7639,-0.0625215,0.10279
1.69256,-0.143021,0.0692024
1.75699,-0.0622765,-0.0818948
1.70358,-0.143952,-0.0895992
1.75769,-0.0623013,0.215953
1.79435,0.0241158,-0.0731103
1.76641,-0.0626105,-0.0411292
1.79564,0.0178643,-0.0313445
1.68477,-0.148287,-0.0492212
1.74268,-0.0678608,0
1.6246,-0.223409,-0.0190914
1.74171,-0.0678231,-0.271175
1.69571,-0.14925,-0.216676
1.81188,0.0180259,0.0105312
1.70139,-0.14975,-0.00992675
1.74458,-0.0679348,-0.188062
1.64924,-0.226798,-0.155402
1.76618,-0.0687761,0.0411292
1.64441,-0.226134,0.0193242
1.75438,-0.0683166,-0.122771
1.69975,-0.149606,-0.139296
1.79915,0.0178992,0.052363
1.70116,-0.14973,0.0298087
1.79623,0.0178701,-0.115124
1.6457,-0.22631,-0.0967433
1.74771,-0.0680568,0.10186
1.68807,-0.148578,0.0690396
1.74878,-0.0680983,-0.0815225
1.70307,-0.149898,-0.0895992
1.75746,-0.0684364,0.215953
1.67195,-0.147159,0.137018
1.79842,0.0178919,-0.0732731
1.76219,-0.0686205,-0.0410362
1.78769,0.0121686,-0.0312049
1.6843,-0.153579,-0.0492212
1.74246,-0.0733353,0
1.63577,-0.230184,-0.0192311
1.73754,-0.0731284,-0.27056
1.69128,-0.154216,-0.216171
1.79993,0.0122519,0.0104614
1.69295,-0.154368,-0.00988025
1.73244,-0.0729135,-0.186777
1.65246,-0.232533,-0.155774
1.76196,-0.0741562,0.0410362
1.63973,-0.230741,0.0192776
1.75416,-0.0738278,-0.122771
1.6953,-0.154583,-0.138971
1.7992,0.0122469,0.052363
1.68874,-0.153984,0.0295993
1.79228,0.0121999,-0.114868
1.63707,-0.230367,-0.0962782
1.73951,-0.0732112,0.101394
1.68759,-0.15388,0.0690396
1.74855,-0.0735919,-0.0815225
1.69861,-0.154885,-0.0893898
1.75327,-0.0737903,0.215465
1.67148,-0.152411,0.137018
1.79047,0.0121876,-0.0729474
1.75797,-0.073988,-0.0409431
1.78372,0.00560373,-0.0311351
1.68372,-0.159752,-0.0492212
1.74218,-0.0797212,0
1.63096,-0.235606,-0.0191845
1.73726,-0.0794963,-0.27056
1.68675,-0.160039,-0.215666
1.79996,0.00565475,0.0104614
1.68839,-0.160194,-0.00985701
1.7401,-0.0796263,-0.187634
1.63978,-0.23688,-0.154659
1.75768,-0.0804308,0.0409431
1.63492,-0.236178,0.0192311
1.74591,-0.0798918,-0.122213
1.69076,-0.160419,-0.138645
1.79923,0.00565245,0.052363
1.68816,-0.160173,0.0295993
1.79631,0.00564327,-0.115124
1.63226,-0.235794,-0.0960457
1.73524,-0.0794038,0.101162
1.67508,-0.158932,0.0685511
1.74827,-0.0800001,-0.0815225
1.70201,-0.161487,-0.0895992
1.74902,-0.0800344,0.214978
1.66694,-0.15816,0.136692
1.78651,0.00561249,-0.0727846
1.75369,-0.080248,-0.0408501
1.78773,-0.000312025,-0.0312049
1.67523,-0.164552,-0.0489885
1.72992,-0.0849097,0
1.63017,-0.241013,-0.0191845
1.73699,-0.0852568,-0.27056
1.69016,-0.16602,-0.216171
1.79197,-0.000312766,0.0104149
1.68785,-0.165792,-0.00985701
1.73586,-0.0852013,-0.187206
1.63504,-0.241734,-0.154287
1.74543,-0.0856709,0.040664
1.62621,-0.240428,0.0191379
1.73367,-0.0850941,-0.121376
1.69022,-0.166025,-0.138645
1.79524,-0.000313336,0.0522466
1.68762,-0.16577,0.0295993
1.79232,-0.000312827,-0.114868
1.63147,-0.241206,-0.0960457
1.73497,-0.0851576,0.101162
1.67455,-0.164486,0.0685511
1.74401,-0.0856013,-0.0813364
1.69351,-0.166349,-0.0891805
1.74082,-0.0854446,0.214003
1.66641,-0.163687,0.136692
1.78652,-0.000311814,-0.0727846
1.74543,-0.0856709,-0.040664
1.77572,-0.0068183,-0.0309955
1.67461,-0.170691,-0.0489885
1.7256,-0.0910389,0
1.61741,-0.245188,-0.0190448
1.72088,-0.0907897,-0.268101
1.6856,-0.171811,-0.215666
1.79596,-0.00689601,0.0104382
1.68325,-0.171572,-0.00983376
1.72759,-0.0911439,-0.186349
1.63808,-0.248322,-0.154659
1.7451,-0.0920677,0.040664
1.62927,-0.246986,0.0191845
1.73335,-0.0914478,-0.121376
1.68563,-0.171815,-0.13832
1.77524,-0.00681645,0.0516648
1.68302,-0.171549,0.0295295
1.78433,-0.00685136,-0.114356
1.63058,-0.247184,-0.0960457
1.72667,-0.0910953,0.100697
1.66996,-0.170217,0.0683882
1.73969,-0.0917823,-0.0811503
1.68097,-0.17134,-0.0885524
1.74049,-0.0918245,0.214003
1.66183,-0.169389,0.136367
1.77851,-0.00682903,-0.072459
1.7451,-0.0920677,-0.040664
1.77568,-0.0130167,-0.0309955
1.67003,-0.176116,-0.0488721
1.72128,-0.0968371,0
1.61654,-0.250832,-0.0190448
1.72055,-0.0967961,-0.268101
1.67709,-0.176862,-0.214656
1.78392,-0.0130771,0.0103685
1.67469,-0.176608,-0.00978726
1.7352,-0.0976205,-0.187206
1.63327,-0.253427,-0.154287
1.74078,-0.097934,0.0405709
1.6284,-0.252672,0.0191845
1.72904,-0.0972736,-0.121097
1.67313,-0.176443,-0.137343
1.7752,-0.0130131,0.0516648
1.67844,-0.177003,0.0294597
1.7803,-0.0130505,-0.1141
1.6297,-0.252874,-0.0960457
1.73033,-0.0973462,0.100929
1.66935,-0.176045,0.0683882
1.73936,-0.0978544,-0.0811503
1.67639,-0.176787,-0.0883431
1.73223,-0.0974533,0.213028
1.6533,-0.174353,0.135716
1.77448,-0.0130078,-0.0722961
1.74078,-0.097934,-0.0405709
1.77163,-0.0191716,-0.0309257
1.66145,-0.181078,-0.0486394
1.72492,-0.103084,0
1.7202,-0.102801,-0.268101
1.67252,-0.182285,-0.214151
1.77187,-0.0191742,0.0102987
1.67406,-0.182452,-0.00978726
1.72691,-0.103202,-0.186349
1.62844,-0.258503,-0.153915
1.74042,-0.10401,0.0405709
1.62751,-0.258355,0.0191845
1.72869,-0.103309,-0.121097
1.68043,-0.183146,-0.137994
1.77115,-0.0191664,0.0515484
1.66986,-0.181994,0.02932
1.77226,-0.0191784,-0.113589
1.62092,-0.257309,-0.0955806
1.72599,-0.103147,0.100697
1.66475,-0.181438,0.0682254
1.73502,-0.103687,-0.0809642
1.67973,-0.183071,-0.0885524
1.72395,-0.103026,0.212053
1.65665,-0.180555,0.136041
1.77043,-0.0191586,-0.0721333
1.72446,-0.103056,-0.0401987
1.75956,-0.0248768,-0.0307162
1.66084,-0.186587,-0.0486394
1.72457,-0.108803,0
1.6148,-0.26183,-0.0190448
1.72379,-0.108754,-0.268716
1.67191,-0.18783,-0.214151
1.77179,-0.0250498,0.0102987
1.66947,-0.187556,-0.00976402
1.71862,-0.108428,-0.185492
1.61971,-0.262626,-0.153172
1.73209,-0.109277,0.0403848
1.61875,-0.26247,0.0190914
1.72834,-0.10904,-0.121097
1.67585,-0.188273,-0.137669
1.77507,-0.0250961,0.0516648
1.66924,-0.187531,0.02932
1.77219,-0.0250554,-0.113589
1.61612,-0.262044,-0.095348
1.72165,-0.108619,0.100464
1.66414,-0.186958,0.0682254
1.73068,-0.109188,-0.080778
1.67912,-0.18864,-0.0885524
1.72757,-0.108992,0.21254
1.65208,-0.185602,0.135716
1.77435,-0.0250859,-0.0722961
1.7241,-0.108774,-0.0401987
1.76345,-0.0313969,-0.030786
1.66015,-0.192673,-0.0486394
1.71219,-0.114324,0
1.61383,-0.267747,-0.0190448
1.7155,-0.114545,-0.267486
1.66333,-0.193042,-0.213141
1.76769,-0.0314724,0.0102755
1.66877,-0.193674,-0.00976402
1.71424,-0.114461,-0.185064
1.60695,-0.266606,-0.152057
1.72768,-0.115358,0.0402918
1.61383,-0.267747,0.0190448
1.72394,-0.115109,-0.120818
1.66723,-0.193494,-0.137018
1.76297,-0.0313884,0.0513157
1.6606,-0.192725,0.0291804
1.77208,-0.0315506,-0.113589
1.62303,-0.269272,-0.0958131
1.71726,-0.114662,0.100232
1.65551,-0.192134,0.0678997
1.71831,-0.114732,-0.0802197
1.67048,-0.193872,-0.0881338
1.71923,-0.114794,0.211565
1.64743,-0.191196,0.13539
1.77025,-0.031518,-0.0721333
1.72369,-0.115092,-0.0401987
1.75933,-0.0374672,-0.0307162
1.6555,-0.197992,-0.048523
1.70779,-0.120019,0
1.60894,-0.27271,-0.0189982
1.71114,-0.120255,-0.266871
1.67446,-0.20026,-0.214656
1.76757,-0.0376426,0.0102755
1.66411,-0.199023,-0.00974077
1.71383,-0.120444,-0.185064
1.72727,-0.121388,0.0402918
1.61288,-0.273378,0.0190448
1.71955,-0.120846,-0.120539
1.65862,-0.198366,-0.136367
1.75886,-0.037457,0.0511993
1.65992,-0.198521,0.0291804
1.76797,-0.0376511,-0.113333
1.61027,-0.272934,-0.0951154
1.71287,-0.120376,0.0999991
1.65482,-0.197912,0.0678997
1.72587,-0.12129,-0.0805919
1.66583,-0.199228,-0.0879244
1.7109,-0.120238,0.21059
1.64675,-0.196946,0.13539
1.76214,-0.0375269,-0.0718077
1.72328,-0.121108,-0.0401987
1.7552,-0.0432027,-0.0306464
1.65086,-0.202993,-0.0484066
1.70339,-0.125388,0
1.60409,-0.277362,-0.0189517
1.70679,-0.125639,-0.266256
1.6541,-0.20339,-0.212131
1.76344,-0.0434054,0.0102522
1.66741,-0.205028,-0.00976402
1.71343,-0.126127,-0.185064
1.71091,-0.125941,0.0399195
1.60803,-0.278044,0.0189982
1.71516,-0.126254,-0.12026
1.66191,-0.204352,-0.136692
1.75473,-0.043191,0.051083
1.65925,-0.204024,0.0291804
1.75986,-0.0433173,-0.112821
1.60542,-0.277592,-0.0948829
1.71246,-0.126055,0.0999991
1.65416,-0.203398,0.0678997
1.71749,-0.126426,-0.0802197
1.66119,-0.204263,-0.0877151
1.71049,-0.125911,0.21059
1.63421,-0.200946,0.134414
1.75801,-0.0432718,-0.0716448
1.71489,-0.126235,-0.0400126
1.74704,-0.0491045,-0.0305068
1.65014,-0.208754,-0.0484066
1.69896,-0.131026,0
1.60311,-0.28296,-0.0189517
1.70635,-0.131596,-0.266256
1.65338,-0.209163,-0.212131
1.75128,-0.0492236,0.0101825
1.65875,-0.209843,-0.00971752
1.70504,-0.131495,-0.184207
1.71843,-0.132528,0.0401057
1.60311,-0.28296,0.0189517
1.71471,-0.132241,-0.12026
1.65723,-0.209651,-0.136367
1.75057,-0.0492036,0.0509666
1.65059,-0.208811,0.0290408
1.75969,-0.0494601,-0.112821
1.60051,-0.2825,-0.0946503
1.70006,-0.131111,0.0993015
1.64947,-0.20867,0.0677369
1.71703,-0.13242,-0.0802197
1.66047,-0.21006,-0.0877151
1.71004,-0.131881,0.21059
1.6335,-0.206649,0.134414
1.75385,-0.0492959,-0.071482
1.70248,-0.131298,-0.0397334
1.73888,-0.0546464,-0.0303672
1.64151,-0.213195,-0.0481739
1.69851,-0.136659,0
1.60216,-0.288274,-0.0189517
1.70196,-0.136936,-0.265641
1.65267,-0.214645,-0.212131
1.75111,-0.0550307,0.0101825
1.65805,-0.215343,-0.00971752
1.7046,-0.137149,-0.184207
1.70602,-0.137263,0.0398265
1.59429,-0.286858,0.0188586
1.70631,-0.137286,-0.119702
1.65258,-0.214632,-0.136041
1.7424,-0.0547572,0.0507339
1.64989,-0.214283,0.0290408
1.75553,-0.0551698,-0.112565
1.60349,-0.288513,-0.0948829
1.69564,-0.136428,0.0990689
1.64481,-0.213623,0.0675741
1.70862,-0.137472,-0.0798474
1.65184,-0.214537,-0.0872964
1.70564,-0.137232,0.210103
1.63281,-0.212065,0.134414
1.74968,-0.054986,-0.0713192
1.69407,-0.136301,-0.0395473
1.73868,-0.0607159,-0.0303672
1.6368,-0.218395,-0.0480576
1.69404,-0.142252,0
1.60115,-0.293865,-0.0189517
1.69753,-0.142546,-0.265026
1.63618,-0.218313,-0.21011
1.7509,-0.0611429,0.0101825
1.64935,-0.220071,-0.00967102
1.69618,-0.142433,-0.18335
1.70952,-0.143552,0.0399195
1.60115,-0.293865,0.0189517
1.70582,-0.143241,-0.119702
1.64787,-0.219872,-0.135716
1.7382,-0.0606994,0.0506175
1.64913,-0.220041,0.0290408
1.75134,-0.061158,-0.112309
1.59462,-0.292667,-0.0944178
1.69117,-0.142012,0.0988363
1.64009,-0.218835,0.0674113
1.70415,-0.143101,-0.0796613
1.65108,-0.220301,-0.0872964
1.69724,-0.142521,0.209128
1.63206,-0.217763,0.134414
1.74948,-0.0610932,-0.0713192
1.69756,-0.142548,-0.0396404
1.73444,-0.0669338,-0.0302974
1.63994,-0.224936,-0.0481739
1.68554,-0.147762,0
1.5922,-0.298259,-0.0188586
1.69306,-0.148421,-0.264411
1.74667,-0.0674056,0.0101592
1.65646,-0.227202,-0.00971752
1.70357,-0.149343,-0.184207
1.69703,-0.148769,0.0396404
1.5922,-0.298259,0.0188586
1.69733,-0.148796,-0.119144
1.64705,-0.22591,-0.135716
1.73397,-0.0669157,0.0505012
1.64831,-0.226084,0.0290408
1.74711,-0.0674227,-0.112054
1.59746,-0.299245,-0.0946503
1.68268,-0.147512,0.0983712
1.64324,-0.225388,0.0675741
1.70361,-0.149346,-0.0796613
1.64235,-0.225266,-0.0868777
1.68879,-0.148047,0.208153
1.6273,-0.223202,0.134089
1.74126,-0.0671967,-0.0709935
1.69703,-0.148769,-0.0396404
1.73821,-0.0728525,-0.0303672
1.63919,-0.230373,-0.0481739
1.68902,-0.153713,0
1.5912,-0.303537,-0.0188586
1.68862,-0.153677,-0.263796
1.73844,-0.0728624,0.0101127
1.6557,-0.232694,-0.00971752
1.69515,-0.154271,-0.18335
1.69653,-0.154396,0.0396404
1.57941,-0.301289,0.0187189
1.69683,-0.154423,-0.119144
1.63445,-0.229707,-0.13474
1.73374,-0.0726654,0.0505012
1.63963,-0.230436,0.0289012
1.74289,-0.0730488,-0.111798
1.58861,-0.303044,-0.0941852
1.68616,-0.153453,0.0986038
1.64248,-0.230836,0.0675741
1.69913,-0.154633,-0.0794752
1.63764,-0.230155,-0.0866684
1.68434,-0.153287,0.207665
1.61866,-0.227487,0.133438
1.73703,-0.0728033,-0.0708307
1.69255,-0.154034,-0.0395473
1.72995,-0.0785567,-0.0302276
1.6265,-0.234383,-0.0478248
1.68051,-0.158855,0
1.59405,-0.309853,-0.0189051
1.68808,-0.15957,-0.263796
1.73418,-0.0787488,0.0100895
1.643,-0.23676,-0.00964778
1.68272,-0.159064,-0.182065
1.69996,-0.160693,0.0397334
1.59405,-0.309853,0.0189051
1.68833,-0.159594,-0.118586
1.63758,-0.235979,-0.135065
1.72549,-0.0783541,0.0502684
1.63486,-0.235587,0.0288314
1.73465,-0.07877,-0.111286
1.68164,-0.158962,0.0983712
1.63771,-0.235998,0.0674113
1.6946,-0.160187,-0.079289
1.64078,-0.23644,-0.0868777
1.68775,-0.159539,0.208153
1.6218,-0.233705,0.133763
1.73677,-0.0788662,-0.0708307
1.68005,-0.158812,-0.0392682
1.71768,-0.0840088,-0.0300181
1.62568,-0.240059,-0.0478248
1.67994,-0.16472,0
1.59296,-0.315415,-0.0189051
1.68751,-0.165462,-0.263796
1.7299,-0.0846064,0.0100662
1.63425,-0.241325,-0.00960128
1.67424,-0.164161,-0.181208
1.68745,-0.165456,0.0394543
1.58119,-0.313085,0.0187654
1.68379,-0.165097,-0.118307
1.6328,-0.241111,-0.13474
1.72121,-0.0841814,0.0501521
1.63403,-0.241292,0.0288314
1.73835,-0.0850196,-0.111542
1.67313,-0.164052,0.0979061
1.62897,-0.240545,0.0670856
1.68608,-0.165321,-0.0789168
1.63994,-0.242166,-0.0868777
1.68323,-0.165042,0.207665
1.61703,-0.238782,0.133438
1.73249,-0.0847329,-0.0706678
1.68347,-0.165066,-0.0393612
1.71339,-0.0897948,-0.0299483
1.61297,-0.243938,-0.0474758
1.66742,-0.16937,0
1.58009,-0.318602,-0.0187654
1.69085,-0.171751,-0.264411
1.72161,-0.0902256,0.0100197
1.64131,-0.248224,-0.00964778
1.67761,-0.170406,-0.181637
1.68288,-0.170941,0.0393612
1.57225,-0.317021,0.0186723
1.67527,-0.170167,-0.117749
1.63589,-0.247406,-0.135065
1.71692,-0.0899797,0.0500357
1.62922,-0.246397,0.0287616
1.73007,-0.0906692,-0.11103
1.67255,-0.169891,0.0979061
1.62417,-0.245632,0.0669228
1.68151,-0.170802,-0.0787307
1.63119,-0.246694,-0.086459
1.67474,-0.170114,0.20669
1.61224,-0.243829,0.133112
1.73618,-0.0909891,-0.0708307
1.68288,-0.170941,-0.0393612
1.71706,-0.0959983,-0.0300181
1.60816,-0.248956,-0.0473594
1.66682,-0.17519,0
1.58289,-0.32492,-0.018812
1.67845,-0.176412,-0.262566
1.72128,-0.0962346,0.0100197
1.63253,-0.252728,-0.00960128
1.67701,-0.176261,-0.181637
1.68228,-0.176814,0.0393612
1.58289,-0.32492,0.018812
1.66673,-0.17518,-0.117191
1.6232,-0.251285,-0.134089
1.70861,-0.095526,0.049803
1.62835,-0.252082,0.0287616
1.72974,-0.0967077,-0.11103
1.67194,-0.175728,0.0979061
1.62725,-0.251912,0.0670856
1.68091,-0.176671,-0.0787307
1.62637,-0.251775,-0.0862497
1.67414,-0.175959,0.20669
1.61138,-0.249455,0.133112
1.72388,-0.0963796,-0.0703422
1.67432,-0.175978,-0.0391751
1.71272,-0.101754,-0.0299483
1.60728,-0.254568,-0.0473594
1.6662,-0.181007,0
1.57391,-0.328807,-0.0187189
1.66604,-0.18099,-0.260722
1.71295,-0.101768,0.00997324
1.66848,-0.181254,-0.18078
1.67767,-0.182254,0.0392682
1.57,-0.327989,0.0186723
1.67404,-0.181859,-0.117749
1.61838,-0.256326,-0.133763
1.70427,-0.101252,0.0496866
1.62746,-0.257765,0.0287616
1.71744,-0.102035,-0.110263
1.66338,-0.180701,0.097441
1.62241,-0.256965,0.0669228
1.67234,-0.181674,-0.0783584
1.62548,-0.257451,-0.0862497
1.66562,-0.180944,0.205715
1.60263,-0.253831,0.132461
1.71954,-0.102159,-0.0701794
1.68165,-0.182685,-0.0393612
1.70437,-0.10723,-0.0298087
1.61427,-0.261455,-0.0475921
1.66158,-0.186376,0
1.56884,-0.333468,-0.0186723
1.70859,-0.107496,0.00995
1.62282,-0.26284,-0.00955479
1.66783,-0.187077,-0.18078
1.67703,-0.188109,0.0392682
1.57667,-0.335131,0.0187654
1.66546,-0.186812,-0.117191
1.61747,-0.261973,-0.133763
1.71189,-0.107703,0.0499194
1.62655,-0.263444,0.0287616
1.71309,-0.107779,-0.110007
1.6548,-0.185616,0.0969759
1.62151,-0.262627,0.0669228
1.67169,-0.18751,-0.0783584
1.62851,-0.263762,-0.086459
1.66498,-0.186757,0.205715
1.59779,-0.258786,0.132136
1.70721,-0.107408,-0.0696909
1.66113,-0.186326,-0.038896
1.69201,-0.112383,-0.0295993
1.59757,-0.264476,-0.0471267
1.65695,-0.191715,0
1.56767,-0.338942,-0.0186723
1.70422,-0.113194,0.00992675
1.6219,-0.268503,-0.00955479
1.66717,-0.192898,-0.18078
1.67239,-0.193502,0.0391751
1.56767,-0.338942,0.0186723
1.67273,-0.193541,-0.117749
1.60868,-0.266315,-0.133112
1.69953,-0.112883,0.0495703
1.61773,-0.267814,0.0286219
1.71669,-0.114022,-0.110263
1.65414,-0.191391,0.0969759
1.61269,-0.26698,0.0665971
1.66706,-0.192885,-0.0781723
1.61576,-0.267488,-0.085831
1.65643,-0.191655,0.204741
1.70682,-0.113367,-0.0696909
1.66047,-0.192123,-0.038896
1.69959,-0.118847,-0.0297389
1.59664,-0.270051,-0.0471267
1.64832,-0.196551,0
1.56257,-0.343553,-0.0186257
1.69982,-0.118863,0.0099035
1.61701,-0.273496,-0.00953154
1.65464,-0.197304,-0.179495
1.65979,-0.197918,0.038896
1.56257,-0.343553,0.0186257
1.66016,-0.197962,-0.116912
1.6156,-0.273259,-0.133763
1.69913,-0.118815,0.0495703
1.61284,-0.272792,0.0285521
1.7123,-0.119736,-0.110007
1.65743,-0.197637,0.0972084
1.61175,-0.272608,0.0665971
1.66638,-0.198703,-0.0781723
1.61088,-0.27246,-0.0856216
1.7104,-0.119603,-0.0698537
1.65979,-0.197918,-0.038896
1.68321,-0.123607,-0.0294597
1.59569,-0.275623,-0.0471267
1.64366,-0.201816,0
1.56136,-0.349005,-0.0186257
1.6994,-0.124796,0.0099035
1.6121,-0.278458,-0.00950829
1.65789,-0.203563,-0.179923
1.65512,-0.203223,0.0388029
1.55355,-0.347261,0.0185326
1.65549,-0.203269,-0.116633
1.59107,-0.274825,-0.13181
1.69073,-0.124159,0.0493375
1.61582,-0.279101,0.0286219
1.70789,-0.125419,-0.109751
1.64088,-0.201474,0.0962782
1.60685,-0.277552,0.0664343
1.65774,-0.203545,-0.0778
1.60598,-0.277401,-0.0854123
1.702,-0.124987,-0.069528
1.66306,-0.204198,-0.038989
1.69478,-0.129811,-0.0296691
1.59087,-0.279941,-0.0470103
1.64301,-0.206978,0
1.56416,-0.354794,-0.0186723
1.69501,-0.129828,0.00988025
1.6191,-0.284908,-0.00955479
1.65724,-0.20877,-0.179923
1.65447,-0.208422,0.0388029
1.55636,-0.353024,0.0185792
1.65089,-0.20797,-0.116354
1.68236,-0.12886,0.0491048
1.611,-0.283483,0.0285521
1.69953,-0.130175,-0.109239
1.64816,-0.207626,0.0967433
1.60597,-0.282598,0.0664343
1.66502,-0.209751,-0.0781723
1.6051,-0.282445,-0.0854123
1.69762,-0.130028,-0.0693652
1.66241,-0.209421,-0.038989
1.69033,-0.135407,-0.0295993
1.58989,-0.285493,-0.0470103
1.64228,-0.212712,0
1.56291,-0.360251,-0.0186723
1.68657,-0.135106,0.00983376
1.61022,-0.289144,-0.00950829
1.64861,-0.213532,-0.179066
1.6577,-0.214709,0.038896
1.55901,-0.359353,0.0186257
1.6462,-0.213219,-0.116075
1.68588,-0.135051,0.0492212
1.59425,-0.286277,0.0282729
1.6911,-0.135469,-0.108728
1.6395,-0.212352,0.0962782
1.60891,-0.288909,0.0665971
1.64843,-0.213508,-0.0774278
1.60804,-0.288752,-0.0856216
1.69715,-0.135953,-0.0693652
1.64184,-0.212655,-0.0385238
1.67789,-0.140306,-0.0293899
1.57708,-0.28888,-0.0466612
1.64153,-0.218444,0
1.68609,-0.140992,0.00983376
1.60526,-0.294042,-0.00948504
1.63997,-0.218236,-0.178209
1.64505,-0.218912,0.0386168
1.55775,-0.364793,0.0186257
1.64544,-0.218964,-0.116075
1.68142,-0.140602,0.0491048
1.59325,-0.29184,0.0282729
1.69062,-0.141371,-0.108728
1.64667,-0.219128,0.0967433
1.5961,-0.292363,0.0661086
1.63975,-0.218207,-0.0770555
1.60309,-0.293644,-0.0854123
1.6887,-0.141211,-0.0690396
1.64109,-0.218384,-0.0385238
1.68137,-0.14651,-0.0294597
1.58392,-0.295851,-0.0468939
1.62887,-0.222548,0
1.6816,-0.146529,0.00981051
1.6003,-0.298909,-0.0094618
1.63526,-0.223421,-0.177781
1.64428,-0.224653,0.0386168
1.63281,-0.223086,-0.115238
1.67295,-0.145776,0.0488721
1.59615,-0.298134,0.0283427
1.69012,-0.147271,-0.108728
1.63403,-0.223253,0.0960457
1.599,-0.298666,0.0662715
1.63898,-0.223929,-0.0770555
1.59813,-0.298505,-0.0852029
1.69218,-0.147451,-0.0692024
1.64428,-0.224653,-0.0386168
1.67687,-0.152017,-0.0293899
1.57503,-0.299883,-0.0466612
1.62808,-0.228232,0
1.68108,-0.152398,0.00981051
1.60317,-0.305242,-0.00948504
1.63053,-0.228576,-0.177353
1.63952,-0.229836,0.0385238
1.63597,-0.229338,-0.115517
1.67243,-0.151615,0.0488721
1.58724,-0.302208,0.0282031
1.68562,-0.15281,-0.108472
1.64114,-0.230064,0.0965108
1.59009,-0.302751,0.0659458
1.63819,-0.229649,-0.0770555
1.59315,-0.303334,-0.0849936
1.67573,-0.151914,-0.0685511
1.63952,-0.229836,-0.0385238
1.67633,-0.157869,-0.0293899
1.5779,-0.30614,-0.0467776
1.62331,-0.233345,0
1.67257,-0.157515,0.00976402
1.59817,-0.310074,-0.0094618
1.63366,-0.234832,-0.177781
1.63871,-0.235558,0.0385238
1.63121,-0.23448,-0.115238
1.66791,-0.157077,0.0487557
1.58618,-0.307747,0.0282031
1.67315,-0.15757,-0.107705
1.62847,-0.234086,0.0958131
1.58903,-0.3083,0.0659458
1.63342,-0.234798,-0.0768694
1.59209,-0.308893,-0.0849936
1.67519,-0.157762,-0.0685511
1.63475,-0.234989,-0.0384307
1.66382,-0.162553,-0.0291804
1.57682,-0.311646,-0.0467776
1.61458,-0.237844,0
1.66803,-0.162964,0.00974077
1.59315,-0.314875,-0.00943855
1.62496,-0.239374,-0.176924
1.63788,-0.241276,0.0385238
1.63038,-0.240172,-0.115238
1.66337,-0.162509,0.0486394
1.58902,-0.314057,0.0282729
1.67259,-0.163409,-0.107705
1.62765,-0.239769,0.0958131
1.57226,-0.310745,0.0652945
1.63259,-0.240498,-0.0768694
1.67463,-0.163609,-0.0685511
1.63392,-0.240694,-0.0384307
1.65529,-0.167554,-0.0290408
1.5718,-0.31636,-0.0466612
1.62165,-0.244672,0
1.66745,-0.168785,0.00974077
1.59205,-0.320434,-0.00943855
1.62805,-0.245638,-0.177353
1.62912,-0.245799,0.0383377
1.63348,-0.246457,-0.115517
1.65882,-0.167912,0.048523
1.58399,-0.318813,0.0282031
1.67201,-0.169247,-0.107705
1.61495,-0.243662,0.0951154
1.56724,-0.315443,0.0651317
1.61989,-0.244407,-0.076311
1.58989,-0.320001,-0.0849936
1.67405,-0.169453,-0.0685511
1.63307,-0.246396,-0.0384307
1.64674,-0.172498,-0.0289012
1.57069,-0.321844,-0.0466612
1.61288,-0.24911,0
1.66287,-0.174188,0.00971752
1.59092,-0.32599,-0.00943855
1.6243,-0.250874,0.0382446
1.62078,-0.25033,-0.11468
1.65822,-0.173701,0.048523
1.58287,-0.32434,0.0282031
1.66347,-0.17425,-0.107193
1.61804,-0.249908,0.095348
1.61508,-0.24945,-0.0761249
1.66152,-0.174047,-0.0680626
1.6243,-0.250874,-0.0382446
1.64613,-0.178245,-0.0289012
1.56955,-0.327325,-0.0466612
1.60409,-0.25349,0
1.66226,-0.179992,0.00971752
1.57802,-0.329091,-0.00936881
1.61946,-0.255918,0.0381516
1.61989,-0.255986,-0.11468
1.64965,-0.178627,0.0482903
1.58172,-0.329863,0.0282031
1.66285,-0.180056,-0.107193
1.6211,-0.256177,0.0955806
1.61814,-0.25571,-0.076311
1.65296,-0.178985,-0.0677369
1.61946,-0.255918,-0.0381516
1.65344,-0.184879,-0.0290408
1.56058,-0.331142,-0.0464285
1.60715,-0.259726,0
1.65367,-0.184904,0.00967102
1.61856,-0.261569,0.0381516
1.61505,-0.261003,-0.114401
1.64505,-0.18394,0.0481739
1.57665,-0.334552,0.0281333
1.65824,-0.185416,-0.106937
1.61626,-0.261197,0.095348
1.61724,-0.261357,-0.076311
1.65232,-0.184754,-0.0677369
1.63435,-0.264121,-0.0385238
1.64087,-0.189274,-0.0288314
1.56723,-0.338274,-0.0466612
1.60229,-0.264682,0
1.65301,-0.190675,0.00967102
1.57178,-0.339256,-0.00934556
1.60974,-0.265914,0.0379654
1.61413,-0.266639,-0.114401
1.6444,-0.189681,0.0481739
1.56765,-0.338366,0.0279937
1.65362,-0.190745,-0.106681
1.6114,-0.266187,0.0951154
1.61632,-0.267,-0.076311
1.65167,-0.19052,-0.0677369
1.61763,-0.267217,-0.0381516
1.63222,-0.194342,-0.0286918
1.55426,-0.341443,-0.0463121
1.60525,-0.271219,0
1.6523,-0.196733,0.00967102
1.57052,-0.345014,-0.00934556
1.6127,-0.272478,0.0380585
1.61314,-0.272553,-0.114401
1.64369,-0.195707,0.0481739
1.5664,-0.34411,0.0279937
1.64895,-0.196333,-0.106425
1.5986,-0.270095,0.0944178
1.59957,-0.27026,-0.0755665
1.65096,-0.196573,-0.0677369
1.6127,-0.272478,-0.0380585
1.63954,-0.200439,-0.0288314
1.60045,-0.275582,0
1.65167,-0.201922,0.00967102
1.56553,-0.349076,-0.00932231
1.61184,-0.277543,0.0380585
1.60835,-0.276942,-0.114122
1.64704,-0.201355,0.0482903
1.55751,-0.347288,0.027854
1.64436,-0.201028,-0.10617
1.60561,-0.276471,0.0948829
1.59084,-0.273928,-0.0751943
1.64637,-0.201273,-0.0675741
1.61578,-0.278222,-0.0381516
1.62296,-0.204164,-0.0285521
1.5916,-0.279782,0
1.65096,-0.207687,0.00967102
1.5604,-0.353655,-0.00929906
1.60692,-0.282476,0.0379654
1.59951,-0.281173,-0.113564
1.63442,-0.205606,0.0479412
1.55629,-0.352723,0.027854
1.64365,-0.206767,-0.10617
1.6007,-0.281383,0.0946503
1.59774,-0.280863,-0.0755665
1.63772,-0.206021,-0.0672484
1.6148,-0.283861,-0.0381516
1.63414,-0.211367,-0.0287616
1.59455,-0.286042,0
1.63832,-0.211909,0.00960128
1.55915,-0.359099,-0.00929906
1.60592,-0.288083,0.0379654
1.59852,-0.286755,-0.113564
1.63369,-0.21131,0.0479412
1.54725,-0.356358,0.0277144
1.63896,-0.211991,-0.105914
1.59971,-0.286969,0.0946503
1.59675,-0.286438,-0.0755665
1.63699,-0.211737,-0.0672484
1.60199,-0.287377,-0.0378724
1.62942,-0.216543,-0.0286918
1.58567,-0.290167,0
1.63757,-0.217626,0.00960128
1.54621,-0.361806,-0.00922932
1.60097,-0.292967,0.0378724
1.62898,-0.216485,0.0478248
1.63425,-0.217185,-0.105658
1.59084,-0.291113,0.0941852
1.59181,-0.291291,-0.0753804
1.63228,-0.216923,-0.0670856
1.60097,-0.292967,-0.0378724
1.61677,-0.220608,-0.0284823
1.59251,-0.297167,0
1.63284,-0.222801,0.00957804
1.54104,-0.366276,-0.00920607
1.59601,-0.297821,0.0377793
1.63614,-0.223251,0.0480576
1.62953,-0.222348,-0.105402
1.59374,-0.297397,0.0944178
1.58686,-0.296113,-0.0751943
1.63152,-0.22262,-0.0670856
1.59601,-0.297821,-0.0377793
1.61599,-0.22625,-0.0284823
1.57575,-0.299735,0
1.63205,-0.228499,0.00957804
1.59496,-0.30339,0.0377793
1.62743,-0.227852,0.0478248
1.63269,-0.228588,-0.105658
1.57796,-0.300157,-0.074822
1.62677,-0.227759,-0.0669228
1.59496,-0.30339,-0.0377793
1.61123,-0.231321,-0.0284125
1.57076,-0.304472,0
1.63125,-0.234194,0.00957804
1.59389,-0.308955,0.0377793
1.61871,-0.232395,0.0475921
1.62793,-0.233719,-0.105402
1.57691,-0.305663,-0.074822
1.61805,-0.2323,-0.0665971
1.60174,-0.310477,-0.0379654
1.60646,-0.236362,-0.0283427
1.56184,-0.308403,0
1.6225,-0.238723,0.00953154
1.58496,-0.312968,0.0375932
1.61393,-0.237462,0.0474758
1.61921,-0.238238,-0.10489
1.57975,-0.31194,-0.0750082
1.61723,-0.237947,-0.0665971
1.59281,-0.314517,-0.0377793
1.59771,-0.240776,-0.0282031
1.56468,-0.314642,0
1.61771,-0.243789,0.00950829
1.58386,-0.318499,0.0375932
1.6131,-0.243094,0.0474758
1.61047,-0.242699,-0.104379
1.57082,-0.315877,-0.0746359
1.62034,-0.244186,-0.06676
1.58386,-0.318499,-0.0375932
1.59291,-0.245742,-0.0281333
1.56357,-0.320102,0
1.6208,-0.250044,0.00953154
1.58274,-0.324025,0.0375932
1.60829,-0.248113,0.0473594
1.60962,-0.248319,-0.104379
1.61553,-0.249231,-0.0665971
1.57882,-0.323223,-0.0375002
1.62365,-0.256289,-0.0286918
1.55461,-0.323926,0
1.61992,-0.2557,0.00953154
1.57768,-0.328732,0.0375002
1.61136,-0.254349,0.0474758
