2.34404,0.434443,-0.138836
2.31036,0.546145,0.0967205
2.31688,0.547687,-0.124769
2.26586,0.645448,0
2.35329,0.427666,-0.0278455
2.31413,0.538514,-0.0138091
2.34327,0.425843,-0.222322
2.27679,0.648559,0.0550871
2.34936,0.42695,0.0277989
2.31426,0.538545,-0.193973
2.32161,0.540254,0.0416065
2.34947,0.426971,-0.139069
2.31225,0.538077,0.0967205
2.31489,0.53869,-0.12456
2.31038,0.537641,0.193647
2.27679,0.648559,-0.0550871
2.27569,0.640097,0
2.36257,0.421264,-0.0279386
2.3237,0.532625,-0.0138556
2.34467,0.418071,-0.222322
2.27893,0.641006,0.0550871
2.3547,0.41986,0.0278455
2.31992,0.531759,-0.194298
2.31949,0.531659,0.0415367
2.35481,0.419879,-0.139301
2.31012,0.529514,0.0965577
2.27323,0.639403,-0.11
2.31603,0.530868,0.193973
2.27893,0.641006,-0.0550871
2.30891,0.521181,-0.0688864
2.27395,0.631476,0
2.36002,0.412737,-0.027892
2.22896,0.738019,0.0136464
2.32155,0.524035,-0.0138324
2.35388,0.411665,-0.223066
2.28104,0.633445,0.0550871
2.35214,0.411359,0.0277989
2.32167,0.524062,-0.194298
2.32514,0.524845,0.0416065
2.35619,0.412067,-0.139301
2.31967,0.523609,0.0968833
2.27918,0.63293,-0.110186
2.31389,0.522306,0.193647
2.31861,0.514448,-0.0691191
2.35757,0.403411,-0.0278455
2.23165,0.729845,0.0136464
2.32736,0.516389,-0.0138556
2.28334,0.625081,0.0550871
2.31968,0.514686,-0.193973
2.23454,0.730792,0.0684209
2.32705,0.51632,0.0416065
2.35374,0.402756,-0.139069
2.32157,0.515104,0.0968833
2.28149,0.624573,-0.110186
2.31579,0.513822,0.193647
2.31648,0.505499,-0.0690027
2.27841,0.615189,0
2.36291,0.39584,-0.027892
2.32605,0.507587,-0.303044
2.28551,0.617107,0.0550871
2.36686,0.396501,0.0279386
2.32536,0.507436,-0.194298
2.23327,0.721758,0.0683046
2.32493,0.507341,0.0415367
2.35907,0.395197,-0.139301
2.32335,0.506998,0.0968833
2.28366,0.616606,-0.110186
2.3299,0.508426,-0.124978
2.31757,0.505736,0.193647
2.2843,0.60866,0
2.36421,0.388003,-0.027892
2.32691,0.499697,-0.0138324
2.36816,0.38865,0.0279386
2.32703,0.499723,-0.194298
2.24327,0.716783,0.0685373
2.3266,0.499629,0.0415367
2.36037,0.387373,-0.139301
2.32502,0.499291,0.0968833
2.28569,0.60903,-0.110186
2.32313,0.498886,0.193973
2.31987,0.48972,-0.0690027
2.28641,0.600682,0
2.3774,0.381649,-0.0280317
2.32473,0.490745,-0.0138091
2.3594,0.37876,-0.223066
2.28966,0.601536,0.0550871
2.36555,0.379747,0.027892
2.33656,0.493243,-0.194949
2.24576,0.708947,0.0685373
2.34007,0.493982,0.0417462
2.36565,0.379763,-0.139534
2.32675,0.491172,0.0968833
2.28393,0.600032,-0.11
2.33721,0.493381,-0.125188
2.32876,0.491596,0.194298
2.29353,0.602552,-0.0551802
2.24513,0.699712,-0.0410481
2.28473,0.591296,0
2.38273,0.373553,-0.0280783
2.34218,0.485469,-0.0139021
2.36864,0.371344,-0.223809
2.29572,0.594142,0.0551802
2.37088,0.371694,0.0279386
2.24834,0.700712,0.0685373
2.34186,0.485403,0.0417462
2.37097,0.371709,-0.139766
2.33245,0.483452,0.0970462
2.28999,0.592658,-0.110186
2.32664,0.482249,0.193973
2.25126,0.69344,-0.0411179
2.29055,0.584705,0
2.37605,0.364436,-0.0279852
2.32894,0.474675,-0.302539
2.24392,0.691179,0.0136464
2.30155,0.587514,0.0552732
2.37605,0.364436,0.0279852
2.28497,0.583281,-0.164904
2.33995,0.476919,-0.194949
2.24683,0.692075,0.0684209
2.34346,0.477634,0.0417462
2.37614,0.36445,-0.139999
2.33795,0.476512,0.097209
2.29194,0.58506,-0.110186
2.33277,0.475456,-0.124769
2.25379,0.685184,-0.0411179
2.33279,0.466562,-0.0692355
2.29268,0.576307,0
2.37737,0.355725,-0.0279852
2.34551,0.469105,-0.0139021
2.37512,0.355388,-0.224181
2.30369,0.579075,0.0552732
2.38528,0.356909,0.0280783
2.34168,0.46834,-0.194949
2.34519,0.469042,0.0417462
2.37746,0.355739,-0.139999
2.33969,0.467941,0.097209
2.29794,0.577631,-0.110372
2.34625,0.469254,-0.125397
2.33386,0.466776,0.194298
2.25617,0.677312,-0.0411179
2.33441,0.458416,-0.0692355
2.29856,0.569261,0
2.38256,0.348002,-0.0280317
2.35106,0.461685,-0.0139253
2.38029,0.34767,-0.224553
2.30958,0.571991,0.0553663
2.38651,0.34858,0.0280783
2.34721,0.46093,-0.195275
2.25173,0.675979,0.0684209
2.34681,0.460852,0.0417462
2.37474,0.34686,-0.139766
2.34915,0.46131,0.0975347
2.30382,0.570566,-0.110558
2.2623,0.679152,-0.096232
2.30182,0.570069,-0.0551802
2.30033,0.562038,0
2.39156,0.341647,-0.0281249
2.33371,0.450669,-0.302539
2.34857,0.453539,-0.0139021
2.37742,0.339628,-0.224181
2.30748,0.563784,0.0552732
2.39156,0.341647,0.0281249
2.29473,0.560669,-0.165183
2.34865,0.453555,-0.195275
2.25767,0.67004,0.0685373
2.35218,0.454236,0.041816
2.37977,0.339963,-0.139999
2.34274,0.452413,0.097209
2.29784,0.561429,-0.110186
2.26084,0.661546,-0.0411179
2.38889,0.331912,-0.0280783
2.33932,0.442443,-0.303044
2.25731,0.660512,0.0136696
2.35815,0.446005,-0.0139486
2.37871,0.330497,-0.224181
2.38889,0.331912,0.0280783
2.29687,0.551854,-0.165183
2.35429,0.445275,-0.1956
2.26023,0.661366,0.0685373
2.34997,0.444458,0.0417462
2.38896,0.331922,-0.140464
2.34838,0.444157,0.0973718
2.30775,0.554469,-0.110558
2.35496,0.445401,-0.125606
2.34646,0.443793,0.194949
2.26698,0.654759,-0.0411877
2.34694,0.435404,-0.0694682
2.30829,0.546081,0
2.39003,0.32357,-0.0280783
2.34475,0.434997,-0.303549
2.2596,0.652628,0.0136696
2.35576,0.437041,-0.0139253
2.31155,0.546854,0.0552732
2.394,0.324107,0.0281249
2.35583,0.437053,-0.1956
2.35544,0.436981,0.041816
2.39011,0.323581,-0.140464
2.35385,0.436686,0.0975347
2.30967,0.54641,-0.110558
2.26161,0.653207,-0.0959064
2.26903,0.647634,-0.0411877
2.3483,0.428029,-0.0694682
2.30999,0.538827,0
2.39104,0.316061,-0.0280783
2.3422,0.426918,-0.303044
2.36106,0.430355,-0.0139486
2.31715,0.540498,0.0553663
2.30436,0.537515,-0.165462
2.35719,0.42965,-0.1956
2.26457,0.646361,0.0685373
2.35287,0.428863,0.0417462
2.39111,0.316071,-0.140464
2.35914,0.430006,0.0976975
2.31138,0.539151,-0.110558
2.2598,0.645002,-0.0957435
2.26753,0.63823,-0.0411179
2.35379,0.420123,-0.0695846
2.31585,0.531252,0
2.39615,0.307805,-0.0281249
2.26399,0.637233,0.0136696
2.36262,0.421699,-0.0139486
2.30253,0.528197,-0.254463
2.39384,0.307508,-0.225296
2.32302,0.532897,0.0554593
2.40011,0.308315,0.0281714
2.27077,0.639141,0.0686537
2.35443,0.420237,0.0417462
2.3883,0.306796,-0.140231
2.36464,0.422059,0.0978603
2.31723,0.53157,-0.110744
2.36335,0.42183,-0.125816
2.266,0.637799,-0.0959064
2.32302,0.532897,-0.0554593
2.27745,0.632451,-0.0412575
2.32159,0.524045,0
2.40514,0.30043,-0.028218
2.35301,0.411514,-0.304054
2.36802,0.414138,-0.0139718
2.3949,0.29915,-0.225296
2.32096,0.523903,0.0553663
2.40911,0.300926,0.0282646
2.30815,0.521011,-0.165462
2.27299,0.63121,0.0686537
2.3677,0.414082,0.0419556
2.39728,0.299447,-0.140696
2.35822,0.412425,0.0975347
2.31518,0.522598,-0.110558
2.27206,0.630954,-0.0960692
2.32486,0.524784,-0.0554593
2.27193,0.622383,-0.0411179
2.31559,0.514203,0
2.41412,0.292996,-0.0283111
2.35052,0.402627,-0.303549
2.36551,0.405194,-0.0139486
2.39593,0.290788,-0.225296
2.32278,0.515798,0.0553663
2.39824,0.291068,0.0281249
2.27132,0.622215,0.0685373
2.37307,0.406489,0.0420254
2.39831,0.291077,-0.140696
2.33117,0.517662,0.139069
2.35965,0.40419,0.0975347
2.31699,0.514513,-0.110558
2.36624,0.405319,-0.125816
2.3577,0.403857,0.195275
2.27425,0.623018,-0.0960692
2.28557,0.617977,-0.0413273
2.36193,0.396523,-0.0697009
2.31729,0.506521,0
2.40713,0.284051,-0.028218
2.35576,0.395487,-0.304054
2.27816,0.615973,0.0137161
2.37473,0.398671,-0.0139951
2.40083,0.283307,-0.225668
2.33229,0.5098,0.0555524
2.40713,0.284051,0.028218
2.37441,0.398617,0.0420254
2.40323,0.283589,-0.140929
2.36886,0.397685,0.0978603
2.32258,0.507679,-0.110744
2.36296,0.396696,0.1956
2.2763,0.615472,-0.0960692
2.28395,0.608567,-0.0412575
2.35943,0.387216,-0.0695846
2.32695,0.499704,0
2.41213,0.275681,-0.0282646
2.37617,0.389965,-0.0139951
2.40581,0.274958,-0.22604
2.33414,0.501248,0.0555524
2.40816,0.275227,0.028218
2.37227,0.389324,-0.196251
2.27947,0.607372,0.0686537
2.37585,0.389912,0.0420254
2.40425,0.27478,-0.140929
2.37819,0.390296,0.098186
2.32834,0.500002,-0.11093
2.3769,0.390084,-0.126234
2.27855,0.607126,-0.0960692
2.2822,0.599575,-0.0411877
2.33651,0.493232,0
2.42103,0.26814,-0.0283577
2.37357,0.381035,-0.0139718
2.41071,0.266998,-0.226412
2.42501,0.268581,0.0284042
2.32301,0.490382,-0.16602
2.37755,0.381673,-0.196577
2.28158,0.599412,0.0686537
2.3772,0.381617,0.0420254
2.40519,0.266386,-0.140929
2.38348,0.382626,0.0983488
2.33007,0.491872,-0.11093
2.36968,0.38041,0.195926
2.28065,0.599169,-0.0960692
2.28427,0.591604,-0.0411877
2.33038,0.483447,0
2.41798,0.259261,-0.0283111
2.36376,0.371,-0.304559
2.28458,0.591684,0.0137161
2.38279,0.373987,-0.0140183
2.40767,0.258156,-0.22604
2.33758,0.484941,0.0555524
2.42195,0.259687,0.0283577
2.37887,0.373371,-0.196577
2.28366,0.591444,0.0686537
2.37456,0.372696,0.0419556
2.27994,0.590483,-0.15094
2.33817,0.485063,0.139069
2.37296,0.372444,0.0978603
2.32786,0.482923,-0.110744
2.2866,0.592206,-0.096232
2.28633,0.583627,-0.0411877
2.32814,0.474511,0
2.42682,0.251644,-0.0284042
2.36896,0.363348,-0.305064
2.29439,0.585685,0.0137626
2.38408,0.365668,-0.0140183
2.34318,0.477577,0.0556454
2.41887,0.250819,0.0283111
2.29345,0.585447,0.0688864
2.38771,0.366224,0.042165
2.41494,0.250412,-0.141394
2.38214,0.365371,0.098186
2.32953,0.474795,-0.110744
2.37296,0.363961,-0.125816
2.34968,0.478903,0.294436
2.37227,0.363857,0.195926
2.28478,0.583232,-0.0960692
2.2959,0.578395,-0.0413273
2.37239,0.356248,-0.0698173
2.42362,0.243618,-0.0283577
2.37401,0.356493,-0.305569
2.29234,0.577496,0.0137394
2.38522,0.358175,-0.0140183
2.42122,0.243377,-0.227155
2.34467,0.470213,0.0556454
2.43556,0.244818,0.0284974
2.38129,0.357586,-0.196577
2.38885,0.358721,0.042165
2.41571,0.242823,-0.141394
2.38723,0.358478,0.0983488
2.33493,0.468259,-0.11093
2.38989,0.358877,-0.126653
2.35118,0.471518,0.294436
2.2866,0.576051,-0.0960692
2.29801,0.569977,-0.0413273
2.37763,0.348131,-0.0699336
2.42848,0.23512,-0.0284042
2.29056,0.568128,0.0137161
2.39443,0.35059,-0.0140648
2.4221,0.234501,-0.227155
2.34638,0.461617,0.0556454
2.4245,0.234734,0.0283577
2.38653,0.349434,-0.196902
2.29739,0.569822,0.0688864
2.38619,0.349384,0.0420952
2.42056,0.234353,-0.141627
2.39248,0.350305,0.0985116
2.34055,0.46047,-0.111116
2.39119,0.350115,-0.126653
2.37864,0.348278,0.196251
2.30033,0.570553,-0.0965577
2.29998,0.561951,-0.0413273
2.37883,0.339828,-0.0699336
2.33683,0.45127,0
2.4253,0.226269,-0.0283577
2.3765,0.339496,-0.305569
2.29641,0.561078,0.0137394
2.39168,0.341663,-0.0140416
2.4229,0.226045,-0.227155
2.34797,0.453423,0.0556454
2.43725,0.227384,0.0284974
2.33505,0.450928,-0.166299
2.29936,0.561799,0.0688864
2.39531,0.342183,0.0422348
2.29175,0.559939,-0.151196
2.3564,0.45505,0.139766
2.39765,0.342516,0.0986745
2.34606,0.453054,-0.111302
2.35839,0.455434,0.294924
2.29843,0.561571,-0.0963948
2.29795,0.553385,-0.0412575
2.34617,0.44501,0
2.43799,0.219301,-0.0284974
2.38155,0.332162,-0.306074
2.30215,0.554397,0.0137626
2.39676,0.334284,-0.0140648
2.35732,0.447125,0.0558315
2.44197,0.219659,0.0285439
2.3928,0.333732,-0.197227
2.30121,0.554171,0.0688864
2.38851,0.333133,0.0420952
2.3869,0.332908,0.098186
2.3397,0.443783,-0.11093
2.38885,0.333181,0.196902
2.30416,0.554882,-0.0965577
2.30774,0.546804,-0.0413971
2.38511,0.323752,-0.07005
2.34385,0.435677,0
2.43479,0.21002,-0.0284508
2.38668,0.323965,-0.306579
2.30027,0.545033,0.0137394
2.39401,0.324959,-0.0140416
2.42442,0.209125,-0.227155
2.35108,0.437021,0.0556454
2.44276,0.210708,0.0285439
2.30712,0.546656,0.0690027
2.39368,0.324915,0.042165
2.43084,0.209679,-0.142092
2.39206,0.324695,0.0983488
2.34131,0.435205,-0.11093
2.39868,0.325594,-0.126862
2.35761,0.438234,0.294436
2.39006,0.324424,0.196902
2.30229,0.545512,-0.0963948
2.30964,0.538744,-0.0413971
2.34536,0.427492,0
2.43153,0.201189,-0.0284042
2.39173,0.316151,-0.307084
2.30605,0.537909,0.0137626
2.4291,0.200989,-0.227527
2.35259,0.428811,0.0556454
2.44348,0.202179,0.0285439
2.39908,0.317123,-0.197553
2.30901,0.538598,0.0690027
2.40273,0.317605,0.0423046
2.43554,0.201521,-0.142324
2.4011,0.31739,0.0986745
2.35068,0.428462,-0.111302
2.36694,0.431425,0.295411
2.3154,0.531574,-0.0414669
2.39128,0.307603,-0.0701664
2.38862,0.307262,-0.481664
2.35471,0.420711,0
2.44019,0.193333,-0.0284974
2.30792,0.529856,0.0137626
2.40812,0.309769,-0.0141113
2.43773,0.193138,-0.228271
2.35801,0.4213,0.0557385
2.44417,0.193649,0.0285439
2.34505,0.418984,-0.166578
2.40017,0.308747,-0.197553
2.31088,0.530536,0.0690027
2.40382,0.309217,0.0423046
2.30712,0.529674,-0.151707
2.43622,0.193019,-0.142324
2.4022,0.309008,0.0986745
2.35216,0.420255,-0.111302
2.36843,0.423161,0.295411
2.36588,0.422707,-0.0559246
2.31724,0.523488,-0.0414669
2.3963,0.299749,-0.0702827
2.35617,0.412488,0
2.44085,0.184813,-0.0284974
2.38994,0.298954,-0.306579
2.30975,0.521796,0.0137626
2.40918,0.301361,-0.0141113
2.43839,0.184627,-0.228271
2.36735,0.414445,0.0559246
2.45281,0.185719,0.0286371
2.35043,0.411483,-0.166857
2.40519,0.300861,-0.197878
2.31662,0.523346,0.0691191
2.40489,0.300823,0.0423046
2.44087,0.184815,-0.142557
2.37185,0.415233,0.140231
2.40723,0.301116,0.0988373
2.35361,0.412041,-0.111302
2.40989,0.301448,-0.127281
2.40124,0.300366,0.197553
2.31178,0.522253,-0.0965577
2.32287,0.51667,-0.0415367
2.36146,0.405349,0
2.44544,0.177007,-0.0285439
2.3988,0.291986,-0.307589
2.31538,0.515003,0.0137859
2.41017,0.29337,-0.0141113
2.36082,0.40524,0.0557385
2.44943,0.177296,0.0285905
2.40222,0.292403,-0.197553
2.31834,0.515662,0.0691191
2.41381,0.293814,0.0424443
2.31457,0.514824,-0.151963
2.40821,0.293132,0.0988373
2.37517,0.407701,0.295899
2.40222,0.292403,0.197553
2.3174,0.515453,-0.0967205
2.32075,0.507704,-0.0414669
2.45003,0.168746,-0.0285905
2.40374,0.284077,-0.308094
2.32107,0.507773,0.0138091
2.41912,0.285895,-0.0141578
2.36617,0.39766,0.0558315
2.45402,0.16902,0.0286371
2.41114,0.284952,-0.198204
2.32403,0.508421,0.0692355
2.4188,0.285856,0.0425141
2.31635,0.506742,-0.151963
2.44605,0.168472,-0.142789
2.40922,0.284725,0.0988373
2.36424,0.397337,-0.111675
2.41585,0.285508,-0.12749
2.37266,0.398751,0.295411
2.4151,0.28542,0.198529
2.32699,0.509069,-0.0970462
2.3226,0.499194,-0.0414669
2.45063,0.159764,-0.0285905
2.40871,0.275716,-0.3086
2.32291,0.499262,0.0138091
2.45211,0.15986,-0.229386
2.37156,0.389632,0.0559246
2.45063,0.159764,0.0285905
2.41217,0.276112,-0.198204
2.32588,0.499899,0.0692355
2.41983,0.276988,0.0425141
2.3221,0.499087,-0.152219
2.45064,0.159764,-0.143022
2.36569,0.388668,-0.111675
2.42085,0.277105,-0.1277
2.38194,0.391338,0.296386
2.40821,0.275659,0.197878
2.32103,0.498856,-0.0967205
2.32815,0.492317,-0.0415367
2.36558,0.380599,0
2.45115,0.151637,-0.0285905
2.32456,0.491556,0.0138091
2.46058,0.15222,-0.23013
2.38073,0.383037,0.0561107
2.46312,0.152378,0.0287302
2.41307,0.268112,-0.198204
2.41676,0.268521,0.0424443
2.32374,0.491384,-0.152219
2.45514,0.151884,-0.143255
2.38129,0.383127,0.140464
2.42307,0.269222,0.0993258
2.36696,0.380821,-0.111675
2.42175,0.269076,-0.1277
2.38322,0.383438,0.296386
2.40911,0.267672,0.197878
2.32658,0.491984,-0.0968833
2.40229,0.258427,-0.483233
2.37084,0.37296,0
2.46364,0.143778,-0.0287302
2.45712,0.143398,-0.229758
2.38205,0.374724,0.0561107
2.46763,0.144011,0.0287768
2.42192,0.260539,-0.198855
2.32923,0.484056,0.0692355
2.42166,0.260511,0.0425141
2.32153,0.482457,-0.151963
2.45167,0.14308,-0.143022
2.38261,0.374812,0.140464
2.42797,0.261189,0.0994886
2.37617,0.373798,-0.112047
2.42665,0.261048,-0.127909
2.38847,0.375733,0.296874
2.414,0.259686,0.198204
2.32437,0.483046,-0.0967205
2.33545,0.476851,-0.0416065
2.40708,0.250445,-0.484018
2.37609,0.365289,0
2.46812,0.135396,-0.0287768
2.41537,0.251308,-0.309105
2.33577,0.476915,0.0138556
2.43084,0.252917,-0.0142043
2.45363,0.134601,-0.229386
2.37939,0.365798,0.0560176
2.46413,0.135177,0.0287302
2.42282,0.252083,-0.198855
2.33874,0.477521,0.0694682
2.42653,0.252469,0.0425839
2.32711,0.475148,-0.152219
2.38785,0.367099,0.140696
2.42489,0.252298,0.0993258
2.38977,0.367393,0.296874
2.42282,0.252083,0.198855
2.3417,0.478127,-0.0973718
2.3873,0.367013,-0.0562037
2.3331,0.468317,-0.0415367
2.46057,0.1268,-0.0286836
2.41619,0.243297,-0.309105
2.33734,0.469167,0.0138556
2.46599,0.127079,-0.230501
2.38059,0.357906,0.0560176
2.46856,0.127211,0.0287768
2.42761,0.244447,-0.19918
2.33639,0.468977,0.0693518
2.43531,0.245223,0.0427235
2.33651,0.469,-0.152731
2.46854,0.12721,-0.143952
2.42571,0.244256,0.0993258
2.37076,0.356427,-0.111675
2.42837,0.244524,-0.127909
2.39097,0.359466,0.296874
2.42761,0.244447,0.19918
2.34328,0.47036,-0.0973718
2.3885,0.359095,-0.0562037
2.33872,0.460536,-0.0416065
2.46901,0.118163,-0.0287768
2.42101,0.234823,-0.30961
2.33512,0.459825,0.0138324
2.47042,0.118231,-0.230873
2.38585,0.349759,0.0561107
2.46901,0.118163,0.0287768
2.42849,0.235548,-0.19918
2.33809,0.460411,0.0693518
2.43619,0.236296,0.0427235
2.33429,0.459663,-0.152475
2.46899,0.118162,-0.143952
2.39431,0.351,0.140929
2.43455,0.236136,0.0996514
2.376,0.348316,-0.111861
2.43323,0.236008,-0.128118
2.39227,0.350701,0.296874
2.33714,0.460224,-0.0970462
2.39376,0.350919,-0.0562968
2.34032,0.45237,-0.0416065
2.42182,0.226372,-0.30961
2.44132,0.228194,-0.0142508
2.47082,0.109607,-0.230873
2.38309,0.340863,0.0560176
2.4734,0.109722,0.0288233
2.43326,0.227441,-0.199506
2.44099,0.228163,0.0427933
2.47337,0.109721,-0.144185
2.43933,0.228009,0.0998143
2.38116,0.340586,-0.112047
2.43801,0.227885,-0.128328
2.39741,0.342911,0.297361
2.42929,0.22707,0.19918
2.33873,0.452064,-0.0970462
2.34188,0.444197,-0.0416065
2.38095,0.332079,0
2.46977,0.100924,-0.0287768
2.42655,0.218271,-0.310115
2.43812,0.219312,-0.0142276
2.47119,0.100981,-0.230873
2.38823,0.333094,0.0561107
2.47776,0.10125,0.0288699
2.43801,0.219303,-0.199831
2.3491,0.445567,0.0695846
2.44575,0.219999,0.0428631
2.33744,0.443355,-0.152475
2.40066,0.334827,0.141162
2.4441,0.21985,0.0999771
2.38629,0.332823,-0.112233
2.3986,0.33454,0.297361
2.43404,0.218946,0.199506
2.34422,0.444641,-0.097209
2.35128,0.437482,-0.0417462
2.4781,0.0925999,-0.0288699
2.42334,0.209457,-0.30961
2.34767,0.43681,0.0138789
2.44285,0.211144,-0.0142508
2.47152,0.092354,-0.230873
2.38938,0.324755,0.0561107
2.4821,0.0927492,0.0289165
2.43876,0.210791,-0.199831
2.35065,0.437364,0.0695846
2.3429,0.435923,-0.152731
2.39785,0.325907,0.140929
2.44087,0.210972,0.0998143
2.38348,0.323953,-0.112047
2.44352,0.211202,-0.128537
2.39975,0.326164,0.297361
2.44274,0.211134,0.200157
2.35362,0.437917,-0.0975347
2.35272,0.429683,-0.0417462
2.4784,0.0843822,-0.0288699
2.42797,0.201749,-0.310115
2.48376,0.0845647,-0.231988
2.39837,0.317881,0.0562968
2.48239,0.0845183,0.0289165
2.44342,0.203033,-0.200157
2.35995,0.431003,0.0698173
2.45118,0.203677,0.0429329
2.34433,0.428152,-0.152731
2.47437,0.0842452,-0.144185
2.40288,0.318479,0.141162
2.44155,0.202878,0.0998143
2.44023,0.202768,-0.128328
2.40082,0.318205,0.297361
2.44342,0.203033,0.200157
2.35113,0.429392,-0.0973718
2.35421,0.421468,-0.0417462
2.43262,0.193588,-0.31062
2.35059,0.420821,0.0138789
2.45221,0.195147,-0.0142973
2.48802,0.0760164,-0.23236
2.39947,0.309508,0.0562968
2.48267,0.0758531,0.0289165
2.44014,0.194187,-0.199831
2.34963,0.42065,0.0694682
2.35367,0.421373,-0.153242
2.47864,0.07573,-0.144417
2.40794,0.3106,0.141394
2.44623,0.194671,0.0999771
2.38959,0.308234,-0.112233
2.44889,0.194883,-0.128746
2.40191,0.309823,0.297361
2.44412,0.194503,0.200157
2.35261,0.421183,-0.0973718
2.3596,0.413939,-0.041816
2.48692,0.067294,-0.028963
2.43328,0.185095,-0.31062
2.35204,0.412612,0.0138789
2.45686,0.186889,-0.0143206
2.49225,0.0674382,-0.232732
2.40053,0.30113,0.0562968
2.48692,0.067294,0.028963
2.44876,0.186272,-0.200482
2.35896,0.413826,0.0697009
2.44855,0.186256,0.0428631
2.48288,0.0671848,-0.14465
2.41297,0.30269,0.141627
2.4469,0.18613,0.0999771
2.44955,0.186333,-0.128746
2.40692,0.301931,0.297849
2.44478,0.18597,0.200157
2.35407,0.412968,-0.0973718
2.35315,0.404345,-0.0416763
2.43329,0.176555,-0.48794
2.40222,0.292828,0
2.48714,0.0586132,-0.028963
2.43787,0.176888,-0.311125
2.35741,0.405078,0.0139021
2.45351,0.178022,-0.0142973
2.49645,0.0588326,-0.233104
2.40951,0.293717,0.0564829
2.49114,0.0587074,0.0290096
2.44939,0.177724,-0.200482
2.36039,0.40559,0.0697009
2.45717,0.178288,0.0430027
2.35262,0.404255,-0.152986
2.41005,0.293782,0.141394
2.4555,0.178167,0.100303
2.39565,0.292027,-0.112419
2.45816,0.17836,-0.129165
2.41584,0.294489,0.298824
2.45337,0.178012,0.200808
2.36337,0.406102,-0.0976975
2.36243,0.397455,-0.041816
2.49533,0.050091,-0.0290561
2.44243,0.168649,-0.31163
2.35881,0.396846,0.0139021
2.45012,0.169181,-0.0142741
2.49266,0.0500374,-0.232732
2.40655,0.284833,0.0563898
2.49133,0.0500107,0.0290096
2.45795,0.169721,-0.201133
2.36574,0.398011,0.0698173
2.35402,0.39604,-0.152986
2.48728,0.0499295,-0.144882
2.41106,0.285367,0.141394
2.46408,0.170145,0.100628
2.40459,0.284602,-0.112791
2.45876,0.169777,-0.129165
2.41685,0.286053,0.298824
2.45397,0.169447,0.200808
2.36084,0.397186,-0.0975347
2.41846,0.286243,-0.056669
2.36775,0.389857,-0.0418858
2.4042,0.27605,0
2.49549,0.0413809,-0.0290561
2.443,0.160123,-0.31163
2.36807,0.38991,0.0139486
2.46267,0.161413,-0.0143438
2.50078,0.0414687,-0.233476
2.4115,0.276888,0.0564829
2.45853,0.161141,-0.201133
2.375,0.39105,0.07005
2.36327,0.389118,-0.153498
2.41997,0.277861,0.141859
2.46466,0.161543,0.100628
2.40557,0.276207,-0.112791
2.45535,0.160933,-0.128956
2.41389,0.277163,0.298336
2.45853,0.161141,0.201133
2.36615,0.389593,-0.0976975
2.36515,0.380954,-0.041816
2.49562,0.0326703,-0.0290561
2.44751,0.151841,-0.312135
2.37337,0.382278,0.0139718
2.46722,0.153063,-0.0143671
2.50489,0.0327917,-0.233847
2.41643,0.268911,0.056576
2.45908,0.152558,-0.201133
2.36846,0.381487,0.0698173
2.46688,0.153043,0.0431423
2.36067,0.380232,-0.153242
2.49556,0.0326695,-0.145348
2.4249,0.269854,0.142092
2.46521,0.152939,0.100628
2.41446,0.268693,-0.113164
2.45989,0.152609,-0.129165
2.41879,0.269175,0.298824
2.45908,0.152558,0.201133
2.3675,0.381332,-0.0976975
2.36647,0.372695,-0.041816
2.41403,0.260116,0
2.37074,0.373368,0.0139486
2.46773,0.14445,-0.0143671
2.50898,0.0240854,-0.234219
2.42133,0.260903,0.056669
2.49972,0.0239965,0.0291027
2.46357,0.144206,-0.201458
2.37373,0.373838,0.0699336
2.4674,0.14443,0.0431423
2.36593,0.37261,-0.153498
2.49965,0.0239958,-0.14558
2.42582,0.261387,0.142092
2.46972,0.144566,0.100791
2.41936,0.26069,-0.11335
2.46838,0.144487,-0.129584
2.42366,0.261155,0.299311
2.45959,0.143973,0.201133
2.36881,0.373065,-0.0976975
2.37171,0.365041,-0.0418858
2.45643,0.135186,-0.313145
2.37203,0.365091,0.0139486
2.46822,0.135835,-0.0143671
2.50905,0.0153278,-0.234219
2.41824,0.252035,0.056576
2.51178,0.0153445,0.0292424
2.46804,0.135825,-0.201784
2.37502,0.365551,0.0699336
2.47188,0.136037,0.0432122
2.36721,0.364349,-0.153498
2.42672,0.252919,0.142092
2.4742,0.136164,0.100954
2.42423,0.252658,-0.113536
2.43641,0.253928,0.300774
2.46406,0.135606,0.201458
2.3701,0.364794,-0.0976975
2.37284,0.357588,-0.0418858
2.42366,0.244904,0
2.50782,0.00744086,-0.0291958
2.38107,0.358828,0.0139951
2.47663,0.128494,-0.0144135
2.51306,0.00745642,-0.234591
2.423,0.244838,0.056669
2.51182,0.00745273,0.0292424
2.47244,0.128277,-0.202109
2.38011,0.358683,0.07005
2.48029,0.128684,0.0433518
2.37229,0.357505,-0.153754
2.4275,0.245293,0.142092
2.47462,0.12839,0.100954
2.42103,0.244639,-0.11335
2.47327,0.12832,-0.129793
2.43719,0.246272,0.300774
2.46846,0.12807,0.201784
2.37914,0.358537,-0.0980231
2.38199,0.350468,-0.0420254
2.42052,0.236055,0
2.51183,-0.00131466,-0.0292424
2.46124,0.119083,-0.31365
2.38231,0.350515,0.0139951
2.47706,0.119849,-0.0144135
2.51706,-0.0013174,-0.234963
2.4318,0.237155,0.0568551
2.51583,-0.00131676,0.029289
2.47287,0.119646,-0.202109
2.38134,0.350373,0.07005
2.48072,0.120026,0.0433518
2.37747,0.349803,-0.15401
2.50775,-0.00131253,-0.146045
2.43232,0.237206,0.142324
2.47505,0.119752,0.100954
2.42983,0.236963,-0.113722
2.47371,0.119687,-0.129793
2.43013,0.236993,0.299799
2.46889,0.119454,0.201784
2.38326,0.341735,-0.0420254
2.42137,0.227182,0
2.46562,0.11024,-0.314155
2.38754,0.342349,0.0140183
2.525,-0.0105757,-0.235706
2.43265,0.228241,0.0568551
2.51581,-0.0105372,0.029289
2.47728,0.110761,-0.202435
2.38261,0.341643,0.07005
2.51971,-0.0105535,-0.146743
2.43715,0.228663,0.142557
2.48346,0.111037,0.10128
2.43068,0.228056,-0.113722
2.47413,0.11062,-0.129793
2.43494,0.228456,0.300286
2.46931,0.110404,0.201784
2.37769,0.340937,-0.0978603
2.42609,0.219511,0
2.48183,0.102718,-0.0144368
2.52893,-0.0189794,-0.236078
2.4334,0.220172,0.0568551
2.51976,-0.0189105,0.0293355
2.48161,0.102709,-0.20276
2.39165,0.334848,0.0702827
2.4815,0.102704,0.0433518
2.38381,0.33375,-0.154266
2.51966,-0.0189098,-0.146743
2.43789,0.220579,0.142557
2.4878,0.102965,0.101443
2.43142,0.219993,-0.113722
2.44359,0.221095,0.301261
2.47763,0.102544,0.202435
2.38672,0.334158,-0.098186
2.49667,0.103332,0.455597
2.38553,0.325505,-0.0420254
2.46929,0.0935667,-0.494216
2.44278,0.212428,0
2.47028,0.0936042,-0.31466
2.38585,0.325549,0.0139951
2.48617,0.0942064,-0.01446
2.43814,0.212024,0.0569482
2.52768,-0.0277935,0.0294287
2.48196,0.0940466,-0.20276
2.39281,0.326498,0.0702827
2.48184,0.0940422,0.0433518
2.43069,0.211377,0.142092
2.48815,0.0942813,0.101443
2.43615,0.211852,-0.113908
2.4868,0.0942301,-0.130421
2.44435,0.212564,0.301261
2.48196,0.0940466,0.20276
2.38787,0.325825,-0.098186
2.4461,0.212717,-0.0571343
2.38671,0.316759,-0.0420254
2.47354,0.0846492,-0.495
2.43956,0.203141,0
2.52756,-0.0370583,-0.0294287
2.39099,0.317328,0.0140183
2.4905,0.0852297,-0.0144833
2.52475,-0.0370172,-0.235706
2.43491,0.202754,0.0568551
2.52756,-0.0370583,0.0294287
2.48627,0.0850849,-0.203086
2.40191,0.318777,0.0705155
2.49016,0.0852181,0.0434914
2.38614,0.316684,-0.154266
2.52745,-0.0370567,-0.147208
2.43941,0.203128,0.142557
2.48848,0.0851605,0.101443
2.4409,0.203252,-0.114094
2.48713,0.0851143,-0.130421
2.48627,0.0850849,0.203086
2.39301,0.317596,-0.0983488
2.39165,0.309774,-0.0420952
2.4362,0.195156,0
2.53143,-0.0450694,-0.0294752
2.47483,0.0769106,-0.315165
2.39595,0.310329,0.0140416
2.49076,0.0774056,-0.0144833
2.53657,-0.0451609,-0.236822
2.44749,0.196062,0.0571343
2.53143,-0.0450694,0.0294752
2.49449,0.0775218,-0.203737
2.39894,0.310717,0.0703991
2.49841,0.0776436,0.043631
2.39108,0.309699,-0.154521
2.53929,-0.0452095,-0.147906
2.44402,0.195783,0.142789
2.49672,0.077591,0.101768
2.44949,0.196221,-0.114467
2.48339,0.0771767,-0.130212
2.44574,0.195921,0.301261
2.48652,0.0772741,0.203086
2.39796,0.310591,-0.0985116
2.39674,0.301504,-0.042165
2.44088,0.18653,0
2.53124,-0.0543479,-0.0294752
2.48303,0.0680562,-0.316176
2.40104,0.302044,0.0140648
2.49902,0.0684945,-0.0145298
2.54037,-0.0545438,-0.237193
2.44421,0.186784,0.0570412
2.53524,-0.0544338,0.0295218
2.49078,0.0682686,-0.203411
2.40403,0.302421,0.0705155
2.49868,0.0684853,0.043631
2.3922,0.300933,-0.154521
2.53911,-0.0545168,-0.147906
2.4487,0.187128,0.143022
2.49699,0.0684389,0.101768
2.44621,0.186937,-0.11428
2.49564,0.0684018,-0.13084
2.46228,0.188165,0.303211
2.39512,0.3013,-0.0983488
2.45218,0.187394,-0.0572273
2.39783,0.292718,-0.042165
2.44554,0.177873,0
2.53903,-0.0638255,-0.0295684
2.50325,0.0594302,-0.014553
2.54413,-0.0639538,-0.237565
2.44887,0.178115,0.0571343
2.53503,-0.0637249,0.0295218
2.48702,0.0590449,-0.203086
2.40512,0.293608,0.0705155
2.49892,0.0593272,0.043631
2.54289,-0.0639225,-0.148138
2.44937,0.178152,0.143022
2.50522,0.0594768,0.102094
2.45485,0.17855,-0.114653
2.50386,0.0594446,-0.131259
2.46295,0.17914,0.303211
2.49101,0.0591395,0.203411
2.39621,0.29252,-0.0983488
2.51384,0.0596815,0.458467
2.45684,0.178696,-0.0573204
2.48232,0.0502635,-0.496569
2.45014,0.169611,0
2.54279,-0.0728031,-0.0296149
2.40314,0.284855,0.0140648
2.49945,0.0506102,-0.0145298
2.53991,-0.0727208,-0.237193
2.44947,0.169566,0.0571343
2.54678,-0.0729175,0.0296615
2.4101,0.285681,0.0706318
2.49911,0.0506034,0.043631
2.54664,-0.0729134,-0.148371
2.44998,0.1696,0.143022
2.50141,0.05065,0.101931
2.45545,0.16998,-0.114653
2.50006,0.0506226,-0.131049
2.46356,0.170541,0.303211
2.46144,0.170394,-0.0574134
2.48639,0.0425324,-0.497353
2.45864,0.162441,0
2.40402,0.277305,0.0140648
2.50359,0.0428266,-0.014553
2.54365,-0.0808258,-0.237565
2.45398,0.162134,0.0572273
2.54654,-0.0809176,0.0296615
2.50331,0.0428217,-0.204388
2.41099,0.278108,0.0706318
2.50725,0.0428892,0.0437706
2.54241,-0.0807863,-0.148138
2.45847,0.16243,0.143487
2.50955,0.0429286,0.102257
2.45199,0.162002,-0.114467
2.50819,0.0429053,-0.131468
2.46804,0.163062,0.303698
2.40604,0.277537,-0.0986745
2.46595,0.162924,-0.0575065
2.55421,-0.0909804,-0.0297546
2.49167,0.0330526,-0.317186
2.41302,0.268957,0.0141113
2.51174,0.0333187,-0.0145995
2.5473,-0.0907345,-0.237937
2.45858,0.152957,0.0573204
2.55021,-0.090838,0.029708
2.50744,0.0332617,-0.204713
2.42396,0.270177,0.0709809
2.5114,0.0333142,0.0438404
2.40415,0.267969,-0.155033
2.55405,-0.0909748,-0.148836
2.46306,0.153236,0.14372
2.5057,0.0332387,0.102094
2.45658,0.152833,-0.114653
2.50834,0.0332736,-0.131468
2.47261,0.153831,0.304186
2.49946,0.0331559,0.204062
2.40708,0.268296,-0.0986745
2.40955,0.26091,-0.0423046
2.49881,0.0252965,-0.0727263
2.49447,0.0252525,-0.498922
2.45971,0.145273,0
2.54592,-0.0986939,-0.0296615
2.4997,0.0253054,-0.318196
2.4218,0.262237,0.0141578
2.51583,0.0254687,-0.0146228
2.55497,-0.0990447,-0.23868
2.45905,0.145233,0.0573204
2.54991,-0.0988488,0.029708
2.51152,0.025425,-0.205038
2.41287,0.26127,0.0706318
2.51549,0.0254653,0.0439103
2.56173,-0.099307,-0.149301
2.4715,0.145969,0.144185
2.51778,0.0254885,0.102582
2.46503,0.145586,-0.115025
2.51242,0.0254342,-0.131677
2.47309,0.146062,0.304186
2.47102,0.145941,-0.0575995
2.50289,0.0165997,-0.0728427
2.50239,0.0165963,-0.500491
2.47219,0.137351,0
2.56154,-0.108256,-0.0298477
2.41475,0.252948,0.0141113
2.5199,0.0167125,-0.014646
2.5546,-0.107963,-0.23868
2.46353,0.13687,0.0574134
2.51159,0.0166574,-0.205038
2.41774,0.253261,0.0707482
2.51956,0.0167103,0.0439801
2.56536,-0.108418,-0.149534
2.47199,0.13734,0.144185
2.51786,0.0166989,0.102582
2.46951,0.137202,-0.115211
2.52049,0.0167164,-0.132096
2.48151,0.137869,0.305161
2.51159,0.0166574,0.205038
2.41279,0.252742,-0.0988373
2.50243,0.00742508,-0.500491
2.47267,0.128289,0
2.56512,-0.117827,-0.0298943
2.42362,0.2449,0.0141578
2.51595,0.00746518,-0.0146228
2.56613,-0.117873,-0.239796
2.46402,0.12784,0.0574134
2.56512,-0.117827,0.0298943
2.51961,0.00747605,-0.205689
2.42661,0.245203,0.0709809
2.5236,0.00748791,0.0440499
2.55697,-0.117453,-0.149068
2.47647,0.128486,0.144417
2.5179,0.00747098,0.102582
2.47399,0.128357,-0.115397
2.52452,0.00749064,-0.132305
2.51163,0.00745239,0.205038
2.41767,0.2443,-0.0990001
2.476,0.128462,-0.0576926
2.51094,-0.000875784,-0.0730754
2.50244,-0.000872821,-0.500491
2.4651,0.119701,0
2.56472,-0.126332,-0.0298943
2.5038,-0.000873294,-0.318701
2.42442,0.236862,0.0141578
2.51996,-0.00087893,-0.014646
2.55777,-0.12599,-0.239052
2.46443,0.119669,0.0574134
2.57271,-0.126726,0.0299874
2.5236,-0.000880203,-0.206015
2.42741,0.237155,0.0709809
2.56853,-0.12652,-0.149766
2.47688,0.120274,0.144417
2.51791,-0.000878217,0.102582
2.47041,0.119959,-0.115211
2.48638,0.120735,0.305648
2.5236,-0.000880203,0.206015
2.41847,0.236281,-0.0990001
2.47641,0.120251,-0.0576926
2.57225,-0.135705,-0.0299874
2.51568,-0.00965835,-0.320216
2.42523,0.228399,0.0141578
2.52394,-0.00969004,-0.0146693
2.56129,-0.135127,-0.239424
2.46883,0.111246,0.0575065
2.56426,-0.135283,0.0298943
2.52359,-0.00968869,-0.206015
2.42822,0.228681,0.0709809
2.57206,-0.135695,-0.149999
2.48526,0.111987,0.144882
2.52589,-0.00969752,0.102908
2.4748,0.111516,-0.115397
2.52452,-0.00969226,-0.132305
2.48282,0.111877,0.305161
2.51561,-0.00965807,0.205364
2.42326,0.228213,-0.0991629
2.47682,0.111606,-0.0576926
2.51486,-0.0188736,-0.0731918
2.51022,-0.0188387,-0.50206
2.48188,0.10272,0
2.57573,-0.145358,-0.030034
2.5196,-0.0189091,-0.320721
2.43003,0.219868,0.0141811
2.53189,-0.0190014,-0.0147158
2.56873,-0.144963,-0.240167
2.47721,0.102527,0.0576926
2.57573,-0.145358,0.030034
2.52353,-0.0189387,-0.206015
2.53554,-0.0190288,0.0442593
2.52983,-0.0189859,0.103071
2.48318,0.102774,-0.115769
2.52846,-0.0189756,-0.132515
2.49511,0.103268,0.306623
2.52353,-0.0189387,0.206015
2.42408,0.219329,-0.0991629
2.48919,0.103023,-0.0579717
2.4264,0.211855,-0.0425141
2.52279,-0.02686,-0.0734245
2.51799,-0.0268089,-0.503629
2.48219,0.094922,0
2.57126,-0.153212,-0.0299874
2.51556,-0.0267831,-0.320216
2.43071,0.212232,0.0141811
2.53981,-0.0270413,-0.0147623
2.46791,0.094376,-0.266029
2.57621,-0.153506,-0.240911
2.48151,0.0948963,0.0577856
2.58324,-0.153925,0.0301271
2.52745,-0.0269097,-0.20634
2.42972,0.212146,0.0709809
2.53547,-0.0269951,0.0442593
2.58303,-0.153913,-0.150696
2.49395,0.0953718,0.145348
2.53775,-0.0270193,0.103397
2.48748,0.0951245,-0.115956
2.52839,-0.0269196,-0.132515
2.48551,0.0950491,-0.0578787
2.52267,-0.0361058,-0.0734245
2.52572,-0.0361493,-0.505198
2.48651,0.0859624,0
2.58266,-0.163392,-0.0301271
2.43147,0.203322,0.0141811
2.5397,-0.0363494,-0.0147623
2.57563,-0.162947,-0.240911
2.48185,0.085801,0.0577856
2.58665,-0.163644,0.0301737
2.53531,-0.0362866,-0.206991
2.43447,0.203573,0.0710973
2.53935,-0.0363445,0.0443291
2.57847,-0.163127,-0.150464
2.49428,0.0862309,0.145348
2.53763,-0.0363199,0.103397
2.48781,0.0860074,-0.115956
2.52733,-0.0361725,0.20634
2.43348,0.20349,-0.0994886
2.47785,0.0856628,-0.0576926
2.5295,-0.045036,-0.505983
2.4868,0.0772817,0
2.58208,-0.172407,-0.0301271
2.44014,0.195472,0.0142276
2.57505,-0.171937,-0.240911
2.48613,0.0772608,0.0578787
2.58607,-0.172673,0.0301737
2.53915,-0.0452079,-0.207317
2.43915,0.195392,0.0712136
2.54721,-0.0453514,0.0444687
2.58585,-0.172659,-0.150929
2.49457,0.0775231,0.145348
2.5335,-0.0451072,0.103234
2.48411,0.077198,-0.115769
2.5441,-0.0452961,-0.133352
2.50398,0.0778155,0.307598
2.53118,-0.0450659,0.206666
2.43418,0.194994,-0.0994886
2.48613,0.0772608,-0.0578787
2.52147,-0.0541378,-0.504414
2.48707,0.0681671,0
2.58542,-0.18215,-0.0301737
2.53496,-0.0544274,-0.322742
2.44882,0.187137,0.0142741
2.54337,-0.054608,-0.0147855
2.57837,-0.181654,-0.241283
2.49039,0.0682582,0.0579717
2.58542,-0.18215,0.0301737
2.54295,-0.054599,-0.207642
2.44384,0.186756,0.07133
2.55102,-0.0547723,0.0445385
2.58918,-0.182415,-0.151161
2.49883,0.0684895,0.14558
2.54131,-0.0545637,0.103559
2.49236,0.0683122,-0.116142
2.54792,-0.0547056,-0.133561
2.50821,0.0687468,0.308086
2.43886,0.186376,-0.0996514
2.49039,0.0682582,-0.0579717
2.53414,-0.0632607,-0.0737736
2.53695,-0.0633309,-0.507552
2.49529,0.0596762,0
2.59673,-0.192059,-0.0303134
2.53079,-0.063177,-0.322237
2.44547,0.178297,0.0142508
2.55116,-0.0636857,-0.014832
2.58169,-0.190947,-0.241655
2.50261,0.0598513,0.0582509
2.59673,-0.192059,0.0303134
2.54673,-0.0635751,-0.207968
2.44846,0.178515,0.0714464
2.5965,-0.192042,-0.151627
2.50703,0.0599571,0.146045
2.5451,-0.0635342,0.103722
2.50057,0.0598026,-0.116514
2.54372,-0.0634998,-0.133352
2.53876,-0.0633761,0.207317
2.44348,0.178152,-0.0998143
2.49061,0.0595644,-0.0579717
2.53279,-0.0720746,-0.506767
2.49948,0.0510473,0
2.59206,-0.200813,-0.0302668
2.4851,0.0507537,-0.267743
2.58498,-0.200265,-0.242026
2.5068,0.0511968,0.058344
2.60003,-0.201431,0.0303599
2.55048,-0.0725778,-0.208293
2.44508,0.16969,0.07133
2.55458,-0.0726944,0.0446084
2.59581,-0.201104,-0.151627
2.51122,0.0512871,0.146278
2.55285,-0.0726452,0.104048
2.50476,0.0511552,-0.1167
2.55546,-0.0727195,-0.13398
2.45206,0.170175,-0.10014
2.4948,0.0509519,-0.0580648
2.5404,-0.080279,-0.508336
2.50363,0.0432639,0
2.5954,-0.209277,-0.0303134
2.53428,-0.0800856,-0.322742
2.45059,0.162338,0.0142741
2.55468,-0.0807304,-0.0148553
2.59228,-0.209025,-0.24277
2.51095,0.0433903,0.058437
2.60337,-0.20992,0.0304065
2.49354,0.0430895,-0.174391
2.55024,-0.08059,-0.208293
2.44959,0.162272,0.0714464
2.55434,-0.0807195,0.0446084
2.59119,-0.208937,-0.151394
2.50738,0.0433287,0.146045
2.5606,-0.0809173,0.104373
2.50491,0.043286,-0.1167
2.54625,-0.0804641,0.207968
2.45259,0.162471,-0.10014
2.49495,0.043114,-0.0580648
2.54792,-0.089866,-0.509905
2.51577,0.0342507,0
2.60657,-0.219796,-0.0304531
2.45117,0.153355,0.0142741
2.55837,-0.0902342,-0.0148785
2.5915,-0.218525,-0.24277
2.50709,0.0341325,0.058344
2.61056,-0.220132,0.0304996
2.59438,-0.218768,-0.151627
2.51151,0.0341927,0.146278
2.55629,-0.090161,0.104211
2.50505,0.0341048,-0.1167
2.44918,0.153231,-0.0999771
2.49909,0.0340237,-0.0581579
2.53976,-0.0984555,-0.508336
2.50387,0.0253473,0
2.60579,-0.228894,-0.0304531
2.5495,-0.0988331,-0.324762
2.45568,0.145034,0.0142973
2.56603,-0.099474,-0.014925
2.51119,0.0254214,0.058437
2.61376,-0.229594,0.0305462
2.56155,-0.0993002,-0.209269
2.45867,0.145211,0.0716791
2.56568,-0.0994605,0.0448178
2.60554,-0.228871,-0.152324
2.5196,0.0255066,0.146743
2.55995,-0.0992384,0.104373
2.51714,0.0254817,-0.117258
2.56256,-0.0993393,-0.134399
2.52094,0.0255201,0.309548
2.45768,0.145152,-0.100303
2.4992,0.0253,-0.0581579
2.54725,-0.107207,-0.509905
2.50794,0.0170713,0
2.61298,-0.23826,-0.0305462
2.54916,-0.107287,-0.324762
2.46413,0.137335,0.0143438
2.50147,0.0170272,-0.269456
2.60185,-0.237245,-0.243885
2.51126,0.0170939,0.058437
2.61298,-0.23826,0.0305462
2.5612,-0.107794,-0.209269
2.60874,-0.237873,-0.152557
2.5636,-0.107895,0.104536
2.52121,0.0171616,-0.117445
2.55722,-0.107626,0.208944
2.46612,0.137446,-0.100628
2.51126,0.0170939,-0.058437
2.55626,-0.116526,-0.0744718
2.5547,-0.116455,-0.511474
2.51599,0.00834336,0
2.61612,-0.247756,-0.0305928
2.57328,-0.117302,-0.0149715
2.60497,-0.246701,-0.244257
2.5273,0.00838089,0.0588092
2.6201,-0.248134,0.0306393
2.5648,-0.116915,-0.209595
2.4636,0.12868,0.0717954
2.56894,-0.117104,0.0448876
2.61187,-0.247354,-0.152789
2.5277,0.00838222,0.147208
2.5712,-0.117207,0.104862
2.52125,0.00836082,-0.117445
2.56581,-0.116962,-0.134608
2.52899,0.0083865,0.310523
2.55683,-0.116552,0.208944
2.4626,0.128628,-0.100466
2.51131,0.00832784,-0.058437
2.55981,-0.126091,-0.0745881
2.55817,-0.126011,-0.512258
2.524,-0.000881041,0
2.61917,-0.257735,-0.0306393
2.46905,0.119893,0.0143671
2.57284,-0.126733,-0.0149715
2.50551,-0.000874585,-0.269885
2.60801,-0.256637,-0.244629
2.52732,-0.000882198,0.0588092
2.62713,-0.258518,0.0307325
2.50987,-0.000876109,-0.175507
2.56833,-0.126511,-0.20992
2.46405,0.11965,0.0717954
2.57249,-0.126716,0.0449574
2.61094,-0.256925,-0.152789
2.52372,-0.000880944,0.146975
2.57075,-0.12663,0.104862
2.56833,-0.126511,0.20992
2.47503,0.120183,-0.100954
2.51532,-0.000878011,-0.0585301
2.56337,-0.134789,-0.0747045
2.52798,-0.00926558,0
2.61432,-0.266014,-0.0305928
2.56374,-0.134809,-0.326782
2.46943,0.111704,0.0143671
2.58039,-0.135684,-0.015018
2.60715,-0.265284,-0.244629
2.5233,-0.00924842,0.0587162
2.62626,-0.267229,0.0307325
2.50985,-0.00919914,-0.175507
2.57586,-0.135446,-0.210571
2.61802,-0.266391,-0.153254
2.57031,-0.135154,0.104862
2.52924,-0.00927019,-0.117817
2.57188,-0.135237,0.210246
2.47142,0.111794,-0.100791
2.5153,-0.0092191,-0.0585301
2.46947,0.10307,-0.0431423
2.56289,-0.143736,-0.0747045
2.51994,-0.0180326,0
2.62133,-0.275976,-0.0306859
2.56326,-0.143757,-0.326782
2.4778,0.103417,0.0144135
2.5839,-0.144915,-0.0150412
2.61016,-0.2748,-0.245001
2.53525,-0.0181422,0.0589953
2.62531,-0.276395,0.0307325
2.57537,-0.144437,-0.210571
2.4728,0.103209,0.0720282
2.62105,-0.275946,-0.153487
2.5818,-0.144797,0.10535
2.53319,-0.0181274,-0.118003
2.53688,-0.0181539,0.311498
2.57537,-0.144437,0.210571
2.48378,0.103667,-0.10128
2.51925,-0.0180277,-0.0586231
2.57432,-0.153844,-0.0750536
2.52785,-0.0273551,0
2.6203,-0.285582,-0.0306859
2.56271,-0.153151,-0.326782
2.48216,0.0944873,0.0144368
2.52127,-0.0272838,-0.271598
2.61706,-0.285228,-0.245744
2.53517,-0.0274342,0.0589953
2.63621,-0.287315,0.0308722
2.57881,-0.154113,-0.210897
2.58699,-0.154602,0.0452366
2.62002,-0.285551,-0.153487
2.53955,-0.0274816,0.147906
2.58923,-0.154736,0.105676
2.57881,-0.154113,0.210897
2.47615,0.0942585,-0.100954
2.52717,-0.0273477,-0.0588092
2.57379,-0.16238,-0.0750536
2.53575,-0.0358507,0
2.62332,-0.294716,-0.0307325
2.56615,-0.161898,-0.327287
2.47846,0.0861167,0.0144135
2.63193,-0.295683,-0.247231
2.54306,-0.035954,0.0591814
2.63524,-0.296056,0.0308722
2.52159,-0.0356505,-0.176344
2.63096,-0.295575,-0.154185
2.5887,-0.163321,0.105676
2.58226,-0.162914,0.211222
2.48843,0.0864631,-0.101443
2.53506,-0.035841,-0.0589953
2.5772,-0.171629,-0.0751699
2.53561,-0.0447018,0
2.63817,-0.305713,-0.0309187
2.56953,-0.171118,-0.327792
2.48674,0.0777147,0.01446
2.59421,-0.172762,-0.015111
2.62692,-0.30441,-0.246859
2.54691,-0.0449012,0.0592745
2.48174,0.0775582,0.0722609
2.54329,-0.0448374,0.148138
2.5921,-0.172622,0.105839
2.54484,-0.0448647,-0.118561
2.58963,-0.172457,0.211873
2.49271,0.0779012,-0.101605
2.53092,-0.0446193,-0.0589023
2.58057,-0.180904,-0.0752863
2.54743,-0.0538059,0
2.64105,-0.315394,-0.0309653
2.57683,-0.180642,-0.328802
2.491,0.0691448,0.0144833
2.52483,-0.0533285,-0.272027
2.63375,-0.314522,-0.247603
2.54674,-0.0537913,0.0592745
2.649,-0.316343,0.0310584
2.53325,-0.0535063,-0.177181
2.48599,0.0690058,0.0723772
2.59723,-0.182071,0.0454461
2.48195,0.0688936,-0.159126
2.6328,-0.314408,-0.154417
2.59547,-0.181948,0.106002
2.54467,-0.0537476,-0.118561
2.58901,-0.181495,0.211873
2.50096,0.0694214,-0.101931
2.53475,-0.053538,-0.0589953
2.58793,-0.190046,-0.075519
2.54324,-0.0621555,0
2.63999,-0.32415,-0.0309653
2.58414,-0.189767,-0.329813
2.49121,0.060884,0.0144833
2.60095,-0.191002,-0.0151575
2.6327,-0.323255,-0.247603
2.54655,-0.0622363,0.0592745
2.64793,-0.325125,0.0310584
2.63571,-0.323624,-0.15465
2.60283,-0.19114,0.106327
2.54847,-0.0622834,-0.118747
2.59345,-0.190451,-0.136283
2.55207,-0.0623712,0.313448
2.59635,-0.190664,0.212524
2.49718,0.0610298,-0.101768
2.54255,-0.0621387,-0.0591814
2.58725,-0.199078,-0.075519
2.54701,-0.0711443,0
2.63885,-0.333364,-0.0309653
2.59137,-0.199395,-0.330823
2.49941,0.0523551,0.0145298
2.63946,-0.333441,-0.248347
2.55431,-0.0713484,0.0594606
2.65075,-0.334868,0.031105
2.53681,-0.0708596,-0.17746
2.59964,-0.200032,-0.212849
2.60391,-0.20036,0.0455857
2.64248,-0.333823,-0.155115
2.59816,-0.199917,0.106165
2.55224,-0.0712904,-0.118934
2.55977,-0.0715009,0.314423
2.59567,-0.199726,0.212524
2.49738,0.0523126,-0.101768
2.55431,-0.0713484,-0.0594606
2.59451,-0.20875,-0.0757518
2.54674,-0.0800346,0
2.6456,-0.343603,-0.0310584
2.59066,-0.208439,-0.330823
2.49558,0.0435605,0.0145065
2.64222,-0.343165,-0.248718
2.55804,-0.0803898,0.0595536
2.6575,-0.345149,0.0311981
2.60319,-0.209448,0.0455857
2.49051,0.043472,-0.159638
2.64922,-0.344074,-0.15558
2.6094,-0.209947,0.106653
2.56347,-0.0805604,0.31491
2.6029,-0.209425,0.213175
2.50554,0.0437344,-0.102094
2.55405,-0.0802642,-0.0594606
2.59373,-0.218258,-0.0757518
2.55443,-0.0896489,0
2.64829,-0.353827,-0.031105
2.59778,-0.218599,-0.331833
2.49572,0.0344134,0.0145065
2.65674,-0.354957,-0.250205
2.56173,-0.0899052,0.0596467
2.66018,-0.355416,0.0312447
2.54422,-0.0892906,-0.178019
2.49464,0.0343986,-0.159894
2.56208,-0.0899175,0.149301
2.61259,-0.219845,0.106816
2.55965,-0.0898321,-0.119306
2.61006,-0.219632,0.213826
2.50968,0.0346059,-0.102257
2.54974,-0.0894844,-0.0593675
2.56209,-0.0988735,0
2.651,-0.363613,-0.0311515
2.59305,-0.227319,-0.331328
2.64759,-0.363146,-0.249462
2.5614,-0.0988468,0.0596467
2.66289,-0.365244,0.0312912
2.54788,-0.0983249,-0.178298
2.61325,-0.229089,-0.214151
2.61756,-0.229467,0.0458649
2.65065,-0.363565,-0.155813
2.56973,-0.0991682,0.149766
2.61579,-0.229312,0.106979
2.56331,-0.0989205,-0.119492
2.61325,-0.229089,0.214151
2.51778,0.0259276,-0.102582
2.5614,-0.0988468,-0.0596467
2.50356,0.0174784,-0.0437008
2.60015,-0.236632,-0.0759845
2.55376,-0.107034,0
2.60809,-0.237355,-0.333348
2.56905,-0.107675,0.0598328
2.66166,-0.374072,0.0312912
2.61248,-0.237754,-0.214151
2.50288,0.0174737,0.0728427
2.62077,-0.238509,0.0459347
2.65734,-0.373465,-0.156278
2.61502,-0.237985,0.106979
2.55898,-0.107253,-0.119306
2.61758,-0.238218,-0.137748
2.57439,-0.107899,0.316373
2.61645,-0.238115,0.214477
2.51785,0.0175782,-0.102582
2.56505,-0.107508,-0.0597397
2.5116,0.00876719,-0.0438404
2.55736,-0.116129,0
2.6191,-0.247578,-0.334863
2.51194,0.00876838,0.0145995
2.57265,-0.116823,0.0599259
2.66826,-0.384502,0.0313844
2.6156,-0.247247,-0.214477
2.6239,-0.248032,0.0460045
2.50285,0.00873664,-0.160406
2.66392,-0.383877,-0.156743
2.57697,-0.11702,0.150231
2.61815,-0.247488,0.107142
2.55859,-0.116185,-0.119306
2.57796,-0.117065,0.31686
2.6156,-0.247247,0.214477
2.5179,0.00878916,-0.102582
2.57265,-0.116823,-0.0599259
2.51562,-0,-0.0439103
2.60639,-0.255559,-0.0762172
2.55694,-0.125055,0
2.66294,-0.393229,-0.0313378
2.61032,-0.255944,-0.333853
2.62736,-0.257615,-0.0153435
2.67085,-0.394397,0.0314309
2.5547,-0.124946,-0.178856
2.61869,-0.256765,-0.214802
2.627,-0.25758,0.0460744
2.67047,-0.39434,-0.157208
2.6292,-0.257795,0.10763
2.57014,-0.125701,-0.119864
2.5815,-0.126257,0.317348
2.61869,-0.256765,0.214802
2.51791,-0,-0.102582
2.57223,-0.125803,-0.0599259
2.61742,-0.265868,-0.0765663
2.56848,-0.134608,0
2.66551,-0.40312,-0.0313844
2.61336,-0.265455,-0.334358
2.63042,-0.267188,-0.0153667
2.68133,-0.405512,0.0315706
2.62571,-0.26671,-0.215453
2.63006,-0.267152,0.0461442
2.51083,-0.00876451,-0.160917
2.66513,-0.403062,-0.156975
2.58008,-0.135216,0.150464
2.63226,-0.267375,0.107793
2.57367,-0.134881,-0.12005
2.62968,-0.267113,0.215779
2.52989,-0.00883102,-0.103071
2.52355,-0.017618,-0.0440499
2.57598,-0.144019,0
2.61636,-0.274991,-0.334863
2.63345,-0.276787,-0.0153899
2.57927,-0.144204,0.060112
2.67989,-0.414869,0.0315706
2.56173,-0.143223,-0.179414
2.6208,-0.275457,-0.215128
2.63309,-0.276749,0.046214
2.51478,-0.0175568,-0.161173
2.6716,-0.413585,-0.15744
2.58757,-0.144668,0.150929
2.62734,-0.276144,0.10763
2.5692,-0.14364,-0.119864
2.58849,-0.144719,0.318323
2.63666,-0.277124,0.21643
2.53384,-0.0176898,-0.103234
2.57528,-0.143981,-0.0600189
2.52348,-0.0264267,-0.0440499
2.57147,-0.152773,0
2.67053,-0.42297,-0.0314775
2.56063,-0.152129,-0.399076
2.61933,-0.28455,-0.335368
2.58275,-0.153443,0.060205
2.67843,-0.424221,0.0315706
2.63171,-0.285895,-0.216104
2.64006,-0.286803,0.0463536
2.52269,-0.0264185,-0.161685
2.68197,-0.424782,-0.158138
2.59103,-0.153936,0.151161
2.63828,-0.286609,0.108119
2.57666,-0.153082,-0.120236
2.63685,-0.286453,-0.139004
2.58797,-0.153754,0.318323
2.63171,-0.285895,0.216104
2.53776,-0.0265763,-0.103397
2.58275,-0.153443,-0.060205
2.53137,-0.0353468,-0.0441895
2.57491,-0.162,0
2.62227,-0.294134,-0.335873
2.68088,-0.434208,0.0316172
2.56864,-0.161605,-0.179972
2.6307,-0.29508,-0.216104
2.64302,-0.296462,0.0464234
2.53455,-0.0353913,-0.162452
2.68047,-0.434141,-0.158138
2.59447,-0.16323,0.151394
2.64123,-0.296262,0.108281
2.57611,-0.162075,-0.120236
2.6398,-0.296101,-0.139214
2.58741,-0.162786,0.318323
2.6307,-0.29508,0.216104
2.53365,-0.0353787,-0.103234
2.59018,-0.16296,-0.0603911
2.53523,-0.0442526,-0.0442593
2.62537,-0.303765,-0.0769154
2.57832,-0.171252,0
2.67935,-0.443563,-0.0316172
2.68329,-0.444216,0.0316637
2.63361,-0.304719,-0.21643
2.638,-0.305227,0.0463536
2.69076,-0.445452,-0.158836
2.64415,-0.305939,0.108444
2.57951,-0.171331,-0.120423
2.64272,-0.305773,-0.139423
2.59475,-0.172343,0.319298
2.64153,-0.305636,0.21708
2.59358,-0.172266,-0.0604842
2.58176,-0.179629,0
2.68583,-0.45331,-0.0317103
2.59702,-0.18069,0.0605772
2.69372,-0.454641,0.0318034
2.57547,-0.179191,-0.18053
2.64452,-0.314403,-0.217406
2.64497,-0.314457,0.0464932
2.53027,-0.052118,-0.162196
2.69328,-0.454567,-0.159068
2.60129,-0.180988,0.151859
2.64318,-0.314244,0.108444
2.58295,-0.179711,-0.120609
2.59816,-0.18077,0.319785
2.64452,-0.314403,0.217406
2.59702,-0.18069,-0.0605772
2.58909,-0.189223,0
2.69211,-0.464041,-0.0318034
2.60036,-0.190046,0.0606703
2.7,-0.4654,0.0318966
2.64736,-0.324117,-0.217731
2.54219,-0.0612418,0.0740063
2.65179,-0.32466,0.0466328
2.54205,-0.0612384,-0.162964
2.60065,-0.190067,0.151859
2.65,-0.32444,0.10877
2.58231,-0.188726,-0.120609
2.64856,-0.324264,-0.139842
2.59751,-0.189838,0.319785
2.64736,-0.324117,0.217731
2.54515,-0.0613132,-0.103722
2.60036,-0.190046,-0.0606703
2.54265,-0.0701343,-0.0443989
2.58443,-0.197954,0
2.69048,-0.473436,-0.0318034
2.5813,-0.197714,-0.402766
2.54299,-0.0701438,0.0147855
2.60367,-0.199427,0.0607633
2.69836,-0.474822,0.0318966
2.58211,-0.197776,-0.181088
2.65017,-0.333854,-0.218057
2.54595,-0.0702255,0.0741227
2.65461,-0.334414,0.0467026
2.53783,-0.0700014,-0.162708
