2.94439,0.301677,0.0344576
3.01683,0.458946,0.0532647
2.89988,0.297117,-0.169766
3.03059,0.46104,0.12489
2.97761,0.45298,-0.157845
2.97804,0.442415,-0.0876207
3.07967,0.612583,0
2.91756,0.28864,-0.0341317
3.00695,0.446709,-0.0176682
2.9295,0.289821,0.0342714
2.94971,0.438205,-0.243443
3.01445,0.447824,0.0531949
2.885,0.285419,-0.168836
3.02032,0.448695,0.124401
2.98312,0.443169,-0.158055
3.08179,0.601829,0
2.91058,0.277693,-0.0340385
2.87439,0.27424,-0.269538
3.10058,0.605498,0.0735115
2.92253,0.278833,0.0341782
2.94727,0.427333,-0.243117
3.00808,0.43615,0.0530553
2.88996,0.275725,-0.169068
3.02187,0.438149,0.124401
2.97279,0.431033,-0.157427
3.07208,0.588811,0
2.91154,0.267534,-0.0340385
3.09482,0.593168,0.0733254
2.92348,0.268632,0.0341782
2.94875,0.417045,-0.243117
3.00563,0.425089,0.0529855
2.87897,0.264542,-0.168371
3.11787,0.597587,0.184882
3.01546,0.426481,0.124076
2.96637,0.419537,-0.157008
3.02375,0.427653,0.249301
3.06626,0.576605,0
2.9005,0.256312,-0.0338988
2.99165,0.412465,-0.017552
3.08901,0.580883,0.0731393
2.90847,0.257016,0.033992
2.93439,0.404571,-0.241815
3.00313,0.414048,0.0529157
2.87988,0.25449,-0.168371
3.01693,0.415951,0.124076
2.96386,0.408634,-0.156799
3.02127,0.41655,0.248975
3.0615,0.57571,-0.072488
2.95619,0.397067,-0.0868062
3.06038,0.564448,0
2.89341,0.24551,-0.0338057
2.90536,0.246524,0.0339454
2.93183,0.393795,-0.24149
2.99663,0.402499,0.0527761
2.86881,0.243423,-0.167673
3.10233,0.572184,0.183719
3.01045,0.404354,0.12375
3.01481,0.40494,0.248324
3.04382,0.561393,-0.0720227
2.94963,0.385708,-0.0865734
3.0584,0.553049,0
2.89026,0.235084,-0.0337591
2.97859,0.389495,-0.017459
2.9062,0.236381,0.0339454
2.92923,0.383041,-0.241164
2.98612,0.390479,0.0525666
2.86566,0.233083,-0.16744
3.09645,0.559929,0.183254
3.00391,0.392806,0.123424
2.95476,0.386378,-0.156171
3.01225,0.393896,0.247999
3.0379,0.549341,-0.0718366
2.93906,0.373895,-0.0862243
3.05243,0.540973,0
2.88309,0.224372,-0.033666
2.972,0.378085,-0.0174125
3.06342,0.54292,0.0723949
2.90302,0.225924,0.0338988
2.93055,0.372813,-0.241164
2.9835,0.379548,0.0524968
2.85054,0.221839,-0.16651
3.08659,0.547026,0.182557
2.98941,0.3803,0.122773
3.0057,0.382372,0.247348
3.02798,0.536639,-0.0715574
2.93638,0.363143,-0.086108
3.04248,0.528262,0
2.87587,0.213714,-0.0335729
2.84773,0.211623,-0.266564
3.05742,0.530856,0.0722088
2.89183,0.2149,0.0337591
2.91997,0.361114,-0.240188
2.97687,0.36815,0.0523572
2.85129,0.211888,-0.16651
3.07668,0.5342,0.181859
2.98675,0.369373,0.12261
2.94152,0.36378,-0.155333
3.00306,0.371389,0.247023
3.02984,0.526067,-0.0715574
2.93366,0.352415,-0.0859916
3.03642,0.516298,0
2.86862,0.20311,-0.0334798
2.84448,0.201401,-0.266192
3.05137,0.51884,0.0720227
2.88857,0.204522,0.0337126
2.97416,0.35728,0.0522874
2.84803,0.201652,-0.166278
3.07852,0.523458,0.181859
2.98009,0.357992,0.122285
3.00556,0.511051,-0.142013
2.99642,0.359954,0.246372
3.02377,0.514148,-0.0713713
2.93487,0.342173,-0.0859916
3.02636,0.503726,0
2.86133,0.192559,-0.0333866
2.88896,0.336821,-0.370218
3.05316,0.508186,0.0720227
2.88528,0.19417,0.033666
2.91054,0.339336,-0.239212
2.96744,0.345971,0.0521478
2.84075,0.191174,-0.165813
3.06851,0.510742,0.181161
2.97338,0.346662,0.121959
2.9955,0.498589,-0.141455
2.98974,0.34857,0.245721
3.01766,0.502277,-0.0711852
2.92413,0.330578,-0.0856425
3.02416,0.492516,0
2.85401,0.18206,-0.0332935
2.87829,0.325396,-0.368703
3.04307,0.495596,0.0717435
2.87795,0.183588,0.0335729
2.96069,0.334711,0.0520082
2.83343,0.180747,-0.165347
3.05451,0.49746,0.180231
2.97457,0.33628,0.121959
2.99722,0.488129,-0.141455
2.98697,0.337683,0.245395
3.01544,0.491097,-0.0710922
2.91731,0.319498,-0.0854098
3.02191,0.481326,0
2.85462,0.172096,-0.0332935
2.87547,0.314915,-0.368198
3.03294,0.483083,0.0714644
2.87459,0.173299,0.0335263
2.90491,0.318139,-0.238561
3.11483,0.653558,0.0926243
2.95786,0.323938,0.0519384
2.82607,0.170374,-0.164882
3.05229,0.486165,0.179998
2.96381,0.324589,0.121471
2.99101,0.476406,-0.141082
2.97624,0.325951,0.244419
3.00924,0.479309,-0.0709061
2.90648,0.308049,-0.0850607
3.00776,0.468314,0
2.85521,0.162131,-0.0332935
2.8726,0.304458,-0.367693
2.93949,0.311547,-0.01718
3.02275,0.470648,0.0711852
2.86319,0.162584,0.0333866
2.96495,0.461648,-0.209827
3.10534,0.64026,0.0922752
2.95102,0.312769,0.0517987
2.82665,0.160509,-0.164882
3.04607,0.47428,0.179533
2.953,0.312979,0.120982
2.98476,0.464733,-0.14071
2.91565,0.30902,-0.153658
2.96943,0.314721,0.243768
3.00695,0.468187,-0.070813
2.90754,0.2979,-0.0850607
2.99751,0.456007,0
2.84777,0.151737,-0.0332004
2.86575,0.293619,-0.366683
3.08138,0.624113,0.0182727
3.02042,0.459492,0.0710922
2.86774,0.152801,0.0334332
2.95865,0.450095,-0.209269
2.8912,0.296226,-0.237259
3.0958,0.627034,0.0919261
2.94414,0.30165,0.0516591
2.82719,0.15064,-0.164882
3.04376,0.463043,0.179301
2.94612,0.301853,0.120656
2.97847,0.453109,-0.140338
2.90876,0.298025,-0.15324
2.96258,0.30354,0.243117
3.00066,0.456485,-0.0706269
2.90846,0.288765,-0.0850607
2.99102,0.44541,0
2.84024,0.142389,-0.0331072
2.85482,0.283439,-0.365168
2.81223,0.140985,-0.262846
3.0179,0.449412,0.0709991
2.86021,0.143391,0.0333401
2.9561,0.440211,-0.20899
2.89211,0.287142,-0.237259
3.09775,0.617306,0.0919261
2.93711,0.291609,0.0515195
2.8117,0.140959,-0.163952
3.0373,0.452303,0.178836
2.94308,0.292202,0.120494
2.97197,0.442573,-0.139966
2.95559,0.293444,0.242466
2.99812,0.446467,-0.0705338
2.90154,0.277343,-0.084828
2.98471,0.433295,0
2.83675,0.131794,-0.0330607
2.85189,0.272597,-0.364663
3.01161,0.4372,0.070813
2.85672,0.132722,0.0332935
2.9577,0.429374,-0.20899
2.88124,0.275403,-0.236282
3.0843,0.60288,0.0914606
2.93418,0.280463,0.0514497
2.80422,0.130282,-0.163487
3.03104,0.44002,0.178371
2.93617,0.280653,0.120168
2.96566,0.43053,-0.139593
2.94871,0.281851,0.241815
2.98786,0.433753,-0.0702547
3.05187,0.585489,-0.0542421
2.89055,0.266113,-0.0844789
2.97829,0.421752,0
2.83319,0.121718,-0.0330141
2.84887,0.262276,-0.364158
3.06407,0.587829,0.0181332
2.91562,0.268421,-0.0170173
2.80123,0.120345,-0.261731
3.00124,0.425002,0.0705338
2.95523,0.418486,-0.208711
2.87821,0.264977,-0.235957
2.92717,0.269485,0.0513101
2.80067,0.120321,-0.163254
3.02069,0.427757,0.177673
2.93713,0.270401,0.120168
2.95528,0.418494,-0.139035
2.89576,0.266593,-0.152402
2.9457,0.27119,0.24149
2.98144,0.422198,-0.0700686
2.88349,0.255316,-0.0842462
2.97182,0.41026,0
2.82961,0.111671,-0.0329675
2.83791,0.25128,-0.362642
3.05824,0.57565,0.0180867
2.91256,0.25789,-0.016994
2.79765,0.11041,-0.261359
2.99874,0.413977,0.0704408
2.84559,0.112302,0.0331538
2.94481,0.406532,-0.207874
3.07272,0.578375,0.0909952
2.79708,0.110387,-0.163022
3.01426,0.416119,0.177208
2.92612,0.25909,0.119679
2.95276,0.40763,-0.138849
2.93869,0.260204,0.240839
3.03612,0.571486,-0.125867
3.04015,0.561265,-0.0539628
2.8764,0.244573,-0.0840135
2.81799,0.101362,-0.0328279
2.84272,0.241709,-0.363147
2.90547,0.247044,-0.0169475
2.79006,0.100357,-0.260615
2.9962,0.402974,0.0703477
2.84197,0.102225,0.0331072
2.9383,0.395187,-0.207316
2.86808,0.243865,-0.234981
3.06685,0.566194,0.0907625
2.78947,0.100336,-0.162557
3.01173,0.405063,0.176975
2.92302,0.248537,0.119517
2.94625,0.396255,-0.138477
2.88163,0.245018,-0.151565
2.97639,0.400309,-0.0698825
2.87321,0.234707,-0.0838971
2.96661,0.388981,0
2.81831,0.0920159,-0.0328279
2.83164,0.231311,-0.361632
2.8983,0.236756,-0.016901
2.79038,0.091104,-0.260615
2.99356,0.392515,0.0702547
2.8383,0.0926685,0.0330607
2.9396,0.38544,-0.207316
2.85695,0.233378,-0.234004
2.91385,0.238026,0.0510308
2.78978,0.0910847,-0.162557
3.0091,0.394553,0.176743
2.91586,0.238191,0.119191
2.94358,0.385963,-0.13829
3.04291,0.398986,0.37682
2.87006,0.223864,-0.0837807
2.95611,0.37659,0
2.81463,0.0815705,-0.0327813
2.83247,0.220932,-0.361632
3.04047,0.539402,0.0179472
2.89117,0.22551,-0.0168546
2.91544,0.371408,-0.316579
2.78273,0.080646,-0.259872
2.83462,0.0821498,0.0330141
2.93308,0.373656,-0.206758
2.85381,0.222596,-0.233679
2.90274,0.226413,0.0508214
2.78212,0.0806283,-0.162092
3.0026,0.382513,0.176278
2.91273,0.227192,0.119028
2.94102,0.374667,-0.138104
2.87133,0.223962,-0.150937
3.03647,0.386828,0.375845
2.98949,0.233179,0.546716
2.96324,0.377499,-0.0695103
2.85883,0.213451,-0.0834316
2.95734,0.366784,0
2.80689,0.0720304,-0.0326882
2.81736,0.210355,-0.359612
2.8919,0.215921,-0.0168546
2.90481,0.360269,-0.315294
2.77502,0.0712126,-0.259128
2.98035,0.369638,0.0698825
2.82288,0.0724408,0.0328744
2.93034,0.363435,-0.206479
2.84658,0.212537,-0.233028
3.04889,0.530471,0.0900643
2.90348,0.216785,0.0508214
2.77838,0.0712988,-0.161859
2.99593,0.37157,0.175812
2.89752,0.21634,0.118377
2.92638,0.362944,-0.13736
2.86807,0.214141,-0.150728
3.02592,0.375289,0.374383
2.97847,0.222384,0.544564
2.95257,0.366193,-0.0692311
2.94669,0.355023,0
2.80712,0.0622314,-0.0326882
2.81412,0.200237,-0.359107
2.87668,0.204688,-0.0167616
2.89815,0.349175,-0.314437
2.77127,0.0614366,-0.258756
2.97368,0.358275,0.0696964
2.81912,0.0624973,0.0328279
2.9197,0.351771,-0.205642
2.84333,0.202315,-0.232702
2.89624,0.20608,0.0506818
2.77861,0.0615993,-0.161859
2.99325,0.360632,0.17558
2.89826,0.206224,0.118377
2.92366,0.352248,-0.137174
2.86083,0.203561,-0.150309
3.02327,0.364249,0.373895
2.97923,0.211985,0.544564
2.94589,0.354927,-0.069045
3.01004,0.501547,-0.0532647
2.8523,0.19245,-0.0831989
2.77462,0.187209,-0.556189
2.94003,0.343293,0
2.79933,0.0517949,-0.032595
2.81484,0.189922,-0.359107
3.02623,0.504245,0.017831
2.87741,0.194144,-0.0167616
2.89152,0.337629,-0.31358
2.97101,0.34691,0.0696033
2.81933,0.0521649,0.0328279
2.91305,0.340143,-0.205084
2.83212,0.191088,-0.231726
2.77482,0.0513415,-0.161626
2.99058,0.349196,0.175347
2.89501,0.195332,0.118214
2.92097,0.341068,-0.136988
2.8496,0.192268,-0.149681
3.00881,0.351325,0.371945
2.90372,0.195919,0.237584
2.96821,0.20027,0.542411
2.9432,0.343664,-0.0689519
3.00379,0.490275,-0.0531251
2.76739,0.177505,-0.55462
2.94115,0.333542,0
2.80349,0.042573,-0.0326416
2.80753,0.180079,-0.358097
3.01604,0.492274,0.0177612
2.87405,0.184346,-0.0167383
2.88472,0.327142,-0.312723
2.81149,0.0426945,0.0327347
2.90226,0.329133,-0.204247
2.83274,0.181696,-0.231726
2.88164,0.184833,0.0504026
2.76699,0.0420188,-0.161161
2.97982,0.337928,0.17465
2.89165,0.185475,0.118051
2.92605,0.33183,-0.137174
2.84624,0.182562,-0.149472
3.00601,0.340898,0.371458
2.97278,0.190679,0.543129
2.94035,0.333452,-0.0688589
2.99758,0.478525,-0.0529855
2.768,0.167843,-0.55462
2.93832,0.322836,0
2.79562,0.0326925,-0.0325485
2.80418,0.170037,-0.357592
3.00984,0.480482,0.0177147
2.86669,0.173827,-0.0166918
2.87793,0.316201,-0.311867
2.96137,0.325369,0.0693242
2.80362,0.032786,0.0326416
2.90736,0.319435,-0.204526
2.82539,0.171324,-0.231075
2.87827,0.17453,0.0503327
2.76313,0.0323125,-0.160929
2.97304,0.326651,0.174185
2.88431,0.174896,0.117725
2.92322,0.321177,-0.136988
2.84287,0.172383,-0.149262
2.99929,0.329535,0.370483
2.93355,0.322312,-0.0686728
2.8342,0.161435,-0.0826171
2.76076,0.157251,-0.553051
2.93153,0.31122,0
2.79172,0.0224143,-0.0325019
2.80083,0.159533,-0.357087
3.00763,0.468831,0.0176915
2.85932,0.162865,-0.0166453
2.87512,0.305232,-0.311438
2.80372,0.0225106,0.0326416
2.90455,0.308356,-0.204247
2.826,0.160967,-0.231075
2.87091,0.163525,0.0501931
2.75524,0.0221214,-0.160464
2.96628,0.31491,0.173719
2.87695,0.163869,0.1174
2.91246,0.309196,-0.136429
2.83551,0.161509,-0.148843
3.00048,0.318541,0.370483
2.95836,0.168506,0.540259
2.92676,0.310714,-0.0684867
2.98511,0.454655,-0.0527063
2.75738,0.147405,-0.552266
2.92464,0.300169,0
2.78778,0.0126517,-0.0324553
2.7974,0.149544,-0.356581
2.99738,0.456524,0.0176217
2.85987,0.152884,-0.0166453
2.86825,0.294383,-0.310581
2.79578,0.012688,0.0325485
2.8937,0.296994,-0.20341
2.81859,0.150677,-0.230424
3.01198,0.458746,0.0886679
2.86747,0.15329,0.0501233
2.95973,0.450788,-0.191873
2.7553,0.0125043,-0.160464
2.96339,0.304146,0.173487
2.87351,0.153613,0.117237
2.90954,0.29862,-0.136243
2.83206,0.151397,-0.148634
2.98577,0.306444,0.368533
2.88228,0.154082,0.235632
2.955,0.157969,0.539542
2.91987,0.29968,-0.0683006
2.75391,0.138544,-0.551482
2.9176,0.290187,0
2.77981,0.00388161,-0.0323622
2.78993,0.140356,-0.355571
3.00276,0.447694,0.017645
2.85634,0.143697,-0.0166221
2.86916,0.285369,-0.310581
2.94467,0.292879,0.0688589
2.79181,0.00389837,0.0325019
2.89064,0.287506,-0.203131
2.81108,0.14142,-0.229773
3.00549,0.448102,0.0884352
2.86394,0.144079,0.0500535
2.95718,0.440898,-0.191617
2.75533,0.00384743,-0.160464
2.86599,0.144182,0.116911
2.90252,0.288687,-0.135871
2.82854,0.142298,-0.148425
2.98277,0.296669,0.368045
2.94369,0.148091,0.537389
2.91682,0.290109,-0.0682075
2.81972,0.131989,-0.0821517
2.75046,0.128747,-0.550697
2.91462,0.27962,0
2.77581,-0.00581282,-0.0323156
2.83276,0.271767,-0.442735
2.78644,0.130431,-0.355066
2.98847,0.434906,0.017552
2.86618,0.274973,-0.310153
2.78781,-0.00583795,0.0324553
2.88369,0.276652,-0.202573
2.80359,0.131234,-0.229122
3.00308,0.437033,0.0883189
2.85244,0.133521,0.0498441
2.75533,-0.00576993,-0.160464
2.86249,0.133991,0.116748
2.89953,0.278172,-0.135685
2.82503,0.132237,-0.148215
2.98379,0.286256,0.368045
2.91383,0.279544,-0.0681145
2.75481,0.119314,-0.551482
2.91159,0.269075,0
2.82976,0.261512,-0.44212
2.78292,0.120532,-0.354561
2.98601,0.423909,0.0175287
2.85525,0.263868,-0.308868
2.77977,-0.0155252,0.0323622
2.88066,0.266217,-0.202294
2.80403,0.121446,-0.229122
2.99667,0.425422,0.0880861
2.8489,0.123389,0.0497743
2.7473,-0.0153439,-0.159999
2.86693,0.12417,0.116911
2.82148,0.122202,-0.148006
2.97686,0.275107,0.36707
2.93679,0.127196,0.535954
2.90284,0.268267,-0.0678353
2.9633,0.410138,-0.0522176
2.74737,0.109386,-0.549913
2.91251,0.258911,0
2.7677,-0.0251189,-0.0322225
2.81884,0.250584,-0.440275
2.77936,0.110659,-0.354056
2.97955,0.412387,0.0174822
2.8377,0.112983,-0.0165058
2.84823,0.253196,-0.308011
2.92766,0.260257,0.0683936
2.7797,-0.0252277,0.0323622
2.8776,0.255807,-0.202015
2.80046,0.1115,-0.228797
2.99418,0.414412,0.0879698
2.94186,0.407171,-0.190338
2.74324,-0.0248969,-0.159766
2.94339,0.261655,0.172092
2.85537,0.113686,0.116423
2.88548,0.256508,-0.13494
2.8179,0.112194,-0.147797
2.9699,0.264012,0.366096
2.92935,0.116631,0.534519
2.89181,0.25707,-0.0675562
2.73601,0.0984137,-0.547559
2.90153,0.24671,0
2.75958,-0.0356419,-0.0321294
2.77579,0.0998446,-0.353551
2.97714,0.400411,0.017459
2.84918,0.242259,-0.308011
2.76358,-0.0356936,0.032176
2.86266,0.243404,-0.200899
2.7929,0.10046,-0.228146
2.98782,0.401847,0.087737
2.84573,0.10236,0.0497045
2.93154,0.394277,-0.18957
2.73913,-0.0353777,-0.159533
2.94039,0.250014,0.171859
2.84779,0.102434,0.116097
2.88246,0.245089,-0.134754
2.80633,0.100943,-0.147169
2.96298,0.251935,0.365121
2.86063,0.102896,0.233679
2.95096,0.396889,-0.121308
2.91798,0.104959,0.532367
2.88879,0.245627,-0.0674631
2.96226,0.387886,-0.0521478
2.73242,0.0887346,-0.546775
2.89041,0.235604,0
2.74744,-0.0450783,-0.0319897
2.77216,0.0900252,-0.353046
2.96662,0.388457,0.0173892
2.83415,0.231018,-0.306298
2.91753,0.237815,0.0681145
2.76344,-0.0453408,0.032176
2.85951,0.233085,-0.20062
2.78925,0.09058,-0.227821
2.97731,0.389857,0.087388
2.83807,0.0921656,0.0495648
2.731,-0.0448086,-0.159068
2.9293,0.238775,0.171161
2.85213,0.0926222,0.11626
2.87932,0.2347,-0.134568
2.80667,0.0911458,-0.147169
2.95592,0.240944,0.364146
2.91833,0.0947719,0.532367
2.88166,0.234891,-0.067277
2.95553,0.377564,-0.0520082
2.79362,0.0819377,-0.0813371
2.72876,0.0800355,-0.545991
2.89114,0.226523,0
2.74729,-0.0537089,-0.0319897
2.80555,0.219817,-0.437816
2.7645,0.0810836,-0.352036
2.9599,0.378122,0.0173428
2.83486,0.222114,-0.306298
2.91029,0.228024,0.0679284
2.76328,-0.0540216,0.032176
2.85625,0.22379,-0.200341
2.78155,0.0815837,-0.22717
2.97456,0.379995,0.0872716
2.83435,0.0831324,0.049495
2.92617,0.373814,-0.189058
2.73085,-0.0533875,-0.159068
2.92606,0.229259,0.170929
2.84042,0.0833105,0.115772
2.87207,0.22503,-0.134196
2.80295,0.0822114,-0.146959
2.95667,0.231657,0.364146
2.9337,0.374777,-0.120494
2.91861,0.0856038,0.532367
2.88238,0.225837,-0.067277
2.72904,0.0700329,-0.545991
2.88397,0.215329,0
2.74707,-0.0637785,-0.0319897
2.80239,0.209238,-0.437201
2.75684,0.0707464,-0.351026
2.82773,0.211129,-0.305441
2.90313,0.216759,0.0677423
2.75107,-0.0638714,0.0320363
2.84511,0.212428,-0.199504
2.78183,0.0713876,-0.22717
2.96799,0.368106,0.0870389
2.9196,0.362103,-0.188547
2.72265,-0.0632115,-0.158603
2.91892,0.217938,0.170464
2.84071,0.0728986,0.115772
2.8689,0.214203,-0.13401
2.95354,0.220523,0.363658
2.84161,0.0729217,0.232052
2.90317,0.0745014,0.529497
2.87522,0.214675,-0.0670909
2.94227,0.354492,-0.0517289
2.88471,0.205261,0
2.74284,-0.0732599,-0.0319431
2.79916,0.199175,-0.436586
2.7531,0.0610354,-0.350521
2.94664,0.355018,0.0172498
2.81526,0.0624134,-0.0163664
2.82051,0.200693,-0.304584
2.70726,-0.0723096,-0.252808
2.89589,0.206057,0.0675562
2.75083,-0.0734734,0.0320363
2.84584,0.202496,-0.199504
2.96926,0.357744,0.0870389
2.91291,0.350955,-0.188035
2.71842,-0.0726078,-0.158371
2.90771,0.206898,0.169766
2.83295,0.0628056,0.115446
2.86165,0.203621,-0.133637
2.83786,0.0629144,0.231726
2.92441,0.35234,-0.120005
2.89554,0.0641932,0.528062
2.86398,0.203787,-0.0668117
2.93549,0.343802,-0.0515893
2.72161,0.0513074,-0.544422
2.8734,0.194881,0
2.73458,-0.0821157,-0.03185
2.78798,0.189088,-0.434741
2.74536,0.0517551,-0.34951
2.81719,0.191069,-0.304156
2.89257,0.196182,0.0674631
2.73858,-0.0822357,0.0318966
2.83455,0.192246,-0.198666
2.77428,0.0523003,-0.226519
2.95852,0.346499,0.0866898
2.91406,0.341293,-0.188035
2.90838,0.197254,0.169766
2.82515,0.0532594,0.11512
2.85434,0.193589,-0.133265
2.94705,0.199876,0.362683
2.83805,0.0535026,0.231726
2.91762,0.341709,-0.119679
2.88787,0.0544417,0.526627
2.86464,0.194287,-0.0668117
2.93275,0.33259,-0.0515195
2.77451,0.0421332,-0.0807553
2.71393,0.0412133,-0.542853
2.86611,0.183837,0
2.71827,-0.0915985,-0.0316637
2.7495,0.0417534,-0.350016
2.93712,0.333086,0.01718
2.81391,0.180489,-0.303727
2.88529,0.185067,0.067277
2.73826,-0.092272,0.0318966
2.82727,0.181346,-0.198108
2.76648,0.0420112,-0.225868
2.94785,0.334302,0.0863407
2.9034,0.329261,-0.187268
2.71386,-0.0914497,-0.158138
2.90908,0.186593,0.169766
2.82533,0.042905,0.11512
2.84706,0.182615,-0.132893
2.78386,0.0422752,-0.145913
2.93191,0.188058,0.360733
2.83026,0.0429798,0.231075
2.89199,0.0439172,0.527344
2.86134,0.183531,-0.0667187
2.92594,0.321477,-0.0513799
2.77064,0.0324006,-0.080639
2.86274,0.173588,0
2.71794,-0.101087,-0.0316637
2.78137,0.168654,-0.433511
2.73772,0.0320157,-0.3485
2.80261,0.169942,-0.302442
2.88592,0.174994,0.067277
2.72993,-0.101533,0.0318034
2.82391,0.171233,-0.197829
2.76262,0.0323068,-0.225542
2.81138,0.032877,0.0490762
2.89659,0.318252,-0.186756
2.90174,0.175953,0.169301
2.84768,0.172675,-0.132893
2.776,0.0324633,-0.145494
2.93255,0.177821,0.360733
2.8264,0.0330527,0.23075
2.88032,0.0336832,0.525192
2.85798,0.173299,-0.0666256
2.91501,0.311011,-0.0511705
2.77073,0.0236967,-0.080639
2.85928,0.164365,0
2.7216,-0.109786,-0.0317103
2.774,0.159462,-0.432282
2.73384,0.0233813,-0.347995
2.80313,0.161137,-0.302442
2.87448,0.165238,0.0669978
2.72959,-0.110108,0.0318034
2.75872,0.0235941,-0.225217
2.93807,0.313472,0.0859916
2.80747,0.024011,0.0490064
2.88964,0.308304,-0.186244
2.70122,-0.108964,-0.15744
2.88235,0.165691,0.168138
2.80957,0.0240289,0.114469
2.84023,0.16327,-0.132521
2.92913,0.16838,0.360246
2.81852,0.0241055,0.230099
2.90111,0.309528,-0.118865
2.87254,0.0245675,0.523757
2.85451,0.164091,-0.0665326
2.91215,0.299915,-0.0511006
2.7628,0.0135029,-0.0804062
2.85187,0.153455,0
2.71319,-0.119408,-0.0316172
2.77061,0.149082,-0.431667
2.73391,0.0133617,-0.347995
2.79576,0.150435,-0.301585
2.87107,0.154488,0.0669048
2.72118,-0.11976,0.0317103
2.81305,0.151366,-0.196992
2.93125,0.301882,0.0857589
2.69283,-0.118512,-0.156975
2.88294,0.155126,0.168138
2.80564,0.0137123,0.114306
2.83283,0.15243,-0.132148
2.9218,0.157217,0.359271
2.81859,0.0137756,0.230099
2.86867,0.0140204,0.52304
2.84711,0.153198,-0.0663465
2.90522,0.288956,-0.050961
2.75483,0.00384695,-0.0801735
2.69071,0.00375741,-0.538146
2.84041,0.142895,0
2.70876,-0.128689,-0.0315706
2.726,0.0038067,-0.346985
2.91357,0.289787,0.0170173
2.85961,0.143861,0.0666256
2.71276,-0.128879,0.0316172
2.80559,0.141144,-0.196434
2.75085,0.00384139,-0.224566
2.79557,0.00390385,0.0487969
2.87985,0.286433,-0.185477
2.6924,-0.127912,-0.156975
2.87549,0.14466,0.167673
2.80167,0.00391237,0.114143
2.82137,0.141938,-0.13159
2.9144,0.146618,0.358296
2.81862,0.00393603,0.230099
2.89132,0.287574,-0.118377
2.8569,0.00398949,0.520887
2.84363,0.143058,-0.0662534
2.90616,0.279321,-0.050961
2.75083,-0.00528019,-0.0800572
2.83288,0.133101,0
2.69634,-0.137061,-0.0314309
2.72203,-0.00522492,-0.34648
2.77995,-0.00533609,-0.0161571
2.85208,0.134003,0.0664395
2.70832,-0.13767,0.0315706
2.87681,0.2765,-0.185221
2.68797,-0.136636,-0.156743
2.87196,0.134937,0.16744
2.79767,-0.00537011,0.11398
2.81783,0.132394,-0.131404
2.90694,0.13658,0.357321
2.80267,-0.0053797,0.228797
2.86083,-0.00549134,0.521605
2.8401,0.13344,-0.0661604
2.89522,0.267563,-0.0507516
2.75079,-0.0153632,-0.0800572
2.83734,0.122889,0
2.69582,-0.146944,-0.0314309
2.71406,-0.015158,-0.34547
2.78129,0.120461,-0.299872
2.84856,0.123375,0.0663465
2.7078,-0.147597,0.0315706
2.79854,0.121208,-0.195876
2.73885,-0.0152964,-0.22359
2.78353,-0.015546,0.0485875
2.68346,-0.14627,-0.15651
2.86845,0.124236,0.167208
2.79764,-0.0156248,0.11398
2.81431,0.121891,-0.131218
2.90345,0.125752,0.356833
2.79865,-0.0156304,0.228471
2.85292,-0.0159336,0.52017
2.83657,0.122856,-0.0660673
2.88817,0.256746,-0.050612
2.74672,-0.0249296,-0.0799408
2.82976,0.112665,0
2.6873,-0.15589,-0.0313378
2.70605,-0.0245604,-0.34446
2.77184,-0.0251575,-0.0161106
2.84897,0.11343,0.0663465
2.70726,-0.157048,0.0315706
2.79496,0.111279,-0.195597
2.91526,0.259154,0.0851771
2.77946,-0.0252267,0.0485177
2.67496,-0.155175,-0.156045
2.86088,0.113904,0.166743
2.79357,-0.0253547,0.113818
2.80673,0.111748,-0.130846
2.89991,0.115458,0.356346
2.79857,-0.0254002,0.228471
2.87427,0.25551,-0.117563
2.84892,-0.0258571,0.519452
2.825,0.112475,-0.0657882
2.74263,-0.0339878,-0.0798244
2.82612,0.103135,0
2.68677,-0.1648,-0.0313378
2.70993,-0.0335825,-0.344965
2.83734,0.103545,0.0660673
2.70274,-0.16578,0.0315241
2.79531,0.102011,-0.195597
2.90416,0.248464,0.084828
2.77536,-0.0343935,0.0484479
2.66646,-0.163555,-0.15558
2.85326,0.104126,0.166278
2.78148,-0.0344693,0.113329
2.81108,0.102586,-0.131032
2.7905,-0.0345811,0.227821
2.84488,-0.0352549,0.518735
2.82535,0.103107,-0.0657882
2.87789,0.236101,-0.0504026
2.7345,-0.0434336,-0.0795917
2.81447,0.0928745,0
2.68219,-0.173919,-0.0312912
2.70582,-0.0429781,-0.34446
2.76251,0.0911599,-0.29773
2.83369,0.0935088,0.0659743
2.69017,-0.174436,0.0313844
2.78368,0.0918587,-0.19476
2.90102,0.237998,0.0847116
2.66986,-0.173119,-0.155813
2.85361,0.0941661,0.166278
2.77735,-0.0441142,0.113166
2.79145,0.092115,-0.130101
2.88872,0.0953248,0.354884
2.78638,-0.0442576,0.227495
2.84474,-0.0451846,0.518735
2.87076,0.224926,-0.0502629
2.73032,-0.0533783,-0.0794753
2.80679,0.0823231,0
2.67355,-0.183202,-0.0311981
2.69771,-0.0527408,-0.34345
2.88312,0.225894,0.0168081
2.75885,0.0809169,-0.297301
2.83002,0.0830042,0.0658812
2.68552,-0.184022,0.0313378
2.78001,0.0815376,-0.194481
2.76705,-0.0540963,0.0483083
2.66522,-0.182631,-0.15558
2.84595,0.0834716,0.165813
2.77317,-0.0542159,0.113003
2.79577,0.0819996,-0.130287
2.88112,0.084503,0.353909
2.83275,-0.0553808,0.516582
2.81403,0.0825353,-0.065509
2.86754,0.214606,-0.0501931
2.73012,-0.062908,-0.0794753
2.80706,0.0725256,0
2.6689,-0.192245,-0.0311515
2.69751,-0.0621567,-0.34345
2.75911,0.0712868,-0.297301
2.82629,0.0730224,0.0657882
2.68087,-0.193107,0.0312912
2.78028,0.0718337,-0.194481
2.71823,-0.0626341,-0.221962
2.6566,-0.191359,-0.155115
2.84223,0.0734343,0.16558
2.76897,-0.0638031,0.112841
2.78805,0.0720343,-0.129915
2.86949,0.0741384,0.352446
2.83647,-0.0653586,0.5173
2.72589,-0.072332,-0.079359
2.7993,0.0625474,0
2.6722,-0.201862,-0.0311981
2.68141,-0.0711519,-0.341429
2.74742,0.0613881,-0.296016
2.82253,0.0630665,0.0656951
2.68018,-0.202465,0.0312912
2.7845,0.0622168,-0.19476
2.88345,0.205677,0.0841298
2.75461,-0.0730942,0.0480988
2.64796,-0.20003,-0.15465
2.83449,0.0633336,0.165115
2.76473,-0.0733628,0.112678
2.78828,0.0623011,-0.129915
2.86576,0.0640323,0.351959
2.76981,-0.0734975,0.226193
2.81656,-0.0747381,0.513712
2.71764,-0.0811324,-0.0791263
2.80349,0.0533403,0
2.66753,-0.210408,-0.0311515
2.68513,-0.0801618,-0.341934
2.86933,0.195108,0.0167151
2.74273,-0.0818815,-0.0159479
2.81873,0.0536302,0.0656021
2.67551,-0.211037,0.0312447
2.77273,0.052755,-0.193923
2.70579,-0.0807786,-0.220986
2.75435,-0.0822285,0.0480988
2.64728,-0.20881,-0.15465
2.83468,0.0539338,0.165115
2.75249,-0.0821728,0.112189
2.77649,0.0528265,-0.129357
2.86198,0.0544532,0.351471
2.76556,-0.0825631,0.225868
2.84307,0.193323,-0.116097
2.82023,-0.0841951,0.51443
2.80273,0.0533259,-0.0652298
2.85364,0.184036,-0.0499139
2.71334,-0.0904849,-0.0790099
2.78766,0.0433055,0
2.6628,-0.21939,-0.031105
2.71896,0.0422382,-0.423058
2.68087,-0.0894019,-0.341429
2.86201,0.184576,0.0166686
2.73843,-0.0913216,-0.0159246
2.73982,0.0425622,-0.295159
2.8109,0.0436664,0.0654159
2.67077,-0.220046,0.0311981
2.76491,0.0429521,-0.193365
2.87281,0.185273,0.0837807
2.74606,-0.0915758,0.0479592
2.63857,-0.217394,-0.154185
2.82288,0.0438525,0.164417
2.74819,-0.0916471,0.112026
2.77266,0.0430724,-0.12917
2.85422,0.0443394,0.350496
2.75729,-0.0919505,0.225217
2.81599,-0.0939079,0.513712
2.70901,-0.0998085,-0.0788935
2.7878,0.0335744,0
2.67657,-0.0986133,-0.340924
2.85864,0.174341,0.0166453
2.7341,-0.100733,-0.0159014
2.73597,0.0329503,-0.294731
2.81503,0.0339025,0.065509
2.66998,-0.229368,0.0311981
2.76106,0.0332524,-0.193086
2.70118,-0.0995197,-0.22066
2.6378,-0.226603,-0.154185
2.827,0.0340466,0.16465
2.74386,-0.101092,0.111864
2.7648,0.0332975,-0.128798
2.84642,0.0342804,0.349521
2.81171,-0.103592,0.512995
2.70467,-0.108631,-0.0787772
2.77989,0.0242598,0
2.64531,-0.236087,-0.0309187
2.66434,-0.107011,-0.339409
2.85122,0.1644,0.0165988
2.72975,-0.109638,-0.0158782
2.73607,0.0238773,-0.294731
2.80313,0.0244626,0.0652298
2.66523,-0.237865,0.0311515
2.75317,0.0240266,-0.192528
2.69685,-0.108317,-0.220335
2.86203,0.165024,0.0834316
2.73738,-0.109944,0.0478196
2.62908,-0.234639,-0.15372
2.82311,0.0246369,0.164417
2.73952,-0.11003,0.111701
2.7649,0.0241289,-0.128798
2.84651,0.0248412,0.349521
2.80742,-0.112758,0.512277
2.70028,-0.117897,-0.0786608
2.78396,0.0145769,0
2.64447,-0.24532,-0.0309187
2.65602,-0.115964,-0.338399
2.84778,0.15423,0.0165756
2.72136,-0.118817,-0.0158317
2.8032,0.0146777,0.0652298
2.6604,-0.246797,0.031105
2.75324,0.0144161,-0.192528
2.69247,-0.117556,-0.22001
2.8586,0.154816,0.0833153
2.62427,-0.243446,-0.153487
2.8112,0.0147195,0.16372
2.73113,-0.119244,0.111375
2.75697,0.0144356,-0.128426
2.84261,0.014884,0.349034
2.80308,-0.122385,0.51156
2.78321,0.014573,-0.0647646
2.69584,-0.127604,-0.0785444
2.768,0.00434797,0
2.64355,-0.25501,-0.0309187
2.69952,0.00424041,-0.419983
2.66747,-0.126261,-0.339914
2.84433,0.14359,0.0165523
2.71691,-0.128602,-0.0158084
2.72424,0.00427923,-0.293446
2.62039,-0.252777,-0.245744
2.79524,0.00439076,0.0650437
2.65947,-0.256547,0.031105
2.75327,0.00432484,-0.192528
2.68406,-0.127046,-0.219359
2.72453,-0.128962,0.0476102
2.62336,-0.253063,-0.153487
2.80724,0.00440961,0.163487
2.73067,-0.129253,0.111375
2.75301,0.00432443,-0.12824
2.83471,0.00445276,0.348059
2.79475,-0.132286,0.510125
2.68739,-0.136608,-0.0783117
2.63866,-0.263839,-0.0308722
2.65512,-0.134967,-0.338399
2.84082,0.133473,0.0165291
2.71245,-0.137882,-0.0157852
2.71628,-0.00521489,-0.292589
2.61553,-0.261526,-0.245372
2.78724,-0.00535112,0.0648576
2.65458,-0.26543,0.0310584
2.7413,-0.00526292,-0.191691
2.72007,-0.138269,0.0475404
2.62246,-0.262218,-0.153487
2.79925,-0.00537418,0.163022
2.73021,-0.138784,0.111375
2.75301,-0.0052854,-0.12824
2.8228,-0.00541938,0.346596
2.79034,-0.141841,0.509408
2.68293,-0.145302,-0.0781954
2.76796,-0.0144931,0
2.62982,-0.271765,-0.030779
2.65862,-0.143986,-0.338904
2.84125,0.124051,0.0165291
2.71625,-0.0142224,-0.292589
2.79121,-0.0146149,0.0649507
2.64971,-0.273821,0.0310118
2.74526,-0.0143743,-0.19197
2.67119,-0.144666,-0.218382
2.62555,-0.271324,-0.15372
2.80321,-0.0146777,0.163254
2.71377,-0.146972,0.110724
2.74898,-0.0143938,-0.128054
2.82276,-0.0147801,0.346596
2.78199,-0.150667,0.507973
2.76721,-0.0144892,-0.0643924
2.67842,-0.154436,-0.078079
2.76389,-0.0241202,0
2.62885,-0.280943,-0.030779
2.64622,-0.15258,-0.337389
2.83367,0.113812,0.0164826
2.71618,-0.0237038,-0.292589
2.64476,-0.282643,0.0309653
2.7412,-0.0239221,-0.191691
2.83651,0.113926,0.0826171
2.71108,-0.15632,0.0474007
2.61267,-0.279214,-0.153022
2.79915,-0.0244278,0.163022
2.70925,-0.156214,0.110561
2.74092,-0.0239197,-0.127681
2.81475,-0.024564,0.345621
2.78538,-0.160604,0.50869
2.76315,-0.0241136,-0.0642993
2.80968,0.103026,-0.0490762
2.67786,-0.163785,-0.078079
2.75979,-0.0337189,0
2.6199,-0.28924,-0.0306859
2.63775,-0.161332,-0.336379
2.82206,0.10348,0.0164128
2.70813,-0.0330877,-0.291732
2.77904,-0.0339541,0.0646715
2.64376,-0.291873,0.0309653
2.73312,-0.033393,-0.191133
2.83689,0.104024,0.0826171
2.70653,-0.165538,0.0473309
2.60771,-0.287894,-0.152789
2.79506,-0.0341497,0.162789
2.71268,-0.165914,0.110724
2.73683,-0.0334383,-0.127495
2.81465,-0.0343892,0.345621
2.77695,-0.169845,0.507255
2.75505,-0.0336609,-0.0641132
2.75966,-0.0433522,0
2.62285,-0.298836,-0.0307325
2.64509,-0.17105,-0.337389
2.8224,0.0936286,0.0164128
2.68634,-0.173718,-0.0156457
2.708,-0.0425406,-0.291732
2.63875,-0.300647,0.0309187
2.72501,-0.0428079,-0.190575
2.69795,-0.174469,0.0471913
2.60272,-0.296543,-0.152557
2.79093,-0.0438434,0.162557
2.7041,-0.174867,0.110398
2.73669,-0.0429914,-0.127495
2.80657,-0.0440892,0.344647
2.76848,-0.17903,0.50582
2.75092,-0.0432148,-0.0640202
2.74749,-0.0527546,0
2.61782,-0.307523,-0.0306859
2.67137,-0.0512928,-0.415679
2.63656,-0.179743,-0.336379
2.81871,0.0836574,0.0163896
2.69988,-0.0518404,-0.290876
2.77074,-0.0532009,0.0644854
2.62577,-0.308456,0.030779
2.71686,-0.0521665,-0.190017
2.65697,-0.181134,-0.217406
2.82556,0.0838606,0.082268
2.70132,-0.184157,0.0472611
2.59771,-0.30516,-0.152324
2.78277,-0.0534319,0.162092
2.6955,-0.183761,0.110073
2.73253,-0.0524673,-0.127309
2.79846,-0.0537333,0.343672
2.77177,-0.18896,0.506538
2.74275,-0.0526635,-0.0638341
2.66802,-0.191246,-0.0778463
2.74329,-0.062254,0
2.60879,-0.315698,-0.0305928
2.66722,-0.0605277,-0.415064
2.628,-0.188377,-0.335368
2.81099,0.0736083,0.0163431
2.69571,-0.0611742,-0.290447
2.76254,-0.0626908,0.0642993
2.62467,-0.31762,0.030779
2.72065,-0.0617403,-0.190296
2.65235,-0.190123,-0.21708
2.81784,0.0737878,0.0820353
2.69268,-0.193014,0.0471215
2.78134,0.0728319,-0.178314
2.59662,-0.314226,-0.152324
2.69484,-0.193169,0.110073
2.72834,-0.0619147,-0.127123
2.79826,-0.0635014,0.343672
2.76717,-0.198353,0.50582
2.74255,-0.0622372,-0.0638341
2.79485,0.0634241,-0.0487969
2.74306,-0.0718295,0
2.60767,-0.324803,-0.0305928
2.66304,-0.0697342,-0.414449
2.63128,-0.197847,-0.335873
2.80323,0.0636142,0.0162966
2.68039,-0.201539,-0.0156224
2.69548,-0.0705836,-0.290447
2.75831,-0.0722288,0.0642063
2.62752,-0.327275,0.0308256
2.71643,-0.0711323,-0.190017
2.64372,-0.198782,-0.21643
2.81408,0.0638605,0.0819189
2.68401,-0.201812,0.0469819
2.59155,-0.322795,-0.152092
2.77834,-0.0727534,0.161859
2.69415,-0.202574,0.110073
2.72811,-0.071438,-0.127123
2.66083,-0.200069,-0.139842
2.79008,-0.0730609,0.342697
2.75861,-0.207421,0.504385
2.65068,-0.208613,-0.0773808
2.7348,-0.0811668,0
2.60652,-0.333903,-0.0305928
2.65883,-0.0789122,-0.413834
2.79544,0.0536751,0.0162501
2.67568,-0.210581,-0.0155992
2.68726,-0.0797562,-0.28959
2.61842,-0.335428,0.0307325
2.71218,-0.0804956,-0.189738
2.63903,-0.207696,-0.216104
2.81429,0.0540371,0.0819189
2.67931,-0.210866,0.0469121
2.76581,0.0531063,-0.17729
2.58645,-0.331331,-0.151859
2.77008,-0.0822142,0.161394
2.68945,-0.211664,0.10991
2.78981,-0.0827997,0.342697
2.73406,-0.0811449,-0.0636479
2.77923,0.0436597,-0.0485177
2.64595,-0.217537,-0.0772645
2.7345,-0.0907126,0
2.59741,-0.341955,-0.0304996
2.65459,-0.0880618,-0.413219
2.79561,0.0439169,0.0162501
2.67094,-0.219591,-0.0155759
2.683,-0.0890041,-0.289162
2.74974,-0.0912184,0.0640202
2.61327,-0.344044,0.0306859
2.70391,-0.0896978,-0.18918
2.63829,-0.216907,-0.216104
2.81046,0.0441503,0.0818026
2.67855,-0.220217,0.0469121
2.76199,0.0433888,-0.177034
2.58527,-0.340358,-0.151859
2.7618,-0.0916183,0.160929
2.68471,-0.220723,0.109747
2.71556,-0.0900844,-0.126565
2.65538,-0.218312,-0.139632
2.78554,-0.0924058,0.342209
2.77336,0.0435674,-0.113003
2.71777,-0.0901577,-0.0632757
2.77937,0.0339581,-0.0485177
2.64119,-0.22643,-0.0771481
2.72617,-0.099964,0
2.60016,-0.351556,-0.0305462
2.65821,-0.0974723,-0.413834
2.79174,0.0341093,0.0162269
2.66618,-0.228572,-0.0155527
2.67472,-0.0980775,-0.288305
2.74541,-0.10067,0.0639271
2.61205,-0.353164,0.0306859
2.69959,-0.0989894,-0.188901
2.8066,0.0342908,0.0816862
2.67378,-0.229224,0.0468423
2.76213,0.0337474,-0.177034
2.58011,-0.348845,-0.151627
2.75348,-0.100966,0.160464
2.67596,-0.22941,0.109421
2.70724,-0.0992701,-0.126192
2.64665,-0.226898,-0.139214
2.77726,-0.101838,0.341234
2.72543,-0.099937,-0.0634618
2.77547,0.0242212,-0.0484479
2.72181,-0.109319,0
2.591,-0.359531,-0.0304531
2.65391,-0.106592,-0.413219
2.78785,0.0243292,0.0162036
2.66536,-0.237877,-0.0155527
2.68231,-0.107733,-0.289162
2.74105,-0.110092,0.0638341
2.61081,-0.362279,0.0306859
2.69524,-0.108252,-0.188622
2.62877,-0.234612,-0.215453
2.79471,0.0243891,0.0813371
2.66898,-0.2382,0.0467725
2.75424,0.024036,-0.176523
2.57492,-0.3573,-0.151394
2.75311,-0.110576,0.160464
2.67514,-0.23875,0.109421
2.70688,-0.10872,-0.126192
2.77689,-0.111531,0.341234
2.72107,-0.109289,-0.0633688
2.77154,0.0145119,-0.0483781
2.63158,-0.244125,-0.0769154
2.72141,-0.118819,0
2.58973,-0.368573,-0.0304531
2.65747,-0.116028,-0.413834
2.77592,0.0145348,0.0161339
2.66053,-0.24681,-0.0155294
2.67397,-0.116748,-0.288305
2.60557,-0.370827,0.0306393
2.69086,-0.117485,-0.188342
2.62,-0.24305,-0.214802
2.79078,0.0146126,0.0812208
2.66017,-0.246777,0.0466328
2.57761,-0.366849,-0.151627
2.74872,-0.120012,0.160231
2.67031,-0.247717,0.109258
2.64102,-0.245,-0.139004
2.76855,-0.120878,0.340259
2.71668,-0.118613,-0.0632757
2.76357,0.00482335,-0.0482385
2.63469,-0.253692,-0.0770317
2.72098,-0.128318,0
2.58842,-0.37761,-0.0304531
2.77195,0.00483797,0.0161106
2.65169,-0.255329,-0.0154829
2.66957,-0.125894,-0.287877
2.69043,-0.126878,-0.188342
2.61913,-0.252194,-0.214802
2.78682,0.00486392,0.0811044
2.65929,-0.256061,0.0466328
2.56842,-0.374691,-0.151161
2.7443,-0.129418,0.159999
2.66943,-0.257037,0.109258
2.6322,-0.253452,-0.138586
2.76811,-0.130541,0.340259
2.75371,0.00480614,-0.112189
2.70426,-0.12753,-0.0629966
2.75958,-0.00433474,-0.0481686
2.71255,-0.136937,0
2.5832,-0.385601,-0.0304065
2.77195,-0.00435418,0.0161106
2.66914,-0.134746,-0.287877
2.7198,-0.137303,0.0633688
2.59507,-0.387373,0.0305462
2.68203,-0.135396,-0.187784
2.61828,-0.260878,-0.214802
2.78682,-0.00437753,0.0811044
2.65445,-0.264481,0.046563
2.73439,-0.00429518,-0.175244
2.73986,-0.138316,0.159766
2.66061,-0.265095,0.108933
2.68965,-0.135781,-0.125448
2.76766,-0.13972,0.340259
2.70382,-0.136497,-0.0629966
2.75555,-0.0134663,-0.0480988
2.70808,-0.145716,0
2.57796,-0.393562,-0.0303599
2.76792,-0.0135267,0.0160874
2.66074,-0.143169,-0.28702
2.71534,-0.146107,0.0632757
2.58982,-0.395373,0.0304996
2.67359,-0.143861,-0.187226
2.61344,-0.269151,-0.214477
2.77879,-0.0135799,0.0808717
2.65356,-0.273283,0.046563
2.73037,-0.0133432,-0.174988
2.7354,-0.147186,0.159533
2.66369,-0.274326,0.109096
2.69318,-0.144915,-0.125634
2.62251,-0.270085,-0.138167
2.75133,-0.148043,0.338309
2.74169,-0.0133986,-0.111701
2.69537,-0.145032,-0.0628105
2.74749,-0.0230178,-0.0479592
2.69558,-0.154482,0
2.57261,-0.401941,-0.0303134
2.75986,-0.0231215,0.0160409
2.66022,-0.152456,-0.28702
2.71481,-0.155584,0.0632757
2.58447,-0.403793,0.0304531
2.66909,-0.152964,-0.186947
2.60852,-0.277849,-0.214151
2.77073,-0.0232125,0.080639
2.64463,-0.281696,0.0464234
2.7303,-0.0228739,-0.174988
2.73088,-0.156505,0.159301
2.65079,-0.282352,0.108607
2.68468,-0.153857,-0.125262
2.61758,-0.278815,-0.137958
2.75476,-0.157874,0.338797
2.69485,-0.15444,-0.0628105
2.75138,-0.0331359,-0.048029
2.61107,-0.287804,-0.0764499
2.69899,-0.164604,0
2.57112,-0.411367,-0.0303134
2.75175,-0.0331403,0.0159944
2.64774,-0.161479,-0.285735
2.71023,-0.16529,0.0631827
2.66851,-0.162746,-0.186947
2.60352,-0.286971,-0.213826
2.76663,-0.0333195,0.0805226
2.63961,-0.290949,0.0463536
2.72222,-0.0327846,-0.174476
2.72631,-0.16627,0.159068
2.6841,-0.163696,-0.125262
2.75416,-0.167969,0.338797
2.69027,-0.164073,-0.0627174
2.60608,-0.296465,-0.0763336
2.56967,-0.420339,-0.0303134
2.74762,-0.0426834,0.0159711
2.64716,-0.17072,-0.285735
2.70964,-0.174749,0.0631827
2.57362,-0.420985,0.0303599
2.66793,-0.17206,-0.186947
2.6025,-0.296057,-0.213826
2.76649,-0.0429766,0.0805226
2.63858,-0.300161,0.0463536
2.72209,-0.0422867,-0.174476
2.71774,-0.175272,0.158603
2.65268,-0.301765,0.10877
2.67553,-0.17255,-0.12489
2.7496,-0.177327,0.338309
2.6817,-0.172948,-0.0625313
2.7391,-0.0516368,-0.0478196
2.60111,-0.30464,-0.0762172
2.68583,-0.18216,0
2.62998,-0.308021,-0.0153899
2.63467,-0.17869,-0.28445
2.69707,-0.182922,0.0629035
2.57615,-0.430176,0.0304065
2.66336,-0.180636,-0.186668
2.59755,-0.304222,-0.2135
2.75434,-0.0519243,0.0801735
2.6336,-0.308444,0.0462838
2.70918,-0.183743,0.158138
2.64769,-0.310095,0.108607
2.67096,-0.181151,-0.124703
2.74503,-0.186175,0.337822
2.72525,-0.0513759,-0.111049
2.67712,-0.181569,-0.0624383
2.73489,-0.0615858,-0.0477498
2.59601,-0.313692,-0.0761008
2.67716,-0.191432,0
2.56273,-0.437595,-0.0302668
2.63797,-0.188629,-0.284878
2.69239,-0.192521,0.0628105
2.56667,-0.438269,0.0303134
2.64676,-0.189258,-0.185552
2.75414,-0.0620191,0.0801735
2.62451,-0.317135,0.0461442
2.7045,-0.193387,0.157906
2.6386,-0.318839,0.108281
2.66231,-0.19037,-0.124331
2.60545,-0.314832,-0.137539
2.73245,-0.195385,0.336359
2.71706,-0.0611842,-0.110724
2.67644,-0.19138,-0.0624383
2.72666,-0.070924,-0.0476102
2.5949,-0.322752,-0.0761008
2.67648,-0.200776,0
2.55725,-0.445851,-0.0302203
2.73503,-0.0711416,0.0159014
2.63729,-0.197836,-0.284878
2.68772,-0.201619,0.0627174
2.56513,-0.447225,0.0303134
2.64211,-0.198197,-0.185273
2.74591,-0.0714246,0.0799408
2.62338,-0.326295,0.0461442
2.70553,-0.0703744,-0.173453
2.70381,-0.202826,0.157906
2.63351,-0.327554,0.108119
2.66163,-0.199662,-0.124331
2.60037,-0.323432,-0.13733
2.72779,-0.204625,0.335872
2.67177,-0.200422,-0.0623452
2.72243,-0.0793731,-0.0475404
2.58991,-0.330396,-0.0759845
2.67185,-0.208871,0
2.5519,-0.453184,-0.0301737
2.62476,-0.205191,-0.283593
2.68707,-0.210062,0.0627174
2.55584,-0.453883,0.0302203
2.64147,-0.206497,-0.185273
2.61441,-0.333522,0.0460045
2.69732,-0.078641,-0.172941
2.70714,-0.21163,0.158138
2.63246,-0.335826,0.108119
2.657,-0.207711,-0.124145
2.72714,-0.213194,0.335872
2.66714,-0.208503,-0.0622522
2.71811,-0.089694,-0.0474705
2.59258,-0.34086,-0.0761008
2.66704,-0.218802,0
2.55014,-0.462979,-0.0301737
2.61999,-0.214942,-0.283165
2.68226,-0.220051,0.0626244
2.55801,-0.464408,0.0302668
2.63668,-0.216311,-0.184994
2.73735,-0.090329,0.0797081
2.61311,-0.343559,0.0460045
2.69301,-0.0888657,-0.172685
2.69437,-0.221044,0.15744
2.63116,-0.345931,0.108119
2.65619,-0.217912,-0.124145
2.59409,-0.341057,-0.13712
2.71838,-0.223014,0.334897
2.62856,-0.34559,0.21643
2.66233,-0.218416,-0.0621591
2.71378,-0.0990355,-0.0474007
2.58345,-0.348837,-0.0758681
2.66227,-0.227769,0
2.6113,-0.223408,-0.282308
2.67749,-0.229071,0.0625313
2.63989,-0.225854,-0.185273
2.73302,-0.0997377,0.0795917
2.61586,-0.353213,0.0460744
2.68164,-0.229426,0.156743
2.62597,-0.354579,0.107956
2.64745,-0.226501,-0.123773
2.72154,-0.23284,0.335384
2.62734,-0.354763,0.21643
2.69996,-0.0985312,-0.110073
2.65757,-0.227367,-0.0620661
2.70946,-0.107402,-0.0473309
2.58234,-0.356952,-0.0758681
2.65358,-0.235425,0
2.61455,-0.231962,-0.282736
2.67278,-0.237128,0.0624383
2.55094,-0.480622,0.0302203
2.63121,-0.233441,-0.184715
2.72471,-0.108007,0.079359
2.61077,-0.360882,0.0460045
2.68837,-0.106566,-0.17243
2.67693,-0.237497,0.15651
2.61693,-0.361732,0.10763
2.63478,-0.233758,-0.123214
2.58385,-0.35716,-0.136702
2.71685,-0.241038,0.334897
2.62226,-0.362469,0.216104
2.65286,-0.235361,-0.061973
2.70104,-0.117457,-0.0471913
2.64867,-0.245244,0
2.53337,-0.487391,-0.030034
2.71339,-0.117995,0.0157852
2.61364,-0.242,-0.282736
2.66786,-0.247021,0.0623452
2.54515,-0.489658,0.0301737
2.62235,-0.242807,-0.184157
2.60541,-0.370341,0.0459347
2.68395,-0.116715,-0.172174
2.67998,-0.248142,0.156743
2.63387,-0.243873,-0.123214
2.57851,-0.366517,-0.136492
2.70404,-0.25037,0.333435
2.65194,-0.245546,-0.061973
2.69661,-0.126697,-0.0471215
2.56779,-0.374142,-0.075519
2.6478,-0.254488,0
2.51988,-0.493923,-0.0298943
2.65902,-0.255566,0.0621591
2.62149,-0.251959,-0.184157
2.71585,-0.127601,0.0791263
2.59619,-0.37828,0.0457951
2.67555,-0.125708,-0.171662
2.67512,-0.257113,0.15651
2.63698,-0.253447,-0.123401
2.57721,-0.375515,-0.136492
2.70315,-0.259808,0.333435
2.64708,-0.254419,-0.06188
2.57055,-0.382796,-0.0756354
2.64301,-0.262409,0
2.70056,-0.135387,0.0157154
2.65821,-0.263919,0.0621591
2.61274,-0.259405,-0.183599
2.71145,-0.135933,0.0790099
2.59894,-0.387023,0.0458649
2.67116,-0.133913,-0.171406
2.66238,-0.264333,0.155813
2.62821,-0.260941,-0.123028
2.57207,-0.383022,-0.136283
2.69837,-0.267906,0.332947
2.63831,-0.261943,-0.0616939
2.6877,-0.14462,-0.0469819
2.56518,-0.391612,-0.075519
2.64203,-0.272095,0
2.64927,-0.27284,0.061973
2.61574,-0.269388,-0.183878
2.70694,-0.145655,0.0788935
2.59355,-0.395943,0.0457951
2.67065,-0.143702,-0.171406
2.66139,-0.274089,0.155813
2.60365,-0.397484,0.107304
2.62724,-0.270572,-0.123028
2.69342,-0.277388,0.33246
2.63733,-0.271611,-0.0616939
2.68319,-0.153772,-0.0469121
2.5559,-0.399329,-0.0752863
2.63311,-0.280468,0
2.6483,-0.282086,0.061973
2.53032,-0.523084,0.0300806
2.61082,-0.278094,-0.183599
2.66216,-0.152567,-0.170895
2.66042,-0.283377,0.155813
2.61833,-0.278895,-0.122656
2.68849,-0.286367,0.331972
2.68266,-0.162669,-0.0469121
2.55851,-0.408433,-0.0754027
2.62818,-0.288761,0
2.69101,-0.163175,0.0156689
2.6394,-0.289993,0.0617869
2.52466,-0.530649,0.030034
2.60195,-0.285879,-0.183041
2.58685,-0.412957,0.0457253
2.66164,-0.161394,-0.170895
2.65152,-0.291326,0.155347
2.59299,-0.413937,0.106979
2.61739,-0.287576,-0.122656
2.67568,-0.29398,0.33051
2.59441,-0.414164,0.214477
2.67806,-0.172244,-0.0468423
2.55305,-0.417163,-0.0752863
2.61916,-0.297489,0
2.64626,-0.300568,0.061973
2.51879,-0.539062,0.0299874
2.60485,-0.295864,-0.18332
2.58137,-0.42179,0.0456555
2.65306,-0.170636,-0.170383
2.65441,-0.301493,0.15558
2.59146,-0.423438,0.106979
2.60838,-0.296265,-0.122284
2.67459,-0.303785,0.33051
2.55158,-0.426072,-0.0752863
2.61811,-0.30663,0
2.6778,-0.181615,0.0155992
2.63328,-0.308408,0.0616939
2.51298,-0.547,0.0299409
2.59191,-0.303562,-0.182483
2.57594,-0.43014,0.0455857
2.64847,-0.179626,-0.170127
2.64541,-0.309828,0.155115
2.60733,-0.305368,-0.122284
2.67351,-0.313119,0.33051
2.66888,-0.189435,-0.0467026
2.54628,-0.433415,-0.0751699
2.6211,-0.315331,0
2.62833,-0.316201,0.0616008
2.58698,-0.311227,-0.182204
2.68411,-0.190516,0.0783117
2.64789,-0.187945,-0.170127
2.63253,-0.316706,0.154417
2.58465,-0.439945,0.106816
2.59843,-0.312604,-0.121912
2.67646,-0.321991,0.330997
2.58215,-0.439519,0.213826
2.6591,-0.188741,-0.108607
2.66418,-0.198918,-0.0466328
2.54074,-0.442059,-0.0750536
2.61199,-0.323952,0
2.6765,-0.199838,0.0155992
2.61922,-0.324848,0.0614147
2.58583,-0.320707,-0.182204
2.6794,-0.200055,0.0781954
2.6432,-0.197352,-0.169871
2.63531,-0.326844,0.15465
2.57908,-0.448731,0.106653
2.5933,-0.321633,-0.121725
2.66738,-0.330821,0.330022
2.65948,-0.207904,-0.046563
2.53918,-0.450925,-0.0750536
2.60291,-0.332055,0
2.6718,-0.208868,0.0155759
2.626,-0.335001,0.0616008
2.58469,-0.329731,-0.182204
2.6747,-0.209095,0.078079
2.6425,-0.206577,-0.169871
2.62623,-0.33503,0.154185
2.59612,-0.331189,-0.121912
2.65439,-0.338623,0.32856
2.65878,-0.216723,-0.046563
2.53767,-0.459343,-0.0750536
2.60179,-0.340684,0
2.61695,-0.342669,0.0614147
2.57567,-0.337264,-0.181646
2.63384,-0.21469,-0.16936
2.62511,-0.343737,0.154185
2.57204,-0.465563,0.10649
2.59105,-0.339278,-0.121725
2.65325,-0.347423,0.32856
2.64601,-0.225447,-0.0463536
2.59656,-0.349684,0
2.65832,-0.226497,0.0155062
2.61964,-0.352792,0.0615077
2.55632,-0.472402,0.0453763
2.61987,-0.352824,0.153952
2.58979,-0.348772,-0.121725
2.64409,-0.356086,0.327585
2.63625,-0.224616,-0.107793
2.64521,-0.234682,-0.0463536
2.59136,-0.358198,0
2.65353,-0.235421,0.0154829
2.6065,-0.360291,0.0612286
2.66042,-0.236032,0.0777299
2.62429,-0.232826,-0.168848
2.61862,-0.361966,0.153952
2.56078,-0.482476,0.106165
2.57668,-0.356169,-0.121167
2.63147,-0.233464,-0.10763
2.63641,-0.24318,-0.046214
2.59802,-0.368365,0
2.64871,-0.244315,0.0154597
2.60523,-0.369388,0.0612286
2.62346,-0.241985,-0.168848
2.61339,-0.370544,0.15372
2.55516,-0.490659,0.106002
2.57146,-0.3646,-0.120981
2.62666,-0.242281,-0.107467
2.63554,-0.252381,-0.046214
2.58088,-0.37513,0
2.64784,-0.253559,0.0154597
2.59997,-0.377904,0.0611355
2.6226,-0.251142,-0.168848
2.61208,-0.379665,0.15372
2.57413,-0.374149,-0.121167
2.63071,-0.260725,-0.0461442
2.64699,-0.262338,0.0154597
2.5987,-0.386524,0.0611355
2.54172,-0.506041,0.0452366
2.60983,-0.258656,-0.16808
2.60686,-0.387737,0.153487
2.56892,-0.382095,-0.120981
2.58215,-0.393741,0
2.63407,-0.270811,0.0153899
2.52451,-0.512241,-0.0149715
2.59727,-0.396046,0.0611355
2.60887,-0.26822,-0.16808
2.60147,-0.396687,0.153254
2.56751,-0.391508,-0.120981
2.57681,-0.402136,0
2.64106,-0.28085,0.0154364
2.59192,-0.404493,0.0610425
2.63999,-0.280736,0.0772645
2.60395,-0.276903,-0.167825
2.59612,-0.40515,0.153022
2.54023,-0.52467,0.105676
2.56218,-0.399852,-0.120795
2.61591,-0.286951,-0.0459347
2.56361,-0.408789,0
2.63614,-0.28917,0.0154132
2.58661,-0.412456,0.0609494
2.63507,-0.289053,0.0771481
2.60301,-0.285536,-0.167825
2.59477,-0.413757,0.153022
2.53848,-0.53309,0.105676
2.61016,-0.286321,-0.106979
2.61489,-0.29608,-0.0459347
2.56217,-0.417735,0
2.63114,-0.29792,0.0153899
2.63405,-0.298249,0.0771481
2.602,-0.294621,-0.167825
2.59331,-0.422811,0.153022
2.60121,-0.294531,-0.106653
2.60987,-0.304742,-0.0458649
2.5607,-0.426676,0
2.62611,-0.306639,0.0153667
2.62505,-0.306514,0.0769154
2.52078,-0.547775,0.0450272
2.59303,-0.302776,-0.167313
2.59182,-0.431861,0.153022
2.59619,-0.303145,-0.10649
2.55525,-0.434941,0
2.62503,-0.315804,0.0153667
2.57821,-0.438849,0.0608564
2.50713,-0.553982,0.0448178
2.58799,-0.311348,-0.167057
2.58242,-0.439566,0.152557
2.59512,-0.312206,-0.10649
2.55379,-0.443412,0
2.61603,-0.323525,0.0153202
2.5728,-0.446712,0.0607633
2.61893,-0.323884,0.076799
2.50138,-0.561417,0.044748
2.58694,-0.319929,-0.167057
2.57308,-0.446761,0.152092
2.5986,-0.331044,-0.0457253
2.54821,-0.45207,0
2.61482,-0.333111,0.0153202
2.56327,-0.454742,0.0605772
2.61773,-0.333481,0.076799
2.57784,-0.328399,-0.166545
2.57536,-0.456886,0.152324
2.58891,-0.32981,-0.106327
2.59743,-0.340113,-0.0457253
2.54662,-0.460962,0
2.60968,-0.341717,0.015297
2.56167,-0.463687,0.0605772
2.60862,-0.341578,0.0765663
2.58063,-0.337914,-0.166801
2.57374,-0.465873,0.152324
2.58774,-0.338845,-0.106327
2.59226,-0.348645,-0.0456555
2.54499,-0.469849,0
2.60847,-0.350825,0.015297
2.60741,-0.350682,0.0765663
2.57548,-0.346388,-0.166545
2.56818,-0.474129,0.152092
2.57466,-0.346278,-0.105839
2.5831,-0.356597,-0.0455159
2.53548,-0.47725,0
2.5993,-0.358834,0.0152505
2.60617,-0.359782,0.0765663
2.56635,-0.354284,-0.166034
2.56651,-0.483091,0.152092
2.5774,-0.35581,-0.106002
2.57795,-0.364601,-0.0454461
2.53781,-0.486408,0
2.5981,-0.367451,0.0152505
2.55283,-0.489288,0.0604842
2.60496,-0.368422,0.0765663
2.55704,-0.490095,0.151627
2.57225,-0.363795,-0.105839
2.57264,-0.373473,-0.0453763
2.52816,-0.494172,0
2.59278,-0.376397,0.0152272
2.54709,-0.497874,0.0603911
2.59964,-0.377393,0.0764499
2.55523,-0.499464,0.151627
2.56694,-0.372646,-0.105676
2.57534,-0.38259,-0.0454461
