2.42187,0.512318,-0.259264
2.42204,0.496849,-0.258952
2.42504,0.481978,-0.258952
2.42893,0.467277,-0.259056
2.43273,0.452546,-0.25916
2.43095,0.449977,-0.350709
2.43546,0.437611,-0.25916
2.44049,0.436272,-0.351692
2.43712,0.422489,-0.259056
2.40711,0.507205,-0.281322
2.44605,0.421794,-0.352113
2.44752,0.408838,-0.259889
2.4525,0.407427,-0.352675
2.45391,0.394444,-0.260306
2.41705,0.4784,-0.281776
2.45495,0.392371,-0.352675
2.46119,0.380139,-0.260827
2.46221,0.378051,-0.353377
2.46348,0.36503,-0.260827
2.46938,0.363658,-0.354079
2.46012,0.360101,-0.445884
2.46567,0.349908,-0.260827
2.4745,0.348914,-0.354501
2.47106,0.346229,-0.447473
2.45491,0.335732,-0.0784727
2.47073,0.335173,-0.261139
2.48052,0.334253,-0.355063
2.47509,0.331321,-0.447826
2.4589,0.320921,-0.078536
2.48162,0.321155,-0.262076
2.47958,0.318648,-0.354641
2.4406,0.404121,-0.374353
2.47707,0.316128,-0.447826
2.46678,0.306567,-0.0787259
2.48848,0.30653,-0.262597
2.48837,0.304269,-0.355624
2.4489,0.390072,-0.375251
2.48385,0.301516,-0.448708
2.4696,0.291543,-0.0787576
2.47034,0.289663,-0.168998
2.42556,0.464576,-0.215111
2.49707,0.289793,-0.356608
2.45418,0.375487,-0.3757
2.49445,0.287284,-0.450297
2.47433,0.276718,-0.0788526
2.45799,0.36477,-0.101933
2.42836,0.449684,-0.215111
2.45643,0.360421,-0.3757
2.49715,0.272079,-0.450474
2.48095,0.262055,-0.0790108
2.42814,0.43425,-0.214851
2.4565,0.346621,-0.283708
2.46154,0.345755,-0.376149
2.5066,0.257557,-0.451886
2.50406,0.255308,-0.547976
2.47867,0.247276,0.0119559
2.4835,0.246926,-0.0790425
2.48518,0.245122,-0.169676
2.4337,0.419851,-0.215111
2.46153,0.33194,-0.284048
2.46851,0.331302,-0.376897
2.5101,0.242361,-0.452239
2.46891,0.329909,-0.471013
2.5085,0.240218,-0.548614
2.48995,0.232147,-0.0792008
2.49459,0.230604,-0.170218
2.43918,0.4054,-0.215371
2.50859,0.231148,-0.263847
2.46648,0.31721,-0.284389
2.47148,0.316275,-0.377047
2.44771,0.404931,-0.399876
2.51546,0.227309,-0.452945
2.51576,0.225345,-0.54989
2.50029,0.217645,-0.0794857
2.49993,0.215636,-0.170489
2.44654,0.391212,-0.215805
2.41895,0.476725,-0.238658
2.51195,0.215921,-0.264056
2.47824,0.303277,-0.285526
2.47926,0.301821,-0.377944
2.45795,0.391146,-0.401149
2.52391,0.210472,-0.551379
2.50158,0.202299,-0.0794857
2.44503,0.376473,-0.12506
2.50519,0.200611,-0.17076
2.47575,0.288572,-0.193407
2.45185,0.376647,-0.216065
2.42672,0.462806,-0.23914
2.484,0.288524,-0.28598
2.5248,0.199166,-0.359276
2.48598,0.28717,-0.378692
2.46421,0.376653,-0.401786
2.48726,0.285867,-0.473428
2.52516,0.194982,-0.551379
2.50775,0.187318,-0.0796439
2.45124,0.362047,-0.125262
2.51433,0.185824,-0.171303
2.47846,0.273485,-0.193485
2.45707,0.362031,-0.216326
2.4393,0.449711,-0.240103
2.48967,0.273711,-0.286435
2.52795,0.183814,-0.359557
2.49457,0.272663,-0.37974
2.46159,0.36081,-0.40099
2.53296,0.181956,-0.455416
2.48701,0.270387,-0.473056
2.53021,0.179761,-0.55223
2.53211,0.176699,-0.653323
2.50985,0.171996,-0.0796756
2.45342,0.347,-0.125262
2.5204,0.17073,-0.171642
2.4622,0.347366,-0.216586
2.43515,0.433514,-0.239429
2.53038,0.170652,-0.265618
2.50119,0.259454,-0.287571
2.46372,0.346483,-0.308393
2.4465,0.434874,-0.332521
2.53595,0.16876,-0.36054
2.5021,0.25796,-0.380637
2.4706,0.34666,-0.402104
2.53894,0.166734,-0.456299
2.53321,0.164359,-0.552655
2.54281,0.161774,-0.655815
2.51984,0.157152,-0.0799605
2.46045,0.332608,-0.125514
2.52439,0.155446,-0.171845
2.48659,0.243536,-0.193871
2.47021,0.33305,-0.217107
2.44071,0.41907,-0.239718
2.53634,0.155427,-0.266139
2.46284,0.330963,-0.308024
2.45303,0.420524,-0.333051
2.50364,0.242603,-0.380637
2.47366,0.331625,-0.402263
2.54483,0.151444,-0.457181
2.51879,0.14365,0.103358
2.52375,0.141856,-0.0800555
2.46542,0.317888,-0.125666
2.43314,0.404423,-0.148785
2.52231,0.139788,-0.171642
2.494,0.22882,-0.194336
2.48011,0.318903,-0.217801
2.45305,0.40571,-0.240681
2.50814,0.229103,-0.288025
2.46975,0.316475,-0.308639
2.4585,0.405949,-0.333449
2.54573,0.138056,-0.361664
2.51,0.227683,-0.381386
2.47859,0.316816,-0.402741
2.54768,0.135931,-0.457534
2.50429,0.22571,-0.475472
2.47617,0.314839,-0.496461
2.52461,0.128446,0.103563
2.51778,0.126865,0.0120999
2.53256,0.126768,-0.0803087
2.46732,0.302755,-0.125666
2.52909,0.124603,-0.172048
2.49833,0.213768,-0.194568
2.48202,0.30368,-0.217801
2.4555,0.390651,-0.240681
2.51346,0.214046,-0.28848
2.47756,0.302036,-0.309377
2.45409,0.389768,-0.332521
2.54653,0.122433,-0.361664
2.51234,0.212361,-0.381535
2.48048,0.301602,-0.402741
2.54748,0.12025,-0.457358
2.5115,0.210833,-0.476587
2.48682,0.300699,-0.498217
2.52735,0.113043,0.103645
2.46692,0.288661,-0.0353323
2.53229,0.111182,-0.080277
2.47409,0.288188,-0.125918
2.44285,0.375292,-0.149086
2.53579,0.10934,-0.172455
2.48186,0.288215,-0.217627
2.46375,0.376479,-0.241259
2.51671,0.198776,-0.288707
2.47838,0.286714,-0.309254
2.46329,0.375749,-0.333449
2.55218,0.107013,-0.362366
2.51951,0.197405,-0.382433
2.49602,0.28796,-0.404968
2.46818,0.376053,-0.427524
2.5521,0.104778,-0.458064
2.52059,0.196028,-0.478073
2.48959,0.285546,-0.498412
2.56187,0.103164,-0.558186
2.53499,0.0978025,0.103931
2.52914,0.0963391,0.0121479
2.4756,0.27429,-0.0354319
2.53892,0.0958684,-0.080467
2.4778,0.27322,-0.126019
2.45004,0.361023,-0.149387
2.54439,0.094074,-0.172997
2.50674,0.183531,-0.195032
2.48754,0.273416,-0.217974
2.467,0.361499,-0.241356
2.5159,0.183186,-0.28848
2.487,0.272258,-0.310115
2.46457,0.360484,-0.333317
2.55576,0.0914571,-0.362787
2.5187,0.181799,-0.382134
2.47434,0.361471,-0.4282
2.55466,0.0891857,-0.458417
2.52566,0.180839,-0.478816
2.50105,0.271323,-0.500363
2.5644,0.0875093,-0.558612
2.53853,0.0823435,0.104054
2.50189,0.171346,0.0791597
2.53568,0.0810103,0.0121767
2.47724,0.259095,-0.0354319
2.54046,0.0803197,-0.0804986
2.4834,0.258425,-0.126221
2.45518,0.346402,-0.149567
2.54492,0.0784601,-0.172997
2.4971,0.25897,-0.218669
2.47016,0.346493,-0.241452
2.56179,0.0782193,-0.268431
2.52689,0.168406,-0.289616
2.49454,0.257604,-0.310853
2.47459,0.346454,-0.334378
2.56122,0.0759202,-0.36349
2.52865,0.166927,-0.38348
2.50624,0.258016,-0.406082
2.47846,0.346555,-0.428537
2.55812,0.0735938,-0.458946
2.53359,0.165788,-0.480117
2.50169,0.255872,-0.500168
2.56782,0.0718548,-0.55925
2.54099,0.0668183,0.104136
2.54013,0.0655534,0.0121959
2.48276,0.244282,-0.0354888
2.5429,0.0647812,-0.0805619
2.48693,0.243377,-0.126322
2.45923,0.331597,-0.149688
2.54535,0.0628433,-0.172997
2.51776,0.153301,-0.195728
2.49468,0.243256,-0.218321
2.56719,0.0626203,-0.268951
2.52688,0.152838,-0.289502
2.502,0.242869,-0.311591
2.47962,0.331658,-0.334776
2.56263,0.0602267,-0.36363
2.53752,0.151881,-0.384677
2.51367,0.243204,-0.407037
2.47957,0.331211,-0.428368
2.56344,0.0580075,-0.459829
2.53259,0.150123,-0.479745
2.50224,0.240423,-0.499973
2.56822,0.0560975,-0.55925
2.53935,0.0511855,0.104054
2.54248,0.0500056,0.0122055
2.54525,0.0492157,-0.0806253
2.49335,0.228569,-0.126574
2.46716,0.317265,-0.150049
2.54968,0.0472982,-0.173268
2.52163,0.138012,-0.19596
2.50009,0.228307,-0.218669
2.57051,0.0469216,-0.269264
2.53273,0.1376,-0.29007
2.50938,0.228051,-0.312329
2.48652,0.317064,-0.335439
2.56691,0.0445703,-0.364192
2.5384,0.136309,-0.384677
2.51806,0.228043,-0.407514
2.48253,0.316115,-0.428537
2.5667,0.0423261,-0.460359
2.53347,0.13458,-0.479745
2.50855,0.225504,-0.500948
2.57437,0.0404303,-0.560526
2.51655,0.225117,-0.600571
2.54661,0.0357014,0.104341
2.49254,0.214396,-0.0355883
2.47483,0.302958,-0.0590627
2.49769,0.213521,-0.126726
2.47303,0.302606,-0.15029
2.55391,0.0317023,-0.17354
2.5304,0.122924,-0.196579
2.50641,0.213385,-0.219102
2.57174,0.0311604,-0.269368
2.53254,0.122009,-0.289957
2.51172,0.212733,-0.312452
2.56912,0.0288414,-0.364473
2.54215,0.120872,-0.385126
2.49127,0.301706,-0.429719
2.56986,0.0266069,-0.460888
2.53719,0.119171,-0.480303
2.5138,0.210435,-0.501728
2.58728,0.024755,-0.563292
2.52468,0.210236,-0.602189
2.55078,0.0201065,0.104504
2.49334,0.200418,0.0554977
2.49979,0.199575,-0.0356737
2.48061,0.288229,-0.0591574
2.55566,0.0180484,-0.0809418
2.50393,0.198586,-0.126978
2.4788,0.287887,-0.150531
2.53509,0.107565,-0.196889
2.50668,0.197924,-0.219016
2.57785,0.0154156,-0.269993
2.53622,0.106593,-0.290298
2.52089,0.197939,-0.313436
2.49515,0.287093,-0.336102
2.58112,0.0131376,-0.366158
2.54384,0.105312,-0.385276
2.49601,0.286751,-0.430225
2.57884,0.0108754,-0.462477
2.54278,0.103801,-0.481232
2.52188,0.195537,-0.503094
2.48737,0.28589,-0.524062
2.59226,0.00889605,-0.564355
2.52883,0.194966,-0.602883
2.55885,0.00446883,0.104832
2.56097,0.003221,0.0122919
2.50396,0.184453,-0.0357164
2.48432,0.273221,-0.0592048
2.5061,0.183291,-0.127029
2.47953,0.272563,-0.150471
2.54168,0.0922248,-0.197353
2.50884,0.182612,-0.219102
2.58387,-0.000403054,-0.270618
2.54576,0.0913494,-0.29132
2.52602,0.182754,-0.313928
2.58116,-0.00270017,-0.366158
2.54542,0.089736,-0.385425
2.58181,-0.0049539,-0.463006
2.5473,0.0883333,-0.481975
2.53184,0.180688,-0.504849
2.49394,0.271151,-0.525087
2.5952,-0.00701788,-0.564993
2.60313,-0.0103106,-0.670023
2.52787,0.0813184,0.171757
2.56183,-0.0112452,0.104955
2.50459,0.170417,0.0556973
2.51103,0.16949,-0.0358017
2.48694,0.258076,-0.0592284
2.48513,0.257755,-0.150711
2.51588,0.167612,-0.219623
2.58282,-0.0162511,-0.270514
2.54826,0.0757863,-0.291547
2.52511,0.16712,-0.313682
2.59,-0.0186018,-0.367422
2.55482,0.0743748,-0.386772
2.53669,0.167086,-0.409742
2.51013,0.257205,-0.432082
2.59157,-0.0208748,-0.464772
2.53388,0.165213,-0.505045
2.49361,0.255644,-0.524677
2.59902,-0.0229762,-0.565844
2.57215,0.0714648,-0.585879
2.6069,-0.026322,-0.67102
2.5697,-0.0270482,0.105282
2.50958,0.155292,0.055786
2.51402,0.154202,-0.0358301
2.49147,0.243102,-0.0592995
2.49064,0.24289,-0.150952
2.52481,0.152652,-0.220317
2.50753,0.242505,-0.243861
2.58765,-0.0321605,-0.271035
2.55761,0.06036,-0.29257
2.52807,0.151742,-0.313928
2.59677,-0.0345857,-0.368406
2.55424,0.0586747,-0.386622
2.53964,0.151636,-0.41006
2.5973,-0.0368598,-0.465831
2.55605,0.0572433,-0.483462
2.53289,0.149547,-0.504654
2.50487,0.241277,-0.526726
2.57547,0.0557443,-0.586545
2.60862,-0.0423486,-0.671519
2.53765,0.05047,0.172366
2.51747,0.14028,0.0559413
2.57559,-0.0441758,0.0123639
2.51592,0.138828,-0.0358444
2.4959,0.228083,-0.0593705
2.51902,0.137676,-0.127534
2.49804,0.228148,-0.151314
2.5257,0.137157,-0.220317
2.50996,0.227204,-0.243957
2.58939,-0.0480743,-0.271243
2.55992,0.0447004,-0.292797
2.52994,0.136281,-0.314051
2.59849,-0.050557,-0.368686
2.56147,0.0431175,-0.38767
2.54841,0.136473,-0.411333
2.60391,-0.0529358,-0.467066
2.53866,0.134262,-0.50563
2.50436,0.225727,-0.526316
2.61515,-0.055219,-0.569461
2.58063,0.0400161,-0.587655
2.5552,0.134018,-0.608202
2.60831,-0.058354,-0.671519
2.54689,0.0350218,0.172976
2.57517,-0.058717,0.105528
2.52028,0.12493,0.0559856
2.49469,0.213511,0.0311595
2.57927,-0.0600717,0.0123831
2.52371,0.123731,-0.0359439
2.50323,0.213274,-0.0595126
2.5248,0.122459,-0.127786
2.50238,0.21307,-0.151494
2.53247,0.121945,-0.220838
2.51428,0.21205,-0.244246
2.59402,-0.0640844,-0.271764
2.56015,0.0289921,-0.292797
2.5337,0.120896,-0.31442
2.60308,-0.0666268,-0.369389
2.56465,0.0274315,-0.388119
2.60944,-0.0690684,-0.468125
2.56835,0.0259917,-0.485691
2.54629,0.119003,-0.506995
2.5096,0.210684,-0.527135
2.61183,-0.0711844,-0.568822
2.58961,0.0242631,-0.589653
2.55306,0.118202,-0.607508
2.61662,-0.0746056,-0.673762
2.55005,0.0194165,0.173179
2.58675,-0.0748637,0.106019
2.525,0.109637,0.0560744
2.49894,0.198437,0.0311968
2.53142,0.108543,-0.0360435
2.50449,0.19791,-0.0595126
2.50663,0.197947,-0.151675
2.53615,0.106529,-0.221098
2.52248,0.197161,-0.244921
2.59556,-0.0800611,-0.271972
2.56922,0.0133292,-0.29382
2.53638,0.10543,-0.314666
2.61351,-0.0829432,-0.370934
2.57466,0.0117397,-0.389615
2.55483,0.105393,-0.412129
2.61684,-0.085335,-0.469537
2.57534,0.0102595,-0.486992
2.55089,0.103536,-0.507776
2.51279,0.195433,-0.527545
2.61916,-0.0874698,-0.570524
2.59361,0.00838573,-0.590541
2.55859,0.10273,-0.608665
2.53301,0.196339,-0.631844
2.62095,-0.0908271,-0.675009
2.59956,0.00686237,-0.695484
2.58865,-0.0898691,0.200989
2.5359,0.095101,0.148011
2.58923,-0.0908394,0.106142
2.50709,0.183612,0.0312839
2.53403,0.0930821,-0.0360719
2.50865,0.182757,-0.0595837
2.5341,0.091756,-0.12819
2.51078,0.18278,-0.151855
2.54074,0.0911084,-0.221445
2.52662,0.181894,-0.24521
2.60496,-0.0963533,-0.273014
2.57422,-0.00244019,-0.294388
2.62284,-0.0993526,-0.372338
2.57765,-0.00406303,-0.390064
2.55444,0.0896801,-0.41197
2.62709,-0.101809,-0.471479
2.5842,-0.00556174,-0.488664
2.55148,0.0878819,-0.507776
2.62736,-0.103886,-0.572439
2.60043,-0.0075483,-0.592095
2.5582,0.0869959,-0.608433
2.52933,0.180448,-0.630637
2.62131,-0.106947,-0.675258
2.59859,-0.00908501,-0.695225
2.56203,-0.0115312,0.2677
2.59802,-0.106158,0.201762
2.6036,-0.107342,0.106756
2.50717,0.168158,0.0312715
2.59871,-0.108413,0.0124839
2.51471,0.167693,-0.0597021
2.51584,0.167637,-0.152096
2.54324,0.0755761,-0.221619
2.52769,0.166388,-0.24521
2.61028,-0.112592,-0.273639
2.62713,-0.115662,-0.37304
2.57857,-0.0198867,-0.390213
2.55692,0.0740618,-0.412288
2.62936,-0.118059,-0.472009
2.58804,-0.0214505,-0.489407
2.55393,0.0722802,-0.508166
2.63057,-0.120184,-0.57329
2.60326,-0.0235306,-0.592761
2.55966,0.0713246,-0.608665
2.53329,0.165114,-0.631361
2.62351,-0.123165,-0.676006
2.59945,-0.0250388,-0.695484
2.57583,-0.0273994,0.269155
2.60329,-0.122378,0.202227
2.54686,0.064226,0.148593
2.60788,-0.123552,0.106961
2.51115,0.152953,0.0313088
2.60599,-0.124739,0.0125223
2.54098,0.0621253,-0.0361573
2.51968,0.152502,-0.0597968
2.60267,-0.125445,-0.0825245
2.51881,0.152317,-0.152217
2.54665,0.0600401,-0.221879
2.52966,0.150934,-0.245306
2.61848,-0.129047,-0.274576
2.55079,0.0590242,-0.316265
2.63032,-0.131978,-0.373602
2.58828,-0.0358451,-0.391709
2.55633,0.0583489,-0.412129
2.63547,-0.134542,-0.473244
2.58983,-0.0373584,-0.489779
2.55825,0.0566951,-0.508946
2.52769,0.149843,-0.530004
2.63662,-0.136677,-0.574779
2.60794,-0.0395774,-0.593871
2.56394,0.055702,-0.60959
2.54298,0.150081,-0.633533
2.63721,-0.140031,-0.679745
2.60215,-0.041034,-0.696259
2.58059,-0.0432872,0.269675
2.61145,-0.138826,0.202923
2.5512,0.0486737,0.148826
2.61905,-0.140192,0.107452
2.54492,0.0479763,0.0564736
2.51903,0.137925,0.0313959
2.61416,-0.141212,0.0125654
2.54732,0.0466427,-0.0362426
2.52656,0.137364,-0.0599389
2.61183,-0.141955,-0.0828411
2.52668,0.137238,-0.152638
2.612,-0.144021,-0.177743
2.53849,0.135835,-0.246077
2.63552,-0.146102,-0.276451
2.6354,-0.148449,-0.374445
2.59197,-0.0518048,-0.392308
2.56059,0.0427283,-0.412765
2.64344,-0.151216,-0.474833
2.59545,-0.0533698,-0.490894
2.56247,0.0410598,-0.509726
2.64061,-0.153135,-0.575842
2.57396,0.0401205,-0.611902
2.55451,0.135039,-0.636188
2.6392,-0.156381,-0.680492
2.61054,-0.0571901,-0.698585
2.58127,-0.0591434,0.269779
2.61851,-0.155319,0.203542
2.57538,-0.0594133,0.174941
2.55644,0.0330835,0.149117
2.62213,-0.156498,0.107615
2.57899,-0.0610279,0.0814314
2.52582,0.122757,0.0314706
2.62223,-0.15779,0.0126086
2.52935,0.121955,-0.0599863
2.62787,-0.159004,-0.0833792
2.53146,0.121924,-0.152879
2.628,-0.161083,-0.178895
2.54424,0.120492,-0.246559
2.64333,-0.165172,-0.375709
2.56673,0.0270785,-0.41372
2.64443,-0.167558,-0.475186
2.60391,-0.0695302,-0.492566
2.57052,0.0254135,-0.511287
2.64254,-0.169522,-0.576481
2.62091,-0.0719525,-0.59698
2.58194,0.0243997,-0.613752
2.56111,0.119634,-0.637636
2.64979,-0.173331,-0.683484
2.61883,-0.0734507,-0.700911
2.58781,-0.0751828,0.270506
2.54748,0.0184909,0.241846
2.61652,-0.171318,0.203464
2.58793,-0.0755931,0.175822
2.55859,0.0174105,0.149234
2.58157,-0.0769404,0.081526
2.55132,0.0167821,0.0566067
2.52853,0.107342,0.0314955
2.6272,-0.174274,0.0126374
2.5557,0.015428,-0.0363564
2.53804,0.106769,-0.0601757
2.63582,-0.175724,-0.0836641
2.53615,0.106557,-0.15312
2.63293,-0.177608,-0.179302
2.55289,0.105207,-0.247329
2.64642,-0.179307,-0.277805
2.55407,0.104586,-0.342071
2.60003,-0.0838953,-0.393654
2.5787,0.0113811,-0.41563
2.55565,0.104204,-0.437989
2.64629,-0.183985,-0.475716
2.61031,-0.085732,-0.493867
2.57946,0.00967372,-0.513043
2.64828,-0.186213,-0.57797
2.62529,-0.0881965,-0.59809
2.58594,0.00856968,-0.614677
2.55695,0.10372,-0.63643
2.6564,-0.190139,-0.685478
2.62123,-0.0896172,-0.701687
2.59526,-0.0913398,0.271338
2.5585,0.00287182,0.242885
2.62735,-0.188224,0.204393
2.5954,-0.091753,0.176364
2.56764,0.00171693,0.149758
2.56337,0.00113246,0.0568729
2.53413,0.0920063,0.0315577
2.63505,-0.191041,0.0126806
2.55974,-0.000254094,-0.0364133
2.54165,0.0913019,-0.0602468
2.64367,-0.192547,-0.083949
2.53975,0.0911004,-0.153301
2.64174,-0.194493,-0.17998
2.56927,-0.00249715,-0.223788
2.55349,0.0895407,-0.247329
2.60316,-0.0983513,-0.29791
2.55467,0.0889124,-0.342071
2.61725,-0.10053,-0.396348
2.57773,-0.00443994,-0.41547
2.55624,0.0885204,-0.437989
2.65199,-0.200739,-0.476951
2.6117,-0.101823,-0.494238
2.57849,-0.00615137,-0.512847
2.64903,-0.202608,-0.578395
2.58594,-0.00729749,-0.614677
2.5585,0.0880623,-0.636671
2.66774,-0.207411,-0.688718
2.62352,-0.105816,-0.702462
2.56444,-0.0128568,0.243453
2.63509,-0.205038,0.205089
2.60376,-0.108049,0.176974
2.57359,-0.0140706,0.150107
2.59141,-0.109077,0.0818731
2.57033,-0.0146359,0.0570282
2.54165,0.0766664,0.0316448
2.6438,-0.20799,0.0127286
2.56769,-0.0160102,-0.0365271
2.54216,0.0757049,-0.0602468
2.64941,-0.209316,-0.0841706
2.54624,0.0756931,-0.153662
2.64448,-0.211016,-0.180251
2.6047,-0.113371,-0.202304
2.57817,-0.0183256,-0.224569
2.55896,0.074015,-0.247811
2.60946,-0.114627,-0.298705
2.55913,0.0733492,-0.342601
2.61659,-0.116588,-0.396348
2.58259,-0.0202953,-0.416266
2.56166,0.0729743,-0.438833
2.65365,-0.217249,-0.477481
2.61299,-0.117935,-0.49461
2.66332,-0.220146,-0.581799
2.63765,-0.121032,-0.601198
2.59168,-0.0232167,-0.616065
2.56579,0.072554,-0.63836
2.6722,-0.224262,-0.690214
2.63344,-0.122405,-0.705305
2.56929,-0.0286472,0.243925
2.63577,-0.221369,0.205244
2.60803,-0.12426,0.177312
2.57645,-0.0298963,0.150282
2.57219,-0.0304305,0.0570725
2.54707,0.0611898,0.031707
2.57154,-0.0318145,-0.036584
2.54957,0.0602704,-0.0604125
2.54966,0.0601388,-0.153842
2.65109,-0.227922,-0.180793
2.61491,-0.129895,-0.203155
2.58399,-0.0342238,-0.22509
2.56236,0.0583801,-0.2481
2.61863,-0.131133,-0.299842
2.5625,0.0577122,-0.342999
2.61878,-0.132791,-0.396797
2.59031,-0.0362519,-0.417539
2.56502,0.0573209,-0.439339
2.66011,-0.234218,-0.478893
2.62301,-0.13452,-0.496654
2.66776,-0.237003,-0.583075
2.59733,-0.0392066,-0.617452
2.572,0.0569382,-0.639808
2.67656,-0.241176,-0.691709
2.64229,-0.139069,-0.707889
2.61441,-0.0405142,-0.727339
2.64229,-0.237044,0.40074
2.58001,-0.0446008,0.244965
2.6433,-0.238344,0.20594
2.61319,-0.140582,0.177719
2.58121,-0.0457931,0.150573
2.61583,-0.142281,0.0826934
2.57895,-0.0463383,0.0572278
2.55139,0.0456317,0.0317568
2.5763,-0.0476851,-0.0366551
2.55189,0.0446604,-0.0604599
2.60983,-0.144101,-0.10722
2.54998,0.0444933,-0.153842
2.66255,-0.245375,-0.181674
2.626,-0.146604,-0.204083
2.5917,-0.0502326,-0.225784
2.56565,0.0427064,-0.248389
2.6267,-0.147701,-0.300864
2.56677,0.0420529,-0.34353
2.62779,-0.149418,-0.398293
2.60386,-0.0524233,-0.419767
2.56433,0.0415652,-0.43917
2.62409,-0.150724,-0.497025
2.59264,-0.0539177,-0.515774
2.67112,-0.25383,-0.584139
2.60288,-0.0552667,-0.61884
2.57716,0.0412332,-0.641015
2.67503,-0.257594,-0.691709
2.65006,-0.155789,-0.710216
2.61989,-0.0566801,-0.728947
2.58268,-0.0605005,0.245248
2.54656,0.0320055,0.217081
2.65171,-0.255515,0.206714
2.62125,-0.157151,0.178329
2.58686,-0.0617732,0.150922
2.61391,-0.158268,0.0826618
2.58261,-0.062258,0.0573165
2.55363,0.0299992,0.0317817
2.58495,-0.0637138,-0.0367831
2.55812,0.0290696,-0.060602
2.55419,0.0288913,-0.154083
2.66795,-0.262391,-0.182149
2.62705,-0.162837,-0.204238
2.59931,-0.0663374,-0.226478
2.56686,0.0269735,-0.248486
2.63269,-0.164248,-0.301659
2.56599,0.0262925,-0.343397
2.63077,-0.165788,-0.398891
2.59954,-0.0682956,-0.41913
2.57144,0.0258995,-0.440352
2.63097,-0.167321,-0.498512
2.56919,0.0260114,-0.537789
2.67534,-0.270805,-0.585415
2.60832,-0.0713963,-0.620227
2.58512,0.0254958,-0.642946
2.68304,-0.27499,-0.694202
2.65484,-0.172422,-0.711766
2.62431,-0.0728882,-0.730287
2.59519,-0.0767289,0.246477
2.55169,0.0164115,0.217506
2.59542,-0.0779143,0.151446
2.56889,0.015446,0.125552
2.62186,-0.174902,0.0829458
2.58318,-0.0781337,0.0573387
2.55576,0.0143411,0.0318066
2.66675,-0.275793,0.0128678
2.58651,-0.0796351,-0.0368116
2.56025,0.0133832,-0.0606494
2.62998,-0.179225,-0.204547
2.60383,-0.0824428,-0.226912
2.56897,0.0112317,-0.248678
2.63956,-0.180942,-0.302568
2.5671,0.0105515,-0.34353
2.63661,-0.182404,-0.399939
2.60401,-0.0844047,-0.419926
2.57648,0.0101403,-0.441196
2.68667,-0.286481,-0.484542
2.60551,-0.0861833,-0.518505
2.57615,0.0102739,-0.539223
2.67557,-0.287424,-0.58584
2.65917,-0.18751,-0.60697
2.61464,-0.0876274,-0.621846
2.59397,0.00966588,-0.645118
2.68996,-0.29239,-0.696445
2.65951,-0.18912,-0.713317
2.62959,-0.0891852,-0.731895
2.59865,-0.0927933,0.246855
2.5637,0.00075787,0.218525
2.60487,-0.0941988,0.152028
2.63569,-0.192076,0.083419
2.59364,-0.0943822,0.0575827
2.5608,-0.00134363,0.0318688
2.67196,-0.292914,0.0129014
2.59297,-0.0957625,-0.0369112
2.56328,-0.00232916,-0.0607204
2.62766,-0.193658,-0.108081
2.59786,-0.0973051,-0.131421
2.68138,-0.296978,-0.183301
2.63778,-0.196023,-0.205244
2.60925,-0.0986439,-0.227433
2.57795,-0.00454718,-0.249545
2.64236,-0.197431,-0.303023
2.58198,-0.00523025,-0.345519
2.65023,-0.199693,-0.402183
2.61429,-0.100799,-0.421676
2.58043,-0.0056775,-0.441871
2.69073,-0.303623,-0.485601
2.64341,-0.200711,-0.501299
2.60885,-0.102323,-0.519285
2.68347,-0.304939,-0.587968
2.66283,-0.204195,-0.60808
2.61308,-0.10363,-0.621615
2.59106,-0.00624356,-0.644394
2.69293,-0.309442,-0.697692
2.66601,-0.20603,-0.715384
2.57462,-0.0150367,0.219459
2.66835,-0.306786,0.208416
2.60301,-0.11072,0.0578045
2.56474,-0.017083,0.0319185
2.62873,-0.208299,-0.0125646
2.60332,-0.112144,-0.0370676
2.57421,-0.0181346,-0.0609809
2.63439,-0.210413,-0.108409
2.6032,-0.113505,-0.131724
2.68645,-0.314236,-0.183776
2.64944,-0.213245,-0.206249
2.62054,-0.115177,-0.228474
2.58384,-0.0204122,-0.250123
2.58586,-0.0211052,-0.34605
2.6529,-0.216272,-0.402781
2.62053,-0.117147,-0.42279
2.59119,-0.021601,-0.443727
2.64898,-0.217489,-0.502599
2.61797,-0.118773,-0.521236
2.68737,-0.322096,-0.589244
2.67027,-0.221255,-0.610078
2.62406,-0.120196,-0.62439
2.59292,-0.0221585,-0.644877
2.69867,-0.326892,-0.699686
2.66951,-0.222787,-0.716677
2.57647,-0.0308579,0.219629
2.58572,-0.0320519,0.126382
2.60627,-0.126884,0.0578932
2.56859,-0.0328709,0.0319683
2.63537,-0.225106,-0.0126027
2.60159,-0.128067,-0.0370534
2.64201,-0.227345,-0.108778
2.60844,-0.129773,-0.132027
2.65603,-0.230186,-0.206868
2.62774,-0.131653,-0.229168
2.59063,-0.0363638,-0.250798
2.66251,-0.231824,-0.305636
2.61265,-0.132039,-0.324261
2.58965,-0.0370281,-0.34658
2.66137,-0.23341,-0.404278
2.62864,-0.133676,-0.424222
2.59791,-0.0375997,-0.444909
2.65152,-0.234085,-0.503343
2.62307,-0.135137,-0.522406
2.69407,-0.33968,-0.591158
2.63785,-0.137052,-0.627859
2.59856,-0.0381534,-0.646325
2.70238,-0.344179,-0.701181
2.67386,-0.23968,-0.718227
2.61042,-0.141364,0.248178
2.5842,-0.0468106,0.220308
2.58347,-0.0478799,0.126284
2.65162,-0.242378,0.08405
2.61143,-0.143202,0.0580263
2.57934,-0.048839,0.0321052
2.6439,-0.242184,-0.0126504
2.60674,-0.144359,-0.0371387
2.5778,-0.0498,-0.0610756
2.65051,-0.244469,-0.109188
2.62155,-0.146556,-0.132734
2.66152,-0.247124,-0.20741
2.63285,-0.14811,-0.229689
2.59733,-0.0523995,-0.251472
2.66202,-0.248249,-0.30575
2.61872,-0.148461,-0.325122
2.60027,-0.0531399,-0.348039
2.67268,-0.250937,-0.406223
2.62777,-0.149802,-0.424222
2.60354,-0.0536614,-0.445922
2.66177,-0.251459,-0.505572
2.62709,-0.151512,-0.523381
2.69968,-0.357229,-0.59286
2.64861,-0.153912,-0.630634
2.60312,-0.0541981,-0.647532
2.71078,-0.362164,-0.703923
2.68484,-0.25728,-0.721587
2.64332,-0.25477,0.37558
2.58885,-0.0627869,0.220733
2.58812,-0.0638541,0.126528
2.62348,-0.160014,0.0583147
2.58299,-0.0647649,0.032155
2.65331,-0.259473,-0.0127028
2.62078,-0.161272,-0.0373521
2.64697,-0.260532,-0.109106
2.62659,-0.16301,-0.133037
2.66491,-0.263941,-0.207797
2.63388,-0.164386,-0.229862
2.59895,-0.0683878,-0.251665
2.67133,-0.26566,-0.307
2.62668,-0.165087,-0.326229
2.60683,-0.0692782,-0.348968
2.63566,-0.166483,-0.425654
2.60514,-0.0696881,-0.446259
2.66995,-0.268771,-0.50743
2.63786,-0.168378,-0.525722
2.69937,-0.374056,-0.593286
2.68709,-0.272533,-0.614962
2.64859,-0.170223,-0.630865
2.60468,-0.0702219,-0.648014
2.71042,-0.379059,-0.704422
2.59439,-0.0788522,0.221243
2.62843,-0.17651,0.0584478
2.58554,-0.0807062,0.0321923
2.65366,-0.275955,-0.0127123
2.62672,-0.177823,-0.0374517
2.65526,-0.277808,-0.109515
2.62853,-0.179327,-0.133188
2.70855,-0.384417,-0.185877
2.66721,-0.280705,-0.208106
2.6368,-0.180817,-0.230209
2.60345,-0.0844948,-0.252147
2.67557,-0.282672,-0.307681
2.63155,-0.181611,-0.326968
2.61428,-0.0855314,-0.350029
2.65134,-0.183813,-0.428359
2.61353,-0.0859632,-0.447778
2.67411,-0.285774,-0.508545
2.64754,-0.185314,-0.527868
2.70766,-0.392152,-0.595626
2.69215,-0.289746,-0.616516
2.64846,-0.18654,-0.631096
2.61196,-0.0864595,-0.649945
2.71667,-0.396942,-0.706665
2.69685,-0.29187,-0.725722
2.59286,-0.0947332,0.221158
2.60311,-0.0961997,0.127309
2.67055,-0.293767,0.0848073
2.63428,-0.193146,0.058603
2.59699,-0.0970172,0.0323416
2.66484,-0.293657,-0.0127742
2.62957,-0.194231,-0.0375086
2.66542,-0.295416,-0.110007
2.63933,-0.196341,-0.133794
2.59642,-0.0981306,-0.156733
2.7091,-0.401467,-0.186081
2.67832,-0.298501,-0.209112
2.64458,-0.197661,-0.23099
2.60786,-0.10066,-0.252629
2.67971,-0.299746,-0.308363
2.63831,-0.198349,-0.327952
2.62064,-0.10184,-0.350957
2.6541,-0.200375,-0.428996
2.62575,-0.102498,-0.449972
2.7264,-0.409771,-0.494427
2.68012,-0.30306,-0.510031
2.65613,-0.2023,-0.529819
2.711,-0.409635,-0.596902
2.69226,-0.30648,-0.61696
2.65406,-0.203307,-0.632715
2.72376,-0.415063,-0.709158
2.70077,-0.309072,-0.727273
2.60318,-0.111108,0.222092
2.60846,-0.112428,0.127602
2.67069,-0.310379,0.0848704
2.60533,-0.113341,0.0324536
2.67292,-0.311159,-0.0128219
2.64029,-0.21132,-0.0376793
2.66952,-0.312462,-0.110253
2.64902,-0.213415,-0.13435
2.60176,-0.114323,-0.157094
2.7125,-0.418996,-0.186487
2.65226,-0.214607,-0.231771
2.64495,-0.215178,-0.328936
2.65577,-0.216897,-0.429473
2.68504,-0.320314,-0.511332
2.65973,-0.218996,-0.530794
2.71906,-0.427933,-0.599242
2.69517,-0.323574,-0.61807
2.66246,-0.220391,-0.635028
2.61943,-0.118902,-0.652117
2.73742,-0.434348,-0.713395
2.70649,-0.326563,-0.729341
2.60345,-0.127128,0.222177
2.67964,-0.328096,0.0852174
2.60759,-0.129474,0.032491
2.71658,-0.433597,0.0132038
2.67592,-0.328162,-0.0128457
2.67251,-0.329448,-0.110458
2.65264,-0.230096,-0.134602
2.71875,-0.437057,-0.187097
2.69028,-0.333307,-0.21035
2.66181,-0.231828,-0.232726
2.66336,-0.233133,-0.331396
2.66619,-0.234226,-0.431383
2.63512,-0.135268,-0.451829
2.73865,-0.446045,-0.497604
2.6957,-0.338374,-0.513748
2.66419,-0.235831,-0.531965
2.73181,-0.447134,-0.602646
2.70861,-0.34206,-0.621622
2.66881,-0.237413,-0.636878
2.62834,-0.135472,-0.654531
2.73757,-0.451609,-0.714143
2.70923,-0.343772,-0.730633
2.61058,-0.143537,0.222856
2.68749,-0.345808,0.0855329
2.61673,-0.146029,0.0326154
2.67683,-0.344958,-0.01286
2.65841,-0.245636,-0.037978
2.61015,-0.146667,-0.0619282
2.68034,-0.347123,-0.110868
2.65714,-0.246923,-0.134905
2.62109,-0.147419,-0.158358
2.73077,-0.456197,-0.188114
2.6643,-0.248526,-0.233073
2.70231,-0.35275,-0.311658
2.66583,-0.249842,-0.331888
2.74265,-0.46399,-0.498839
2.70137,-0.355935,-0.515234
2.66953,-0.252821,-0.53333
2.62666,-0.15086,-0.550696
2.73479,-0.46487,-0.603922
2.67892,-0.25489,-0.639653
2.63618,-0.152099,-0.656703
2.73665,-0.468725,-0.714642
2.71569,-0.361536,-0.732959
2.62258,-0.160343,0.22396
2.68433,-0.362158,0.0855014
2.62975,-0.162947,0.0327896
2.73077,-0.470296,0.0132998
2.68359,-0.362582,-0.0129029
2.66282,-0.262532,-0.0380633
2.62616,-0.163737,-0.0623308
2.69103,-0.36531,-0.111401
2.65955,-0.263616,-0.135107
2.63209,-0.164245,-0.159081
2.66967,-0.265559,-0.23368
2.67313,-0.267082,-0.332995
2.71038,-0.372466,-0.414003
2.64802,-0.168534,-0.454361
2.70205,-0.372907,-0.515791
2.67378,-0.269787,-0.534501
2.6335,-0.167471,-0.552335
2.74055,-0.483168,-0.605836
2.7158,-0.376882,-0.624287
2.68602,-0.272206,-0.641734
2.64101,-0.168643,-0.658151
2.72012,-0.379126,-0.734768
2.69987,-0.381136,0.0860693
2.6307,-0.179216,0.0328145
2.73374,-0.488097,0.0133286
2.69319,-0.380721,-0.0129601
2.63708,-0.180668,-0.062615
2.69666,-0.382939,-0.111729
2.66285,-0.280453,-0.135359
2.63999,-0.181007,-0.159623
2.7397,-0.49232,-0.189131
2.70738,-0.386149,-0.212206
2.67492,-0.282668,-0.234288
2.67638,-0.284003,-0.33361
2.71881,-0.390636,-0.415649
2.64989,-0.184984,-0.454867
2.75322,-0.500605,-0.50184
2.70457,-0.390181,-0.51672
2.67988,-0.287023,-0.536061
2.7433,-0.501028,-0.607113
2.71923,-0.394378,-0.625619
2.68914,-0.289202,-0.64289
2.6438,-0.185116,-0.659116
2.71869,-0.395948,-0.735027
2.70342,-0.39857,0.0862586
2.63553,-0.195799,0.0328892
2.73954,-0.506498,0.0133718
2.69674,-0.398115,-0.0129887
2.67629,-0.297064,-0.0383051
2.69623,-0.399771,-0.111811
2.66902,-0.297672,-0.135763
2.6448,-0.197648,-0.159984
2.74447,-0.510581,-0.189673
2.71384,-0.404075,-0.212903
2.71993,-0.406098,-0.314498
2.68149,-0.301195,-0.334471
2.65853,-0.201987,-0.456555
2.75396,-0.518217,-0.502546
2.71379,-0.408524,-0.51895
2.68587,-0.304345,-0.537622
2.64491,-0.200813,-0.555203
2.74882,-0.519484,-0.609027
2.72158,-0.411785,-0.626729
2.69118,-0.306136,-0.643815
2.65035,-0.201924,-0.661047
2.72003,-0.413203,-0.73606
2.70685,-0.416061,0.0864479
2.63927,-0.212368,0.0329514
2.74817,-0.525552,0.0134294
2.70512,-0.416328,-0.0130411
2.67938,-0.314062,-0.0383762
2.70459,-0.417986,-0.112261
2.67508,-0.314978,-0.136167
2.64951,-0.214356,-0.160345
2.74913,-0.52892,-0.190216
2.7182,-0.42179,-0.213444
2.75594,-0.531079,-0.293951
2.71935,-0.423085,-0.314726
2.6855,-0.318343,-0.335209
2.72944,-0.426413,-0.418043
2.66314,-0.21878,-0.457568
2.75363,-0.535669,-0.503076
2.719,-0.426385,-0.520437
2.68687,-0.321169,-0.538207
2.6485,-0.217438,-0.556227
2.75996,-0.539151,-0.612218
2.73152,-0.43045,-0.629615
2.69794,-0.323686,-0.645897
2.66647,-0.219616,-0.665391
2.72985,-0.431847,-0.73942
2.71016,-0.43361,0.0866372
2.74293,-0.542017,0.0134198
2.70646,-0.433551,-0.0130601
2.68634,-0.331599,-0.0385042
2.75317,-0.54499,-0.0888872
2.71085,-0.436001,-0.11263
2.67904,-0.332123,-0.13647
2.74779,-0.546167,-0.190351
2.72344,-0.439732,-0.214063
2.76141,-0.549727,-0.294888
2.7216,-0.440557,-0.315294
2.69138,-0.335798,-0.336193
2.72873,-0.443469,-0.418342
2.67058,-0.235897,-0.459087
2.72506,-0.444484,-0.522109
2.69555,-0.338995,-0.540353
2.66369,-0.235148,-0.55971
2.76331,-0.557428,-0.613707
2.73652,-0.448463,-0.631391
2.70073,-0.340844,-0.647053
2.7405,-0.450784,-0.743038
2.7183,-0.452035,0.0869842
2.74151,-0.559237,0.0134294
2.71559,-0.45212,-0.0131173
2.76251,-0.564474,-0.0892987
2.71798,-0.454273,-0.11304
2.68587,-0.349715,-0.136924
2.66457,-0.248522,-0.161429
2.73052,-0.458084,-0.214837
2.77065,-0.569263,-0.296242
2.73159,-0.45939,-0.316771
2.6932,-0.352821,-0.336686
2.73375,-0.461521,-0.419539
2.73487,-0.46333,-0.524524
2.69926,-0.356298,-0.541523
2.67097,-0.252316,-0.561554
2.74237,-0.466718,-0.633389
2.70823,-0.358686,-0.649365
2.68193,-0.25406,-0.669977
2.72088,-0.361472,-0.763518
2.7204,-0.469555,0.087142
2.69277,-0.364511,0.0602888
2.74781,-0.578107,0.0134774
2.72459,-0.470817,-0.0131745
2.72302,-0.472308,-0.113368
2.69159,-0.367269,-0.137328
2.66896,-0.265459,-0.161791
2.73355,-0.475855,-0.215301
2.76905,-0.586664,-0.296451
2.74242,-0.478533,-0.318362
2.69688,-0.370149,-0.337424
2.73769,-0.47948,-0.420586
2.68121,-0.270034,-0.46145
2.73875,-0.481293,-0.525825
2.70479,-0.373928,-0.543084
2.67327,-0.269092,-0.562373
2.74522,-0.484553,-0.634721
2.70984,-0.375831,-0.65029
2.68322,-0.270804,-0.670701
2.72624,-0.379222,-0.765662
2.72435,-0.487471,0.0873628
2.69939,-0.382288,0.0604885
2.72263,-0.487702,-0.0131792
2.70255,-0.384226,-0.0388314
2.724,-0.489714,-0.113532
2.70115,-0.385471,-0.137934
2.66926,-0.28204,-0.161911
2.77334,-0.604514,-0.192859
2.73548,-0.493504,-0.215688
2.7654,-0.603644,-0.296451
2.73552,-0.494644,-0.317907
2.70733,-0.388523,-0.339023
2.73858,-0.496975,-0.421185
2.7858,-0.613242,-0.511549
2.70924,-0.3915,-0.544449
2.67351,-0.285698,-0.562783
2.75178,-0.503142,-0.636941
2.72096,-0.394405,-0.653528
2.69309,-0.288503,-0.673597
2.72577,-0.39622,-0.766198
2.72819,-0.505452,0.0875837
2.70194,-0.399575,0.0605994
2.72254,-0.504946,-0.0131935
2.70805,-0.401976,-0.0389452
2.73273,-0.508613,-0.114024
2.71059,-0.403803,-0.13854
2.67939,-0.299745,-0.162633
2.74123,-0.511926,-0.216384
2.71648,-0.40565,-0.239234
2.78105,-0.624962,-0.298534
2.73927,-0.512699,-0.318702
2.71275,-0.406304,-0.340007
2.796,-0.630936,-0.406608
2.74617,-0.515777,-0.422831
2.72296,-0.408708,-0.443794
2.79446,-0.633152,-0.513844
2.72133,-0.410309,-0.547375
2.68046,-0.303087,-0.564627
2.76014,-0.522192,-0.639605
2.7233,-0.411821,-0.654684
2.69127,-0.305022,-0.673597
2.729,-0.413804,-0.767806
2.71031,-0.417822,0.0608433
2.72921,-0.523526,-0.0132412
2.71146,-0.419502,-0.0390305
2.78094,-0.639717,-0.090375
2.7433,-0.528015,-0.114598
2.71201,-0.42104,-0.138742
2.68344,-0.316882,-0.162995
2.78224,-0.642317,-0.194012
2.74684,-0.530438,-0.21708
2.72083,-0.423383,-0.239841
2.74583,-0.531385,-0.319839
2.71413,-0.423553,-0.340499
2.75072,-0.534126,-0.424028
2.72528,-0.426171,-0.44459
2.79627,-0.651627,-0.514903
2.72361,-0.42776,-0.548351
2.68341,-0.320108,-0.565651
2.76167,-0.540054,-0.640715
2.72168,-0.428674,-0.654916
2.69512,-0.322221,-0.675045
2.73593,-0.432044,-0.770486
2.71757,-0.436028,0.0610652
2.71871,-0.437721,-0.0391728
2.78085,-0.657689,-0.0905016
2.71529,-0.438629,-0.139045
2.68541,-0.333834,-0.163236
2.7494,-0.548452,-0.217544
2.72408,-0.441025,-0.240362
2.79156,-0.663412,-0.300513
2.75518,-0.550755,-0.321316
2.7154,-0.440835,-0.340991
2.75515,-0.552549,-0.425225
2.72651,-0.443519,-0.445226
2.79701,-0.669918,-0.515785
2.73158,-0.446203,-0.550497
2.68722,-0.337298,-0.566881
2.76117,-0.557568,-0.641381
2.7008,-0.339721,-0.676976
2.71597,-0.454394,-0.0391728
2.71747,-0.456108,-0.139297
2.69717,-0.352114,-0.164079
2.75673,-0.567524,-0.218395
2.72722,-0.458723,-0.240882
2.75953,-0.569256,-0.322225
2.71851,-0.458478,-0.341729
2.76913,-0.57305,-0.427918
2.73153,-0.461556,-0.446499
2.73556,-0.464104,-0.551862
2.69675,-0.355315,-0.569339
2.70347,-0.356921,-0.678182
2.72974,-0.472413,0.0614644
2.72397,-0.472932,-0.0393292
2.75266,-0.582558,-0.115417
2.72348,-0.474315,-0.139752
2.70089,-0.369469,-0.16444
2.77563,-0.589189,-0.220175
2.73613,-0.477503,-0.241924
2.81215,-0.704873,-0.303638
2.77154,-0.589484,-0.324043
2.72542,-0.47686,-0.342959
2.7733,-0.591681,-0.429115
2.73642,-0.479671,-0.447772
2.73653,-0.48156,-0.552642
2.70033,-0.372658,-0.570568
2.73632,-0.482756,-0.660466
2.707,-0.3743,-0.679631
2.69518,-0.382093,0.232029
2.7327,-0.490213,0.0615975
2.72692,-0.4907,-0.0394146
2.70175,-0.386344,-0.0646516
2.72838,-0.492437,-0.140156
2.70253,-0.3866,-0.164681
2.74295,-0.496056,-0.242791
2.77272,-0.607542,-0.324611
2.82135,-0.728284,-0.41335
2.77541,-0.60996,-0.430013
2.73829,-0.497335,-0.448568
2.70478,-0.390198,-0.572002
2.75054,-0.502685,-0.664628
2.71618,-0.392569,-0.682527
2.73553,-0.508066,0.0617306
2.73172,-0.508888,-0.0395284
2.70625,-0.403948,-0.0648174
2.76383,-0.620452,-0.116196
2.70603,-0.404059,-0.165042
2.82297,-0.743624,-0.19835
2.74671,-0.51416,-0.243399
2.82927,-0.748875,-0.415176
2.78608,-0.630251,-0.432257
2.72126,-0.409782,-0.471239
2.74583,-0.518014,-0.555764
2.75027,-0.520094,-0.665322
2.72044,-0.410241,-0.684216
2.73433,-0.525219,0.061775
2.73837,-0.527531,-0.0396706
2.71064,-0.421621,-0.0649832
2.73684,-0.528722,-0.140913
2.71336,-0.42219,-0.165644
2.82028,-0.761452,-0.198486
2.79345,-0.646928,-0.222496
2.75524,-0.533276,-0.24444
2.78344,-0.645788,-0.326769
2.838,-0.76985,-0.417142
2.79661,-0.650695,-0.434501
2.75039,-0.534478,-0.451591
2.72162,-0.42693,-0.471745
2.72746,-0.428431,-0.68663
2.71661,-0.438569,0.0342456
2.74194,-0.54569,-0.0397702
2.72083,-0.440322,-0.065291
2.77642,-0.659169,-0.117057
2.71564,-0.439629,-0.165945
2.81844,-0.77954,-0.198689
2.80107,-0.666827,-0.223424
2.75973,-0.551734,-0.245134
2.80166,-0.668156,-0.329383
2.73227,-0.445306,-0.370455
2.80122,-0.669912,-0.435848
2.75771,-0.553481,-0.453342
2.72479,-0.444574,-0.472758
2.72669,-0.445471,-0.687112
2.72571,-0.457215,0.0343949
2.71216,-0.456013,-0.0651489
2.72274,-0.457939,-0.166547
2.79692,-0.684001,-0.223424
2.76898,-0.571274,-0.246262
2.80619,-0.687462,-0.330405
2.80282,-0.688503,-0.436746
2.76296,-0.572194,-0.454774
2.72881,-0.462438,-0.473939
2.71719,-0.474021,-0.0653384
2.76181,-0.586478,-0.142731
2.72775,-0.476009,-0.167029
2.80621,-0.704549,-0.224507
2.77224,-0.589704,-0.24687
2.81252,-0.707333,-0.331655
2.74613,-0.482231,-0.373108
2.80142,-0.706413,-0.437194
2.77291,-0.592022,-0.457002
2.74339,-0.482244,-0.476977
2.72899,-0.493352,-0.0656936
2.76206,-0.604266,-0.142933
2.73263,-0.494159,-0.167511
2.81245,-0.72449,-0.225358
2.77636,-0.608409,-0.247564
2.81582,-0.726562,-0.332564
2.74799,-0.499958,-0.373771
2.80851,-0.72656,-0.43899
2.77501,-0.610298,-0.457956
2.74038,-0.499068,-0.476977
2.74238,-0.512081,0.0347184
2.7377,-0.512294,-0.0659778
2.7374,-0.512386,-0.167992
2.82241,-0.745553,-0.226519
2.78229,-0.627625,-0.248432
2.75561,-0.518086,-0.271417
2.82283,-0.746876,-0.333927
2.75364,-0.518461,-0.374965
2.81738,-0.747328,-0.441085
2.74599,-0.517516,-0.478497
2.74214,-0.529467,0.0347557
2.74628,-0.531361,-0.066262
2.77682,-0.6433,-0.144094
2.74204,-0.53069,-0.168474
2.82934,-0.765983,-0.227447
2.78906,-0.647162,-0.249386
2.83354,-0.768343,-0.335745
2.75916,-0.537052,-0.376159
2.78847,-0.64923,-0.461457
2.73687,-0.545891,0.0347309
2.74689,-0.548986,-0.0663567
2.78836,-0.664028,-0.144902
2.8265,-0.783862,-0.227602
2.79473,-0.666575,-0.250254
2.76466,-0.554997,-0.272958
2.84026,-0.788905,-0.337109
2.78951,-0.666615,-0.355506
2.7597,-0.554753,-0.376689
2.79499,-0.668855,-0.463207
2.75424,-0.568052,-0.0666172
2.78812,-0.682074,-0.145104
2.75292,-0.567929,-0.169558
2.82548,-0.80228,-0.227911
2.80704,-0.68774,-0.251729
2.7651,-0.572758,-0.273344
2.84301,-0.808492,-0.338018
2.79404,-0.685848,-0.356614
2.7708,-0.574695,-0.378679
2.79755,-0.687642,-0.464321
2.76398,-0.573783,-0.483391
2.75657,-0.586188,-0.0667593
2.79453,-0.701845,-0.145659
2.7611,-0.587302,-0.17028
2.81532,-0.70811,-0.252857
2.76446,-0.590337,-0.273633
2.77207,-0.592722,-0.379342
2.7768,-0.594238,-0.48626
2.75585,-0.603733,-0.0668303
2.76232,-0.605301,-0.170582
2.8225,-0.728359,-0.253898
2.77439,-0.610282,-0.274982
2.77516,-0.611212,-0.38027
2.77406,-0.611478,-0.486429
2.77024,-0.624875,-0.171304
2.82953,-0.748721,-0.25494
2.77642,-0.628612,-0.27556
2.81164,-0.745298,-0.36055
2.78682,-0.631734,-0.382392
2.78467,-0.631758,-0.488961
2.77705,-0.644342,-0.171966
2.83354,-0.768416,-0.255721
2.78996,-0.6497,-0.277294
2.8185,-0.765658,-0.362026
2.79062,-0.650622,-0.383454
2.79322,-0.651745,-0.491155
2.79343,-0.666233,-0.173231
2.83261,-0.786854,-0.256068
2.80335,-0.670977,-0.279028
2.82522,-0.78613,-0.363502
2.80681,-0.672584,-0.386239
2.79109,-0.669331,-0.491493
2.80286,-0.686686,-0.174074
2.83252,-0.805582,-0.256502
2.80691,-0.690066,-0.279799
2.7986,-0.703871,-0.174074
2.80648,-0.70825,-0.280185
2.80582,-0.724023,-0.174796
2.81943,-0.729948,-0.281919
2.82082,-0.731097,-0.389953
2.80712,-0.742757,-0.175158
2.82933,-0.751064,-0.283364
2.82395,-0.750428,-0.391014
2.83043,-0.769978,-0.283942
2.83076,-0.770866,-0.392605
2.84195,-0.791873,-0.28558
2.84661,-0.812026,-0.286544
