2.79689,0.384619,-0.164417
2.71494,0.648293,0.162557
2.74967,0.516077,0.11398
2.70105,0.644976,-0.129357
2.74674,0.515528,0.228146
2.66316,0.775232,-0.113003
2.71492,0.648287,-0.0649507
2.6715,0.767555,-0.0485177
2.74471,0.505234,-0.0812208
2.70622,0.636233,0
2.79881,0.374933,-0.0328744
2.7473,0.505712,-0.355571
2.66417,0.76545,0.0161106
2.75762,0.507612,-0.0162966
2.79872,0.374922,-0.263589
2.72106,0.639722,0.0650437
2.80277,0.375464,0.032921
2.70351,0.635597,-0.194202
2.75637,0.507381,-0.228797
2.67077,0.767347,0.0808717
2.76118,0.508267,0.0490064
2.65876,0.763895,-0.17729
2.79426,0.374324,-0.164185
2.7133,0.637899,0.162324
2.75931,0.507923,0.114306
2.71106,0.637373,-0.129729
2.66201,0.764828,-0.112841
2.70548,0.636061,-0.0646715
2.67031,0.757133,-0.0484479
2.75432,0.49707,-0.0814535
2.70842,0.626782,0
2.8001,0.36516,-0.0328744
2.74905,0.496119,-0.355571
2.66683,0.756145,0.0161106
2.75544,0.497272,-0.0162734
2.70059,0.62497,-0.298587
2.79212,0.364119,-0.262846
2.71938,0.629317,0.0649507
2.80803,0.366195,0.0329675
2.70571,0.626155,-0.194202
2.76205,0.498464,-0.229122
2.67344,0.758019,0.0808717
2.66525,0.755698,-0.177546
2.79951,0.365084,-0.164417
2.72329,0.630224,0.162789
2.7532,0.496868,0.11398
2.70938,0.627004,-0.129543
2.75812,0.497755,0.228797
2.66851,0.756621,-0.113003
2.71158,0.627514,-0.0647646
2.67679,0.748884,-0.0485177
2.74229,0.485019,-0.556973
2.80532,0.355886,-0.032921
2.75077,0.486519,-0.355571
2.76504,0.489043,-0.0163199
2.79732,0.354871,-0.263218
2.72546,0.620708,0.0650437
2.80136,0.355383,0.0328744
2.70788,0.616706,-0.194202
2.76377,0.488818,-0.229122
2.67992,0.749758,0.080988
2.76466,0.488977,0.0490064
2.66788,0.746389,-0.177546
2.79681,0.354806,-0.164185
2.72548,0.620713,0.162789
2.75886,0.48795,0.114143
2.71545,0.618429,-0.129729
2.75984,0.488124,0.228797
2.67113,0.747301,-0.113003
2.70986,0.617156,-0.0646715
2.67553,0.738474,-0.0484479
2.71273,0.60786,0
2.79861,0.345115,-0.0328279
2.75245,0.476916,-0.355571
2.67975,0.739638,0.0161571
2.76673,0.47939,-0.0163199
2.79459,0.344619,-0.262846
2.7198,0.609444,0.0648576
2.80655,0.346094,0.032921
2.76546,0.47917,-0.229122
2.67481,0.738274,0.0807553
2.76635,0.479325,0.0490064
2.67431,0.738136,-0.177802
2.80199,0.345532,-0.164417
2.73152,0.61207,0.163022
2.76448,0.479001,0.114306
2.70979,0.607201,-0.129357
2.76692,0.479423,-0.147169
2.6781,0.729129,-0.0484479
2.80377,0.335819,-0.0328744
2.7541,0.467305,-0.355571
2.6746,0.728177,0.0161106
2.76838,0.469729,-0.0163199
2.80368,0.335809,-0.263589
2.72582,0.600806,0.0649507
2.80774,0.336294,0.032921
2.76711,0.469513,-0.229122
2.67737,0.728931,0.0807553
2.76407,0.468996,0.0489365
2.81111,0.336698,-0.164882
2.73364,0.602531,0.163022
2.77008,0.470016,0.114469
2.7197,0.599458,-0.129729
2.76858,0.469761,-0.147169
2.75925,0.468179,0.228471
2.67243,0.727586,-0.112841
2.67676,0.71874,-0.0483781
2.75882,0.458205,-0.559327
2.80492,0.32603,-0.0328744
2.75963,0.458339,-0.356076
2.68099,0.719874,0.0161339
2.77001,0.460063,-0.0163199
2.81275,0.32694,-0.264333
2.73571,0.592983,0.0651368
2.8089,0.326492,0.032921
2.76874,0.459852,-0.229122
2.6799,0.719582,0.0807553
2.77358,0.460656,0.0490762
2.67554,0.718413,-0.177546
2.8083,0.326423,-0.16465
2.73183,0.59214,0.162789
2.77564,0.460999,0.114632
2.72178,0.589962,-0.129729
2.7648,0.459199,0.228797
2.68267,0.720326,-0.113166
2.73181,0.592136,-0.0650437
2.68312,0.710415,-0.0484479
2.76041,0.448572,-0.559327
2.72286,0.580252,0
2.81002,0.316684,-0.032921
2.76121,0.448702,-0.356076
2.68348,0.710511,0.0161339
2.7716,0.45039,-0.0163199
2.80596,0.316227,-0.263589
2.73777,0.583429,0.0651368
2.81399,0.317132,0.0329675
2.72403,0.580502,-0.19476
2.77426,0.450823,-0.229448
2.68626,0.711245,0.0808717
2.77517,0.450971,0.0490762
2.68189,0.71009,-0.177802
2.81339,0.317065,-0.164882
2.73388,0.5826,0.162789
2.76935,0.450025,0.114306
2.71991,0.579624,-0.129543
2.77032,0.450184,0.229122
2.68517,0.710957,-0.113166
2.68945,0.702054,-0.0485177
2.76196,0.438933,-0.559327
2.72487,0.570743,0
2.81508,0.307307,-0.0329675
2.76668,0.439683,-0.356581
2.68982,0.702149,0.0161571
2.78105,0.441968,-0.0163664
2.72087,0.569907,-0.299443
2.81497,0.307294,-0.264333
2.73979,0.573868,0.0651368
2.81508,0.307307,0.0329675
2.72604,0.570989,-0.19476
2.70033,0.704893,0.0812208
2.78463,0.442536,0.0492158
2.68436,0.700723,-0.177802
2.82242,0.308108,-0.165347
2.7398,0.573871,0.163022
2.78274,0.442236,0.114795
2.72583,0.570944,-0.129729
2.77582,0.441136,0.229448
2.68763,0.701579,-0.113166
2.76959,0.430241,-0.0815699
2.76347,0.42929,-0.559327
2.72684,0.561229,0
2.81216,0.297059,-0.032921
2.77212,0.430633,-0.357087
2.69225,0.692756,0.0161571
2.77863,0.431644,-0.0163431
2.82394,0.298304,-0.265077
2.74177,0.564302,0.0651368
2.81614,0.297479,0.0329675
2.78128,0.432056,-0.229773
2.69503,0.693471,0.080988
2.78615,0.432813,0.0492158
2.68679,0.691349,-0.177802
2.82348,0.298255,-0.165347
2.73788,0.5635,0.162789
2.77242,0.43068,0.114306
2.7278,0.561426,-0.129729
2.69007,0.692194,-0.113166
2.69041,0.682278,-0.0484479
2.76883,0.420229,-0.560111
2.72879,0.551706,0
2.82114,0.288053,-0.0330141
2.6869,0.681387,0.0161106
2.78802,0.423142,-0.0163896
2.821,0.288039,-0.264705
2.8291,0.288865,0.0331072
2.72605,0.551153,-0.194481
2.78277,0.422344,-0.229773
2.69744,0.684059,0.080988
2.77974,0.421884,0.0490762
2.68531,0.680985,-0.177546
2.8245,0.288396,-0.165347
2.73983,0.553938,0.162789
2.78576,0.422798,0.114795
2.72975,0.551901,-0.129729
2.77489,0.421148,0.229122
2.68859,0.681816,-0.113003
2.69678,0.673382,-0.0485177
2.77035,0.410078,-0.560111
2.82218,0.277711,-0.0330141
2.7712,0.410204,-0.356581
2.69714,0.673473,0.0161571
2.7856,0.412335,-0.0163664
2.82997,0.278478,-0.265448
2.74966,0.545446,0.0652298
2.82218,0.277711,0.0330141
2.73197,0.541935,-0.19476
2.78824,0.412726,-0.230099
2.69992,0.674168,0.080988
2.78918,0.412865,0.0492158
2.68779,0.671138,-0.177546
2.82554,0.278043,-0.165347
2.74184,0.543893,0.162789
2.79125,0.413171,0.114957
2.73567,0.54267,-0.129915
2.78036,0.411559,0.229448
2.69495,0.672926,-0.113166
2.74966,0.545446,-0.0652298
2.77939,0.402498,-0.56168
2.74426,0.535418,0
2.82304,0.268844,-0.0330141
2.78426,0.403202,-0.358097
2.69924,0.664997,0.0161571
2.78292,0.403009,-0.0163431
2.82686,0.269209,-0.265077
2.73959,0.534508,0.0649507
2.831,0.269603,0.0331072
2.73757,0.534114,-0.195039
2.78558,0.403394,-0.229773
2.70591,0.66664,0.0811044
2.7865,0.403528,0.049146
2.69376,0.663647,-0.177802
2.8264,0.269165,-0.165347
2.75137,0.536807,0.163254
2.78857,0.403828,0.114795
2.73344,0.533308,-0.129729
2.78163,0.402823,0.229448
2.69705,0.664457,-0.113166
2.77689,0.392244,-0.560896
2.74218,0.525083,0
2.82794,0.259353,-0.0330607
2.78565,0.39348,-0.358097
2.70544,0.656513,0.0161804
2.79223,0.394411,-0.0163896
2.82779,0.259339,-0.265077
2.74929,0.526445,0.0651368
2.83591,0.260084,0.0331538
2.73942,0.524554,-0.195039
2.79487,0.394782,-0.230424
2.71211,0.658132,0.0812208
2.79186,0.394357,0.0492158
2.69606,0.654239,-0.177802
2.82732,0.259297,-0.165347
2.74539,0.525697,0.162789
2.79392,0.394649,0.114957
2.79637,0.394994,-0.148006
2.75294,0.527142,0.344159
2.78697,0.393667,0.229773
2.69547,0.654095,-0.113003
2.77831,0.382064,-0.560896
2.78707,0.383268,-0.358097
2.71171,0.647523,0.0162036
2.79762,0.38472,-0.0164128
2.83665,0.249672,-0.26582
2.75513,0.517103,0.0652298
2.84082,0.250039,0.0332004
2.74525,0.515247,-0.195318
2.79234,0.383994,-0.230099
2.70672,0.646331,0.080988
2.80121,0.385212,0.0493554
2.70233,0.645281,-0.178058
2.83621,0.249633,-0.165813
2.75907,0.517841,0.163487
2.79931,0.384952,0.11512
2.74504,0.515209,-0.130101
2.75485,0.517049,0.344159
2.7884,0.38345,0.229773
2.69785,0.644212,-0.113003
2.7018,0.635693,-0.0484479
2.78586,0.373693,-0.0818026
2.77956,0.372849,-0.560896
2.83367,0.239943,-0.0331072
2.78439,0.373497,-0.357592
2.70606,0.636695,0.0161571
2.79888,0.375441,-0.0164128
2.76077,0.508689,0.0653229
2.83765,0.24028,0.0331538
2.74301,0.505418,-0.195039
2.7936,0.374732,-0.230099
2.70885,0.637352,0.080988
2.7985,0.37539,0.0492856
2.70056,0.635402,-0.177802
2.841,0.240564,-0.166045
2.75684,0.507966,0.163254
2.80453,0.376199,0.115283
2.74673,0.506103,-0.130101
2.76436,0.50935,0.345134
2.70386,0.636178,-0.113166
2.704,0.626257,-0.0484479
2.78863,0.36416,-0.562464
2.74753,0.496339,0
2.83847,0.230373,-0.0331538
2.78962,0.364289,-0.358097
2.70827,0.627244,0.0161571
2.80018,0.365668,-0.0164128
2.84623,0.231002,-0.266564
2.76646,0.499759,0.0654159
2.84246,0.230696,0.0332004
2.74476,0.495839,-0.195039
2.79885,0.365494,-0.230424
2.71885,0.629696,0.0812208
2.79583,0.3651,0.0492158
2.70277,0.625971,-0.177802
2.83386,0.229999,-0.16558
2.76253,0.499049,0.163487
2.80583,0.366406,0.115283
2.75242,0.497222,-0.130287
2.76221,0.498991,0.344647
2.79489,0.364978,0.230099
2.70607,0.626735,-0.113166
2.81334,0.367387,0.5173
2.71007,0.617704,-0.0485177
2.78599,0.353929,-0.56168
2.74924,0.486746,0
2.83926,0.220464,-0.0331538
2.79481,0.355049,-0.358602
2.71824,0.619565,0.0162036
2.80144,0.355892,-0.0164128
2.83907,0.22045,-0.26582
2.76031,0.488706,0.0652298
2.84724,0.221083,0.0332469
2.75433,0.487647,-0.195597
2.80011,0.355723,-0.230424
2.72103,0.620202,0.0812208
2.80899,0.356852,0.0494252
2.70883,0.61742,-0.178058
2.83465,0.220106,-0.16558
2.76425,0.489403,0.163487
2.7952,0.355099,0.114795
2.76785,0.490039,0.345134
2.79615,0.35522,0.230099
2.71213,0.618174,-0.113329
2.81851,0.358061,0.518017
2.71221,0.60824,-0.0485177
2.84001,0.210551,-0.0331538
2.80391,0.346263,-0.359612
2.72038,0.610072,0.0162036
2.80663,0.3466,-0.0164361
2.8438,0.210832,-0.266192
2.76594,0.47975,0.0653229
2.84799,0.211142,0.0332469
2.75209,0.477347,-0.195318
2.80924,0.346923,-0.231075
2.81419,0.347534,0.049495
2.71486,0.608834,-0.178314
2.84337,0.2108,-0.166045
2.76988,0.480433,0.16372
2.81229,0.347298,0.115446
2.75582,0.477995,-0.130287
2.81076,0.34711,-0.148425
2.76172,0.479017,0.344159
2.80133,0.345945,0.230424
2.71428,0.608702,-0.113329
2.81974,0.348219,0.518017
2.71432,0.598769,-0.0485177
2.75652,0.468211,0
2.8051,0.336474,-0.359612
2.73031,0.602297,0.0162501
2.80385,0.336325,-0.0164128
2.85246,0.201465,-0.266935
2.7676,0.470093,0.0653229
2.84472,0.200919,0.0332004
2.75374,0.467738,-0.195318
2.80648,0.33664,-0.23075
2.7253,0.601191,0.0812208
2.71307,0.598494,-0.178058
2.84408,0.200874,-0.166045
2.7676,0.470093,0.163487
2.81348,0.33748,0.115446
2.75747,0.468373,-0.130287
2.76729,0.470039,0.344647
2.71248,0.598364,-0.113166
2.82485,0.338844,0.518735
2.7203,0.590138,-0.0485875
2.8454,0.190987,-0.0332004
2.80231,0.326221,-0.359107
2.71676,0.58937,0.0161571
2.81693,0.327923,-0.0164826
2.85712,0.191773,-0.267307
2.76133,0.459117,0.0651368
2.8494,0.191255,0.0332469
2.75929,0.458777,-0.195597
2.8116,0.327302,-0.231075
2.72738,0.591673,0.0812208
2.81258,0.327416,0.0494252
2.71514,0.589019,-0.178058
2.85672,0.191746,-0.166743
2.77317,0.461084,0.16372
2.81067,0.327194,0.115283
2.75909,0.458744,-0.130287
2.77674,0.461678,0.345621
2.80764,0.326841,0.23075
2.72237,0.590586,-0.113492
2.77711,0.46174,-0.065509
2.71843,0.579805,-0.0485177
2.80235,0.316316,-0.564033
2.76367,0.449597,0
2.85005,0.181308,-0.0332469
2.80343,0.316438,-0.359107
2.72662,0.581552,0.0162036
2.81408,0.31764,-0.0164593
2.86175,0.182052,-0.267679
2.77476,0.451402,0.0654159
2.85803,0.181816,0.0333401
2.76875,0.450424,-0.196155
2.81272,0.317486,-0.231075
2.72943,0.58215,0.0812208
2.81768,0.318045,0.049495
2.71718,0.579539,-0.178058
2.8494,0.181267,-0.166278
2.77476,0.451402,0.16372
2.81577,0.31783,0.115446
2.76856,0.450393,-0.130659
2.78226,0.452621,0.346109
2.80876,0.317039,0.23075
2.82714,0.319114,0.518735
2.77871,0.452044,-0.065509
2.72445,0.570657,-0.0485875
2.81129,0.306893,-0.565602
2.76925,0.440092,0
2.85468,0.171099,-0.0332935
2.81246,0.307021,-0.360117
2.72874,0.571554,0.0162036
2.81125,0.306889,-0.0164361
2.85445,0.171085,-0.266935
2.77245,0.440601,0.0653229
2.86267,0.171578,0.0333866
2.77432,0.440899,-0.196434
2.81783,0.307607,-0.231401
2.73937,0.573781,0.0814535
2.8228,0.308149,0.0495648
2.85403,0.17106,-0.16651
2.78034,0.441855,0.163952
2.81294,0.307073,0.115283
2.7839,0.44242,0.346109
2.81387,0.307174,0.231075
2.73043,0.571909,-0.113655
2.83221,0.309176,0.519452
2.85923,0.161858,-0.0333401
2.81347,0.297694,-0.360117
2.73845,0.564117,0.0162501
2.82021,0.298407,-0.0164826
2.86295,0.162069,-0.267679
2.77389,0.431405,0.0653229
2.85523,0.161632,0.0332935
2.8228,0.298681,-0.231726
2.73734,0.563887,0.0813371
2.82778,0.299208,0.0496346
2.72898,0.562166,-0.178569
2.85857,0.161821,-0.166743
2.78573,0.433246,0.164185
2.82189,0.298585,0.115609
2.76769,0.43044,-0.130473
2.82831,0.299264,-0.149053
2.78535,0.433186,0.346109
2.81487,0.297842,0.231075
2.74014,0.564465,-0.11398
2.83713,0.300197,0.52017
2.78575,0.433249,-0.0656021
2.72827,0.5521,-0.0485875
2.80941,0.287353,-0.564818
2.81449,0.287872,-0.360117
2.74433,0.555348,0.0162734
2.82521,0.288968,-0.0165058
2.77196,0.421201,-0.302014
2.87145,0.152498,-0.268423
2.78329,0.422922,0.065509
2.86377,0.15209,0.0333866
2.77726,0.422006,-0.196434
2.81986,0.288421,-0.231401
2.73537,0.553536,0.0812208
2.82483,0.288929,0.0495648
2.73093,0.552637,-0.178569
2.86311,0.152054,-0.166975
2.78328,0.42292,0.163952
2.82689,0.28914,0.115772
2.76918,0.420777,-0.130473
2.82536,0.288984,-0.148843
2.79469,0.424654,0.347084
2.73426,0.553312,-0.113655
2.83816,0.290293,0.52017
2.73411,0.543352,-0.0486573
2.8171,0.278205,-0.0823844
2.81821,0.278314,-0.566387
2.77759,0.412141,0
2.86428,0.142091,-0.0333866
2.73448,0.543426,0.0162036
2.8262,0.279104,-0.0165058
2.76948,0.410938,-0.301585
2.78871,0.41379,0.0656021
2.87227,0.142488,0.0334798
2.78267,0.412894,-0.196713
2.82482,0.278967,-0.231726
2.74121,0.544763,0.0813371
2.83378,0.279852,0.0497045
2.86761,0.142256,-0.167208
2.78869,0.413788,0.164185
2.83186,0.279663,0.115934
2.8343,0.279904,-0.149262
2.79616,0.414896,0.347084
2.82085,0.278575,0.231401
2.73618,0.543763,-0.113655
2.82307,0.268846,-0.567171
2.77901,0.402442,0
2.86476,0.132092,-0.0333866
2.81643,0.268214,-0.360117
2.74028,0.534642,0.0162269
2.82716,0.269236,-0.0165058
2.8804,0.132813,-0.269166
2.79013,0.404052,0.0656021
2.87275,0.13246,0.0334798
2.78409,0.403177,-0.196713
2.82974,0.269482,-0.232052
2.74702,0.535956,0.0814535
2.83076,0.269579,0.0496346
2.73472,0.533557,-0.178569
2.86809,0.132245,-0.167208
2.78617,0.403478,0.163952
2.8368,0.270154,0.116097
2.776,0.402006,-0.130659
2.82577,0.269104,0.231726
2.7459,0.535739,-0.11398
2.84012,0.27047,0.52017
2.79409,0.404625,-0.0656951
2.82789,0.25935,-0.567956
2.7804,0.392741,0
2.8692,0.122263,-0.0334332
2.82525,0.259108,-0.361127
2.74999,0.52658,0.0162734
2.83207,0.259733,-0.0165291
2.87687,0.12259,-0.268794
2.79153,0.394312,0.0656021
2.8732,0.122433,0.0334798
2.83464,0.259969,-0.232377
2.74887,0.526366,0.0814535
2.83965,0.260429,0.0497743
2.74049,0.52476,-0.178825
2.87252,0.122405,-0.16744
2.79151,0.39431,0.164185
2.82579,0.259157,0.115609
2.83221,0.259746,-0.149053
2.79505,0.394811,0.346596
2.73991,0.524649,-0.113655
2.84496,0.260916,0.520887
2.74358,0.51543,-0.0487271
2.87361,0.112403,-0.0334798
2.82614,0.249244,-0.361127
2.75181,0.516977,0.0162734
2.83694,0.250197,-0.0165523
2.88524,0.112858,-0.269538
2.79289,0.384565,0.0656021
2.8776,0.112559,0.0335263
2.8395,0.250422,-0.232702
2.75462,0.517505,0.0815699
2.84054,0.250514,0.0497743
2.73838,0.514453,-0.178569
2.87692,0.112532,-0.167673
2.79683,0.385108,0.164417
2.83464,0.249993,0.115934
2.7827,0.383162,-0.130846
2.83708,0.250209,-0.149262
2.80428,0.386134,0.347571
2.83155,0.249721,0.232052
2.74565,0.515819,-0.113818
2.84194,0.250637,0.52017
2.80081,0.385656,-0.0657882
2.74536,0.505851,-0.0487271
2.82868,0.239521,-0.0826171
2.82573,0.239271,-0.567171
2.87398,0.102372,-0.0334798
2.83095,0.239713,-0.361632
2.7536,0.507369,0.0162734
2.84178,0.24063,-0.0165756
2.88562,0.102786,-0.269538
2.79817,0.375346,0.0656951
2.88198,0.102657,0.0335729
2.83638,0.240173,-0.232377
2.75248,0.507163,0.0814535
2.84937,0.241273,0.0499139
2.74408,0.505615,-0.178825
2.88129,0.102632,-0.167906
2.7942,0.374812,0.164185
2.84346,0.240772,0.11626
2.78402,0.373447,-0.130846
2.84192,0.240642,-0.149472
2.80955,0.376871,0.348059
2.7435,0.505508,-0.113655
2.85456,0.241712,0.522322
2.80214,0.375877,-0.0657882
2.75096,0.497455,-0.0487969
2.83432,0.230534,-0.56874
2.8783,0.0929691,-0.0335263
2.83173,0.230323,-0.361632
2.75133,0.497522,0.0162501
2.84655,0.231529,-0.0165988
2.788,0.364573,-0.30287
2.80733,0.367101,0.0658812
2.8863,0.0932273,0.0336195
2.84511,0.231411,-0.233028
2.76202,0.499454,0.0816862
2.84218,0.231173,0.0497743
2.74574,0.496512,-0.178825
2.88959,0.0933338,-0.168371
2.80334,0.366579,0.16465
2.84026,0.231017,0.116097
2.7892,0.36473,-0.131032
2.81078,0.367552,0.348059
2.7491,0.497118,-0.113818
2.85927,0.232563,0.52304
2.80733,0.367101,-0.0658812
2.83423,0.220571,-0.0827335
2.83902,0.220944,-0.569525
2.79349,0.355377,0
2.84042,0.221053,-0.362642
2.75699,0.488614,0.0162734
2.84335,0.221281,-0.0165756
2.89421,0.0833714,-0.270281
2.80066,0.35629,0.0656951
2.88661,0.0831523,0.0336195
2.84987,0.221789,-0.233353
2.76768,0.490508,0.0818026
2.85094,0.221872,0.0499139
2.75139,0.487622,-0.179081
2.88591,0.0831323,-0.168138
2.80064,0.356288,0.164417
2.84901,0.221722,0.116423
2.79046,0.354992,-0.131032
2.81599,0.35824,0.348546
2.75082,0.48752,-0.113818
2.85221,0.221971,0.521605
2.80463,0.356795,-0.0657882
2.8476,0.211613,-0.571094
2.79868,0.346114,0
2.89088,0.0731761,-0.033666
2.84118,0.211136,-0.362642
2.75868,0.478986,0.0162734
2.8481,0.211651,-0.0165988
2.89847,0.0733682,-0.270653
2.79792,0.346021,0.0656021
2.89488,0.0732773,0.0337126
2.79582,0.345761,-0.196992
2.85461,0.212134,-0.233679
2.76938,0.480844,0.0818026
2.85569,0.212215,0.0499837
2.89417,0.0732593,-0.168603
2.8098,0.347489,0.164882
2.84579,0.211479,0.11626
2.79565,0.345739,-0.131218
2.84268,0.211248,0.232702
2.76038,0.479281,-0.114143
2.8569,0.212304,0.522322
2.80983,0.347493,-0.0658812
2.88712,0.062998,-0.0336195
2.8419,0.201218,-0.362642
2.76033,0.469354,0.0162734
2.85281,0.201991,-0.0166221
2.79561,0.335832,-0.303299
2.89871,0.0632508,-0.270653
2.80705,0.337206,0.0657882
2.88712,0.062998,0.0336195
2.7671,0.470504,0.0816862
2.85242,0.201963,0.0499139
2.75866,0.469071,-0.179337
2.8984,0.0632441,-0.168836
2.81099,0.33768,0.164882
2.85049,0.201827,0.116423
2.8008,0.336456,-0.131404
2.85293,0.201999,-0.14989
2.81448,0.338098,0.348059
2.85135,0.201887,0.233353
2.75809,0.468973,-0.11398
2.85762,0.202331,0.522322
2.81102,0.337683,-0.0658812
2.84118,0.191201,-0.569525
2.84258,0.191296,-0.362642
2.76985,0.461029,0.0163199
2.86148,0.192568,-0.0166686
2.89891,0.0531313,-0.270653
2.80424,0.326942,0.0656951
2.90332,0.053212,0.0338057
2.85602,0.1922,-0.233679
2.76872,0.460842,0.0816862
2.86109,0.192541,0.0500535
2.76422,0.460093,-0.179593
2.90259,0.0531988,-0.169068
2.81612,0.328327,0.165115
2.85517,0.192143,0.116586
2.80196,0.326676,-0.131404
2.81958,0.328731,0.348546
2.76366,0.459998,-0.114143
2.87009,0.193147,0.524475
2.81219,0.327868,-0.0658812
2.76317,0.450011,-0.0488667
2.849,0.181741,-0.0830826
2.84966,0.181783,-0.571094
2.84719,0.181626,-0.363147
2.76749,0.450715,0.0162966
2.85814,0.182324,-0.0166453
2.80579,0.3172,-0.304156
2.81729,0.3185,0.0659743
2.90348,0.0430779,0.0338057
2.85667,0.18223,-0.233679
2.77031,0.451175,0.0816862
2.84977,0.18179,0.0498441
2.90276,0.0430672,-0.169068
2.81328,0.318047,0.164882
2.85981,0.18243,0.116748
2.81103,0.317792,-0.131776
2.85269,0.181976,0.233353
2.76524,0.450349,-0.114143
2.86682,0.182877,0.523757
2.82126,0.318949,-0.0660673
2.85361,0.172035,-0.0831989
2.85419,0.17207,-0.571878
2.81119,0.307875,0
2.89562,0.032851,-0.0337126
2.84781,0.171685,-0.363147
2.773,0.441681,0.0163199
2.85876,0.172345,-0.0166453
2.82236,0.309098,0.0660673
2.90762,0.0329872,0.0338523
2.86525,0.172736,-0.23433
2.77582,0.44213,0.0818026
2.86636,0.172803,0.0501233
2.76737,0.440784,-0.179593
2.90289,0.0329336,-0.169068
2.81835,0.308659,0.165115
2.86841,0.172927,0.117074
2.81212,0.307977,-0.131776
2.82576,0.309471,0.349034
2.7668,0.440693,-0.114143
2.86744,0.172868,0.523757
2.82236,0.309098,-0.0660673
2.85477,0.162105,-0.571878
2.81225,0.29806,0
2.89971,0.0227739,-0.0337591
2.85235,0.161968,-0.363652
2.77847,0.432613,0.0163431
2.86733,0.162818,-0.0166918
2.81189,0.298022,-0.304584
2.91125,0.0228645,-0.271768
2.81944,0.298822,0.0659743
2.90771,0.0228367,0.0338523
2.80937,0.297754,-0.19755
2.86583,0.162733,-0.23433
2.7813,0.433052,0.0819189
2.86295,0.162569,0.0500535
2.90299,0.0227997,-0.169068
2.82338,0.299239,0.165347
2.865,0.162686,0.116911
2.8092,0.297737,-0.13159
2.87143,0.163051,-0.150728
2.83077,0.300023,0.349521
2.85787,0.162281,0.233679
2.77227,0.431647,-0.114306
2.87195,0.16308,0.524475
2.81944,0.298822,-0.0659743
2.77564,0.422255,-0.0490064
2.85532,0.152141,-0.571878
2.90778,0.0126888,-0.0338523
2.85686,0.152223,-0.364158
2.77997,0.422914,0.0163431
2.87188,0.153023,-0.0167151
2.91928,0.012739,-0.272512
2.82047,0.288981,0.0659743
2.90778,0.0126888,0.0338523
2.87037,0.152942,-0.234655
2.77884,0.422742,0.0818026
2.8675,0.15279,0.0501233
2.77038,0.421454,-0.179593
2.91104,0.012703,-0.169533
2.8244,0.289384,0.165347
2.86955,0.152899,0.117074
2.81817,0.288746,-0.131962
2.8318,0.290142,0.349521
2.8624,0.152518,0.234004
2.77376,0.421969,-0.114306
2.87643,0.153266,0.525192
2.82842,0.289796,-0.0661604
2.85579,0.14317,-0.571878
2.86129,0.143446,-0.364663
2.78524,0.414768,0.0163664
2.87634,0.144201,-0.0167383
2.81777,0.279762,-0.305012
2.91931,0.00356831,-0.272512
2.82534,0.280514,0.0660673
2.9118,0.00355913,0.0338988
2.87481,0.144124,-0.234981
2.78015,0.41401,0.0818026
2.87595,0.144181,0.0502629
2.77564,0.413337,-0.179849
2.91905,0.003568,-0.169998
2.82927,0.280904,0.16558
2.87001,0.143884,0.117074
2.81907,0.279891,-0.131962
2.77507,0.413253,-0.114306
2.88083,0.144426,0.525909
2.78248,0.403441,-0.0490762
2.86807,0.132747,-0.574232
2.82318,0.269356,0
2.77889,0.402921,0.0163199
2.88087,0.13334,-0.0167616
2.82278,0.269318,-0.305441
2.92328,-0.00765215,-0.272884
2.82242,0.269283,0.0659743
2.91179,-0.00762208,0.0338988
2.87933,0.133268,-0.235306
2.78172,0.403331,0.0818026
2.87249,0.132952,0.0501931
2.92304,-0.00765151,-0.170231
2.83431,0.270417,0.165813
2.87853,0.133231,0.1174
2.83205,0.270203,-0.132521
2.84166,0.271119,0.350496
2.87535,0.133084,0.234981
2.78455,0.403741,-0.114632
2.83436,0.270422,-0.0662534
2.86852,0.122734,-0.574232
2.82809,0.259865,0
2.91575,-0.0178113,-0.0339454
2.86227,0.122467,-0.364663
2.79217,0.394898,0.0163896
2.87732,0.123111,-0.0167383
2.83927,0.260892,0.0663465
2.91575,-0.0178113,0.0339454
2.82517,0.259597,-0.198387
2.87978,0.123216,-0.235306
2.79103,0.394738,0.0820353
2.87693,0.123094,0.0502629
2.919,-0.0178312,-0.169998
2.83126,0.260156,0.16558
2.88297,0.123353,0.117563
2.829,0.259949,-0.132335
2.78594,0.394018,-0.114632
2.88181,0.123303,0.525909
2.83529,0.260526,-0.0662534
2.88068,0.113182,-0.576585
2.83296,0.250343,0
2.92367,-0.0280666,-0.0340385
2.86664,0.11263,-0.365168
2.79353,0.385149,0.0163896
2.88573,0.11338,-0.0167848
2.82459,0.249603,-0.305441
2.93112,-0.0281382,-0.273627
2.82821,0.249923,0.0660673
2.91967,-0.0280282,0.033992
2.79635,0.385538,0.0821517
2.88134,0.113207,0.0503327
2.7839,0.383822,-0.180104
2.9309,-0.0281361,-0.170696
2.83215,0.250271,0.16558
2.88338,0.113288,0.117563
2.82989,0.250072,-0.132335
2.84744,0.251622,0.350984
2.88019,0.113162,0.235306
2.7873,0.38429,-0.114632
2.84016,0.250979,-0.0663465
2.86927,0.103707,-0.574232
2.92356,-0.0372509,-0.0340385
2.87095,0.103768,-0.365673
2.79472,0.376371,0.0163896
2.88607,0.104314,-0.0167848
2.82536,0.240729,-0.305441
2.935,-0.0373966,-0.273999
2.83695,0.241716,0.0662534
2.91957,-0.0371999,0.033992
2.8885,0.104402,-0.235957
2.79755,0.376752,0.0821517
2.88568,0.1043,0.0504026
2.793,0.37614,-0.180616
2.9308,-0.037343,-0.170696
2.8369,0.241712,0.165813
2.88372,0.104229,0.117563
2.83464,0.24152,-0.132521
2.88216,0.104173,-0.151146
2.85217,0.243013,0.351471
2.88053,0.104114,0.235306
2.79641,0.376599,-0.114957
2.84094,0.242056,-0.0663465
2.78777,0.365038,-0.0490762
2.88139,0.0935723,-0.576585
2.83859,0.23138,0
2.8832,0.0936313,-0.367188
2.80005,0.366646,0.0164128
2.89043,0.0938659,-0.0168081
2.83019,0.230695,-0.305869
2.93086,-0.0480877,-0.273627
2.8418,0.231642,0.0663465
2.92741,-0.048031,0.0340851
2.88886,0.093815,-0.235957
2.79495,0.365978,0.0820353
2.89004,0.0938532,0.0504724
2.79041,0.365383,-0.18036
2.93463,-0.0481496,-0.170929
2.84174,0.231637,0.166045
2.88808,0.0937897,0.117725
2.83949,0.231454,-0.132707
2.85304,0.232558,0.351471
2.88089,0.0935562,0.235306
2.78985,0.36531,-0.114632
2.8418,0.231642,-0.0663465
2.79294,0.356297,-0.049146
2.8856,0.0841303,-0.577369
2.83934,0.221965,0
2.92723,-0.0577392,-0.0340851
2.79728,0.356851,0.0163896
2.89072,0.0842796,-0.0168081
2.8349,0.221618,-0.306298
2.85053,0.22284,0.0665326
2.92723,-0.0577392,0.0340851
2.80408,0.357718,0.082268
2.88234,0.0840351,0.0503327
2.93446,-0.0578817,-0.170929
2.84648,0.222523,0.166278
2.89637,0.0844441,0.118051
2.84423,0.222347,-0.132893
2.88916,0.0842339,0.235957
2.79501,0.356562,-0.114795
2.85053,0.22284,-0.0665326
2.88183,0.0739539,-0.0838971
2.8898,0.0741584,-0.578154
2.84807,0.212648,0
2.93101,-0.068049,-0.0341317
2.88774,0.0741056,-0.367693
2.80645,0.34807,0.0164361
2.895,0.0742918,-0.0168313
2.83962,0.212018,-0.306726
2.94241,-0.0683137,-0.274743
2.85528,0.213186,0.0666256
2.93901,-0.0682347,0.0342248
2.84511,0.212428,-0.199504
2.80531,0.347929,0.082268
2.89061,0.0741791,0.0504724
2.93823,-0.0682166,-0.171161
2.84325,0.212289,0.166045
2.90064,0.0744365,0.118214
2.84897,0.212716,-0.133079
2.8002,0.347295,-0.114957
2.85129,0.212889,-0.0665326
2.8488,0.202706,0
2.93875,-0.0784927,-0.0342248
2.88798,0.0640256,-0.367693
2.80765,0.338272,0.0164361
2.89524,0.0641865,-0.0168313
2.84035,0.202105,-0.306726
2.94216,-0.0785836,-0.274743
2.85202,0.202935,0.0665326
2.93875,-0.0784927,0.0342248
2.80651,0.338135,0.082268
2.89485,0.0641778,0.0505422
2.94596,-0.0786851,-0.171626
2.85194,0.20293,0.16651
2.89688,0.064223,0.118051
2.84571,0.202487,-0.132893
2.89765,0.0642399,0.236608
2.80537,0.337997,-0.11512
2.85202,0.202935,-0.0665326
2.88634,0.0534064,-0.577369
2.84952,0.192264,0
2.94244,-0.0893841,-0.0342714
2.89217,0.0535143,-0.368198
2.81681,0.328908,0.0164826
2.90345,0.0537231,-0.0168778
2.84107,0.191694,-0.306726
2.86072,0.19302,0.0667187
2.90583,0.0537672,-0.237259
2.8117,0.32831,0.0823844
2.90706,0.0537898,0.0507516
2.94565,-0.0894814,-0.171626
2.8971,0.0536056,0.118051
2.85042,0.192325,-0.133079
2.90751,0.0537982,-0.152402
2.86393,0.193236,0.352446
2.89388,0.0535459,0.236282
2.80262,0.32725,-0.114957
2.85274,0.192481,-0.0665326
2.89844,0.0440152,-0.0843626
2.89826,0.0440125,-0.579723
2.85414,0.183069,0
2.94213,-0.0991419,-0.0342714
2.90423,0.0441031,-0.369713
2.82186,0.320015,0.0165058
2.89962,0.0440331,-0.0168546
2.84963,0.18278,-0.307583
2.86533,0.183787,0.0668117
2.84718,0.182623,-0.199504
2.90201,0.0440694,-0.236933
2.81277,0.318984,0.0823844
2.90722,0.0441486,0.0507516
2.80423,0.318016,-0.180872
2.95332,-0.0995188,-0.172092
2.85329,0.183015,0.16651
2.90925,0.0441794,0.11854
2.85503,0.183126,-0.133265
2.86852,0.183991,0.352934
2.85336,0.183019,-0.0665326
2.80673,0.307883,-0.0492856
2.90625,0.0334792,-0.581292
2.86277,0.173089,0
2.94175,-0.109925,-0.0342714
2.89644,0.0333662,-0.368703
2.81507,0.308797,0.0164593
2.90376,0.0334505,-0.0168778
2.85028,0.172333,-0.307583
2.95707,-0.110498,-0.27623
2.86599,0.173283,0.0668117
2.94974,-0.110224,0.0343645
2.85182,0.172426,-0.199783
2.90215,0.033432,-0.236933
2.8179,0.309108,0.0825008
2.90736,0.033492,0.0507516
2.95692,-0.110492,-0.172324
2.85793,0.172796,0.166743
2.91339,0.0335615,0.118702
2.85967,0.172901,-0.133451
2.87314,0.173715,0.353421
2.90215,0.033432,0.236933
2.80881,0.308111,-0.11512
2.862,0.173042,-0.0667187
2.90267,0.0243186,-0.0844789
2.90242,0.0243165,-0.580507
2.8673,0.164324,0
2.95737,-0.119814,-0.0344576
2.9005,0.0243004,-0.369208
2.82398,0.3008,0.0165058
2.90785,0.024362,-0.016901
2.8508,0.163379,-0.307583
2.8745,0.164737,0.0669978
2.94938,-0.11949,0.0343645
2.85633,0.163695,-0.200062
2.91022,0.0243818,-0.237584
2.82283,0.300678,0.0826171
2.91145,0.0243922,0.0508214
2.96055,-0.119942,-0.172557
2.85846,0.163817,0.166743
2.90948,0.0243757,0.11854
2.87217,0.164603,-0.13401
2.90623,0.0243484,0.237259
2.81374,0.299709,-0.115283
2.85853,0.163822,-0.0666256
2.81274,0.289182,-0.0493554
2.87187,0.154028,0
2.96091,-0.130828,-0.0345042
2.90056,0.01367,-0.369208
2.82904,0.290857,0.0165291
2.91592,0.0137424,-0.0169475
2.85536,0.153142,-0.308011
2.96023,-0.130798,-0.276602
2.86311,0.153558,0.0667187
2.95292,-0.130475,0.034411
2.85691,0.153226,-0.200062
2.91826,0.0137534,-0.238235
2.82789,0.290739,0.0827335
2.91952,0.0137593,0.050961
2.81138,0.289042,-0.181128
2.96009,-0.130792,-0.172557
2.90955,0.0137124,0.11854
2.86876,0.153861,-0.133824
2.9063,0.013697,0.237259
2.81482,0.289395,-0.115283
2.8671,0.153772,-0.0668117
2.81771,0.279756,-0.0494252
2.90677,0.00355183,-0.0845953
2.8684,0.143802,0
2.96443,-0.141354,-0.0345507
2.85404,0.143082,-0.44458
2.91647,0.00356368,-0.371229
2.8181,0.279794,0.0164593
2.91995,0.00356793,-0.0169708
2.86382,0.143572,-0.308868
2.96373,-0.141321,-0.276973
2.87561,0.144163,0.0669978
2.95644,-0.140973,0.0344576
2.85743,0.143252,-0.200062
2.82889,0.280865,0.0827335
2.92355,0.00357234,0.0510308
2.81635,0.27962,-0.181384
2.96759,-0.141505,-0.173022
2.87152,0.143958,0.16744
2.91758,0.00356504,0.118865
2.86928,0.143846,-0.133824
2.8827,0.144519,0.354396
2.91032,0.00355616,0.237584
2.81979,0.279961,-0.115446
2.87162,0.143963,-0.0669048
2.86891,0.133288,0
2.9599,-0.152013,-0.0345042
2.91646,-0.00712509,-0.371229
2.82707,0.270225,0.0165058
2.92394,-0.00714337,-0.016994
2.87227,0.133444,-0.309725
2.88411,0.133994,0.067184
2.9599,-0.152013,0.0345042
2.86192,0.132963,-0.200341
2.92227,-0.00713928,-0.238561
2.82194,0.269735,0.0825008
2.81735,0.269296,-0.181384
2.97104,-0.152585,-0.173254
2.87203,0.133433,0.16744
2.91757,-0.0071278,0.118865
2.87378,0.133515,-0.13401
2.87612,0.133623,-0.0669978
2.82354,0.260938,-0.049495
2.91472,-0.0162787,-0.084828
2.87331,0.124447,0
2.97139,-0.161965,-0.0346439
2.91642,-0.0162882,-0.371229
2.83188,0.261709,0.0165291
2.92791,-0.0163523,-0.0170173
2.8687,0.124247,-0.309296
2.97463,-0.162141,-0.278089
2.88052,0.124759,0.0670909
2.97139,-0.161965,0.0346439
2.92622,-0.0163429,-0.238886
2.82675,0.261235,0.0826171
2.92751,-0.0163501,0.0511006
2.97454,-0.162136,-0.173487
2.87643,0.124582,0.167673
2.92553,-0.0163391,0.119191
2.89155,0.125237,0.355371
2.82561,0.261129,-0.115609
2.87652,0.124586,-0.0669978
2.91465,-0.0264536,-0.084828
2.88571,0.114893,0
2.9708,-0.172336,-0.0346439
2.92825,-0.0265771,-0.372744
2.83278,0.251822,0.0165291
2.92383,-0.026537,-0.016994
2.97405,-0.172525,-0.278089
2.88493,0.114862,0.067184
2.9708,-0.172336,0.0346439
2.87071,0.114296,-0.200899
2.83163,0.25172,0.0827335
2.92743,-0.0265697,0.0511006
2.97395,-0.172519,-0.173487
2.87285,0.114381,0.16744
2.92945,-0.026588,0.119354
2.88259,0.114768,-0.134382
2.92216,-0.0265218,0.238561
2.83048,0.251617,-0.115772
2.87295,0.114385,-0.0669048
2.89013,0.103956,0
2.97411,-0.183988,-0.0346904
2.92416,-0.0377687,-0.372239
2.8417,0.241621,0.0165756
2.93571,-0.0379178,-0.0170638
2.87748,0.103501,-0.310153
2.98131,-0.184434,-0.278832
2.88935,0.103928,0.067277
2.9821,-0.184482,0.0347836
2.8791,0.10356,-0.201457
2.83656,0.241184,0.0828498
2.93531,-0.0379126,0.0512403
2.98124,-0.184429,-0.173952
2.88524,0.10378,0.168138
2.92533,-0.0377838,0.119191
2.88301,0.1037,-0.134382
2.93573,-0.037918,-0.153868
2.92602,-0.0377927,0.238886
2.83541,0.241087,-0.115934
2.87736,0.103497,-0.0669978
2.88648,0.0937379,0
2.98143,-0.19489,-0.0347836
2.93195,-0.0481052,-0.373249
2.84252,0.231701,0.0165756
2.93156,-0.0480988,-0.0170405
2.87385,0.0933279,-0.309725
2.98463,-0.195099,-0.279204
2.88969,0.0938423,0.067277
2.97744,-0.194629,0.034737
2.87546,0.09338,-0.201178
2.83738,0.231282,0.0828498
2.93916,-0.0482235,0.0513101
2.89357,0.0939682,0.168603
2.93317,-0.0481253,0.119517
2.89134,0.0938957,-0.134754
2.90068,0.0941989,0.356346
2.92587,-0.0480056,0.238886
2.8442,0.231838,-0.11626
2.8817,0.0935827,-0.0670909
2.83887,0.222427,-0.0497045
2.89076,0.0847857,0
2.98081,-0.204256,-0.0347836
2.93178,-0.0573168,-0.373249
2.84324,0.222769,0.0165756
2.93939,-0.0574656,-0.017087
2.88208,0.0845313,-0.310581
2.984,-0.204475,-0.279204
2.89397,0.08488,0.0673701
2.9848,-0.20453,0.0348301
2.93766,-0.0574319,-0.239862
2.88986,0.0847594,0.168371
2.937,-0.0574189,0.119679
2.89162,0.084811,-0.134754
2.89699,0.0849685,0.355859
2.83695,0.222276,-0.115934
2.88598,0.0846456,-0.067184
2.93397,-0.0681174,-0.0854098
2.88705,0.074088,0
2.98403,-0.215468,-0.0348301
2.93155,-0.0680613,-0.373249
2.84005,0.212049,0.0165523
2.94316,-0.0683308,-0.0171103
2.89827,0.0743761,-0.312295
2.9872,-0.215697,-0.279576
2.89426,0.0742732,0.0673701
2.98403,-0.215468,0.0348301
2.88002,0.0739076,-0.201457
2.94142,-0.0682904,-0.240188
2.94276,-0.0683215,0.0513799
2.99113,-0.21598,-0.17465
2.89813,0.0743725,0.168836
2.94077,-0.0682753,0.119842
2.89191,0.0742128,-0.134754
2.94716,-0.0684237,-0.154496
2.90522,0.0745543,0.356833
2.84173,0.212175,-0.116097
2.89826,0.0743758,-0.0674631
2.84035,0.202602,-0.0497045
2.93372,-0.0778471,-0.0854098
2.89528,0.0646919,0
2.98729,-0.225664,-0.0348767
2.93924,-0.0779935,-0.374259
2.93892,-0.0779848,-0.017087
2.8826,0.0644087,-0.310581
2.90249,0.064853,0.0675562
2.99127,-0.225965,0.0349233
2.88424,0.0644452,-0.201736
2.94915,-0.0782563,-0.240839
2.95051,-0.0782925,0.0515195
2.9904,-0.225899,-0.17465
2.89437,0.0646717,0.168603
2.94452,-0.0781335,0.120005
2.90413,0.0648896,-0.135313
2.93719,-0.0779391,0.239862
2.8464,0.203034,-0.11626
2.89449,0.0646744,-0.0673701
2.89949,0.0541544,0
3.00239,-0.237875,-0.0350629
2.9429,-0.0888856,-0.374764
2.84545,0.192486,0.0165756
2.9506,-0.0891182,-0.0171568
2.88679,0.0539172,-0.31101
2.99356,-0.237176,-0.280319
2.90671,0.0542891,0.0676492
2.90041,0.0541715,-0.202852
2.99353,-0.237173,-0.174882
2.90258,0.054212,0.169068
2.94821,-0.0890459,0.120168
2.90434,0.054245,-0.135313
2.8551,0.193139,-0.116586
2.89871,0.0541398,-0.0674631
2.84968,0.183282,-0.0498441
2.93711,-0.0984602,-0.0855262
2.90366,0.0446005,0
3.00158,-0.24783,-0.0350629
2.94656,-0.0987771,-0.375269
2.85405,0.183563,0.0166221
2.95029,-0.0989023,-0.0171568
2.89491,0.0444661,-0.311867
2.99673,-0.247429,-0.280691
2.90687,0.0446498,0.0676492
3.00158,-0.24783,0.0350629
2.89658,0.0444918,-0.202573
2.8529,0.183488,0.0831989
3.00069,-0.247756,-0.175347
2.91472,0.0447704,0.169766
2.9479,-0.098822,0.120168
2.9085,0.0446749,-0.135499
2.9098,0.0446949,0.357321
2.94455,-0.0987096,0.240513
2.85971,0.183927,-0.116748
2.85429,0.173576,-0.0499139
2.94474,-0.109008,-0.0857589
2.9038,0.0344646,0
2.99671,-0.257963,-0.0350164
2.95413,-0.109355,-0.376279
2.86266,0.174085,0.0166686
2.96192,-0.109644,-0.0172265
2.903,0.0344551,-0.312723
3.00378,-0.258571,-0.281435
2.91101,0.0345502,0.0677423
3.0007,-0.258306,0.0350629
2.90071,0.034428,-0.202852
2.95613,-0.10943,-0.24149
2.96152,-0.109629,0.0517289
3.00776,-0.258914,-0.175812
2.91486,0.0345958,0.169766
2.95153,-0.109259,0.120331
2.90864,0.0345221,-0.135499
2.91391,0.0345846,0.357808
2.86034,0.173944,-0.116748
2.91501,0.0345976,-0.0678353
2.8589,0.163341,-0.0499837
2.94831,-0.119963,-0.0858753
2.9119,0.023887,0
2.99973,-0.269302,-0.0350629
2.94578,-0.119859,-0.375269
2.8553,0.163135,0.0166221
2.9655,-0.120662,-0.0172498
2.90311,0.0238149,-0.312723
2.91511,0.0239133,0.0678353
3.0077,-0.270017,0.0351561
2.89683,0.0237634,-0.202573
2.9597,-0.120426,-0.241815
2.96509,-0.120646,0.0517987
3.01077,-0.270293,-0.176045
2.91896,0.0239449,0.169998
2.96708,-0.120726,0.120982
2.91674,0.0239267,-0.135871
2.92196,0.0239695,0.358783
2.95173,-0.120102,0.241164
2.86495,0.163687,-0.116911
2.91511,0.0239133,-0.0678353
2.95187,-0.13043,-0.0859916
2.91197,0.0137224,0
3.01072,-0.280886,-0.0352026
2.9612,-0.130842,-0.377289
2.95706,-0.13066,-0.0172033
2.90317,0.013681,-0.312723
2.92318,0.0137752,0.0680214
3.0147,-0.281258,0.0352492
2.90886,0.0137078,-0.20341
2.96324,-0.130932,-0.242141
2.96466,-0.130995,0.0517987
3.00981,-0.280801,-0.176045
2.91902,0.0137557,0.169998
2.96664,-0.131083,0.120982
2.9208,0.013764,-0.136057
2.95528,-0.130581,0.24149
2.86949,0.153899,-0.117074
2.91518,0.0137376,-0.0678353
2.86394,0.144079,-0.0500535
2.95142,-0.140218,-0.0859916
2.916,0.00407151,0
3.01375,-0.291253,-0.0352492
2.96471,-0.140849,-0.377795
2.86832,0.144299,0.0166918
2.96461,-0.140844,-0.0172498
2.90718,0.0040592,-0.313152
2.91921,0.00407599,0.0679284
3.02172,-0.292023,0.0353423
2.91687,0.00407273,-0.203968
2.86317,0.14404,0.0834316
2.97219,-0.141205,0.0519384
3.01284,-0.291164,-0.176278
2.91905,0.00407577,0.169998
2.9622,-0.14073,0.120819
2.91683,0.00407268,-0.135871
2.92999,0.00409105,0.359758
2.92321,0.00408157,-0.0680214
2.86443,0.134081,-0.0500535
2.9589,-0.150927,-0.0862243
2.91199,-0.00609887,0
3.02068,-0.302569,-0.0353423
2.9642,-0.151197,-0.377795
2.86481,0.134099,0.0166686
2.97209,-0.1516,-0.0172963
2.91115,-0.00609711,-0.31358
2.9192,-0.00611397,0.0679284
3.0167,-0.30217,0.0352958
2.91288,-0.00610073,-0.203689
2.9637,-0.151172,0.0517987
2.92304,-0.00612201,0.170231
2.96568,-0.151273,0.120982
2.92602,-0.00612825,0.359271
2.87846,0.134738,-0.1174
2.9232,-0.00612234,-0.0680214
2.8689,0.123754,-0.0501233
2.96232,-0.161989,-0.0863407
2.92395,-0.0168409,0
3.01557,-0.313225,-0.0352958
2.96759,-0.162277,-0.3783
2.87328,0.123943,0.0167151
2.97151,-0.162492,-0.0172963
2.91111,-0.016767,-0.31358
2.92716,-0.0168594,0.0681145
3.02353,-0.314051,0.0353889
2.91683,-0.0167999,-0.203968
2.97365,-0.162609,-0.243117
2.97909,-0.162906,0.052078
3.02259,-0.313954,-0.176975
2.923,-0.0168355,0.170231
2.97309,-0.162578,0.121308
2.92878,-0.0168687,-0.136429
2.93392,-0.0168983,0.360246
2.86695,0.12367,-0.116911
2.92716,-0.0168594,-0.0681145
2.87726,0.11506,-0.0502629
2.96579,-0.171526,-0.0864571
2.92788,-0.0260623,0
3.01855,-0.323123,-0.0353423
2.87365,0.114916,0.0167151
2.97897,-0.172288,-0.0173428
2.92298,-0.0260186,-0.314865
3.0265,-0.323974,0.0354355
2.92873,-0.0260698,-0.204805
2.97857,-0.172265,0.052078
2.93491,-0.0261248,0.170929
2.97655,-0.172148,0.121471
2.9327,-0.0261052,-0.136615
2.93385,-0.0261154,0.360246
2.87931,0.115142,-0.1174
2.93109,-0.0260908,-0.0682075
2.87365,0.10487,-0.0501931
2.96916,-0.182122,-0.0865734
2.93178,-0.0363319,0
3.0174,-0.333657,-0.0353423
2.87804,0.10503,0.0167383
2.97436,-0.182441,-0.0173195
2.91491,-0.036123,-0.314009
2.93898,-0.0364212,0.0683936
3.0333,-0.335416,0.0355286
2.92463,-0.0362434,-0.204526
2.98047,-0.182815,-0.243768
2.97795,-0.182661,0.052078
3.02441,-0.334432,-0.177208
2.9348,-0.0363694,0.170929
2.97593,-0.182537,0.121471
2.93659,-0.0363916,-0.136801
2.94168,-0.0364547,0.361221
2.88768,0.105382,-0.117725
2.92698,-0.0362726,-0.0681145
2.878,0.0949701,-0.0502629
2.96851,-0.192485,-0.0865734
2.93963,-0.0466926,0
3.03212,-0.346002,-0.0355286
2.87838,0.0949829,0.0167383
2.98568,-0.193599,-0.0173892
2.92272,-0.046424,-0.314865
2.93484,-0.0466164,0.0683006
3.03212,-0.346002,0.0355286
2.93247,-0.0465788,-0.205084
2.98528,-0.193572,0.0522176
3.02719,-0.34544,-0.17744
2.93466,-0.0466136,0.170929
2.97927,-0.193183,0.121633
2.93245,-0.0465785,-0.136615
2.89203,0.0954331,-0.117888
2.93883,-0.0466799,-0.0683936
2.88231,0.0850414,-0.0503327
2.97579,-0.203391,-0.0868062
2.93145,-0.0567985,0
3.02692,-0.356117,-0.035482
2.8827,0.0850529,0.0167616
2.99297,-0.204565,-0.0174357
2.9305,-0.05678,-0.315722
2.94265,-0.0570156,0.0684867
2.9283,-0.0567375,-0.204805
2.98857,-0.204264,0.0522874
3.03787,-0.357405,-0.178138
2.98655,-0.204126,0.121959
2.94026,-0.0569692,-0.136988
2.94265,-0.0570156,-0.0684867
2.89058,0.0751877,-0.0504724
2.97905,-0.214064,-0.0869225
2.93923,-0.0672138,0
3.0336,-0.367643,-0.0355752
2.89097,0.0751979,0.0168081
2.98824,-0.214724,-0.0174125
2.93425,-0.0670999,-0.316151
2.94643,-0.0673784,0.0685797
2.93207,-0.06705,-0.205084
2.99582,-0.215268,0.052427
2.88111,0.0749414,-0.184709
2.99778,-0.215409,0.122448
2.89662,0.0753447,-0.118051
2.94643,-0.0673784,-0.0685797
2.89084,0.0645927,-0.0504724
2.99021,-0.225885,-0.0872716
2.94296,-0.0780922,0
3.03223,-0.378759,-0.0355752
2.89523,0.0646908,0.0168313
2.9994,-0.226579,-0.0174822
2.93399,-0.0778541,-0.316151
2.94377,-0.0781137,-0.205921
2.99501,-0.226247,0.052427
2.94996,-0.0782779,0.171859
2.99697,-0.226395,0.122448
2.90087,0.0648168,-0.118214
2.89105,0.0545014,-0.0504724
2.98143,-0.235691,-0.0870389
2.94667,-0.0884847,0
3.04279,-0.39087,-0.0357148
2.9472,-0.0885006,-0.458723
2.99062,-0.236417,-0.0174357
2.93767,-0.0882145,-0.316579
2.93949,-0.0882691,-0.205642
2.99819,-0.237016,0.0524968
2.94967,-0.0885747,0.171859
2.99616,-0.236855,0.122448
2.95147,-0.0886287,-0.137546
2.95387,-0.0887008,-0.0687658
2.89521,0.0449761,-0.0505422
2.94636,-0.0982557,0
3.04148,-0.400958,-0.0357148
2.8996,0.0450444,0.0168546
3.00178,-0.247319,-0.0175055
2.93737,-0.0979557,-0.316579
2.94956,-0.0983624,0.0686728
2.95115,-0.0984154,-0.206479
2.99982,-0.247157,-0.245721
3.00536,-0.247613,0.0526365
2.89371,0.0449529,-0.185477
2.95335,-0.0984888,0.172092
2.99137,-0.246461,0.122285
2.95116,-0.0984157,-0.137546
2.90924,0.045194,-0.11854
2.95755,-0.098629,-0.0688589
2.89935,0.0349179,-0.050612
2.954,-0.108834,0
2.89974,0.0349226,0.0168546
2.99691,-0.257453,-0.0174822
2.94495,-0.108501,-0.317436
2.96119,-0.109099,0.0689519
2.94281,-0.108422,-0.205921
3.00689,-0.25831,-0.246372
2.89856,0.0349084,0.0843626
3.00846,-0.258445,0.0527063
2.89784,0.0348997,-0.185733
2.90345,0.0248312,-0.0506818
2.99478,-0.267804,-0.0875043
2.96159,-0.119468,0
2.90784,0.0248688,0.016901
3.01193,-0.269338,-0.0175752
2.94853,-0.118941,-0.317864
2.95836,-0.119337,-0.207037
3.00994,-0.269159,-0.246697
2.90194,0.0248183,-0.185989
2.96456,-0.119587,0.172789
2.96238,-0.119499,-0.138104
2.91348,0.024917,-0.118702
2.91552,0.0142481,-0.0508912
2.95714,-0.130146,0
2.90792,0.0142109,0.016901
2.94808,-0.129747,-0.317864
2.95791,-0.130179,-0.207037
3.0129,-0.280559,-0.247023
3.01052,-0.280337,0.0527761
2.90201,0.014182,-0.185989
2.96591,-0.130532,-0.13829
2.91955,0.00458603,-0.050961
3.00079,-0.289472,-0.087737
2.96468,-0.140329,0
2.90795,0.00456781,0.016901
2.94763,-0.139522,-0.317864
2.96787,-0.140481,0.0691381
2.96543,-0.140365,-0.207595
2.90677,0.00456595,0.0845953
3.01753,-0.291087,0.0529157
2.91003,0.00457107,-0.1865
2.96764,-0.14047,0.173022
2.96945,-0.140555,-0.138477
2.96388,-0.140291,-0.069045
2.91555,-0.00559745,-0.0508912
2.96417,-0.150677,0
3.01691,-0.301659,-0.0176217
2.95507,-0.150214,-0.318721
2.97136,-0.151042,0.0692311
2.91876,-0.00560361,0.0849444
3.01252,-0.30122,0.0528459
2.91002,-0.00558684,-0.1865
2.96894,-0.15092,-0.138477
2.92351,-0.0153076,-0.0510308
2.96765,-0.160722,0
3.01987,-0.312073,-0.017645
2.95455,-0.160013,-0.318721
2.97883,-0.161328,0.0694172
2.96441,-0.160547,-0.207595
2.91473,-0.0152616,0.084828
3.01548,-0.31162,0.0529157
2.91398,-0.0152577,-0.186756
2.97242,-0.16098,-0.138663
2.92744,-0.0255474,-0.0511006
2.96707,-0.17108,0
3.02274,-0.323037,-0.0176682
2.95795,-0.170554,-0.319149
2.9718,-0.171353,-0.208153
2.92665,-0.0255405,0.0851771
2.9179,-0.0254642,-0.187012
2.96785,-0.171125,-0.138477
2.92946,-0.025565,-0.119354
2.93533,-0.036376,-0.0512403
3.01633,-0.333539,-0.0883189
2.9784,-0.182689,0
3.02551,-0.334554,-0.0176915
2.96921,-0.182125,-0.320434
2.98558,-0.183129,0.0696033
2.97115,-0.182244,-0.208153
2.92254,-0.0362175,0.0850607
2.92178,-0.0362081,-0.187268
2.98532,-0.183113,0.174185
2.97916,-0.182735,-0.139035
2.92719,-0.0464949,-0.0511006
2.97376,-0.192825,0
3.0283,-0.345566,-0.0177147
2.96856,-0.192488,-0.320434
2.98244,-0.193388,-0.20899
2.92639,-0.0464823,0.0851771
2.92962,-0.0465336,-0.187779
2.98466,-0.193533,0.174185
2.97851,-0.193134,-0.139035
2.93101,-0.0562783,-0.0511705
2.98108,-0.20323,0
3.03508,-0.35654,-0.0177612
2.97584,-0.202872,-0.321291
2.99224,-0.203991,0.0697894
2.98576,-0.203549,-0.209269
2.93022,-0.0562631,0.0852934
2.93344,-0.0563249,-0.188035
2.99197,-0.203972,0.17465
2.97785,-0.20301,-0.139035
2.94279,-0.0667814,-0.0513799
2.98035,-0.213634,0
3.03779,-0.367613,-0.0177845
2.98305,-0.213827,-0.322148
2.99151,-0.214434,0.0697894
2.97707,-0.213399,-0.208711
2.938,-0.0666725,0.0855262
2.94121,-0.0667453,-0.188547
2.98111,-0.213689,-0.139221
3.04161,-0.368075,-0.160567
2.94254,-0.0770532,-0.0513799
3.02732,-0.377072,-0.0887843
2.93894,-0.0769589,0.017087
3.04045,-0.378709,-0.0178077
2.99473,-0.225175,0.0698825
2.98427,-0.224388,-0.209269
2.93775,-0.0769276,0.0855262
2.94096,-0.0770116,-0.188547
2.9923,-0.224992,-0.139779
2.95025,-0.0875614,-0.0515195
3.03391,-0.388653,-0.089017
2.99474,-0.235691,0
2.99393,-0.235627,0.0698825
2.98744,-0.235117,-0.209548
2.93746,-0.0871819,0.0855262
2.94466,-0.0873955,-0.188803
2.99548,-0.235749,-0.139966
2.95225,-0.0876208,-0.120331
2.94993,-0.0978592,-0.0515195
3.0365,-0.399763,-0.0891334
2.9939,-0.246143,0
2.94233,-0.0976072,0.0171103
2.99456,-0.246198,-0.210106
2.95312,-0.0979652,0.0859916
2.94833,-0.0978061,-0.189058
3.0026,-0.246859,-0.140338
2.95356,-0.108302,-0.0515893
2.99302,-0.256592,0
2.94997,-0.10817,0.0171568
2.9962,-0.256865,0.0699755
2.99368,-0.256649,-0.210106
2.95276,-0.108273,0.0859916
2.95595,-0.10839,-0.18957
2.99376,-0.256656,-0.139966
2.96116,-0.118933,-0.0517289
2.99609,-0.267394,0
2.94957,-0.118467,0.0171568
3.00325,-0.268033,0.0701616
3.00072,-0.267807,-0.210665
2.96036,-0.1189,0.0862243
2.95954,-0.118867,-0.189826
3.00479,-0.26817,-0.140524
2.96073,-0.129268,-0.0517289
2.99912,-0.27822,0
2.96113,-0.129286,0.0172265
3.01424,-0.279622,0.0704408
2.99976,-0.27828,-0.210665
2.95593,-0.129059,0.086108
2.96309,-0.129371,-0.190082
3.01179,-0.279395,-0.140896
2.96428,-0.139273,-0.0517987
3.01013,-0.289312,0
2.95669,-0.138917,0.0172033
3.01329,-0.289616,0.0704408
3.00677,-0.288989,-0.211223
2.96747,-0.139423,0.0864571
2.96265,-0.139197,-0.190082
3.01482,-0.289763,-0.141082
2.96626,-0.139367,-0.120982
2.96377,-0.14962,-0.0517987
3.0091,-0.299818,0
2.96018,-0.149438,0.0172265
3.01624,-0.30053,0.0705338
3.00971,-0.299879,-0.211502
2.97096,-0.149982,0.0865734
2.96214,-0.149537,-0.190082
3.02175,-0.301078,-0.141455
2.97125,-0.159877,-0.0519384
3.01605,-0.310614,0
2.96766,-0.159684,0.017273
3.02061,-0.311084,-0.212339
2.97444,-0.160048,0.0866898
2.9696,-0.159788,-0.190593
3.02073,-0.311096,-0.141455
3.01921,-0.31094,-0.0706269
2.97464,-0.170996,-0.0520082
3.01489,-0.321667,0
2.97903,-0.171248,0.0173428
2.97782,-0.171179,0.0868062
2.97298,-0.170901,-0.190849
3.02752,-0.323014,-0.141827
3.02998,-0.323276,-0.0709061
2.97801,-0.181621,-0.052078
3.01772,-0.332627,0
2.98241,-0.181889,0.017366
2.97721,-0.181572,0.0868062
2.98034,-0.181763,-0.191361
2.98398,-0.181985,-0.121796
3.03281,-0.334289,-0.0709991
2.98135,-0.192273,-0.0521478
2.97776,-0.192041,0.0173428
2.98054,-0.192221,0.0869225
2.98367,-0.192422,-0.191617
2.98731,-0.192657,-0.121959
2.98066,-0.202679,-0.0521478
3.02725,-0.355084,0
2.97708,-0.202435,0.0173428
2.98783,-0.203166,0.0871552
2.98393,-0.213367,-0.0522176
3.02996,-0.366129,0
2.98433,-0.213396,0.0173892
2.98623,-0.213532,-0.191873
3.03858,-0.36717,-0.142571
3.04105,-0.367469,-0.0712783
2.99114,-0.22438,-0.0523572
2.99553,-0.224709,0.017459
2.9983,-0.224917,0.0875043
2.99343,-0.224552,-0.192384
3.04521,-0.378761,-0.142944
2.99835,-0.234922,-0.0524968
3.00275,-0.235267,0.0175055
2.99355,-0.234546,0.087388
2.99665,-0.234789,-0.19264
2.99632,-0.234763,-0.122448
2.99747,-0.24591,-0.0524968
3.00186,-0.246271,0.0175055
2.99666,-0.245844,0.0875043
2.99975,-0.246097,-0.192896
3.00341,-0.246398,-0.122773
3.00058,-0.256713,-0.0525666
3.00497,-0.257089,0.0175287
3.00773,-0.257325,0.0878534
2.99887,-0.256567,-0.192896
3.00253,-0.25688,-0.122773
3.0594,-0.413103,-0.0718366
3.00374,-0.266492,-0.0526365
3.01212,-0.267235,0.0175752
3.01089,-0.267126,0.0879698
3.006,-0.266692,-0.193408
3.00569,-0.266664,-0.122936
3.00668,-0.278392,-0.0527063
3.01383,-0.279054,0.0880861
3.0129,-0.278968,-0.193919
3.00862,-0.278572,-0.123099
3.01365,-0.289651,-0.0528459
3.01191,-0.289484,-0.193919
3.00763,-0.289072,-0.123099
3.0166,-0.300565,-0.0529157
3.02099,-0.301002,0.017645
3.01088,-0.299995,-0.193919
3.01456,-0.300362,-0.123424
3.01166,-0.309632,-0.0528459
3.02401,-0.310901,0.0176682
