2.23927,0.272965,-0.0262623
2.24021,0.265147,-0.0262623
2.25304,0.258694,-0.026402
2.25393,0.250828,-0.026402
2.25475,0.243353,-0.026402
2.2635,0.236706,-0.0264951
2.25555,0.235874,0.026402
2.26435,0.228408,-0.0264951
2.26038,0.228007,0.0264485
2.26116,0.220115,-0.0264485
2.26116,0.220115,0.0264485
2.26984,0.213365,-0.0265417
2.26586,0.21299,0.0264951
2.27057,0.205439,-0.0265417
2.26659,0.205079,0.0264951
2.27881,0.206185,-0.133255
2.27529,0.197462,-0.0265882
2.27131,0.197116,0.0265417
2.27594,0.189915,-0.0265882
2.25999,0.188585,0.026402
2.28057,0.182289,-0.0266348
2.26861,0.181333,0.0264951
2.29279,0.183266,-0.133952
2.28917,0.174937,-0.0267279
2.28518,0.174632,0.0266814
2.29342,0.175262,-0.133952
2.23441,0.273164,-0.0655119
2.28977,0.166945,-0.0267279
2.28977,0.166945,0.0267279
2.2354,0.264973,-0.0655119
2.29036,0.158552,-0.0267279
2.27839,0.157723,0.0265882
2.30258,0.159397,-0.134417
2.24813,0.259323,-0.065861
2.28686,0.151091,-0.0266814
2.25302,0.259887,-0.0131814
2.28287,0.150828,0.0266348
2.24505,0.251029,-0.0657446
2.30334,0.144106,-0.0268676
2.29536,0.143607,0.0267745
2.31156,0.14462,-0.134883
2.24998,0.242836,-0.065861
2.29988,0.135027,-0.0268211
2.25884,0.243793,-0.0132047
2.2919,0.134558,0.0267279
2.25059,0.242902,0.0395123
2.31608,0.135978,-0.135115
2.25073,0.235767,-0.065861
2.31228,0.128467,-0.0269608
2.25562,0.23628,-0.0131814
2.3003,0.127801,0.0268211
2.3165,0.128702,-0.135115
2.25154,0.227909,-0.065861
2.30872,0.120186,-0.0269142
2.26837,0.229612,-0.0132512
2.31877,0.12071,-0.216746
2.29673,0.119563,0.0267745
2.32092,0.120822,-0.135348
2.26927,0.229704,-0.119535
2.26032,0.220431,-0.0660937
2.32113,0.112304,-0.0270539
2.27318,0.221686,-0.0132744
2.30115,0.111338,0.0268211
2.26889,0.221267,0.0397915
2.26907,0.212893,-0.0663264
2.31753,0.103618,-0.0270073
2.27397,0.213353,-0.0132744
2.30554,0.103082,0.0268676
2.26969,0.212951,0.0397915
2.27769,0.206486,-0.0665591
2.32184,0.0965032,-0.0270539
2.27065,0.205847,-0.0132512
2.31385,0.096171,0.0269608
2.27034,0.20582,0.0397915
2.32605,0.0966781,-0.13558
2.26247,0.197145,-0.0660937
2.32616,0.0885494,-0.0271004
2.27932,0.198614,-0.0132977
2.33216,0.0887781,-0.217861
2.32216,0.0883972,0.0270539
2.27503,0.19824,0.0398613
2.32637,0.0885575,-0.13558
2.27111,0.189912,-0.0663264
2.33045,0.0805666,-0.027147
2.28,0.190656,-0.0132977
2.33644,0.0807737,-0.218233
2.31846,0.0801521,0.0270073
2.28368,0.190963,0.0400009
2.34263,0.0809877,-0.13651
2.27417,0.190168,0.0929754
2.28886,0.191396,-0.120373
2.27578,0.181906,-0.0664428
2.32673,0.0719016,-0.0271004
2.28467,0.182617,-0.0133209
2.34468,0.0724563,-0.218976
2.31874,0.0716545,0.0270073
2.28835,0.182911,0.0400707
2.28434,0.174968,-0.0666755
2.32696,0.0641848,-0.0271004
2.28926,0.175345,-0.0133442
2.34889,0.0647898,-0.219348
2.32696,0.0641848,0.0271004
2.28895,0.175321,0.0400707
2.35112,0.0648513,-0.136976
2.28895,0.166886,-0.0667919
2.34317,0.0560386,-0.0272867
2.28589,0.166663,-0.0133209
2.33118,0.0557518,0.027147
2.28558,0.16664,0.0400009
2.35134,0.0562341,-0.136976
2.28404,0.166527,0.0933011
2.28947,0.159694,-0.0667919
2.34334,0.0486775,-0.0272867
2.29439,0.160038,-0.0133674
2.35326,0.0488837,-0.21972
2.34334,0.0486775,0.0272867
2.29408,0.160016,0.0401405
2.34752,0.0487643,-0.136743
2.28854,0.159629,0.0934639
2.30324,0.160655,-0.121001
2.294,0.151965,-0.0669082
2.24109,0.258907,0
2.35549,0.0407042,-0.0274264
2.29493,0.152027,-0.0133674
2.35342,0.0406683,-0.21972
2.33949,0.0404277,0.0272401
2.29861,0.152271,0.0402103
2.35166,0.0406381,-0.136976
2.28908,0.151639,0.0934639
2.30777,0.152877,-0.12121
2.30252,0.144056,-0.067141
2.24203,0.250692,0
2.35162,0.0320167,-0.0273798
2.30346,0.144115,-0.0134139
2.3655,0.0322055,-0.220835
2.33962,0.0318533,0.0272401
2.30714,0.144345,0.04035
2.35978,0.0321278,-0.137441
2.29361,0.143499,0.0936268
2.3123,0.144668,-0.121419
2.307,0.136253,-0.0672573
2.25482,0.244156,0
2.35172,0.0238072,-0.0273798
2.30794,0.136308,-0.0134371
2.36559,0.0239476,-0.220835
2.35172,0.0238072,0.0273798
2.30363,0.136054,0.0402802
2.37186,0.024011,-0.138138
2.29011,0.135255,0.0934639
2.31279,0.136595,-0.121419
2.30746,0.1282,-0.0672573
2.25964,0.2367,0
2.35979,0.0156515,-0.027473
2.3084,0.128252,-0.0134371
2.37363,0.0157433,-0.221579
2.35179,0.0155985,0.0273798
2.31608,0.128678,0.0404896
2.36794,0.0157056,-0.137906
2.30254,0.127926,0.0939524
2.25903,0.236636,-0.0528539
2.30788,0.120548,-0.0672573
2.26439,0.22961,0
2.36383,0.00783983,-0.0275195
2.31281,0.120805,-0.0134604
2.37367,0.00787247,-0.221579
2.26378,0.229548,0.0529469
2.35983,0.00782657,0.027473
2.31649,0.120998,0.0404896
2.37197,0.00786683,-0.138138
2.29896,0.120082,0.0937896
2.26591,0.229764,-0.106091
2.26378,0.229548,-0.0529469
2.31228,0.112685,-0.0673737
2.26518,0.221704,0
2.36784,-0.000412835,-0.0275661
2.31721,0.112926,-0.0134836
2.37368,-0.000413854,-0.221579
2.35984,-0.000411441,0.027473
2.32489,0.1133,0.0406292
2.37597,-0.000414254,-0.138371
2.30335,0.11225,0.0939524
2.32604,0.113356,-0.122047
2.27252,0.222423,-0.053133
2.31665,0.104794,-0.06749
2.26195,0.21342,0
2.36782,-0.00867762,-0.0275661
2.31759,0.104837,-0.0134836
2.38163,-0.00872822,-0.222322
2.36382,-0.00866296,0.0275195
2.32127,0.105003,0.0405594
2.38394,-0.0087367,-0.138836
2.30772,0.10439,0.0941152
2.32499,0.0970398,-0.0677228
2.27065,0.206246,0
2.37578,-0.0170007,-0.0276592
2.32594,0.0970792,-0.0135301
2.38557,-0.0170708,-0.222694
2.278,0.206914,0.0532261
2.36378,-0.0169148,0.0275195
2.32162,0.0968993,0.0405594
2.3839,-0.0170588,-0.138836
2.31606,0.0966671,0.0944409
2.27615,0.206746,-0.106463
2.27402,0.206552,-0.053133
2.32134,0.088366,-0.0676064
2.27936,0.198618,0
2.3837,-0.0257943,-0.0277523
2.32628,0.0885541,-0.0135301
2.39345,-0.0258998,-0.223438
2.3797,-0.025751,0.0277058
2.32996,0.0886943,0.040699
2.38382,-0.0257956,-0.138836
2.32039,0.0883302,0.0946037
2.28486,0.199096,-0.106835
2.29868,0.0875037,0.187789
2.27875,0.198564,-0.0532261
2.32561,0.0808059,-0.0677228
2.284,0.191391,0
2.3836,-0.0336994,-0.0277523
2.32656,0.0808388,-0.0135301
2.39335,-0.0338373,-0.223438
2.28736,0.191673,0.0534122
2.3756,-0.0335864,0.0276592
2.28638,0.191591,-0.16044
2.33024,0.0809667,0.040699
2.38772,-0.0337576,-0.139069
2.32067,0.0806343,0.0946037
2.34337,0.0814229,-0.122885
2.30294,0.0800183,0.188115
2.27939,0.191005,-0.0532261
2.23295,0.289613,-0.0393028
2.32988,0.0728118,-0.0678391
2.28066,0.183097,0
2.38747,-0.0420907,-0.0277989
2.33882,0.0730913,-0.0135999
2.38526,-0.0420517,-0.222694
2.28802,0.183687,0.0534122
2.37947,-0.0419497,0.0277058
2.29102,0.183928,-0.160719
2.3345,0.0729565,0.0407688
2.39557,-0.0422335,-0.139534
2.32494,0.0726574,0.0947666
2.33965,0.0731171,-0.122675
2.3072,0.072103,0.18844
2.292,0.184007,-0.0535052
2.23792,0.282319,-0.0393726
2.33811,0.0649021,-0.0680718
2.28129,0.175136,0
2.3913,-0.0505071,-0.0278455
2.33906,0.0649284,-0.0135999
2.40102,-0.0507123,-0.224181
2.29263,0.176007,0.0535052
2.38731,-0.0504226,0.0277989
2.29164,0.175931,-0.160719
2.35127,0.0652674,-0.19202
2.34274,0.0650306,0.0409084
2.3994,-0.050678,-0.139766
2.32517,0.064543,0.0947666
2.34787,0.0651731,-0.123094
2.30345,0.0639399,0.188115
2.28466,0.175395,-0.0533191
2.33033,0.0565455,-0.0678391
2.28986,0.167756,0
2.39511,-0.058953,-0.027892
2.34727,0.0569566,-0.0136464
2.40481,-0.0591918,-0.224553
2.29323,0.168003,0.0535052
2.39111,-0.0588546,0.0278455
2.29622,0.168222,-0.160998
2.35547,0.0571556,-0.192346
2.34695,0.0569489,0.0409782
2.39921,-0.0590538,-0.139766
2.32938,0.0565226,0.0949294
2.35208,0.0570733,-0.123304
2.31561,0.0561885,0.189091
2.24134,0.274806,-0.0919985
2.29722,0.168295,-0.0535983
2.23979,0.267079,-0.0393726
2.34249,0.0490681,-0.0681882
2.2944,0.16044,0
2.3949,-0.0668958,-0.027892
2.34745,0.0491719,-0.0136464
2.40859,-0.067278,-0.224925
2.29777,0.160675,0.0535983
2.3989,-0.0670075,0.0279386
2.30075,0.160884,-0.161277
2.34713,0.0491652,0.0409782
2.40299,-0.0671217,-0.139999
2.33755,0.0489645,0.095255
2.36024,0.0494399,-0.123722
2.31977,0.0485922,0.189416
2.29378,0.160396,-0.0535052
2.24075,0.258868,-0.0393726
2.34266,0.0404827,-0.0681882
2.29497,0.15203,0
2.39864,-0.0757989,-0.0279386
2.36457,0.0408612,-0.301023
2.34761,0.0405682,-0.0136464
2.4123,-0.0762307,-0.225296
2.30233,0.152517,0.0536913
2.40264,-0.0759253,0.0279852
2.35129,0.0406318,0.0410481
2.40273,-0.0759281,-0.139999
2.33771,0.0403972,0.095255
2.30843,0.152922,-0.107766
2.31994,0.04009,0.189416
2.24718,0.25961,-0.0921613
2.30233,0.152517,-0.0536913
2.24557,0.251882,-0.0394424
2.34278,0.0327144,-0.0681882
2.29546,0.144419,0
2.41037,-0.084171,-0.0280783
2.25383,0.252808,0.0131814
2.35573,0.0328952,-0.0136929
2.41602,-0.0843683,-0.225668
2.29883,0.144631,0.0535983
2.39838,-0.0837522,0.0279386
2.3058,0.145069,-0.161556
2.35141,0.0328349,0.0410481
2.41044,-0.0841737,-0.140464
2.33783,0.0326453,0.095255
2.30893,0.145266,-0.107766
2.36452,0.033018,-0.123932
2.32803,0.0325084,0.190067
2.30282,0.144882,-0.0536913
2.24644,0.244042,-0.0394424
2.34688,0.0245776,-0.0683046
2.30394,0.136879,0
2.40606,-0.0924313,-0.0280317
2.25867,0.245371,0.0132047
2.36383,0.0247551,-0.0137394
2.42367,-0.0931077,-0.226412
2.31529,0.137554,0.0539705
2.40207,-0.0922778,0.0279852
2.31028,0.137256,-0.161835
2.35951,0.0247099,0.0411877
2.41014,-0.0925878,-0.140464
2.30004,0.136648,0.134185
2.34992,0.0246095,0.0957435
2.36862,0.0248053,-0.124141
2.32813,0.0243812,0.190067
2.25684,0.245171,-0.0924869
2.30731,0.137079,-0.0537844
2.25925,0.237059,-0.0396519
2.35095,0.0160034,-0.0684209
2.30442,0.128435,0
2.4097,-0.101417,-0.0280783
2.2516,0.236256,0.0131582
2.36391,0.0160916,-0.0137394
2.42331,-0.10199,-0.226412
2.31578,0.129067,0.0539705
2.4137,-0.101585,0.0281249
2.31076,0.128788,-0.161835
2.37604,0.0161742,-0.193973
2.35959,0.0160622,0.0411877
2.42175,-0.101924,-0.141162
2.3085,0.128662,0.13465
2.35799,0.0160513,0.0960692
2.31789,0.129185,-0.108138
2.37269,0.0161514,-0.12435
2.33617,0.0159028,0.190718
2.2617,0.237316,-0.0926498
2.31179,0.128845,-0.0538774
2.25609,0.228767,-0.0395821
2.35899,0.00782287,-0.0686537
2.30885,0.120598,0
2.41333,-0.110011,-0.0281249
2.26037,0.229202,0.0132047
2.36395,0.00783932,-0.0137394
2.43488,-0.110993,-0.227527
2.31621,0.120982,0.0539705
2.41333,-0.110011,0.0281249
2.31518,0.120929,-0.162114
2.38007,0.00789278,-0.194298
2.35963,0.00782499,0.0411877
2.42537,-0.110559,-0.141394
2.29697,0.119977,0.133952
2.35403,0.00780644,0.0959064
2.32231,0.121301,-0.108324
2.37673,0.00788169,-0.12456
2.3402,0.00776057,0.191044
2.26649,0.229822,-0.0928126
2.30823,0.120565,-0.0537844
2.25683,0.221284,-0.0395821
2.355,-5.13225e-07,-0.0685373
2.31324,0.113136,0
2.42094,-0.118404,-0.028218
2.26908,0.222485,0.0132512
2.37196,-5.1692e-07,-0.0137859
2.43449,-0.119067,-0.227527
2.3206,0.113496,0.0540635
2.42094,-0.118404,0.028218
2.31557,0.11325,-0.162114
2.37964,-5.18593e-07,0.0415367
2.421,-0.118407,-0.141162
2.29736,0.112359,0.133952
2.36604,-5.15629e-07,0.0963948
2.32669,0.113794,-0.108511
2.34819,-5.1174e-07,0.191695
2.26724,0.222304,-0.0928126
2.3166,0.1133,-0.0539705
2.26954,0.214534,-0.0397915
2.36299,-0.00824843,-0.06877
2.31362,0.105061,0
2.42451,-0.127063,-0.0282646
2.26188,0.21381,0.0132047
2.37595,-0.00829367,-0.0138091
2.43406,-0.127564,-0.227527
2.32098,0.105395,0.0540635
2.42451,-0.127063,0.0282646
2.32392,0.105529,-0.162672
2.37562,-0.00829254,0.0414669
2.42456,-0.127066,-0.141394
2.3097,0.104883,0.13465
2.35403,-0.00821718,0.0959064
2.31909,0.105309,-0.108138
2.38871,-0.00833821,-0.125188
2.34817,-0.00819672,0.191695
2.27596,0.215141,-0.0931383
2.31698,0.105214,-0.0539705
2.26629,0.206249,-0.0397217
2.36694,-0.0165242,-0.0688864
2.31397,0.0969845,0
2.42804,-0.135748,-0.0283111
2.26659,0.206277,0.0132279
2.3759,-0.0165867,-0.0138091
2.3245,0.0974259,-0.250607
2.44951,-0.136948,-0.229014
2.32932,0.0976281,0.0542496
2.42405,-0.135525,0.0282646
2.32827,0.0975837,-0.162951
2.39198,-0.016699,-0.195275
2.25771,0.205468,0.0659773
2.37558,-0.0165845,0.0414669
2.27789,0.207305,-0.146591
2.42809,-0.135751,-0.141627
2.31404,0.0969876,0.134883
2.36198,-0.0164895,0.096232
2.33542,0.0978834,-0.108883
2.38866,-0.0166758,-0.125188
2.35212,-0.0164207,0.19202
2.2767,0.207196,-0.0931383
2.33332,0.0977955,-0.0543427
2.27098,0.198686,-0.0397915
2.36687,-0.0247857,-0.0688864
2.31429,0.0889071,0
2.42356,-0.143985,-0.0282646
2.39653,-0.0250963,-0.305064
2.2673,0.198364,0.0132279
2.38383,-0.0249633,-0.0138556
2.3288,0.0894645,-0.251036
2.44902,-0.145497,-0.229014
2.33365,0.0896506,0.0543427
2.43155,-0.14446,0.0283577
2.33258,0.0896096,-0.16323
2.38793,-0.0250062,-0.194949
2.25841,0.197587,0.0659773
2.37551,-0.0248762,0.0414669
2.2786,0.199353,-0.146591
2.43159,-0.144462,-0.141859
2.31836,0.0890633,0.135115
2.3739,-0.0248594,0.0967205
2.33974,0.0898845,-0.109069
2.39259,-0.025055,-0.125397
2.35205,-0.0246305,0.19202
2.27342,0.1989,-0.0929754
2.33764,0.0898041,-0.0544357
2.27564,0.191091,-0.0398613
2.37077,-0.0331039,-0.0690027
2.32258,0.0811068,0
2.43502,-0.153198,-0.0284042
2.4004,-0.0335177,-0.305569
2.27197,0.190783,0.0132512
2.38773,-0.0333408,-0.0138789
2.33307,0.0814731,-0.251464
2.45247,-0.154296,-0.229386
2.33794,0.0816431,0.0544357
2.43502,-0.153198,0.0284042
2.32889,0.081327,-0.162951
2.39978,-0.0335091,-0.195926
2.26706,0.190371,0.0662101
2.3834,-0.0332804,0.0416065
2.28326,0.191731,-0.146847
2.43904,-0.153451,-0.142324
2.32265,0.0811089,0.135348
2.3778,-0.0332021,0.0968833
2.33205,0.0814373,-0.108697
2.39248,-0.0334072,-0.125397
2.35593,-0.0328968,0.192346
2.28207,0.191631,-0.0933011
2.32995,0.0813639,-0.0542496
2.2763,0.183146,-0.0398613
2.37064,-0.0413799,-0.0690027
2.33085,0.0732496,0
2.43846,-0.161963,-0.0284508
2.40423,-0.0419663,-0.306074
2.2766,0.183171,0.0132744
2.3836,-0.0416061,-0.0138556
2.33334,0.073328,-0.251464
2.45191,-0.162856,-0.229386
2.33422,0.0733554,0.0543427
2.43447,-0.161698,0.0284042
2.33714,0.0734472,-0.163509
2.40364,-0.0419559,-0.196251
2.27169,0.182776,0.0663264
2.38727,-0.0416703,0.0416763
2.27994,0.183439,-0.146591
2.44247,-0.162229,-0.142557
2.32691,0.0731257,0.13558
2.38566,-0.0416421,0.097209
2.34031,0.0735468,-0.109069
2.39635,-0.0418287,-0.125606
2.36776,-0.0413297,0.193322
2.29069,0.184304,-0.0936268
2.33821,0.073481,-0.0544357
2.28484,0.176611,-0.0400009
2.38249,-0.0490738,-0.0693518
2.33107,0.0659271,0
2.44592,-0.170177,-0.0285439
2.28514,0.176635,0.0133209
2.39545,-0.0493409,-0.0139253
2.33754,0.0661101,-0.251892
2.45934,-0.171111,-0.23013
2.34643,0.0663615,0.0546219
2.43794,-0.169622,0.0284508
2.33736,0.066105,-0.163509
2.27624,0.175947,0.0664428
2.39913,-0.0494165,0.0418858
2.29244,0.177199,-0.147358
2.44992,-0.170455,-0.143022
2.33511,0.0660414,0.136045
2.38551,-0.0491362,0.097209
2.34452,0.0663076,-0.109255
2.4002,-0.0494386,-0.125816
2.37161,-0.0488497,0.193647
2.29126,0.177107,-0.0936268
2.34243,0.0662484,-0.0545288
2.28544,0.168635,-0.0400009
2.37431,-0.0571968,-0.0691191
2.33928,0.0579885,0
2.44132,-0.178422,-0.0284974
2.4158,-0.0581965,-0.307589
2.28575,0.168658,0.0133209
2.40326,-0.0578944,-0.0139718
2.33775,0.0579507,-0.251892
2.47859,-0.181145,-0.231988
2.34664,0.058171,0.0546219
2.43733,-0.178131,0.0284508
2.34156,0.058045,-0.163788
2.40331,-0.0578955,-0.196251
2.27286,0.167706,0.0663264
2.39894,-0.0577902,0.0418858
2.29703,0.16949,-0.147614
2.44931,-0.179006,-0.143022
2.33932,0.0579894,0.136278
2.38932,-0.0575586,0.0973718
2.34474,0.0581237,-0.109255
2.40001,-0.057816,-0.125816
2.36744,-0.0570313,0.193322
2.29186,0.169109,-0.0936268
2.34664,0.058171,-0.0546219
2.29798,0.161497,-0.0402103
2.38608,-0.0658158,-0.0694682
2.33547,0.0497367,0
2.44467,-0.187249,-0.0285439
2.41162,-0.0665201,-0.307084
2.28632,0.160677,0.0133209
2.40305,-0.0662837,-0.0139718
2.34987,0.0500434,-0.253177
2.47397,-0.189493,-0.231617
2.35483,0.050149,0.054808
2.44467,-0.187249,0.0285439
2.34973,0.0500404,-0.164346
2.40707,-0.0663948,-0.196577
2.28539,0.160612,0.0666755
2.39872,-0.0661644,0.0418858
2.29761,0.16147,-0.147614
2.46459,-0.188775,-0.143952
2.3435,0.0499077,0.13651
2.38911,-0.0658993,0.0973718
2.34892,0.0500232,-0.109441
2.40379,-0.0663041,-0.126025
2.37121,-0.0654055,0.193647
2.29643,0.161387,-0.0937896
2.35083,0.0500638,-0.0547149
2.29055,0.152941,-0.0400707
2.38184,-0.0740201,-0.0693518
2.33963,0.0416553,0
2.45198,-0.19642,-0.0286371
2.4193,-0.0751843,-0.308094
2.28687,0.152695,0.0133209
2.4028,-0.0746715,-0.0139718
2.34208,0.0416989,-0.252321
2.48123,-0.198763,-0.23236
2.35099,0.0418576,0.0547149
2.44799,-0.196101,0.0285905
2.34989,0.041838,-0.164346
2.41081,-0.0749205,-0.196902
2.27796,0.152101,0.0664428
2.40247,-0.0746614,0.0419556
2.29816,0.153449,-0.147614
2.45994,-0.197058,-0.14372
2.33966,0.0416559,0.136278
2.39286,-0.0743625,0.0975347
2.41152,-0.0749426,-0.126444
2.37893,-0.0739298,0.194298
2.29698,0.15337,-0.0937896
2.35099,0.0418576,-0.0547149
2.29107,0.144945,-0.0400707
2.38956,-0.0826102,-0.0695846
2.34376,0.0335455,0
2.45526,-0.205311,-0.0286836
2.42299,-0.0837659,-0.3086
2.29138,0.144964,0.0133442
2.40652,-0.0831966,-0.0139951
2.34619,0.0335802,-0.252749
2.47258,-0.206759,-0.231617
2.35912,0.0337653,0.054901
2.44729,-0.204645,0.0285905
2.35401,0.0336922,-0.164625
2.41452,-0.0834731,-0.197227
2.28646,0.144653,0.0666755
2.4022,-0.0830471,0.0419556
2.30266,0.145678,-0.14787
2.46321,-0.205976,-0.143952
2.35177,0.0336602,0.136976
2.40057,-0.0829909,0.0978603
2.35321,0.0336807,-0.109627
2.41923,-0.083636,-0.126862
2.38265,-0.0823711,0.194624
2.30149,0.145604,-0.0939524
2.35512,0.0337081,-0.054808
2.30354,0.137662,-0.0402802
2.39325,-0.0911029,-0.0697009
2.34786,0.0254073,0
2.46649,-0.214922,-0.0288233
2.42665,-0.0923742,-0.309105
2.29587,0.137204,0.0133674
2.41821,-0.0920528,-0.0140648
2.35424,0.0254764,-0.253606
2.47978,-0.216081,-0.23236
2.36322,0.0255735,0.0549941
2.45055,-0.213533,0.0286371
2.3581,0.0255181,-0.164904
2.42617,-0.0923558,-0.198204
2.29094,0.136909,0.0667919
2.41388,-0.0918882,0.042165
2.31113,0.138116,-0.148382
2.47044,-0.215266,-0.144417
2.34788,0.0254075,0.136743
2.40826,-0.091674,0.098186
2.35731,0.0255095,-0.109813
2.41493,-0.0919282,-0.126653
2.3943,-0.0911426,0.1956
2.30597,0.137808,-0.0941152
2.36322,0.0255735,-0.0549941
2.308,0.129845,-0.04035
2.39292,-0.0994563,-0.0697009
2.35194,0.0172409,0
2.46174,-0.223169,-0.0287768
2.43028,-0.101009,-0.30961
2.30432,0.129638,0.0134139
2.42187,-0.100659,-0.0140881
2.35432,0.0172584,-0.253606
2.49488,-0.226174,-0.233847
2.37129,0.0173828,0.0551802
2.45775,-0.222808,0.0287302
2.35818,0.0172867,-0.164904
2.42185,-0.100659,-0.197878
2.28741,0.128687,0.0666755
2.41754,-0.10048,0.0422348
2.31159,0.130048,-0.148382
2.47365,-0.224249,-0.14465
2.35195,0.017241,0.136976
2.40393,-0.0999139,0.0980231
2.36138,0.0173101,-0.11
2.42258,-0.100689,-0.127072
2.386,-0.0991685,0.194949
2.31043,0.129982,-0.0942781
2.3673,0.0173535,-0.0550871
2.31243,0.121999,-0.0404198
2.40055,-0.108169,-0.0699336
2.35598,0.00904637,0
2.46493,-0.232136,-0.0288233
2.43784,-0.109849,-0.31062
2.30076,0.121383,0.0133907
2.4215,-0.109113,-0.0140881
2.36629,0.00908597,-0.254891
2.49804,-0.235254,-0.234219
2.37934,0.00913605,0.0553663
2.46094,-0.231761,0.0287768
2.36221,0.0090703,-0.165183
2.42945,-0.109471,-0.198529
2.29583,0.121123,0.0669082
2.41318,-0.108738,0.042165
2.32001,0.122399,-0.148893
2.4808,-0.233631,-0.145115
2.36398,0.00907707,0.137673
2.41554,-0.108844,0.0985116
2.36142,0.00906726,-0.11
2.42621,-0.109325,-0.127281
2.36224,0.00907041,0.290049
2.38962,-0.107676,0.195275
2.31486,0.122127,-0.0944409
2.37534,0.0091207,-0.0552732
2.31284,0.113926,-0.0404198
2.40814,-0.116935,-0.0701664
2.356,0.000822398,0
2.46808,-0.241128,-0.0288699
2.37542,0.000829178,-0.369561
2.4414,-0.11855,-0.311125
2.30117,0.113351,0.0133907
2.4251,-0.117759,-0.0141113
2.37029,0.000827385,-0.255319
2.4972,-0.243973,-0.234219
2.37536,0.000829155,0.0552732
2.4641,-0.240739,0.0288233
2.36622,0.000825966,-0.165462
2.43701,-0.118337,-0.19918
2.30024,0.113305,0.0670246
2.41279,-0.117161,0.042165
2.31643,0.114103,-0.148637
2.48792,-0.243066,-0.14558
2.36399,0.000825188,0.137673
2.41914,-0.117469,0.0986745
2.36943,0.000827086,-0.110372
2.4298,-0.117987,-0.12749
2.40516,-0.11679,0.196577
2.32325,0.114439,-0.0947666
2.36736,0.000826363,-0.0550871
2.30923,0.105669,-0.04035
2.40772,-0.12534,-0.0701664
2.36399,-0.00742671,0
2.47518,-0.250547,-0.028963
2.38727,-0.00749985,-0.371406
2.44494,-0.127278,-0.31163
2.30954,0.105684,0.0134371
2.42468,-0.126223,-0.0141113
2.3663,-0.00743397,-0.254891
2.5003,-0.253089,-0.234591
2.37535,-0.00746239,0.0552732
2.4712,-0.250144,0.0289165
2.3702,-0.00744623,-0.165741
2.44455,-0.127258,-0.199831
2.30461,0.105458,0.067141
2.42035,-0.125998,0.0423046
2.32081,0.106199,-0.148893
2.49103,-0.252151,-0.145813
2.35999,-0.00741415,0.137441
2.41472,-0.125705,0.0985116
2.36542,-0.00743122,-0.110186
2.43735,-0.126883,-0.127909
2.36622,-0.00743371,0.290537
2.40473,-0.125185,0.196577
2.32763,0.106511,-0.0949294
2.37135,-0.00744983,-0.0551802
2.31758,0.0979457,-0.0404896
2.41525,-0.134188,-0.0703991
2.35595,-0.0156255,0
2.48623,-0.260436,-0.0291027
2.39118,-0.0158592,-0.37202
2.4524,-0.136252,-0.31264
2.31789,0.097959,0.0134836
2.42821,-0.134908,-0.0141346
2.37819,-0.015773,-0.256176
2.50732,-0.262645,-0.235334
2.3833,-0.0158069,0.0554593
2.47032,-0.258769,0.0289165
2.37016,-0.0157197,-0.165741
2.45205,-0.136232,-0.200482
2.30896,0.0975815,0.0672573
2.42789,-0.13489,0.0424443
2.32914,0.0984343,-0.149405
2.49808,-0.261677,-0.146278
2.37193,-0.0157315,0.138138
2.42624,-0.134798,0.0990001
2.37337,-0.015741,-0.110558
2.44088,-0.135612,-0.128118
2.35824,-0.0156407,0.289562
2.40826,-0.1338,0.196902
2.32799,0.0983857,-0.0949294
2.3833,-0.0158069,-0.0554593
2.32989,0.09032,-0.040699
2.41876,-0.142854,-0.0705155
2.36788,-0.0239706,0
2.49326,-0.269974,-0.0291958
2.39111,-0.0242058,-0.37202
2.45983,-0.145279,-0.31365
2.32621,0.0901773,0.0135301
2.43571,-0.143855,-0.0141811
2.37812,-0.0240743,-0.256176
2.50639,-0.271396,-0.235334
2.39123,-0.024207,0.0556454
2.4694,-0.26739,0.0289165
2.37408,-0.0240334,-0.16602
2.45156,-0.144791,-0.200482
2.30529,0.0893663,0.067141
2.43938,-0.144071,0.0426537
2.33745,0.0906127,-0.149916
2.50509,-0.271255,-0.146743
2.37585,-0.0240514,0.138371
2.42576,-0.143267,0.0990001
2.37331,-0.0240256,-0.110558
2.4364,-0.143896,-0.127909
2.36611,-0.0239527,0.290537
2.40778,-0.142205,0.196902
2.32832,0.0902589,-0.0949294
2.38323,-0.0241261,-0.0554593
2.3302,0.0821866,-0.040699
2.43022,-0.152045,-0.0708645
2.37578,-0.0323448,0
2.4923,-0.278675,-0.0291958
2.39496,-0.032606,-0.372635
2.45535,-0.153617,-0.313145
2.31852,0.0817748,0.0134836
2.43919,-0.152606,-0.0142043
2.38598,-0.0324836,-0.257033
2.51334,-0.281028,-0.236078
2.38713,-0.0324994,0.0555524
2.4923,-0.278675,0.0291958
2.37797,-0.0323747,-0.166299
2.45502,-0.153596,-0.200808
2.31358,0.0816006,0.0673737
2.43487,-0.152336,0.0425839
2.33775,0.082453,-0.149916
2.51206,-0.280885,-0.147208
2.37176,-0.0322901,0.138138
2.43322,-0.152233,0.0993258
2.38519,-0.032473,-0.111116
2.44386,-0.152898,-0.128328
2.37395,-0.0323199,0.291512
2.41125,-0.150858,0.197227
2.33261,0.0822719,-0.0950922
2.39513,-0.0326083,-0.0557385
2.32646,0.0743313,-0.0406292
2.4297,-0.160103,-0.0708645
2.37566,-0.040223,0
2.49533,-0.287396,-0.0292424
2.4067,-0.0407486,-0.37448
2.4667,-0.162541,-0.31466
2.32278,0.0742136,0.0135069
2.44665,-0.16122,-0.0142508
2.38983,-0.040463,-0.257461
2.51635,-0.289817,-0.23645
2.39101,-0.0404829,0.0556454
2.49136,-0.286938,0.0291958
2.39381,-0.0405304,-0.167416
2.46245,-0.162261,-0.201458
2.31384,0.0739281,0.0673737
2.44233,-0.160935,0.0427235
2.33402,0.0745728,-0.149661
2.51112,-0.289214,-0.147208
2.37563,-0.0402226,0.138371
2.43669,-0.160563,0.0994886
2.38507,-0.0403824,-0.111116
2.45131,-0.161527,-0.128746
2.36986,-0.0401248,0.291024
2.42665,-0.159902,0.198529
2.33287,0.0745362,-0.0950922
2.39101,-0.0404829,-0.0556454
2.3267,0.0662099,-0.0406292
2.42913,-0.168583,-0.0708645
2.3835,-0.0486787,0
2.50623,-0.297519,-0.0293821
2.41049,-0.04923,-0.375095
2.33102,0.0663327,0.0135534
2.45406,-0.170313,-0.0142973
2.38968,-0.0488048,-0.257461
2.52324,-0.299538,-0.237193
2.39885,-0.0489922,0.0558315
2.49432,-0.296105,0.0292424
2.39365,-0.0488861,-0.167416
2.32208,0.0660783,0.0676064
2.44574,-0.169736,0.0427933
2.34224,0.0666522,-0.150172
2.51406,-0.298448,-0.147441
2.38746,-0.0487595,0.139069
2.43611,-0.169068,0.0994886
2.39291,-0.0488708,-0.111489
2.46269,-0.170912,-0.129375
2.38161,-0.0486402,0.292486
2.42607,-0.168371,0.198529
2.3451,0.0667336,-0.0955807
2.39885,-0.0489922,-0.0558315
2.33092,0.0581876,-0.040699
2.4365,-0.177643,-0.0710973
2.37932,-0.0569028,0
2.50915,-0.306751,-0.0294287
2.41031,-0.0576439,-0.375095
2.46947,-0.180046,-0.315165
2.33123,0.0581955,0.0135534
2.44547,-0.178297,-0.0142508
2.39744,-0.0573362,-0.258318
2.40266,-0.057461,0.0559246
2.49724,-0.305295,0.029289
2.38948,-0.0571458,-0.167137
2.46921,-0.180028,-0.202109
2.32629,0.0580721,0.0677228
2.44514,-0.178272,0.0427933
2.34645,0.0585754,-0.150428
2.52489,-0.308676,-0.148138
2.38328,-0.0569975,0.138836
2.4395,-0.177861,0.0996514
2.38873,-0.0571278,-0.111302
2.45809,-0.179217,-0.129165
2.3854,-0.0570482,0.292974
2.42547,-0.176839,0.198529
2.34532,0.0585472,-0.0955807
2.40666,-0.0575567,-0.0560176
2.34312,0.0494905,-0.0409084
2.4358,-0.186997,-0.0710973
2.38308,-0.0661493,0
2.51589,-0.317384,-0.0295218
2.41402,-0.067008,-0.37571
2.33544,0.0493283,0.0135766
2.46471,-0.189216,-0.0143671
2.40516,-0.066762,-0.259175
2.40642,-0.0667971,0.0560176
2.50398,-0.315883,0.0293821
2.39323,-0.066431,-0.167416
2.48043,-0.190423,-0.203086
2.33049,0.0492238,0.0678391
2.4564,-0.188578,0.0430027
2.35464,0.0497339,-0.15094
2.53161,-0.319368,-0.148603
2.39502,-0.0664806,0.139534
2.45473,-0.188451,0.100303
2.39648,-0.0665211,-0.111675
2.46137,-0.18896,-0.129375
2.38516,-0.066207,0.292974
2.42875,-0.186456,0.198855
2.34553,0.0495414,-0.0955807
2.40642,-0.0667971,-0.0560176
2.34726,0.042201,-0.0409782
2.45114,-0.195922,-0.0715627
2.38286,-0.0736356,0
2.51091,-0.324774,-0.0294752
2.4217,-0.0748357,-0.37694
2.47606,-0.197914,-0.316176
2.34358,0.0421349,0.0136231
2.46809,-0.197277,-0.0143903
2.40891,-0.0744405,-0.259603
2.4102,-0.0744803,0.0561107
2.49901,-0.323234,0.0293355
2.40099,-0.0741957,-0.167974
2.47584,-0.197897,-0.20276
2.33463,0.041974,0.0679555
2.45181,-0.195976,0.0429329
2.3508,0.0422646,-0.150684
2.5306,-0.32732,-0.148603
2.3948,-0.0740044,0.139534
2.45413,-0.196161,0.100303
2.40424,-0.0742963,-0.112047
2.47271,-0.197646,-0.130003
2.38891,-0.0738225,0.293461
2.4361,-0.19472,0.199506
2.34567,0.0421725,-0.0955807
2.4102,-0.0744803,-0.0561107
2.3474,0.0340073,-0.0409782
2.44247,-0.203812,-0.07133
2.39458,-0.0823654,0
2.52959,-0.336171,-0.029708
2.47931,-0.206886,-0.316681
2.33972,0.033896,0.0135999
2.4634,-0.205558,-0.0143671
2.40863,-0.0828487,-0.259603
2.40992,-0.082893,0.0561107
2.51373,-0.334063,0.0295218
2.40071,-0.0825763,-0.167974
2.48308,-0.207201,-0.203411
2.33477,0.0338243,0.0679555
2.45111,-0.204533,0.0429329
2.35492,0.0341163,-0.15094
2.53735,-0.337203,-0.149068
2.39852,-0.0825006,0.139766
2.45741,-0.205059,0.100466
2.41196,-0.082963,-0.112419
2.47599,-0.206609,-0.130212
2.39261,-0.0822974,0.293949
2.43938,-0.203554,0.199831
2.3538,0.0341001,-0.0959064
2.41392,-0.0830305,-0.0562037
2.3435,0.0257692,-0.0409084
2.4537,-0.213376,-0.0716791
2.39428,-0.0907236,0
2.5284,-0.344999,-0.029708
2.43297,-0.0921894,-0.378784
2.49043,-0.216571,-0.318196
2.34782,0.0258167,0.0136464
2.47063,-0.214849,-0.0144135
2.42025,-0.0917077,-0.260888
2.40562,-0.0911533,0.0560176
2.51651,-0.343377,0.0295684
2.40839,-0.091258,-0.168532
2.49029,-0.216558,-0.204062
2.34686,0.0258062,0.0683046
2.46233,-0.214127,0.0431423
2.35902,0.0259398,-0.151196
2.53616,-0.346058,-0.149068
2.39422,-0.0907213,0.139534
2.45668,-0.213636,0.100466
2.41165,-0.0913818,-0.112419
2.47923,-0.215596,-0.130421
2.40421,-0.0910996,0.295411
2.43865,-0.212068,0.199831
2.3539,0.0258836,-0.0959064
2.41361,-0.0914561,-0.0562037
2.35557,0.0176787,-0.0411179
2.45692,-0.2223,-0.0717954
2.40194,-0.0994114,0
2.5351,-0.354932,-0.0298012
2.42868,-0.100518,-0.37817
2.50152,-0.226335,-0.319711
2.35189,0.0176511,0.0136696
2.47385,-0.223832,-0.0144368
2.41992,-0.100155,-0.260888
2.41728,-0.100046,0.0562968
2.51926,-0.352713,0.0296149
2.41204,-0.0998293,-0.168811
2.49746,-0.225968,-0.204713
2.34694,0.0176139,0.0683046
2.46953,-0.223442,0.043282
2.36309,0.0177351,-0.151451
2.5468,-0.35657,-0.149766
2.40985,-0.0997387,0.140464
2.46388,-0.22293,0.100791
2.41531,-0.0999647,-0.112605
2.4904,-0.225329,-0.131049
2.40387,-0.0994913,0.295411
2.44981,-0.221657,0.200808
2.36197,0.0177267,-0.096232
2.42127,-0.100211,-0.0563898
2.35162,0.00944007,-0.0410481
2.46807,-0.231998,-0.0721445
2.39759,-0.107616,0
2.52989,-0.36321,-0.0297546
2.43226,-0.109172,-0.378784
2.35994,0.00947346,0.0137161
2.47704,-0.232841,-0.01446
2.42353,-0.10878,-0.261317
2.4249,-0.108842,0.0564829
2.52197,-0.362073,0.0296615
2.41965,-0.108606,-0.169369
2.50062,-0.235057,-0.205038
2.35898,0.00946961,0.0686537
2.47272,-0.232435,0.0433518
2.37112,0.00951832,-0.151963
2.55345,-0.366593,-0.150231
2.41348,-0.108329,0.140696
2.46707,-0.231903,0.100954
2.41495,-0.108395,-0.112605
2.48562,-0.233647,-0.13084
2.40351,-0.107882,0.295411
2.45696,-0.230953,0.201458
2.36202,0.00948181,-0.096232
2.4249,-0.108842,-0.0564829
2.35964,0.0012355,-0.0411877
2.4752,-0.241388,-0.0723772
2.40918,-0.116564,0
2.54048,-0.373786,-0.0298943
2.43976,-0.118044,-0.380014
2.35996,0.00123567,0.0137161
2.48019,-0.241874,-0.0144833
2.4271,-0.117431,-0.261745
2.4325,-0.117692,0.056669
2.53256,-0.372621,0.0298012
2.41926,-0.117052,-0.169369
2.49979,-0.243785,-0.205038
2.351,0.00123098,0.0684209
2.47588,-0.241453,0.0434216
2.37513,0.00124361,-0.152219
2.56005,-0.376666,-0.150696
2.41707,-0.116946,0.140929
2.4742,-0.24129,0.10128
2.42653,-0.117403,-0.113164
2.49274,-0.243097,-0.131259
2.40709,-0.116463,0.295899
2.45217,-0.239141,0.201133
2.36604,0.00123885,-0.0963948
2.4285,-0.117499,-0.056576
2.36363,-0.00701306,-0.0412575
2.47435,-0.250026,-0.0723772
2.42074,-0.125595,0
2.54707,-0.383843,-0.0299874
2.44723,-0.126969,-0.381244
2.35595,-0.00699027,0.0136929
2.47933,-0.25053,-0.0144833
2.43065,-0.126109,-0.262174
2.42808,-0.125975,0.056576
2.53916,-0.382651,0.0298943
2.4268,-0.125909,-0.169927
2.50289,-0.25291,-0.205364
2.36299,-0.00701116,0.06877
2.48298,-0.250898,0.0435612
2.37113,-0.0070353,-0.151963
2.41266,-0.125176,0.140696
2.4813,-0.250728,0.101605
2.43408,-0.126287,-0.113536
2.49982,-0.2526,-0.131677
2.41459,-0.125276,0.296874
2.45925,-0.248501,0.201784
2.37402,-0.00704389,-0.0967205
2.43207,-0.126182,-0.056669
2.36759,-0.0152894,-0.0413273
2.47744,-0.259078,-0.0724936
2.4123,-0.133602,0
2.55362,-0.393952,-0.0300806
2.45466,-0.135948,-0.382474
2.36391,-0.0152657,0.0137394
2.49436,-0.260847,-0.0145763
2.43417,-0.134813,-0.262602
2.43161,-0.134671,0.056669
2.55362,-0.393952,0.0300806
2.4383,-0.135042,-0.170764
2.51388,-0.262889,-0.20634
2.35895,-0.0152337,0.0686537
2.48606,-0.25998,0.043631
2.37907,-0.0153636,-0.152475
2.41221,-0.133597,0.140696
2.47643,-0.258972,0.101443
2.43363,-0.134783,-0.113536
2.51084,-0.262571,-0.132305
2.41414,-0.133704,0.296874
2.47027,-0.258328,0.20276
2.38197,-0.0153823,-0.0970462
2.4396,-0.135113,-0.0568551
2.36752,-0.0235538,-0.0413273
2.48447,-0.268583,-0.0727263
2.4238,-0.142727,0
2.55618,-0.403487,-0.0301271
2.45812,-0.144748,-0.383089
2.37584,-0.0236366,0.0138091
2.48945,-0.269122,-0.014553
2.43368,-0.143309,-0.262602
2.43512,-0.143393,0.0567621
2.54827,-0.402239,0.030034
2.43383,-0.143317,-0.170485
2.52088,-0.27252,-0.206991
2.36688,-0.0235474,0.0688864
2.48912,-0.269086,0.0437008
2.38698,-0.0237474,-0.152986
2.4197,-0.142485,0.141162
2.47551,-0.267615,0.101443
2.43713,-0.143512,-0.113722
2.50991,-0.271334,-0.132305
2.41366,-0.14213,0.296874
2.37791,-0.0236571,-0.0968833
2.43911,-0.143628,-0.0568551
2.37142,-0.0318716,-0.0413971
2.49543,-0.278585,-0.0730754
2.42728,-0.151436,0
2.56265,-0.413682,-0.0302203
2.45366,-0.153081,-0.382474
2.37975,-0.0319834,0.0138324
2.50042,-0.279142,-0.0146228
2.45301,-0.153041,-0.264744
2.4386,-0.152142,0.0568551
2.5508,-0.411769,0.0300806
2.4373,-0.152061,-0.170764
2.52387,-0.28176,-0.207317
2.37078,-0.0318629,0.0690027
2.50009,-0.279104,0.0439103
2.38689,-0.0320794,-0.152986
2.42716,-0.151428,0.141627
2.49045,-0.278028,0.102094
2.44459,-0.152516,-0.114094
2.51689,-0.28098,-0.132724
2.41315,-0.150554,0.296874
2.38181,-0.0320111,-0.0970462
2.44259,-0.152391,-0.0569482
2.3793,-0.0398693,-0.0415367
2.4945,-0.286859,-0.0730754
2.43076,-0.159746,0
2.55732,-0.421527,-0.0301737
2.46497,-0.161994,-0.384319
2.37963,-0.0398747,0.0138324
2.50743,-0.288346,-0.0146693
2.4644,-0.161957,-0.266029
2.43409,-0.159965,0.0567621
2.56521,-0.422828,0.0302668
2.45271,-0.161189,-0.17188
2.52689,-0.290583,-0.207642
2.37066,-0.0397246,0.0690027
2.49915,-0.287393,0.0439103
2.39076,-0.0400613,-0.153242
2.43461,-0.16,0.142092
2.48951,-0.286286,0.102094
2.45205,-0.161145,-0.114467
2.51991,-0.289781,-0.132933
2.42848,-0.159597,0.298824
2.38569,-0.0399763,-0.097209
2.45005,-0.161014,-0.0571343
2.38315,-0.0482554,-0.0416065
2.50936,-0.297447,-0.0735409
2.43816,-0.168783,0
2.57555,-0.433772,-0.0304065
2.37947,-0.0481809,0.0138324
2.50641,-0.297097,-0.0146693
2.45191,-0.169734,-0.264744
2.44548,-0.169289,0.0570412
2.44815,-0.169474,-0.171601
2.53377,-0.30034,-0.208293
2.37451,-0.0480804,0.0691191
2.51004,-0.297527,0.0441197
2.3946,-0.0484872,-0.153498
2.43006,-0.168221,0.141859
2.49247,-0.295444,0.102257
2.45944,-0.170256,-0.114839
2.52285,-0.299046,-0.133143
2.43187,-0.168347,0.299311
2.39352,-0.0484654,-0.0975347
2.44947,-0.169565,-0.0571343
2.38297,-0.0565738,-0.0416065
2.50037,-0.305235,-0.0733081
2.43756,-0.177292,0
2.57402,-0.44276,-0.0304065
2.38729,-0.0566764,0.0138789
2.51727,-0.307298,-0.014739
2.46321,-0.179158,-0.266029
2.44887,-0.178115,0.0571343
2.45948,-0.178887,-0.172438
2.53667,-0.309666,-0.208619
2.38632,-0.0566534,0.0694682
2.50899,-0.306287,0.0441197
2.39441,-0.0568456,-0.153498
2.43344,-0.176993,0.142092
2.49936,-0.305111,0.102582
2.45883,-0.17884,-0.114839
2.52179,-0.30785,-0.133143
2.43919,-0.177411,0.300286
2.39734,-0.056915,-0.0976975
2.44488,-0.177825,-0.0570412
2.38675,-0.0650005,-0.0416763
2.50326,-0.31446,-0.0734245
2.4449,-0.186408,0
2.58034,-0.453126,-0.0304996
2.39107,-0.0651182,0.0139021
2.51618,-0.316083,-0.014739
2.46257,-0.187755,-0.266029
2.44823,-0.186662,0.0571343
2.45486,-0.187168,-0.172159
2.53953,-0.319016,-0.208944
2.3901,-0.0650917,0.0695846
2.51187,-0.315542,0.0441895
2.40218,-0.0654206,-0.15401
2.43679,-0.185789,0.142324
2.49431,-0.313336,0.10242
2.46616,-0.188029,-0.115211
2.52863,-0.317647,-0.133561
2.39712,-0.0652829,-0.0976975
2.45222,-0.186966,-0.0572273
2.39451,-0.0735771,-0.041816
2.51404,-0.324732,-0.0737736
2.44823,-0.195259,0
2.57874,-0.46213,-0.0304996
2.40283,-0.0738327,0.0139718
2.51903,-0.325377,-0.0147623
2.4619,-0.19635,-0.266029
2.45155,-0.195525,0.0572273
2.45817,-0.196053,-0.172438
2.38986,-0.0734343,0.0695846
2.51869,-0.325333,0.0443291
2.40593,-0.073928,-0.154266
2.4401,-0.194612,0.142557
2.50509,-0.323577,0.102908
2.46947,-0.196954,-0.115397
2.5275,-0.326471,-0.133561
2.40087,-0.0737728,-0.0978603
2.45952,-0.19616,-0.0574134
2.40223,-0.0822086,-0.0419556
2.52082,-0.334558,-0.0740063
2.4555,-0.204468,0
2.57711,-0.471129,-0.0304996
2.39856,-0.0820829,0.0139486
2.52581,-0.33522,-0.0148088
2.47705,-0.206262,-0.267743
2.46679,-0.205408,0.0575995
2.46543,-0.205294,-0.172996
2.39358,-0.0819128,0.0697009
2.52943,-0.335701,0.0445385
2.40964,-0.0824623,-0.154521
2.45135,-0.204122,0.143255
2.5198,-0.334422,0.103559
2.48072,-0.206568,-0.115956
2.54219,-0.337394,-0.134399
2.4006,-0.0821529,-0.0978603
2.47078,-0.20574,-0.0576926
2.39793,-0.0904427,-0.0418858
2.52756,-0.344435,-0.074239
2.46673,-0.214076,0
2.41025,-0.0909072,0.0140183
2.52859,-0.344575,-0.014832
2.47235,-0.214564,-0.267314
2.47004,-0.214363,0.0576926
2.4806,-0.215279,-0.174112
2.40128,-0.0905688,0.0699336
2.52824,-0.344528,0.0445385
2.40934,-0.090873,-0.154521
2.4546,-0.213023,0.143487
2.52257,-0.343756,0.103722
2.48396,-0.215571,-0.116142
2.55287,-0.347884,-0.135027
2.40829,-0.0908334,-0.098186
2.47004,-0.214363,-0.0576926
2.4016,-0.0989771,-0.0419556
2.5303,-0.35381,-0.0743554
2.46198,-0.222325,0
2.41391,-0.0994847,0.0140416
2.53133,-0.353953,-0.0148553
2.47555,-0.22355,-0.267743
2.47326,-0.223344,0.0577856
2.47983,-0.223937,-0.174112
2.40494,-0.099115,0.07005
2.54287,-0.355567,0.0448178
2.41699,-0.0996114,-0.155033
2.45384,-0.22159,0.143487
2.48717,-0.2246,-0.116328
2.5556,-0.357346,-0.135236
2.41195,-0.0994039,-0.0983488
2.46928,-0.222984,-0.0576926
2.40523,-0.107538,-0.0420254
2.52509,-0.362072,-0.074239
2.46517,-0.231291,0
2.42154,-0.108267,0.0140881
2.53404,-0.363355,-0.0148785
2.47871,-0.232561,-0.268171
2.47645,-0.232349,0.0578787
2.48301,-0.232964,-0.174391
2.40458,-0.107509,0.07005
2.54161,-0.364441,0.0448178
2.41662,-0.108048,-0.155033
2.45305,-0.230154,0.143487
2.49035,-0.233653,-0.116514
2.55433,-0.366265,-0.135236
2.41957,-0.10818,-0.0986745
2.47645,-0.232349,-0.0578787
2.40884,-0.116126,-0.0420952
2.53173,-0.372047,-0.0744718
2.46833,-0.240282,0
2.41715,-0.116527,0.0140648
2.54858,-0.374524,-0.0149715
2.48976,-0.242368,-0.269456
2.48358,-0.241767,0.0580648
2.49012,-0.242403,-0.174949
2.40818,-0.116095,0.0701664
2.5522,-0.375055,0.0450272
2.42421,-0.116867,-0.155545
2.46813,-0.240263,0.144417
2.4935,-0.242732,-0.1167
2.56094,-0.376341,-0.135655
2.42317,-0.116817,-0.0988373
2.47562,-0.240992,-0.0578787
2.4164,-0.124947,-0.0422348
2.53832,-0.382072,-0.0747045
2.47146,-0.249298,0
2.42073,-0.12517,0.0140881
2.54726,-0.383418,-0.0149715
2.49286,-0.251457,-0.269885
2.48273,-0.250435,0.0580648
2.4972,-0.251895,-0.175507
2.40776,-0.1245,0.0701664
2.55087,-0.383962,0.0450272
2.42777,-0.125534,-0.155801
2.47125,-0.249278,0.14465
2.49661,-0.251836,-0.116886
2.56751,-0.386467,-0.136073
2.42275,-0.125275,-0.0988373
2.4867,-0.250836,-0.0581579
2.41595,-0.133381,-0.0422348
2.54487,-0.392148,-0.0749372
2.47853,-0.258755,0
2.42826,-0.13406,0.0141346
2.55381,-0.393526,-0.015018
2.49592,-0.26057,-0.270313
2.49377,-0.260346,0.058344
2.50027,-0.261025,-0.175786
2.41131,-0.133124,0.0702827
2.55347,-0.393473,0.045097
2.42732,-0.134008,-0.155801
2.47037,-0.257902,0.14465
2.50366,-0.261379,-0.117258
2.5622,-0.394818,-0.135864
2.43028,-0.134172,-0.0991629
2.48979,-0.25993,-0.0582509
2.41949,-0.141625,-0.0423046
2.54356,-0.400585,-0.0749372
2.48959,-0.268258,0
2.4318,-0.142346,0.0141578
2.5525,-0.401992,-0.015018
2.49687,-0.269042,0.058437
2.50733,-0.270169,-0.176344
2.42283,-0.141821,0.0706318
2.5561,-0.40256,0.0451668
2.43483,-0.142523,-0.156312
2.48141,-0.267376,0.145348
2.49881,-0.269252,-0.117072
2.43381,-0.142464,-0.0993258
2.49289,-0.268614,-0.058344
2.42696,-0.150565,-0.0424443
2.54215,-0.409461,-0.0749372
2.48864,-0.276947,0
2.44326,-0.151577,0.0142276
2.56292,-0.412808,-0.0150877
2.49591,-0.277756,0.058437
2.5024,-0.278479,-0.176065
2.42631,-0.150525,0.0707482
2.44627,-0.151763,-0.15708
2.4884,-0.27692,0.145813
2.50977,-0.279298,-0.117631
2.44128,-0.151453,-0.0996514
2.49591,-0.277756,-0.058437
2.42642,-0.159036,-0.0424443
2.55254,-0.420281,-0.0752863
2.4956,-0.286544,0
2.44272,-0.160104,0.0142276
2.56936,-0.423052,-0.0151342
2.50287,-0.287379,0.0586231
2.51727,-0.289033,-0.177181
2.42976,-0.159255,0.0708645
2.44572,-0.160301,-0.15708
2.48741,-0.285604,0.145813
2.51275,-0.288513,-0.117817
2.44871,-0.160497,-0.0999771
2.50685,-0.287835,-0.0587162
2.43383,-0.168056,-0.0425839
2.55105,-0.429189,-0.0752863
2.50253,-0.296194,0
2.45012,-0.169181,0.0142741
2.57576,-0.433345,-0.0151807
2.5098,-0.297054,0.0588092
2.52021,-0.298287,-0.17746
2.43317,-0.16801,0.0709809
2.44913,-0.169112,-0.157336
2.50227,-0.296163,0.146743
2.51966,-0.298222,-0.118189
2.44415,-0.168768,-0.0998143
2.50583,-0.296584,-0.0587162
2.43323,-0.176551,-0.0425839
2.5653,-0.440799,-0.0757518
2.50942,-0.305896,0
2.44952,-0.177732,0.0142741
2.57423,-0.442333,-0.0151807
2.50875,-0.305813,0.0588092
2.51916,-0.307082,-0.17746
2.43257,-0.176503,0.0709809
2.45649,-0.178238,-0.157847
2.50122,-0.304895,0.146743
2.52257,-0.307499,-0.118375
2.45152,-0.177877,-0.10014
2.50478,-0.305329,-0.0587162
2.44456,-0.185953,-0.0427933
2.51628,-0.315649,0
2.44888,-0.186282,0.0142741
2.56873,-0.450625,-0.0151575
2.51957,-0.316062,0.0590884
2.52599,-0.316867,-0.178019
2.4439,-0.185903,0.07133
2.46381,-0.187417,-0.158359
2.50014,-0.313624,0.146743
2.52545,-0.316799,-0.118561
2.46682,-0.187646,-0.100791
2.5156,-0.315564,-0.0589953
2.45586,-0.195437,-0.0430027
2.51516,-0.324431,0
2.46018,-0.195781,0.0143438
2.52241,-0.325366,0.0591814
2.52487,-0.325682,-0.178019
2.44722,-0.19475,0.0714464
2.46712,-0.196333,-0.158615
2.52829,-0.326124,-0.118747
2.46615,-0.196256,-0.100791
2.52638,-0.325878,-0.0592745
2.45516,-0.204008,-0.0430027
2.51798,-0.333734,0
2.45948,-0.204367,0.0143438
2.52919,-0.33522,0.0593675
2.53162,-0.335543,-0.178577
2.45051,-0.203622,0.0715627
2.47438,-0.205605,-0.159126
2.5311,-0.335473,-0.118934
2.46545,-0.204863,-0.100791
2.52919,-0.33522,-0.0593675
2.45842,-0.212922,-0.0430725
2.52076,-0.343061,0
2.46274,-0.213296,0.0143671
2.53593,-0.345125,0.0595536
2.53439,-0.344916,-0.178856
2.44979,-0.212175,0.0715627
2.47762,-0.214585,-0.159382
2.53783,-0.345383,-0.119306
2.46472,-0.213468,-0.100791
2.53593,-0.345125,-0.0595536
2.46165,-0.221862,-0.0431423
2.51955,-0.351858,0
2.46596,-0.222251,0.0143903
2.54263,-0.355081,0.0597397
2.457,-0.221443,0.0717954
2.48083,-0.223591,-0.159638
2.54056,-0.354793,-0.119492
2.4759,-0.223146,-0.10128
2.53867,-0.354528,-0.0596467
2.4728,-0.231572,-0.0433518
2.53414,-0.362919,0
2.47314,-0.231603,0.0144368
2.53742,-0.363387,0.0596467
2.45621,-0.230018,0.0717954
2.48799,-0.232994,-0.16015
2.53931,-0.363659,-0.119492
2.48705,-0.232906,-0.101768
2.54929,-0.365088,-0.0599259
2.468,-0.239815,-0.043282
2.53682,-0.372343,0
2.47629,-0.240621,0.01446
2.54405,-0.373404,0.0598328
2.46733,-0.23975,0.0721445
2.49908,-0.242835,-0.160917
2.54593,-0.373681,-0.119864
2.4902,-0.241972,-0.101931
2.56383,-0.376308,-0.0602981
2.4751,-0.24923,-0.0434216
2.53946,-0.381791,0
2.47942,-0.249664,0.0144833
2.55064,-0.383471,0.0600189
2.47046,-0.248762,0.0722609
2.49822,-0.251557,-0.160917
2.54856,-0.383159,-0.12005
2.48934,-0.250663,-0.101931
2.55855,-0.38466,-0.060205
2.48227,-0.257831,-0.0435612
2.5422,-0.390374,0
2.4826,-0.257866,0.0145065
2.55337,-0.392089,0.060112
2.46966,-0.256522,0.0722609
2.50138,-0.259817,-0.161173
2.56315,-0.39359,-0.120795
2.49649,-0.259308,-0.102257
2.56523,-0.39391,-0.0603911
2.48135,-0.266494,-0.0435612
2.54873,-0.400487,0
2.48964,-0.267384,0.014553
2.47273,-0.265568,0.0723772
2.50443,-0.268973,-0.161429
2.56965,-0.403775,-0.121167
2.49954,-0.268448,-0.10242
2.57569,-0.404724,-0.0606703
2.49228,-0.276912,-0.0437706
2.55909,-0.411732,0
2.49262,-0.276949,0.0145763
2.47968,-0.275512,0.07261
2.50739,-0.278591,-0.161685
2.50648,-0.27849,-0.102745
2.57419,-0.414162,-0.0606703
2.49522,-0.286501,-0.0438404
2.55756,-0.421109,0
2.49954,-0.286996,0.0146228
2.49455,-0.286423,0.0730754
2.51825,-0.289145,-0.162452
2.50942,-0.28813,-0.102908
2.57265,-0.423594,-0.0606703
2.5102,-0.296213,-0.0441197
2.55623,-0.429142,0
2.50259,-0.295316,0.014646
2.49761,-0.294727,0.0731918
2.52526,-0.297991,-0.162964
2.51247,-0.296481,-0.103071
2.5792,-0.432998,-0.0608564
2.51312,-0.305456,-0.0441895
2.55866,-0.438738,0
2.50155,-0.30405,0.014646
2.49656,-0.303444,0.0731918
2.52421,-0.306804,-0.162964
2.51935,-0.306214,-0.103397
2.58555,-0.44335,-0.0610425
2.50405,-0.313671,-0.0440499
2.50439,-0.313713,0.0146693
2.50337,-0.313586,0.0734245
2.52703,-0.316549,-0.16322
2.51821,-0.315446,-0.103397
2.57997,-0.452134,-0.0609494
2.51087,-0.323432,-0.0441895
2.51518,-0.323986,0.014739
2.51415,-0.323855,0.0737736
2.53382,-0.326388,-0.163731
2.53295,-0.326276,-0.104048
2.52162,-0.333769,-0.0443989
2.518,-0.333289,0.0147623
2.51301,-0.332629,0.0737736
2.53663,-0.335755,-0.163987
2.53972,-0.336165,-0.104373
2.53635,-0.34428,-0.0446782
2.5248,-0.342713,0.0148088
2.52378,-0.342574,0.0741227
2.53945,-0.344702,-0.164243
2.54256,-0.345123,-0.104536
2.53909,-0.353684,-0.044748
2.52755,-0.352076,0.014832
2.52653,-0.351933,0.074239
2.54219,-0.354115,-0.164499
2.54133,-0.353996,-0.104536
2.53778,-0.362988,-0.044748
2.53417,-0.36247,0.0148785
2.52522,-0.361191,0.074239
2.55189,-0.365006,-0.105025
2.54448,-0.37256,-0.0448876
2.54482,-0.37261,0.0149482
2.52005,-0.368984,0.0741227
2.55067,-0.373466,-0.105025
2.54705,-0.382477,-0.0449574
2.5474,-0.382529,0.0149715
2.56114,-0.384593,-0.105513
2.55756,-0.393189,-0.0451668
2.56581,-0.394458,0.0150877
2.56373,-0.394138,-0.105676
2.56414,-0.40291,-0.0453064
2.55659,-0.401722,0.0150412
2.56241,-0.402637,-0.105676
2.56265,-0.412305,-0.0453064
2.55905,-0.411725,0.0150645
2.56529,-0.421001,-0.0453763
2.56958,-0.421706,0.0151342
2.57154,-0.432174,-0.0455159
2.57002,-0.441148,-0.0455159
2.57634,-0.451497,-0.0456555
2.58262,-0.461895,-0.0457951
