3.19847,0.537837,-0.10272
3.18821,0.533538,-0.219636
3.18494,0.515487,-0.102182
3.19241,0.514124,-0.219704
3.17564,0.510457,-0.336866
3.16927,0.493016,-0.101581
3.18072,0.492237,-0.218687
3.1738,0.490203,-0.336345
3.15939,0.471642,-0.101169
3.16591,0.470074,-0.217467
3.16888,0.469554,-0.335512
3.16582,0.466221,-0.453941
3.14936,0.450408,-0.100758
3.15392,0.448532,-0.21645
3.21002,0.575491,-0.253054
3.16274,0.445957,-0.453098
3.11978,0.427714,0.0151141
3.13486,0.426215,-0.214959
3.20465,0.554255,-0.252358
3.17715,0.531438,-0.13214
3.19815,0.532942,-0.251584
3.14047,0.403579,-0.449165
3.16556,0.509551,-0.131525
3.17675,0.509363,-0.24965
3.18549,0.509453,-0.368922
3.1627,0.489202,-0.131279
3.17292,0.488798,-0.249108
3.17285,0.487483,-0.367104
3.07991,0.347002,0.126977
3.13929,0.467892,-0.0151233
3.14488,0.466706,-0.130418
3.16896,0.4683,-0.248567
3.22378,0.596979,-0.285571
3.12725,0.446501,-0.0150518
3.21071,0.574206,-0.284096
3.15476,0.443127,-0.482081
3.05809,0.306589,0.125913
3.11903,0.425816,-0.0149994
3.04943,0.303194,-0.0970542
3.19349,0.552075,-0.163835
3.14482,0.425368,-0.246246
3.20534,0.55297,-0.283315
3.15154,0.422972,-0.481183
3.03969,0.284418,0.0146533
3.11068,0.405249,-0.014947
3.05024,0.284385,-0.0970225
3.18007,0.52968,-0.162976
3.19491,0.531005,-0.2821
3.13348,0.400991,-0.478041
3.07536,0.27547,-0.672206
3.03839,0.2655,0.0146389
3.10219,0.3848,-0.0148945
3.04097,0.26471,-0.0966743
3.16748,0.507629,-0.162169
3.1122,0.382127,-0.243306
3.17745,0.508088,-0.280278
3.05199,0.262342,-0.320825
3.06119,0.260388,-0.435822
3.12214,0.380084,-0.475946
3.02074,0.247892,0.235183
3.028,0.245881,0.0145813
3.07867,0.362716,-0.0147707
3.15128,0.486908,-0.0453602
3.08429,0.361413,-0.127385
3.16264,0.486968,-0.161765
3.09666,0.360946,-0.241914
3.17657,0.487977,-0.27993
3.03768,0.242345,-0.319158
3.0499,0.240588,-0.433997
3.11361,0.359672,-0.474301
3.11786,0.358343,-0.593457
3.00828,0.228296,0.2341
3.06139,0.342244,0.0972381
3.01649,0.226324,0.0145189
3.14234,0.465804,-0.0451895
3.15569,0.466094,-0.16126
3.01381,0.222739,-0.205333
3.09882,0.341938,-0.241914
3.2351,0.596427,-0.318435
3.0282,0.222899,-0.318013
3.15278,0.463134,-0.394993
3.10495,0.339379,-0.472655
3.04348,0.21863,-0.547205
3.0497,0.216669,-0.665612
2.9957,0.208862,0.233017
3.05151,0.322194,0.0968595
3.00385,0.20685,0.0144517
3.13623,0.445249,-0.0450615
3.14069,0.444205,-0.160351
3.21308,0.574666,-0.196894
3.14977,0.444367,-0.277067
3.22596,0.574298,-0.317183
3.02554,0.204046,-0.317596
3.09116,0.320653,-0.355401
3.14868,0.442813,-0.394132
3.09812,0.319408,-0.471308
3.03732,0.197067,-0.662634
2.98101,0.189465,0.231779
3.0405,0.302179,0.0964493
3.00007,0.188101,0.0144277
3.13197,0.425056,-0.0449619
3.12455,0.422383,-0.159392
3.19097,0.550528,-0.195329
2.99839,0.184634,-0.204112
3.06905,0.300581,-0.239283
3.13762,0.423035,-0.275765
3.20883,0.550956,-0.315159
3.00986,0.184444,-0.315825
3.13659,0.421502,-0.392287
3.01922,0.18232,-0.429081
3.14687,0.421877,-0.51174
3.01547,0.179453,-0.541733
3.02091,0.177395,-0.658804
2.97913,0.170999,0.231547
3.03732,0.283054,0.0962916
2.99119,0.169125,0.0143797
3.12163,0.404161,-0.044777
3.1152,0.401671,-0.158786
3.19035,0.530283,-0.195088
2.99648,0.166067,-0.203909
3.05991,0.280742,-0.238432
3.1283,0.40225,-0.274724
3.18367,0.526546,-0.312365
3.00299,0.165534,-0.314992
3.06617,0.280075,-0.352107
3.12533,0.400482,-0.390565
3.13863,0.401184,-0.50999
3.00866,0.160527,-0.540321
3.07874,0.277485,-0.584539
3.01316,0.158394,-0.65689
2.96618,0.152002,0.230464
3.03138,0.265561,0.20665
3.02108,0.262852,0.0957237
3.08568,0.381967,0.0689839
2.97619,0.149963,0.0143029
3.0226,0.2624,-0.0144562
3.10122,0.382187,-0.0444499
3.15993,0.505491,-0.0758058
3.02722,0.260885,-0.124639
3.10968,0.381576,-0.158382
3.18369,0.509121,-0.194486
2.98648,0.147138,-0.203163
3.03873,0.260007,-0.236653
3.12181,0.381959,-0.273943
3.18192,0.50622,-0.311884
2.98408,0.146132,-0.312909
3.05496,0.26016,-0.350629
3.11197,0.379376,-0.388597
3.05914,0.25858,-0.464575
3.12731,0.38025,-0.507762
2.99779,0.141506,-0.538203
3.06668,0.257438,-0.581938
2.99651,0.139087,-0.653061
3.07539,0.255846,-0.702655
2.95411,0.133215,0.229458
3.02301,0.246146,0.205972
3.01068,0.243344,0.0953451
3.07407,0.361392,0.0686734
2.96606,0.131213,0.0142501
3.01319,0.242965,-0.0144038
3.0906,0.36164,-0.0442649
3.15012,0.484119,-0.0754979
3.01781,0.241429,-0.124188
3.09509,0.360524,-0.157524
3.16899,0.486849,-0.193402
2.97138,0.128123,-0.202079
3.03331,0.240804,-0.236112
3.17415,0.485032,-0.310824
2.97995,0.127606,-0.312388
3.04164,0.240237,-0.348925
3.10931,0.359704,-0.387982
3.17367,0.48411,-0.429611
3.05278,0.239187,-0.463378
3.12174,0.360148,-0.506489
2.98876,0.122706,-0.536438
3.05644,0.237703,-0.579708
2.98266,0.120109,-0.64987
2.94491,0.114699,0.228685
3.01252,0.226695,0.205159
3.00613,0.22442,0.0951558
3.06729,0.341527,0.0684737
2.95482,0.112554,0.0141925
3.00565,0.223803,-0.0143609
3.07288,0.340468,-0.0439805
3.1471,0.463906,-0.0753558
3.00728,0.222025,-0.123697
3.08137,0.339774,-0.156716
3.14723,0.463757,-0.191897
2.96015,0.109446,-0.201265
3.02678,0.221605,-0.235493
2.97472,0.109101,-0.311763
3.02126,0.219982,-0.346426
3.09962,0.339323,-0.386506
3.1707,0.463766,-0.428815
2.9743,0.106434,-0.422199
3.0394,0.219383,-0.461134
3.11015,0.339487,-0.504261
2.98159,0.10409,-0.535026
3.04216,0.217821,-0.576735
3.09877,0.336165,-0.619943
2.96576,0.101206,-0.646041
3.05301,0.216295,-0.696883
2.97827,0.0978854,-0.766987
2.94057,0.0964635,0.228298
3.00092,0.207312,0.204279
2.9925,0.204946,0.0946825
3.0564,0.321341,0.0681854
2.99499,0.204539,-0.0143037
3.05801,0.319838,-0.0437387
3.14098,0.44333,-0.0751427
2.95404,0.0933958,-0.0936038
3.00161,0.203096,-0.12341
3.06253,0.31869,-0.155656
3.13717,0.442625,-0.191114
2.95279,0.0910347,-0.200723
3.00918,0.201762,-0.234023
3.08174,0.319602,-0.269865
2.96241,0.0904516,-0.310409
3.01462,0.200911,-0.345517
3.07894,0.317953,-0.383676
2.95807,0.0876837,-0.419811
3.03082,0.200078,-0.459638
2.96938,0.0854255,-0.532731
3.02187,0.197739,-0.572647
3.09687,0.316746,-0.619162
2.95852,0.0827874,-0.644339
2.98421,0.187767,0.203059
3.03791,0.301259,0.178056
2.97973,0.18571,0.0942408
3.05433,0.302188,0.0680966
2.9902,0.185786,-0.0142751
3.05096,0.300187,-0.0436106
3.1159,0.420307,-0.0744796
2.99382,0.184123,-0.123041
3.13389,0.422567,-0.190753
2.94332,0.0726688,-0.200045
3.0014,0.182749,-0.233326
3.07075,0.29943,-0.268737
3.0029,0.18163,-0.34404
3.067,0.297713,-0.381954
2.95361,0.0694154,-0.419109
3.0162,0.180533,-0.457244
3.08853,0.298823,-0.500124
2.96198,0.0670259,-0.531319
3.09387,0.297269,-0.618187
2.95018,0.0644407,-0.642425
2.96182,0.0609713,-0.762501
3.03771,0.282429,0.177939
2.97383,0.167031,0.0940199
3.0412,0.282056,0.0677639
2.9783,0.166709,-0.0142132
3.04378,0.280635,-0.0434826
3.11049,0.400159,-0.0742901
2.98691,0.165308,-0.122713
3.04035,0.278714,-0.154343
3.11959,0.401165,-0.189729
2.92974,0.0543485,-0.199096
2.99152,0.16373,-0.232475
3.05468,0.278951,-0.267175
2.9861,0.162231,-0.341994
3.0579,0.277901,-0.380601
2.94408,0.0511192,-0.417704
3.00343,0.16128,-0.455149
3.07654,0.27862,-0.497896
3.1298,0.398536,-0.540271
2.94757,0.0486069,-0.528671
2.94368,0.0462301,-0.640936
2.95633,0.0427129,-0.761005
3.02251,0.156485,-0.809718
2.90796,0.0418332,0.225668
2.96681,0.148381,0.0937675
3.02893,0.262184,0.0674534
3.09451,0.380023,0.0388
2.9197,0.0395047,0.0140149
2.96629,0.147784,-0.0141513
3.02851,0.260497,-0.0432408
3.098,0.379244,-0.0739349
2.9759,0.146388,-0.122221
3.02807,0.258862,-0.153636
3.11011,0.380561,-0.189006
2.92204,0.0362718,-0.198554
2.99047,0.145274,-0.232321
3.04144,0.258935,-0.265873
2.93274,0.0355344,-0.307179
2.98307,0.143715,-0.34154
3.04274,0.257709,-0.37851
2.93245,0.0329204,-0.416019
2.98362,0.141862,-0.452007
3.0595,0.258161,-0.494873
3.13415,0.379562,-0.540608
2.936,0.0303977,-0.526553
3.06894,0.256907,-0.61253
2.93413,0.0280737,-0.638808
2.94685,0.0244919,-0.758512
3.01087,0.137364,-0.806358
2.95098,0.131662,0.308645
2.8962,0.0238909,0.224739
2.95469,0.129605,0.0933574
3.09182,0.36045,0.0387378
2.95315,0.12897,-0.0140845
3.02307,0.241352,-0.0431413
2.95578,0.127224,-0.12136
3.01865,0.239409,-0.153081
3.08958,0.358822,-0.187622
3.02808,0.239092,-0.264572
2.91799,0.0174496,-0.305617
2.97695,0.125116,-0.340745
2.91973,0.014861,-0.414193
2.97555,0.123184,-0.45066
3.04626,0.238228,-0.492486
2.92727,0.0123448,-0.524964
2.97378,0.121395,-0.5628
3.05482,0.236859,-0.609409
2.92448,0.0100361,-0.636681
2.98904,0.119771,-0.681121
2.93726,0.00638889,-0.75602
2.94379,0.113246,0.307814
2.88432,0.00609441,0.223811
2.94943,0.111247,0.0931681
3.00799,0.223219,0.066921
3.08105,0.340046,0.038576
2.88996,0.00363479,0.013871
2.9429,0.110435,-0.0140321
3.00555,0.221403,-0.042871
2.89355,0.00267976,-0.0916412
2.94552,0.10868,-0.12091
3.01409,0.220445,-0.152778
3.07982,0.338549,-0.186899
2.95417,0.107192,-0.229381
3.02054,0.219857,-0.263791
2.91008,-0.00045394,-0.304784
2.96277,0.106313,-0.33904
2.9168,-0.00305128,-0.413771
2.96933,0.10468,-0.449613
3.03191,0.218397,-0.48994
2.91155,-0.0055866,-0.52214
2.9617,0.102704,-0.560384
3.03762,0.216784,-0.605702
2.9751,0.100933,-0.67779
3.05111,0.216408,-0.727067
2.91594,-0.0115495,-0.750536
2.98046,0.0993441,-0.797829
2.86935,-0.0115434,0.22265
3.06263,0.320247,0.150496
2.94207,0.0928951,0.0929157
2.99733,0.203943,0.0666549
3.05921,0.318648,0.0382774
2.92852,0.0919047,-0.0139607
2.99488,0.202149,-0.0427003
3.05871,0.317409,-0.0728455
3.00243,0.201079,-0.152121
3.06396,0.317792,-0.185815
2.94481,0.088763,-0.228607
3.00792,0.200392,-0.262576
3.07927,0.316881,-0.299647
2.8961,-0.0182223,-0.303325
2.96138,0.0880728,-0.338813
3.00537,0.198906,-0.373343
2.90781,-0.0208844,-0.412507
2.95707,0.0860849,-0.447668
3.02236,0.199076,-0.48819
3.09844,0.317488,-0.533351
2.90752,-0.0234197,-0.521434
2.95737,0.0843889,-0.559455
3.0203,0.196929,-0.601996
2.89507,-0.0255934,-0.6303
2.96494,0.0823781,-0.675348
3.04073,0.196928,-0.724292
2.91097,-0.0293923,-0.749289
2.97812,0.0809757,-0.797054
2.86225,-0.0290783,0.222109
2.92926,0.0762417,0.198994
3.05658,0.300667,0.150106
2.92759,0.07446,0.0924424
2.98655,0.184807,0.0663887
3.05514,0.299286,0.0382027
2.92404,0.0738077,-0.0139368
2.98808,0.183279,-0.0425865
2.99065,0.181865,-0.151465
3.05195,0.297629,-0.184972
2.93732,0.070501,-0.227988
3.00014,0.181391,-0.261795
3.06233,0.29616,-0.297816
2.95094,0.0696426,-0.337563
2.89575,-0.0385677,-0.410822
2.94172,0.0675758,-0.445274
3.00776,0.179586,-0.485644
3.08954,0.297431,-0.531494
2.9024,-0.0411896,-0.520551
2.94604,0.0659772,-0.557226
3.01068,0.177757,-0.59985
3.08457,0.297115,-0.648624
2.95564,0.063973,-0.673128
3.0312,0.177641,-0.721748
2.90105,-0.0470959,-0.746797
2.96504,0.0624161,-0.793436
2.85404,-0.0465102,0.22149
2.9197,0.0580683,0.198316
2.91201,0.0561867,0.0919376
2.97865,0.165978,0.0661891
3.03999,0.278981,0.0379912
2.91743,0.0557311,-0.0139035
2.97617,0.164225,-0.0424016
3.0345,0.277303,-0.0721824
2.91605,0.0538718,-0.119639
2.98074,0.162912,-0.15091
3.04378,0.27799,-0.18437
2.92374,0.0522273,-0.226905
2.99125,0.162439,-0.260927
3.05517,0.276557,-0.296949
2.94336,0.0513959,-0.336654
3.06511,0.276648,-0.411838
2.8816,-0.0560654,-0.408856
2.93121,0.0493414,-0.443628
2.99697,0.160494,-0.483734
3.07658,0.277142,-0.528962
2.93656,0.0477397,-0.555368
2.99996,0.158659,-0.597509
3.08243,0.277832,-0.647805
2.88282,-0.0608709,-0.627747
2.95111,0.0457608,-0.672018
3.01183,0.157968,-0.716892
2.88812,-0.0646139,-0.743556
2.95571,0.0440778,-0.790851
2.85071,-0.0639543,0.221258
2.90902,0.0400014,0.197571
2.9053,0.0382258,0.0917168
2.97162,0.147302,0.0660116
3.03467,0.259726,0.0379041
2.91072,0.0377382,-0.0138701
2.97213,0.145716,-0.0423305
3.02917,0.258084,-0.0720167
2.91133,0.0359166,-0.119434
2.97171,0.144135,-0.150405
3.03647,0.258546,-0.183828
2.91504,0.0341814,-0.226209
2.98324,0.143651,-0.260146
3.04193,0.256551,-0.295504
2.93071,0.0331885,-0.335177
2.98176,0.142276,-0.370022
3.05687,0.257005,-0.410511
2.87625,-0.0736188,-0.408153
2.92157,0.0312491,-0.442132
3.06251,0.256941,-0.526262
2.98912,0.139699,-0.595168
3.06165,0.25703,-0.643093
2.87848,-0.0784519,-0.626896
2.93378,0.0274878,-0.668022
3.00108,0.138945,-0.714117
2.8838,-0.0822235,-0.742559
2.93854,0.0257885,-0.786199
2.95483,0.130315,0.280783
2.83332,-0.0809607,0.219943
2.90123,0.0220904,0.197029
2.90048,0.0203634,0.091559
2.96248,0.128632,0.0657898
2.9029,0.0198231,-0.013832
2.96198,0.127005,-0.042174
3.01874,0.238548,-0.0717325
2.83932,-0.0845046,-0.0899635
2.9045,0.018009,-0.119147
3.02308,0.238731,-0.182925
2.89924,0.0162052,-0.224971
2.97809,0.125092,-0.259625
3.03253,0.237028,-0.294444
2.91099,0.0151023,-0.332905
2.97266,0.123565,-0.368792
3.0495,0.237551,-0.409318
2.85991,-0.0907633,-0.405906
2.91874,0.0133086,-0.441683
3.04142,0.236388,-0.52238
2.87164,-0.0936439,-0.515256
2.91138,0.0115982,-0.550537
2.97718,0.120838,-0.592632
3.04072,0.236493,-0.638381
2.86037,-0.0955254,-0.623067
2.92024,0.00944183,-0.664914
2.98632,0.119904,-0.710417
2.86969,-0.099447,-0.73907
2.92705,0.00772686,-0.783098
2.94165,0.111654,0.27946
2.81583,-0.097756,0.218628
2.95222,0.110043,0.0655458
3.01868,0.221079,0.0376676
2.88397,0.00199766,-0.0137415
2.94671,0.108241,-0.0419464
2.88857,0.000185906,-0.118491
3.01254,0.219307,-0.182203
2.89231,-0.00158066,-0.22443
2.9569,0.106031,-0.257716
3.02698,0.217916,-0.29377
2.8425,-0.105139,-0.297909
2.90606,-0.00275475,-0.332337
3.03607,0.217771,-0.407328
2.85534,-0.10816,-0.405344
2.90987,-0.00458668,-0.440336
2.96587,0.104124,-0.478324
2.85921,-0.110805,-0.513137
2.90747,-0.00625749,-0.549793
3.03626,0.217412,-0.637152
2.85289,-0.112804,-0.621578
2.90855,-0.00844266,-0.66225
2.97728,0.101247,-0.708104
2.85838,-0.116619,-0.736328
2.92221,-0.0102164,-0.781806
2.99721,0.203495,0.256064
2.81419,-0.114991,0.21855
2.82822,-0.116603,0.115966
2.94285,0.0916152,0.065324
2.99404,0.200813,0.0373441
2.81352,-0.117374,0.0135158
2.93733,0.0898526,-0.0418042
2.99151,0.199489,-0.071022
2.9959,0.199624,-0.181119
2.88925,-0.0193075,-0.224198
2.94056,0.087383,-0.256241
3.01932,0.19875,-0.292903
2.83981,-0.122493,-0.297701
2.89307,-0.0204944,-0.33086
3.02746,0.19849,-0.406002
2.84573,-0.125286,-0.40408
2.89594,-0.0223345,-0.438242
2.94869,0.0854097,-0.47546
3.02639,0.197889,-0.519342
2.84766,-0.127861,-0.511196
3.02191,0.197755,-0.633874
2.84239,-0.129861,-0.619451
2.96423,0.0825977,-0.704867
2.85277,-0.133928,-0.735081
2.90953,-0.0280256,-0.778446
2.98644,0.0820169,-0.831053
2.86623,-0.0304884,0.2995
2.98249,0.184118,0.254705
2.80646,-0.131929,0.218009
2.87438,-0.0327325,0.0907387
2.93336,0.0733067,0.0651022
2.98224,0.181647,0.0371823
2.80476,-0.134253,0.0134774
2.93283,0.0717056,-0.0417331
2.9837,0.180586,-0.0708089
2.92543,0.069992,-0.147931
2.99109,0.180876,-0.180757
2.87313,-0.0368308,-0.22296
2.93407,0.0691741,-0.255634
3.01154,0.179687,-0.292036
2.82709,-0.139328,-0.296451
2.88097,-0.038088,-0.329496
3.00586,0.178558,-0.402951
2.83304,-0.142149,-0.402395
2.88587,-0.0399663,-0.436746
2.94423,0.0672027,-0.474664
3.01378,0.1785,-0.516979
2.83502,-0.144729,-0.509077
2.94949,0.0653656,-0.58678
3.01036,0.178456,-0.63121
2.83666,-0.147046,-0.618387
2.89457,-0.0439272,-0.659142
2.95592,0.0642178,-0.702785
3.01864,0.178154,-0.752034
2.84706,-0.151173,-0.733835
2.89965,-0.0457253,-0.775861
2.97533,0.0634445,-0.827837
2.79962,-0.148829,0.217544
2.85714,-0.0500711,0.0902024
2.91277,0.0549108,0.0646364
2.9803,0.163181,0.037145
2.79489,-0.150975,0.0134342
2.97777,0.161896,-0.0706431
2.80246,-0.152315,-0.0888872
2.91382,0.0518274,-0.147325
2.9752,0.1616,-0.179734
2.80327,-0.154568,-0.190758
2.92647,0.0510307,-0.25494
2.99569,0.160301,-0.290398
2.82618,-0.156672,-0.296451
2.87373,-0.05563,-0.328701
3.00096,0.159795,-0.402155
2.82025,-0.158861,-0.400709
2.87271,-0.057416,-0.4348
2.93767,0.0490206,-0.47355
2.99808,0.159117,-0.514109
2.82622,-0.161672,-0.507665
2.87248,-0.0590664,-0.54329
2.94003,0.0471095,-0.58483
2.9987,0.159307,-0.628547
2.82595,-0.163883,-0.61626
2.88548,-0.0615002,-0.657144
2.94459,0.0458975,-0.70001
3.00223,0.158706,-0.74769
2.83641,-0.168067,-0.731342
2.89255,-0.0633682,-0.774052
2.9641,0.0450115,-0.824621
2.96661,0.146619,0.253176
2.78671,-0.165296,0.216616
2.79867,-0.167034,0.114861
2.85378,-0.0675303,0.0901077
2.89805,0.0368468,0.0643036
2.96627,0.144163,0.0369583
2.78693,-0.1677,0.0134006
2.91749,0.0355151,-0.0415055
2.96173,0.142803,-0.0702405
2.79748,-0.169266,-0.0887606
2.90909,0.0338894,-0.147073
2.96916,0.143005,-0.179312
2.79629,-0.171399,-0.190351
2.85352,-0.0716104,-0.22149
2.91279,0.0329156,-0.253725
2.98966,0.141587,-0.289723
2.81524,-0.173399,-0.295409
2.86539,-0.0730592,-0.327792
2.99495,0.141052,-0.401227
2.81527,-0.175916,-0.400148
2.8644,-0.074835,-0.433604
2.92015,0.030807,-0.470686
2.98029,0.13984,-0.510903
2.82321,-0.178886,-0.507312
2.92751,0.0289429,-0.582294
2.98691,0.140307,-0.625884
2.81514,-0.180594,-0.614133
2.88017,-0.0790702,-0.656034
2.9273,0.0276635,-0.695848
2.99539,0.13992,-0.745759
2.82083,-0.18452,-0.727603
2.88535,-0.0809258,-0.772243
2.95276,0.0267186,-0.821405
2.9565,0.12794,0.252242
2.77669,-0.181805,0.21592
2.84224,-0.0830214,0.193099
2.83533,-0.0845035,0.0895398
2.89323,0.0190311,0.0641927
2.95011,0.125239,0.0367468
2.77986,-0.1844,0.0133718
2.89565,0.0174803,-0.0411926
2.7924,-0.186162,-0.088634
2.90025,0.0159894,-0.146618
2.961,0.124407,-0.17877
2.7922,-0.188352,-0.190148
2.90098,0.0149808,-0.252684
2.97655,0.122666,-0.288374
2.80321,-0.18993,-0.294263
2.80525,-0.192577,-0.398884
2.86488,-0.0924411,-0.433753
2.90942,0.0128408,-0.468936
2.81028,-0.195386,-0.505194
2.8568,-0.0938278,-0.540503
2.80813,-0.197453,-0.612856
2.87671,-0.0966429,-0.655368
2.92158,0.00968199,-0.69446
2.98456,0.121066,-0.742863
2.81579,-0.201548,-0.726606
2.88094,-0.0984964,-0.771209
2.94131,0.00856664,-0.818189
2.88602,0.00323946,0.273979
2.82572,-0.0998954,0.192015
2.82577,-0.101576,0.0892559
2.89529,0.0012791,0.0642371
2.94283,0.106845,0.0366472
2.77568,-0.201237,0.0133574
2.88671,-0.000286551,-0.0410646
2.94427,0.105765,-0.0697906
2.78423,-0.202784,-0.0884124
2.89031,-0.00180027,-0.146113
2.78403,-0.204968,-0.189673
2.89205,-0.00281087,-0.251903
2.96133,0.103842,-0.286833
2.79306,-0.206467,-0.293326
2.83548,-0.107129,-0.324497
2.89484,-0.0040767,-0.358828
2.79216,-0.208899,-0.397198
2.85536,-0.109676,-0.432407
2.90254,-0.0049994,-0.467822
2.9611,0.10254,-0.507358
2.80117,-0.212032,-0.503782
2.84636,-0.110972,-0.538645
2.90803,-0.00693755,-0.578392
2.79225,-0.213562,-0.609665
2.8634,-0.113789,-0.652482
2.9138,-0.00822271,-0.69261
2.97264,0.102317,-0.739726
2.80387,-0.217996,-0.723864
2.8658,-0.115588,-0.767333
2.92589,-0.00943137,-0.813901
2.93084,0.0928607,0.35729
2.81708,-0.116901,0.191473
2.8151,-0.118492,0.0889404
2.93344,0.0884845,0.0365228
2.76443,-0.21748,0.0133094
2.87465,-0.0179242,-0.0408939
2.93388,0.0873701,-0.0695301
2.77496,-0.219235,-0.0881591
2.88325,-0.0194876,-0.14576
2.94035,0.0874089,-0.177446
2.77576,-0.221492,-0.189199
2.885,-0.0205065,-0.251295
2.95395,0.0854395,-0.286062
2.78778,-0.223283,-0.292909
2.82782,-0.12422,-0.323702
2.88583,-0.0217717,-0.357721
2.96435,0.0849635,-0.39685
2.7859,-0.225628,-0.396496
2.8497,-0.126974,-0.431658
2.89455,-0.0227469,-0.466549
2.95773,0.0842572,-0.506683
2.78412,-0.22793,-0.500958
2.83483,-0.127948,-0.536601
2.90205,-0.0247306,-0.577222
2.84901,-0.130731,-0.649373
2.90786,-0.026049,-0.691223
2.8467,-0.132318,-0.762422
2.92385,-0.0273661,-0.813365
2.80635,-0.133709,0.190796
2.80634,-0.135378,0.0886879
2.92393,0.0702434,0.0363983
2.75706,-0.233931,0.0132806
2.86349,-0.0354264,-0.0407374
2.93136,0.0692957,-0.069459
2.76659,-0.235663,-0.0879375
2.93185,0.0691538,-0.176904
2.77037,-0.238177,-0.188928
2.87287,-0.0380499,-0.250254
2.94646,0.0671314,-0.285291
2.82105,-0.14127,-0.32302
2.87671,-0.0393562,-0.356614
2.94499,0.0663267,-0.394197
2.77953,-0.242288,-0.395794
2.82912,-0.143456,-0.428666
2.94735,0.0658651,-0.504826
2.77777,-0.244577,-0.500075
2.89302,-0.0424074,-0.575466
2.77385,-0.246428,-0.606262
2.84036,-0.147804,-0.647597
2.95717,0.0654649,-0.735623
2.84101,-0.149528,-0.76113
2.97911,0.0653783,-0.861999
2.79551,-0.15039,0.190118
2.79847,-0.152215,0.0884671
2.86583,-0.051493,0.0635938
2.91731,0.052176,0.0363112
2.7486,-0.250209,0.013247
2.85222,-0.0527922,-0.0405809
2.91574,0.051028,-0.0690801
2.92224,0.0509888,-0.176302
2.76687,-0.254988,-0.188792
2.86661,-0.0555609,-0.249733
2.93089,0.048786,-0.283749
2.77195,-0.256286,-0.291555
2.80724,-0.157852,-0.321543
2.9394,0.0481578,-0.393401
2.76813,-0.258418,-0.394389
2.81337,-0.15997,-0.426422
2.87135,-0.0578087,-0.462889
2.94376,0.0477154,-0.504151
2.76838,-0.260878,-0.498663
2.8829,-0.0599539,-0.573515
2.76353,-0.262611,-0.604347
2.83064,-0.164719,-0.645599
2.8869,-0.0612973,-0.686366
2.94879,0.0471791,-0.733451
2.8304,-0.166391,-0.758545
2.79354,-0.167481,0.19005
2.7875,-0.168779,0.0881516
2.84747,-0.0686428,0.0631946
2.91057,0.0341925,0.0362241
2.74304,-0.266682,0.0132278
2.84585,-0.0701443,-0.0404956
2.902,0.0329774,-0.0687486
2.74857,-0.26814,-0.0874627
2.91751,0.0330008,-0.176001
2.75433,-0.270887,-0.188046
2.85127,-0.0727678,-0.248432
2.92417,0.0307282,-0.283075
2.76043,-0.272313,-0.290513
2.80324,-0.174889,-0.321202
2.92477,0.0299688,-0.391412
2.76452,-0.275202,-0.394108
2.86206,-0.0751926,-0.461457
2.92823,0.0294931,-0.501451
2.75987,-0.277171,-0.497427
2.80649,-0.178485,-0.531771
2.87463,-0.0774306,-0.571955
2.75409,-0.278776,-0.602646
2.82374,-0.181709,-0.644267
2.87188,-0.0786105,-0.682898
2.9335,0.0289317,-0.729589
2.81679,-0.182941,-0.755185
2.95183,0.0285457,-0.85394
2.837,-0.0838781,0.269442
2.78549,-0.184157,0.189576
2.84189,-0.0853133,0.165828
2.73823,-0.281833,0.112773
2.77744,-0.185281,0.0878676
2.89273,0.016232,0.0360001
2.73438,-0.282788,0.0131942
2.83837,-0.0873894,-0.040396
2.89415,0.0151286,-0.0685591
2.74488,-0.284794,-0.0873994
2.8967,0.0149902,-0.174736
2.73674,-0.286122,-0.186962
2.91136,0.0127287,-0.281822
2.7498,-0.288312,-0.289576
2.79022,-0.19127,-0.319839
2.914,0.0119773,-0.389953
2.75589,-0.291431,-0.393125
2.86056,-0.0927205,-0.461298
2.92638,0.0115175,-0.501113
2.75811,-0.2941,-0.497427
2.79848,-0.195223,-0.53047
2.8594,-0.0945812,-0.569029
2.76204,-0.296713,-0.604773
2.81576,-0.198552,-0.642713
2.86162,-0.0959046,-0.680585
2.92294,0.0108917,-0.726934
2.81852,-0.100645,0.267741
2.83233,-0.102425,0.165304
2.71757,-0.29657,0.111995
2.77027,-0.201883,0.0876783
2.81944,-0.102599,0.0625957
2.88378,-0.00151309,0.0358881
2.72763,-0.299016,0.0131702
2.82779,-0.104435,-0.0402538
2.88019,-0.00261712,-0.0682276
2.73315,-0.300538,-0.0870829
2.88575,-0.00277327,-0.174074
2.73196,-0.302579,-0.186758
2.77797,-0.206442,-0.216152
2.90342,-0.00512128,-0.281052
2.78107,-0.207795,-0.31893
2.90906,-0.00589282,-0.38929
2.78925,-0.210168,-0.42328
2.85402,-0.110043,-0.460343
2.90964,-0.00640182,-0.498244
2.74452,-0.309694,-0.495309
2.84602,-0.111625,-0.566493
2.74755,-0.312221,-0.602007
2.80963,-0.215453,-0.641603
2.85806,-0.113346,-0.679891
2.91519,-0.00702459,-0.725004
2.81686,-0.117895,0.267647
2.76909,-0.217233,0.188627
2.81769,-0.119211,0.164489
2.76001,-0.218169,0.0873944
2.81876,-0.119897,0.0625957
2.87471,-0.0191476,0.0357761
2.71978,-0.315056,0.0131414
2.81411,-0.121224,-0.0400689
2.87012,-0.0202192,-0.0679908
2.72331,-0.31638,-0.0868296
2.72708,-0.318989,-0.186555
2.7687,-0.222843,-0.215533
2.89339,-0.0228576,-0.280088
2.78073,-0.224935,-0.319043
2.89906,-0.0236615,-0.387963
2.77707,-0.226395,-0.421634
2.83751,-0.126847,-0.457797
2.90068,-0.024181,-0.496725
2.7367,-0.32583,-0.49425
2.84234,-0.128952,-0.565907
2.79271,-0.2314,-0.638051
2.84856,-0.13048,-0.67781
2.8674,-0.0343422,0.244429
2.74683,-0.232453,0.187205
2.80793,-0.136063,0.163965
2.74767,-0.234166,0.0870473
2.81298,-0.136947,0.0624848
2.71383,-0.331254,0.0131222
2.80532,-0.138096,-0.0399551
2.71735,-0.332598,-0.086703
2.72111,-0.335228,-0.186284
2.76032,-0.239225,-0.214991
2.88324,-0.040471,-0.279125
2.7694,-0.241132,-0.317907
2.88697,-0.0412793,-0.386372
2.77168,-0.243085,-0.421035
2.8209,-0.143453,-0.455251
2.88273,-0.041722,-0.493687
2.73172,-0.342249,-0.49372
2.7825,-0.247753,-0.636053
2.83702,-0.1474,-0.675266
2.89063,-0.0424418,-0.71897
2.84301,-0.148856,-0.791926
2.80604,-0.153235,0.163907
2.74319,-0.250748,0.0869527
2.8031,-0.153712,0.0622851
2.84627,-0.0538933,0.0354277
2.70678,-0.347263,0.0130982
2.85067,-0.0550716,-0.0675408
2.70931,-0.3485,-0.0865131
2.71504,-0.351406,-0.186013
2.75781,-0.256065,-0.214914
2.80493,-0.15779,-0.244701
2.869,-0.0578804,-0.277776
2.75798,-0.257197,-0.316771
2.8708,-0.0586686,-0.384249
2.75833,-0.258978,-0.41924
2.87848,-0.0593281,-0.493012
2.77801,-0.264544,-0.635387
2.89128,-0.0601977,-0.719211
2.73762,-0.267187,0.0868265
2.78913,-0.170117,0.0619968
2.84389,-0.0713066,0.0354028
2.73293,-0.267259,-0.013084
2.78844,-0.17159,-0.0397417
2.74044,-0.269732,-0.112958
2.70591,-0.367119,-0.185538
2.75619,-0.272982,-0.214914
2.79595,-0.174501,-0.244006
2.86262,-0.0753261,-0.277198
2.75437,-0.273918,-0.316544
2.86246,-0.0760718,-0.383188
2.75374,-0.275603,-0.418791
2.87117,-0.0768045,-0.49183
2.7676,-0.280699,-0.633389
2.81655,-0.181018,-0.670872
2.87437,-0.0774925,-0.715108
2.84026,-0.0875159,0.138878
2.72698,-0.283051,0.0865425
2.77906,-0.186625,0.0617971
2.8334,-0.088443,0.0352784
2.68747,-0.378362,0.0130262
2.77736,-0.188021,-0.0395995
2.7278,-0.285398,-0.112507
2.6967,-0.382734,-0.185064
2.74554,-0.288949,-0.214218
2.78589,-0.19104,-0.243225
2.84221,-0.0922436,-0.275271
2.74671,-0.290188,-0.315862
2.85204,-0.09331,-0.381862
2.74511,-0.291763,-0.417744
2.80104,-0.194191,-0.452546
2.86473,-0.0942258,-0.490818
2.79821,-0.19586,-0.557909
2.74741,-0.295693,-0.629171
2.81151,-0.198024,-0.669947
2.71923,-0.299123,0.0863532
2.77487,-0.203454,0.0617306
2.82181,-0.105416,0.0351415
2.71851,-0.299571,-0.0130315
2.77416,-0.204911,-0.039571
2.68464,-0.395687,-0.0859433
2.77279,-0.20627,-0.14056
2.68837,-0.398396,-0.184657
2.7338,-0.304686,-0.213444
2.77572,-0.207462,-0.242444
2.74488,-0.307036,-0.315862
2.84448,-0.110539,-0.380933
2.73639,-0.307827,-0.416696
2.78404,-0.210185,-0.45
2.85327,-0.111379,-0.488961
2.69622,-0.405235,-0.488954
2.78815,-0.212355,-0.556154
2.80248,-0.214676,-0.668097
2.70047,-0.31384,0.0858169
2.76559,-0.219843,0.0615532
2.81612,-0.122511,0.0350793
2.70868,-0.315321,-0.0129934
2.77086,-0.22177,-0.0395426
2.70921,-0.317109,-0.111893
2.76351,-0.222638,-0.140156
2.72495,-0.320639,-0.212903
2.76744,-0.223927,-0.241837
2.82893,-0.126581,-0.274114
2.73604,-0.323057,-0.315067
2.83285,-0.1275,-0.379474
2.72856,-0.323912,-0.415799
2.83382,-0.128039,-0.485754
2.68493,-0.420401,-0.487366
2.72504,-0.325086,-0.51895
2.79529,-0.231387,-0.66671
2.75423,-0.235954,0.0613313
2.80832,-0.139441,0.0349922
2.70272,-0.331448,-0.0129744
2.76646,-0.23851,-0.0394999
2.70325,-0.333237,-0.111729
2.75612,-0.239072,-0.139853
2.67146,-0.429456,-0.183844
2.71799,-0.33674,-0.212516
2.76205,-0.240558,-0.24149
2.82512,-0.143785,-0.273825
2.72612,-0.338858,-0.314158
2.72652,-0.340648,-0.415799
2.77044,-0.243384,-0.44825
2.82314,-0.144919,-0.484066
2.71715,-0.341067,-0.517835
2.78219,-0.247499,-0.663935
2.84059,-0.146411,-0.707385
2.79861,-0.153876,0.238908
2.74078,-0.251752,0.0610652
2.80043,-0.15628,0.0349051
2.69965,-0.347898,-0.0129696
2.74403,-0.253548,-0.0392012
2.80179,-0.157436,-0.0664751
2.69818,-0.349433,-0.111606
2.74764,-0.255332,-0.139499
2.70994,-0.352639,-0.212052
2.75953,-0.257408,-0.241403
2.82419,-0.161117,-0.273825
2.71512,-0.354421,-0.313135
2.75673,-0.258361,-0.343205
2.81326,-0.161233,-0.377087
2.71654,-0.356343,-0.414602
2.76496,-0.260009,-0.447613
2.82219,-0.162239,-0.484066
2.71111,-0.357219,-0.517092
2.7719,-0.263736,-0.661853
2.83382,-0.163503,-0.705937
2.7372,-0.26837,0.0610208
2.79842,-0.173398,0.0348926
2.69052,-0.363519,-0.0129362
2.74242,-0.27038,-0.0392012
2.7898,-0.17394,-0.0662146
2.69202,-0.365444,-0.111442
2.74105,-0.271694,-0.139247
2.69784,-0.367913,-0.211278
2.75591,-0.274139,-0.24123
2.8152,-0.17794,-0.273055
2.71092,-0.370805,-0.312908
2.75312,-0.275074,-0.342959
2.8142,-0.178617,-0.377352
2.66266,-0.464885,-0.383434
2.70744,-0.372062,-0.413554
2.75742,-0.276378,-0.446658
2.81426,-0.179114,-0.482885
2.704,-0.373175,-0.516163
2.7538,-0.277861,-0.550497
2.8163,-0.179836,-0.701834
2.73053,-0.284641,0.0609099
2.78433,-0.189682,0.0347309
2.67636,-0.378341,-0.0128791
2.73176,-0.286264,-0.0390732
2.77671,-0.190234,-0.0659304
2.63582,-0.471516,-0.0848037
2.6838,-0.381112,-0.111196
2.73139,-0.287671,-0.138843
2.78638,-0.191044,-0.168474
2.64641,-0.475557,-0.182691
2.68961,-0.383615,-0.210814
2.74625,-0.290206,-0.240535
2.80114,-0.194315,-0.271802
2.69876,-0.386025,-0.311772
2.74447,-0.291228,-0.342098
2.79822,-0.194849,-0.375363
2.70119,-0.388105,-0.412956
2.74978,-0.292666,-0.445704
2.80131,-0.195555,-0.480859
2.80546,-0.196435,-0.699421
2.71184,-0.299524,0.0605328
2.77314,-0.206022,0.0346064
2.6641,-0.393295,-0.0128314
2.72499,-0.302469,-0.0390021
2.77051,-0.206896,-0.065812
2.67646,-0.39684,-0.110991
2.72163,-0.303539,-0.138439
2.77918,-0.207691,-0.168113
2.68129,-0.39923,-0.21035
2.73353,-0.305833,-0.239581
2.78997,-0.210749,-0.270839
2.68946,-0.40155,-0.310976
2.73573,-0.307287,-0.341237
2.78907,-0.211415,-0.374302
2.69094,-0.403499,-0.411759
2.74303,-0.30898,-0.444908
2.79613,-0.212441,-0.480184
2.80227,-0.213498,-0.698938
2.70697,-0.315811,0.0604663
2.76684,-0.222633,0.0345442
2.71712,-0.318485,-0.0389167
2.76719,-0.223731,-0.0657647
2.66608,-0.412034,-0.110663
2.71872,-0.320116,-0.138389
2.77089,-0.224176,-0.167691
2.67682,-0.415369,-0.210195
2.72863,-0.322249,-0.239321
2.7797,-0.227135,-0.269971
2.67615,-0.416365,-0.309726
2.72985,-0.3236,-0.340745
2.78475,-0.228282,-0.373904
2.63324,-0.509865,-0.380484
2.6845,-0.419392,-0.41116
2.7303,-0.324523,-0.443158
2.78691,-0.228948,-0.478834
2.72972,-0.326291,-0.54679
2.79317,-0.230051,-0.697007
2.69704,-0.331439,0.0602888
2.75945,-0.239088,0.0344695
2.71512,-0.335151,-0.0389167
2.76577,-0.240706,-0.0657647
2.65561,-0.427116,-0.110335
2.71274,-0.3363,-0.138187
2.76449,-0.240741,-0.16739
2.6196,-0.520687,-0.181471
2.6693,-0.430991,-0.209808
2.72067,-0.338248,-0.2388
2.7723,-0.243664,-0.269393
2.67158,-0.43246,-0.309499
2.7219,-0.339607,-0.340007
2.7754,-0.244668,-0.372843
2.6731,-0.434429,-0.409814
2.7214,-0.340412,-0.442044
2.78054,-0.24561,-0.47799
2.72377,-0.342544,-0.54601
2.78397,-0.246501,-0.695077
2.74598,-0.254906,0.0343202
2.70607,-0.350904,-0.0388172
2.75627,-0.256929,-0.0655752
2.64703,-0.442414,-0.110089
2.70172,-0.351779,-0.137732
2.75601,-0.25705,-0.166969
2.66169,-0.446537,-0.209421
2.70867,-0.353646,-0.237932
2.76778,-0.26039,-0.269104
2.66202,-0.447691,-0.308704
2.71091,-0.355142,-0.3389
2.77286,-0.2616,-0.37271
2.67038,-0.450822,-0.409814
2.7173,-0.356847,-0.441726
2.76819,-0.261647,-0.476134
2.71676,-0.358609,-0.545035
2.7434,-0.270543,0.134729
2.73839,-0.271159,0.0342456
2.69594,-0.366425,-0.0387034
2.74967,-0.273342,-0.0654568
2.63639,-0.457282,-0.109761
2.69456,-0.367674,-0.13748
2.74941,-0.273462,-0.166668
2.59154,-0.548251,-0.17998
2.6481,-0.460979,-0.20857
2.69756,-0.369044,-0.237151
2.75821,-0.276573,-0.268334
2.65335,-0.462992,-0.308022
2.70573,-0.371364,-0.338531
2.6549,-0.464981,-0.407869
2.70723,-0.372437,-0.440453
2.75967,-0.277936,-0.474952
2.70576,-0.374063,-0.543279
2.72872,-0.287119,0.034146
2.73601,-0.288949,-0.0651726
2.62271,-0.471505,-0.10931
2.68731,-0.383495,-0.137227
2.73478,-0.288963,-0.165885
2.63835,-0.47598,-0.208029
2.68835,-0.384601,-0.236544
2.69849,-0.387254,-0.337916
2.64422,-0.479851,-0.406672
2.69903,-0.388198,-0.439498
2.74811,-0.293816,-0.473264
2.72095,-0.303193,0.0340713
2.6764,-0.397278,-0.03849
2.72525,-0.304731,-0.0649595
2.68392,-0.39983,-0.137177
2.72601,-0.304961,-0.165463
2.63244,-0.49161,-0.207797
2.68199,-0.400501,-0.236197
2.74076,-0.30884,-0.266985
2.64161,-0.494421,-0.30734
2.68331,-0.401894,-0.336316
2.62665,-0.493328,-0.404427
2.6927,-0.404165,-0.438861
2.74332,-0.31034,-0.472758
2.71308,-0.319181,0.0339967
2.65909,-0.4114,-0.0382767
2.72134,-0.321213,-0.0649121
2.67648,-0.415525,-0.136924
2.71715,-0.320862,-0.165042
2.6235,-0.506619,-0.207333
2.67653,-0.41649,-0.235936
2.72893,-0.324476,-0.266021
2.63268,-0.509488,-0.306659
2.67098,-0.41682,-0.335086
2.68431,-0.419764,-0.437907
2.72962,-0.325765,-0.470733
2.72909,-0.325557,-0.57528
2.70908,-0.335577,0.0339718
2.64763,-0.426277,-0.0381486
2.66402,-0.430347,-0.13642
2.7181,-0.337898,-0.165223
2.6135,-0.521342,-0.206791
2.67098,-0.432428,-0.235676
2.71998,-0.340349,-0.265347
2.62268,-0.524269,-0.305863
2.66054,-0.431929,-0.334102
2.67779,-0.435593,-0.43727
2.72854,-0.34263,-0.470901
2.69706,-0.350903,0.0338473
2.65542,-0.445693,-0.136117
2.70608,-0.353277,-0.164621
2.61123,-0.537569,-0.206868
2.66336,-0.447982,-0.235242
2.71586,-0.356773,-0.265154
2.61358,-0.539147,-0.305182
2.65197,-0.447255,-0.333364
2.66046,-0.449548,-0.434883
2.72248,-0.358851,-0.470226
2.69714,-0.368811,-0.0644858
2.64378,-0.460436,-0.135662
2.70089,-0.369469,-0.16444
2.65566,-0.463459,-0.234808
2.60828,-0.55476,-0.304954
2.64233,-0.462322,-0.332503
2.64793,-0.464159,-0.433292
2.63206,-0.475052,-0.135208
2.69363,-0.385327,-0.164139
2.58982,-0.566378,-0.205708
2.64198,-0.477795,-0.233854
2.59706,-0.569052,-0.304045
2.63554,-0.477818,-0.332011
2.70617,-0.390543,-0.468201
2.62026,-0.489543,-0.134753
2.68628,-0.401111,-0.163838
2.63606,-0.493447,-0.233594
2.63158,-0.493797,-0.331888
2.6232,-0.507719,-0.232726
2.61973,-0.508234,-0.330781
2.68559,-0.421279,-0.4655
2.6626,-0.430899,-0.0638938
2.61418,-0.522634,-0.232205
2.61073,-0.523129,-0.330043
2.67225,-0.436003,-0.463644
2.64906,-0.445405,-0.0636333
2.65974,-0.447343,-0.162694
2.60506,-0.537456,-0.231685
2.65006,-0.462453,-0.162272
2.59685,-0.552394,-0.231251
2.65827,-0.466802,-0.361171
2.64423,-0.478172,-0.162092
2.5866,-0.566825,-0.230643
2.64658,-0.481507,-0.359977
2.57529,-0.580932,-0.229949
2.64065,-0.497187,-0.359579
2.6215,-0.507361,-0.161068
2.62439,-0.510106,-0.258795
2.63463,-0.512812,-0.359181
2.61051,-0.521871,-0.160586
2.61828,-0.525611,-0.258506
2.61977,-0.526624,-0.357589
2.60721,-0.540052,-0.257735
2.60776,-0.540877,-0.356396
2.60287,-0.555831,-0.257639
2.59455,-0.570723,-0.257157
2.58518,-0.585313,-0.256579
2.56215,-0.596649,-0.254652
