3.79469,0.614177,-0.121745
3.79031,0.610413,-0.260852
3.78752,0.589191,-0.121397
3.79694,0.587603,-0.261055
3.78217,0.564612,-0.121112
3.79258,0.563122,-0.260513
3.78952,0.541961,-0.121239
3.78708,0.538576,-0.259903
3.79698,0.538835,-0.401656
3.78584,0.517751,-0.121017
3.79723,0.51627,-0.260377
3.79627,0.514993,-0.40124
3.78895,0.494511,-0.121017
3.78519,0.633143,-0.157428
3.80494,0.634057,-0.299317
3.79838,0.491562,-0.401135
3.79191,0.471253,-0.121017
3.79097,0.610223,-0.15751
3.79041,0.468044,-0.259496
3.80482,0.610067,-0.299008
3.79836,0.467881,-0.400823
3.77559,0.446987,0.0182482
3.79168,0.586492,-0.157387
3.78726,0.44408,-0.259089
3.80553,0.586255,-0.298775
3.8061,0.445144,-0.401344
3.78025,0.424035,0.0182578
3.79027,0.562483,-0.157182
3.78694,0.420503,-0.258886
3.80018,0.561581,-0.298079
3.77482,0.399989,0.0182194
3.78106,0.399382,-0.120416
3.78475,0.53795,-0.156814
3.78151,0.396427,-0.258344
3.79072,0.536437,-0.297073
3.79644,0.396853,-0.399781
3.7935,0.393133,-0.541021
3.76328,0.37543,0.0181522
3.77747,0.375581,-0.120226
3.78203,0.51391,-0.156568
3.79283,0.655685,-0.194582
3.77692,0.372531,-0.257869
3.79592,0.513435,-0.297228
3.79187,0.372869,-0.399052
3.79683,0.369945,-0.541161
3.76551,0.352332,0.0181522
3.78413,0.490566,-0.156527
3.80564,0.633877,-0.195037
3.77914,0.349349,-0.257869
3.79801,0.490006,-0.297151
3.79706,0.34987,-0.399365
3.79776,0.488425,-0.437889
3.80691,0.347361,-0.542285
3.76034,0.330438,0.154649
3.77557,0.329917,0.0181906
3.76907,0.467521,-0.0180964
3.77814,0.466236,-0.156158
3.77922,0.325983,-0.257733
3.79204,0.4656,-0.296455
3.80704,0.608762,-0.335812
3.7633,0.30744,0.15469
3.77553,0.306582,0.018181
3.77981,0.445322,-0.0181346
3.77696,0.44258,-0.155994
3.78413,0.303027,-0.257937
3.78888,0.441631,-0.29599
3.80051,0.44144,-0.437548
3.80201,0.299917,-0.541021
3.75515,0.283591,0.15428
3.76836,0.282737,0.0181378
3.76657,0.420347,-0.0180583
3.78156,0.282466,-0.120099
3.7796,0.419396,-0.155994
3.78791,0.279949,-0.258072
3.79152,0.418374,-0.29599
3.80315,0.418112,-0.437548
3.79193,0.275721,-0.539336
3.75582,0.260475,0.154239
3.77003,0.25961,0.0181378
3.76809,0.397123,-0.0180536
3.77913,0.395885,-0.155871
3.7894,0.535955,-0.193471
3.79085,0.678001,-0.232299
3.78359,0.256297,-0.257666
3.78311,0.393966,-0.295139
3.78862,0.255509,-0.397698
3.80465,0.394666,-0.437435
3.79552,0.252581,-0.539616
3.79712,0.249359,-0.682418
3.76233,0.23774,0.154444
3.76856,0.236284,0.0181234
3.77876,0.235666,-0.119909
3.77353,0.371905,-0.155543
3.7946,0.512961,-0.193572
3.79789,0.655237,-0.23248
3.78446,0.370649,-0.295062
3.79409,0.232501,-0.398115
3.80305,0.370928,-0.43698
3.79601,0.229227,-0.539476
3.80054,0.226172,-0.682771
3.75774,0.214309,0.154198
3.75983,0.350386,0.119197
3.76894,0.2131,0.0181186
3.76272,0.349926,-0.0180059
3.78998,0.490694,-0.054364
3.77016,0.211915,-0.119593
3.77375,0.348561,-0.155461
3.79668,0.48954,-0.193522
3.79199,0.630284,-0.231878
3.76951,0.208909,-0.256513
3.7817,0.346965,-0.294675
3.79339,0.205717,-0.538914
3.80972,0.203268,-0.684183
3.75898,0.191248,0.154198
3.75593,0.326789,0.119008
3.75719,0.189316,0.0180562
3.7644,0.188428,-0.119371
3.77781,0.32557,-0.155543
3.78772,0.464776,-0.192916
3.7879,0.605744,-0.231396
3.7757,0.186021,-0.256852
3.77979,0.323415,-0.294366
3.79169,0.185681,-0.397594
3.79564,0.462721,-0.473968
3.79458,0.182437,-0.538914
3.8089,0.321955,-0.578437
3.80794,0.179749,-0.683654
3.73596,0.168473,0.290188
3.75809,0.16809,0.154116
3.75289,0.303334,0.11885
3.74929,0.165861,0.018013
3.78678,0.443102,-0.0542359
3.76848,0.165458,-0.119466
3.77973,0.302384,-0.155543
3.78951,0.44141,-0.192866
3.79056,0.582339,-0.231336
3.7698,0.162549,-0.256378
3.77872,0.29998,-0.294134
3.78779,0.162199,-0.397073
3.79735,0.299925,-0.435617
3.7984,0.439423,-0.473968
3.79266,0.159026,-0.538493
3.80587,0.298192,-0.577689
3.80111,0.156057,-0.682242
3.74191,0.14574,0.290575
3.75406,0.144836,0.153912
3.74924,0.142815,0.0180082
3.78247,0.419088,-0.0541364
3.76942,0.142332,-0.119466
3.77255,0.278524,-0.155174
3.79702,0.559506,-0.231516
3.78148,0.276861,-0.294211
3.80637,0.557762,-0.372391
3.77878,0.13859,-0.396031
3.79218,0.276114,-0.434821
3.80497,0.41654,-0.47446
3.79357,0.135752,-0.538493
3.80172,0.274407,-0.576791
3.79806,0.132594,-0.681535
3.73376,0.122484,0.289879
3.74589,0.121507,0.153543
3.74935,0.25678,0.118629
3.77227,0.396607,0.0841559
3.74904,0.119775,0.0180034
3.7582,0.256662,-0.0179487
3.76523,0.119042,-0.119308
3.77319,0.255304,-0.155133
3.79742,0.535779,-0.231336
3.77615,0.253186,-0.29367
3.80085,0.533151,-0.371524
3.78353,0.115523,-0.396448
3.78488,0.252246,-0.433799
3.80845,0.393288,-0.474583
3.78443,0.112179,-0.537088
3.80037,0.25088,-0.576343
3.79388,0.109145,-0.680653
3.73544,0.0995978,0.289956
3.75156,0.0986515,0.153748
3.74871,0.0967435,0.0179986
3.75871,0.233535,-0.017944
3.76489,0.0959118,-0.119276
3.7717,0.231963,-0.15501
3.78705,0.37061,-0.192361
3.79569,0.511802,-0.231035
3.80701,0.510216,-0.371813
3.7792,0.0921843,-0.395927
3.78338,0.228837,-0.433458
3.78406,0.0889326,-0.536948
3.80184,0.227556,-0.576343
3.79153,0.0857977,-0.680123
3.73498,0.0766553,0.289879
3.74433,0.212537,0.254688
3.75009,0.0755903,0.153666
3.74823,0.0737204,0.0179938
3.75841,0.0726738,-0.119054
3.77105,0.208705,-0.154928
3.78428,0.346911,-0.192108
3.79282,0.487738,-0.230673
3.77273,0.0688667,-0.395198
3.78967,0.205888,-0.434026
3.78354,0.0656952,-0.536807
3.79297,0.0625479,-0.6803
3.79431,0.201558,-0.718503
3.7304,0.0536647,0.289492
3.74756,0.189659,0.254823
3.74049,0.0524387,0.153257
3.74661,0.0506932,0.0179842
3.77966,0.325107,-0.0539657
3.76478,0.0496904,-0.119244
3.78833,0.323854,-0.192209
3.79277,0.464093,-0.230493
3.76921,0.183105,-0.292819
3.7711,0.0456923,-0.39499
3.78293,0.182249,-0.433117
3.79922,0.32178,-0.472614
3.78487,0.0424897,-0.536948
3.80913,0.321414,-0.616125
3.7982,0.0393245,-0.681182
3.79352,0.17818,-0.718132
3.73166,0.0307826,0.289569
3.75364,0.166882,0.255162
3.73975,0.0294786,0.153216
3.75252,0.164601,0.118566
3.74685,0.0277034,0.0179842
3.77959,0.30175,-0.0539372
3.76002,0.0265539,-0.119086
3.75836,0.161769,-0.154313
3.78626,0.300288,-0.192007
3.78959,0.440122,-0.230132
3.77923,0.160354,-0.293515
3.76932,0.0225405,-0.394781
3.78596,0.159117,-0.433344
3.79123,0.297685,-0.471384
3.80377,0.437665,-0.512377
3.78209,0.0192503,-0.536527
3.81103,0.298036,-0.616125
3.79542,0.0160059,-0.680653
3.73472,0.00899937,0.426443
3.74485,0.00654009,0.153421
3.75046,0.14146,0.118471
3.75973,0.279005,0.0836457
3.77976,0.417159,0.0473241
3.74695,0.00471265,0.0179842
3.78014,0.415733,-0.090086
3.75412,0.00347675,-0.118896
3.75728,0.138631,-0.154231
3.77608,0.276176,-0.191401
3.77317,0.136909,-0.292973
3.7664,-0.000587516,-0.394469
3.78686,0.135884,-0.433344
3.79001,0.274202,-0.471015
3.78411,-0.00395859,-0.536807
3.79442,0.133768,-0.574547
3.80885,0.274362,-0.615488
3.79741,-0.00728638,-0.681006
3.74842,0.120582,0.254688
3.76184,0.256819,0.21992
3.74482,-0.016438,0.153421
3.74527,0.118256,0.118282
3.75838,0.255727,0.0835792
3.74291,-0.0182588,0.017965
3.77765,0.392015,-0.0899676
3.75806,-0.019579,-0.119023
3.76674,0.252267,-0.190846
3.76931,-0.0237165,-0.394781
3.78365,0.112528,-0.43289
3.79063,0.250877,-0.470892
3.78105,-0.0271561,-0.536386
3.78034,0.110052,-0.572303
3.80553,0.250662,-0.614692
3.73455,-0.0368321,0.426443
3.73657,-0.0379608,0.289956
3.7451,0.0974762,0.254417
3.74365,-0.039405,0.15338
3.76288,0.232846,0.0836457
3.78595,0.369411,-0.0901096
3.75787,-0.0426377,-0.119023
3.76822,0.22915,-0.190846
3.78513,0.36913,-0.229409
3.75407,-0.0455433,-0.25509
3.7671,-0.0468193,-0.394573
3.79309,0.227672,-0.471015
3.77784,-0.0503161,-0.535965
3.77798,0.0867858,-0.571854
3.80306,0.227072,-0.614056
3.72829,-0.0596508,0.425763
3.72431,-0.0606924,0.289028
3.74463,0.074475,0.254349
3.74234,-0.0623582,0.153339
3.76323,0.209697,0.0836236
3.74241,-0.0641887,0.017965
3.77088,0.208077,-0.0537239
3.75254,-0.0656074,-0.118864
3.77155,0.206133,-0.190947
3.77639,0.3449,-0.228747
3.79004,0.205817,-0.330606
3.76774,-0.0699514,-0.394677
3.76886,0.0658103,-0.431072
3.79442,0.204394,-0.471015
3.77746,-0.0734955,-0.535965
3.78437,0.0637028,-0.572752
3.80241,0.203627,-0.613738
3.79637,0.0588677,-0.864499
3.72885,-0.0825481,0.425876
3.72586,-0.0835879,0.289182
3.74602,0.0515107,0.254417
3.74788,-0.0854563,0.153584
3.75646,0.186207,0.0834461
3.74594,-0.0872436,0.0179842
3.77309,0.184984,-0.0537381
3.75307,-0.0886549,-0.118896
3.77274,0.182987,-0.190947
3.78142,0.321976,-0.228927
3.77631,0.181839,-0.329304
3.76624,-0.093044,-0.394573
3.77515,0.0427513,-0.431754
3.78271,0.180493,-0.469416
3.77298,-0.0965708,-0.535403
3.78766,0.0405128,-0.5732
3.78822,-0.100269,-0.679594
3.78277,0.0382815,-0.715345
3.79178,0.0355268,-0.863389
3.73853,0.029053,0.390639
3.73225,-0.106647,0.289724
3.74826,0.0285398,0.254552
3.74529,-0.108393,0.153502
3.76253,0.163371,0.083557
3.74534,-0.110227,0.0179842
3.77015,0.161658,-0.0536812
3.75845,-0.11186,-0.119086
3.76182,0.159328,-0.190341
3.78929,0.299239,-0.229289
3.77835,0.158707,-0.329391
3.77157,-0.116335,-0.395198
3.77435,0.0195815,-0.43164
3.78474,0.157321,-0.469539
3.7733,-0.119751,-0.535543
3.77795,0.0172263,-0.571704
3.79515,0.294969,-0.651836
3.78261,-0.123351,-0.678711
3.78998,0.0122539,-0.862945
3.7287,0.006097,0.3896
3.73153,-0.129546,0.289724
3.74138,0.00553005,0.254078
3.74056,-0.131232,0.153339
3.76046,0.14017,0.0834905
3.77061,0.276148,0.0470503
3.74359,-0.13317,0.0179794
3.75969,-0.134991,-0.119149
3.77428,0.135342,-0.328957
3.77476,-0.139622,-0.395615
3.76943,-0.00357316,-0.431072
3.78266,0.13399,-0.46917
3.77052,-0.142826,-0.535262
3.77304,-0.00594726,-0.570956
3.79565,0.133256,-0.612146
3.80377,0.27217,-0.653017
3.78474,-0.146672,-0.679241
3.78393,-0.00814383,-0.715531
3.78901,-0.0109984,-0.862723
3.73165,-0.0167954,0.389911
3.72767,-0.152317,0.289492
3.73569,-0.154016,0.153175
3.75526,0.116907,0.0833574
3.77123,0.25294,0.0470379
3.7387,-0.155971,0.0179602
3.7419,-0.0203683,-0.0178296
3.76186,0.115075,-0.053539
3.7548,-0.15789,-0.119023
3.7605,0.113062,-0.19019
3.78172,0.251986,-0.228626
3.76986,-0.16261,-0.395198
3.76934,-0.0267019,-0.431072
3.78639,0.110864,-0.469539
3.77254,-0.16609,-0.535684
3.77886,-0.0291438,-0.571854
3.79343,0.109878,-0.611669
3.78671,-0.170025,-0.67977
3.77988,-0.0313289,-0.714787
3.79213,-0.173252,-0.826431
3.78789,-0.0342383,-0.862501
3.73247,-0.0397026,0.390015
3.72966,-0.175328,0.289724
3.73867,-0.177124,0.153339
3.74591,0.0936128,0.0831356
3.76773,0.229491,0.0469756
3.74167,-0.1791,0.0179794
3.7605,0.0919415,-0.0535105
3.77403,0.228421,-0.089565
3.74677,-0.180589,-0.118801
3.76511,0.0900818,-0.190392
3.77324,0.228174,-0.228024
3.75383,-0.183885,-0.255361
3.76879,-0.185738,-0.395198
3.77308,-0.0498821,-0.431526
3.78104,0.0874917,-0.468801
3.77442,-0.189383,-0.536105
3.78059,-0.0523574,-0.572153
3.78811,0.0864646,-0.610714
3.8019,0.22518,-0.652173
3.7856,-0.193257,-0.67977
3.79639,-0.0576129,-0.864499
3.72917,-0.0625538,0.389703
3.7305,-0.198315,0.289879
3.7405,-0.200221,0.153462
3.74541,0.0706077,0.0831134
3.7435,-0.202216,0.0179938
3.75599,0.0687743,-0.0534394
3.77137,0.205042,-0.0894702
3.75457,-0.204063,-0.119086
3.7616,0.0669068,-0.19019
3.76958,0.204747,-0.227723
3.75064,-0.206804,-0.255225
3.76318,0.0656208,-0.327829
3.77171,-0.0730131,-0.431413
3.77556,0.0641888,-0.468063
3.77813,-0.212818,-0.536807
3.78712,-0.0756919,-0.5732
3.78561,0.0631701,-0.610237
3.80124,0.201743,-0.651836
3.78336,-0.216425,-0.679594
3.77725,-0.0776711,-0.714416
3.81133,0.0594074,-0.906059
3.72573,-0.0853661,0.389392
3.72922,-0.221201,0.289879
3.73939,-0.0862666,0.25401
3.7402,-0.223228,0.153502
3.73609,-0.0884088,0.117967
3.76826,0.183141,0.0469508
3.74119,-0.225122,0.017989
3.75334,0.0456901,-0.0533967
3.76956,0.181753,-0.0893992
3.75894,0.0437899,-0.190038
3.76977,0.181566,-0.227663
3.75129,-0.229936,-0.255361
3.76151,-0.0943967,-0.291968
3.76949,0.0425967,-0.32835
3.77715,-0.0963064,-0.432095
3.77092,0.0409673,-0.467448
3.78164,-0.0987987,-0.572452
3.79284,0.0400137,-0.611351
3.78196,-0.239635,-0.679594
3.78063,-0.100951,-0.715159
3.7837,-0.103875,-0.861835
3.72077,0.0292153,0.48993
3.72713,-0.108283,0.3896
3.73909,0.0271402,0.354972
3.73677,-0.246042,0.153421
3.73148,-0.111212,0.11784
3.76232,0.159719,0.0468636
3.73774,-0.247941,0.0179794
3.75155,0.0226471,-0.0533683
3.77161,0.158662,-0.0894229
3.74409,-0.114662,-0.153658
3.75715,0.0207136,-0.189937
3.75579,-0.253352,-0.255768
3.75986,-0.117444,-0.29189
3.76473,-0.255078,-0.395198
3.77152,-0.119324,-0.431526
3.79496,0.155399,-0.508265
3.77602,-0.121841,-0.571704
3.78906,0.0167231,-0.610714
3.78042,-0.262836,-0.679594
3.78786,-0.127253,-0.862945
3.7254,-0.131115,0.389496
3.73007,-0.131866,0.253468
3.76023,0.136522,0.0468263
3.74413,-0.271449,0.0180178
3.76162,-0.000373399,-0.0535105
3.77051,0.135445,-0.0893755
3.74432,-0.13767,-0.153699
3.77018,-0.00234831,-0.190594
3.75814,-0.276685,-0.256039
3.76106,-0.140586,-0.292045
3.77701,0.132445,-0.365839
3.76012,-0.277953,-0.394886
3.77171,-0.142501,-0.43164
3.79585,0.13211,-0.508265
3.77718,-0.145084,-0.572003
3.78317,-0.00651622,-0.60976
3.77677,-0.285879,-0.679241
3.72184,-0.0164508,0.49006
3.7272,-0.154668,0.253333
3.73902,-0.0212907,0.0829581
3.76,0.113417,0.0468139
3.77127,0.112307,-0.0893755
3.74839,-0.160856,-0.153904
3.7691,-0.0254749,-0.190543
3.75913,-0.163618,-0.291968
3.76266,-0.0267449,-0.327742
3.77676,0.109238,-0.365743
3.76679,-0.165466,-0.431186
3.77004,-0.0284424,-0.467325
3.79163,0.108675,-0.507602
3.77029,-0.167994,-0.571106
3.78306,-0.0297292,-0.60976
3.77102,-0.308726,-0.678535
3.77715,-0.170479,-0.714973
3.78669,-0.0322693,-0.753178
3.72861,-0.0393605,0.490974
3.72518,-0.177488,0.253265
3.73161,-0.314782,0.153421
3.72481,-0.179685,0.117714
3.75081,-0.0443744,0.0832243
3.75862,0.0902958,0.046789
3.73258,-0.180778,-0.0178058
3.75833,-0.0464971,-0.0534678
3.76689,0.0890472,-0.0892571
3.74834,-0.183902,-0.153945
3.76488,-0.0485497,-0.190341
3.76211,0.0887371,-0.227
3.76104,-0.186829,-0.2922
3.76641,-0.0498844,-0.32809
3.77835,0.0860851,-0.365839
3.76372,-0.188476,-0.430958
3.77277,-0.0516151,-0.467694
3.78727,0.0852963,-0.506939
3.76883,-0.328525,-0.536667
3.76228,-0.190774,-0.570058
3.78972,-0.0530378,-0.610874
3.80072,0.0849354,-0.650992
3.77603,-0.193652,-0.714973
3.79191,-0.0572387,-0.901434
3.73169,0.0724096,0.454776
3.72502,-0.200395,0.253333
3.75289,0.0686274,0.183446
3.71468,-0.336322,0.152807
3.72763,-0.202754,0.11784
3.74947,-0.0673702,0.0832021
3.75611,0.067178,0.0467516
3.75798,-0.0695569,-0.0534678
3.76337,0.0658623,-0.0891624
3.7475,-0.342393,-0.119181
3.74414,-0.206733,-0.153822
3.75153,-0.0714026,-0.189685
3.76059,0.0656167,-0.22688
3.75783,-0.209791,-0.292045
3.76902,-0.0730516,-0.32835
3.77981,0.0629165,-0.365936
3.7615,-0.211511,-0.430845
3.76941,-0.0747045,-0.467325
3.78971,0.0620889,-0.507204
3.76477,-0.35146,-0.536386
3.77881,-0.214866,-0.572752
3.78636,-0.0762304,-0.610396
3.77477,-0.216818,-0.714973
3.74114,0.0470191,0.318912
3.72571,-0.223367,0.253468
3.72831,-0.225743,0.117904
3.74799,-0.0903512,0.0831799
3.74445,0.0439887,0.0466023
3.73308,-0.226751,-0.0178201
3.75348,-0.0925156,-0.0534109
3.74533,-0.365381,-0.119181
3.7448,-0.229825,-0.153904
3.75501,-0.0945207,-0.189887
3.75992,0.0425297,-0.22682
3.75847,-0.232968,-0.2922
3.77348,-0.0963036,-0.328784
3.77216,0.0396392,-0.365165
3.76013,-0.234587,-0.430845
3.76293,-0.0976772,-0.466587
3.77317,0.0386619,-0.504949
3.7655,-0.374847,-0.536807
3.7799,-0.099306,-0.609441
3.78545,-0.101964,-0.753178
3.73329,0.0266176,0.454897
3.72187,-0.248283,0.117746
3.74636,-0.113316,0.0831578
3.74065,0.0209899,0.0465525
3.73106,-0.385863,0.0180034
3.7376,-0.250053,-0.0178487
3.74685,-0.11536,-0.0533256
3.7539,0.0196228,-0.0889255
3.74302,-0.388355,-0.119181
3.74132,-0.252664,-0.153822
3.76035,-0.117747,-0.19019
3.75512,0.0194326,-0.226519
3.75086,-0.392147,-0.256242
3.75498,-0.25589,-0.292045
3.77083,-0.119392,-0.32861
3.77233,0.0164929,-0.365165
3.76821,-0.120955,-0.467325
3.7773,0.0155257,-0.50548
3.76805,-0.398466,-0.53751
3.7802,-0.122529,-0.6096
3.79769,0.0149467,-0.650316
3.77985,-0.125027,-0.752202
3.72686,-0.13308,0.354027
3.72925,-0.271769,0.11803
3.7436,-0.136229,0.0831134
3.73971,-0.00196219,0.0465401
3.72464,-0.408314,0.0179842
3.734,-0.272836,-0.0178392
3.74707,-0.138385,-0.0533398
3.76194,-0.00341834,-0.089115
3.74057,-0.411315,-0.119181
3.7417,-0.275762,-0.153904
3.75756,-0.140743,-0.190089
3.76016,-0.0036136,-0.22682
3.75037,-0.415374,-0.256378
3.75731,-0.279221,-0.292354
3.77002,-0.142527,-0.32861
3.75821,-0.417371,-0.396031
3.76886,-0.2816,-0.432208
3.77037,-0.144188,-0.467694
3.7793,-0.00765564,-0.505745
3.76357,-0.421358,-0.537229
3.77706,-0.148141,-0.751812
3.73249,-0.29504,0.118187
3.7377,-0.158984,0.0830025
3.73863,-0.0249019,0.0465277
3.72604,-0.43162,0.0180034
3.73425,-0.2959,-0.0178487
3.73797,-0.434259,-0.119181
3.74193,-0.298875,-0.153986
3.75608,-0.0266571,-0.226579
3.74874,-0.438494,-0.256445
3.76607,-0.30464,-0.432095
3.76743,-0.167232,-0.467448
3.78018,-0.030853,-0.505877
3.78335,-0.169129,-0.610396
3.78773,-0.0315758,-0.648629
3.78097,-0.171536,-0.752788
3.72408,-0.315154,0.253807
3.72165,-0.317173,0.117904
3.73765,-0.181964,0.0830247
3.7404,-0.0478668,0.0465525
3.73635,-0.319148,-0.0178677
3.75962,-0.0495566,-0.0890676
3.73425,-0.457065,-0.119149
3.73803,-0.321658,-0.153904
3.76483,-0.0498224,-0.227121
3.74301,-0.461121,-0.256242
3.76611,-0.327915,-0.432322
3.76435,-0.190245,-0.467202
3.78091,-0.0540613,-0.50601
3.77339,-0.330938,-0.5732
3.77632,-0.192039,-0.609441
3.77397,-0.19443,-0.751617
3.75004,-0.0710059,0.046677
3.73034,-0.341703,-0.0178487
3.75824,-0.0726049,-0.089044
3.73038,-0.479842,-0.119118
3.733,-0.344312,-0.153781
3.76545,-0.0729413,-0.227181
3.73417,-0.483311,-0.255835
3.74856,-0.348057,-0.292122
3.76708,-0.213564,-0.467694
3.7805,-0.0772595,-0.50601
3.76538,-0.35353,-0.572303
3.77803,-0.215375,-0.609919
3.79199,-0.0781563,-0.649473
3.73734,-0.0906412,0.318657
3.74312,-0.228304,0.0832021
3.74653,-0.0939392,0.0466397
3.72718,-0.364488,-0.0178439
3.74853,-0.230669,-0.0534252
3.72637,-0.502588,-0.119086
3.73181,-0.367309,-0.153822
3.74933,-0.371346,-0.292354
3.76768,-0.236799,-0.46794
3.78095,-0.100481,-0.506143
3.76708,-0.377021,-0.572901
3.77861,-0.238677,-0.610237
3.78947,-0.101369,-0.649135
3.73572,-0.113541,0.318572
3.73766,-0.250999,0.0831134
3.74788,-0.116988,0.0466645
3.72885,-0.387765,-0.017863
3.72421,-0.525583,-0.119118
3.72949,-0.3902,-0.153822
3.74731,-0.118607,-0.226158
3.74797,-0.394449,-0.292432
3.76388,-0.258105,-0.32861
3.7466,-0.532878,-0.396344
3.7711,-0.260254,-0.468555
3.7763,-0.123549,-0.505612
3.76961,-0.400651,-0.573649
3.7461,-0.139945,0.0466521
3.72541,-0.410528,-0.0178582
3.72388,-0.548862,-0.119213
3.73596,-0.414067,-0.15419
3.7515,-0.141786,-0.226459
3.7544,-0.418432,-0.293128
3.76222,-0.281195,-0.32861
3.73637,-0.554834,-0.395615
3.76548,-0.28309,-0.468063
3.77943,-0.146872,-0.506143
3.76315,-0.423331,-0.573051
3.77835,-0.285252,-0.610714
3.74017,-0.162711,0.0465899
3.71884,-0.432916,-0.0178392
3.72538,-0.57246,-0.119371
3.73633,-0.437331,-0.154313
3.75455,-0.164977,-0.226699
3.7379,-0.43983,-0.292045
3.75823,-0.443751,-0.432776
3.7607,-0.305948,-0.467694
3.77549,-0.169925,-0.505745
3.7401,-0.185707,0.0466023
3.72009,-0.456213,-0.0178582
3.71884,-0.594834,-0.119276
3.72961,-0.45976,-0.154149
3.75845,-0.188262,-0.227
3.74008,-0.46337,-0.292432
3.75543,-0.466803,-0.432776
3.76765,-0.329796,-0.468801
3.71623,-0.478903,-0.0178534
3.75402,-0.210942,-0.0890676
3.73914,-0.486567,-0.292586
3.73517,-0.366216,0.0832687
3.73312,-0.509097,-0.292354
3.74352,-0.512045,-0.432095
3.72291,-0.388091,0.0830468
3.74349,-0.394266,-0.190291
3.74227,-0.535286,-0.432322
3.73468,-0.414544,-0.0534536
3.74497,-0.417671,-0.190493
3.75526,-0.420146,-0.329131
3.74678,-0.559412,-0.433231
3.7271,-0.43687,-0.0533825
3.74333,-0.440758,-0.190543
3.75675,-0.44533,-0.468924
3.77613,-0.310214,-0.648797
3.73168,-0.321816,0.183056
3.73031,-0.460465,-0.0534678
3.73163,-0.462613,-0.190089
3.75591,-0.468618,-0.46917
3.76336,-0.332424,-0.646941
3.7294,-0.483603,-0.0534963
3.72872,-0.485501,-0.190089
3.75395,-0.491784,-0.469293
3.7323,-0.507285,-0.0535816
3.72765,-0.508641,-0.19019
3.74974,-0.512988,-0.329652
3.74496,-0.513999,-0.468555
3.7341,-0.392906,0.0467268
3.72417,-0.529472,-0.0535105
3.72842,-0.532068,-0.190392
3.7485,-0.536269,-0.329825
3.7336,-0.416032,0.0467516
3.71591,-0.55158,-0.0534394
3.72409,-0.554788,-0.190341
3.74578,-0.419044,-0.227362
3.74317,-0.558965,-0.329652
3.72502,-0.438232,0.046677
3.73402,-0.440745,-0.0890676
3.74711,-0.442488,-0.227603
3.74065,-0.582075,-0.329738
3.73125,-0.463648,-0.0890676
3.74135,-0.465102,-0.227422
3.73602,-0.604857,-0.329652
3.72933,-0.486663,-0.0890913
3.73447,-0.487533,-0.227181
3.73519,-0.628265,-0.329912
3.71934,-0.508589,-0.0889255
3.72844,-0.510032,-0.227
3.72636,-0.650316,-0.329478
3.7201,-0.531967,-0.0890203
3.72919,-0.533465,-0.227241
3.72622,-0.673877,-0.329825
3.72468,-0.555963,-0.0892097
3.73078,-0.557074,-0.227542
3.72811,-0.579883,-0.0893755
3.72532,-0.579648,-0.227422
3.74672,-0.586058,-0.367092
3.72268,-0.602655,-0.227482
3.74403,-0.609197,-0.367188
