3.06831,0.265743,-0.0358545
3.0732,0.255364,-0.0359011
3.07009,0.244317,-0.0358545
3.06693,0.233297,-0.035808
3.06769,0.223124,-0.035808
3.05872,0.222472,-0.178603
3.06849,0.211878,-0.035808
3.0635,0.211534,-0.178836
3.05324,0.20012,-0.0356217
3.06122,0.200643,0.0357148
3.06024,0.200579,-0.178603
3.06187,0.190491,-0.0357148
3.06089,0.19043,-0.178603
3.07676,0.332613,-0.0900643
3.05849,0.180101,-0.0356683
3.05849,0.180101,0.0356683
3.05353,0.179808,-0.178138
3.05511,0.169202,-0.0356217
3.05511,0.169202,0.0356217
3.05015,0.168927,-0.177905
3.05571,0.158004,-0.0356217
3.04772,0.157591,0.0355286
3.05075,0.157747,-0.177905
3.04823,0.147484,0.0355286
3.05125,0.14763,-0.177905
3.05272,0.137023,-0.0355752
3.04767,0.136796,-0.284781
3.04473,0.136664,0.035482
3.05175,0.136979,-0.177905
3.04918,0.126199,-0.0355286
3.04519,0.126034,0.035482
3.04822,0.12616,-0.177673
3.0752,0.278242,-0.161823
3.04161,0.115251,0.0354355
3.04864,0.115518,-0.177673
3.06011,0.254813,-0.0893661
3.04601,0.10424,-0.035482
3.04099,0.104068,-0.284037
3.03802,0.103966,0.0353889
3.04505,0.104207,-0.17744
3.06915,0.255566,-0.161404
3.04233,0.0945465,-0.0354355
3.06613,0.245618,-0.0178774
3.03732,0.0943911,-0.283665
3.03433,0.094298,0.0353423
3.03738,0.094393,-0.176975
3.06596,0.245605,-0.161195
3.06701,0.234379,-0.0178774
3.03367,0.0831496,-0.283294
3.03066,0.0830671,0.0352958
3.03771,0.0832605,-0.176975
3.07082,0.234671,-0.161404
3.06385,0.222846,-0.0178542
3.02997,0.0719348,-0.282922
3.03494,0.0720528,0.0353423
3.034,0.0720306,-0.176743
3.06369,0.222834,-0.160985
3.06853,0.213496,-0.0178774
3.03421,0.0624978,-0.176743
3.06438,0.213207,-0.160985
3.06127,0.202257,-0.017831
3.02242,0.0517014,-0.282178
3.02735,0.0517859,0.0352492
3.03441,0.0519067,-0.176743
3.06112,0.202246,-0.160776
3.03153,0.0402151,-0.0352958
3.06203,0.190501,-0.017831
3.02657,0.0401494,-0.28255
3.02753,0.040162,0.0352492
3.03459,0.0402557,-0.176743
3.06187,0.190492,-0.160776
3.05862,0.180644,-0.0178077
3.01872,0.0305594,-0.281806
3.02364,0.0306092,0.0352026
3.03071,0.0306808,-0.17651
3.05847,0.180635,-0.160567
3.05124,0.169523,-0.0177612
3.01881,0.0200226,-0.281806
3.0268,0.0200756,-0.176278
3.05908,0.169959,-0.160567
3.04785,0.158131,-0.017738
3.06168,0.158849,-0.250277
3.05569,0.158538,-0.160357
3.0198,-0.0010535,0.0351561
3.05423,0.148309,-0.249626
3.02687,-0.00105597,-0.176278
3.0562,0.148404,-0.160357
3.07652,0.300571,-0.0719296
3.04888,0.136849,-0.017738
3.01885,-0.0121187,-0.281806
3.01577,-0.0121063,0.0351095
3.0428,0.136576,-0.24865
3.02285,-0.0121348,-0.176045
3.04874,0.136843,-0.159939
3.07362,0.288918,-0.0718366
3.04934,0.126206,-0.017738
3.00684,-0.0225661,-0.280691
3.01171,-0.0226026,0.0350629
3.04326,0.125955,-0.24865
3.0188,-0.0226558,-0.175812
3.05319,0.126366,-0.160148
3.07062,0.277828,-0.0717435
3.04576,0.11541,-0.0177147
3.01471,-0.0331487,-0.281435
3.04368,0.115332,-0.24865
3.0187,-0.0331926,-0.175812
3.07306,0.267238,-0.143688
3.04962,0.115557,-0.159939
3.06759,0.266762,-0.0716505
3.0115,-0.0425766,0.0350629
3.04403,0.105768,-0.24865
3.01858,-0.0426769,-0.175812
3.06592,0.256914,-0.143316
3.04598,0.105836,-0.159729
3.06841,0.257123,-0.0716505
3.02527,0.0934884,-0.0880861
3.0385,0.0938971,-0.0176682
2.99531,-0.0538513,0.0348767
3.04441,0.0940799,-0.24865
3.01041,-0.0541228,-0.175347
3.07087,0.245459,-0.143502
3.04636,0.0941401,-0.159729
3.06938,0.24534,-0.0716505
3.06299,0.235148,0
3.00713,-0.0635139,0.0350164
3.03672,0.0842945,-0.247999
3.01422,-0.0636637,-0.17558
3.06764,0.235505,-0.143316
3.07013,0.235696,-0.0716505
2.99805,-0.0737937,-0.279948
3.00289,-0.0739127,0.0349698
3.03301,0.0735963,-0.247673
3.00999,-0.0740875,-0.175347
3.06844,0.224794,-0.143316
3.03893,0.0737399,-0.159311
3.06296,0.224393,-0.0714644
3.02207,0.0627755,-0.0879698
3.05657,0.2132,0
3.03529,0.0630502,-0.017645
3.00574,-0.0844831,-0.280691
2.99861,-0.0842827,0.0349233
3.05709,0.213236,-0.214292
3.04122,0.0631734,-0.248324
3.00971,-0.0845946,-0.175347
3.06522,0.213803,-0.14313
3.05974,0.213421,-0.0713713
3.05733,0.201997,0
2.99828,-0.095272,0.0349233
3.03745,0.0519589,-0.247999
3.062,0.202305,-0.142944
3.0605,0.202206,-0.0713713
3.01844,0.0416208,-0.0878534
3.05799,0.191856,0
2.98916,-0.104906,-0.279204
2.98996,-0.104934,0.0348301
3.03761,0.0418852,-0.247999
3.05468,0.191648,-0.142571
3.02756,0.0417466,-0.158683
3.06514,0.192305,-0.0714644
3.01857,0.0305581,-0.0878534
3.05468,0.180412,0
2.99755,-0.116202,-0.0349233
3.02779,0.0306515,-0.0175985
2.98875,-0.115861,-0.279204
2.98955,-0.115892,0.0348301
3.03375,0.0307118,-0.247673
3.00066,-0.116322,-0.174882
3.05536,0.180452,-0.142571
3.01781,0.0305504,0.246372
3.06183,0.180834,-0.0713713
3.01066,0.0204942,-0.0876207
3.05126,0.170059,0
2.98835,-0.125771,-0.279204
3.04645,0.16979,0.0709991
2.98915,-0.125804,0.0348301
3.02985,0.0206248,-0.247348
3.05993,0.170542,-0.142757
3.03177,0.0206379,-0.158892
3.0139,0.0205163,0.246046
3.01471,0.00999736,-0.087737
3.05184,0.159406,0
3.01993,0.0100147,-0.017552
2.98392,-0.13602,-0.278832
3.05101,0.159363,0.0710922
2.98869,-0.136238,0.0348301
3.02592,0.0100345,-0.247023
3.05651,0.15965,-0.142571
3.01396,0.00999488,0.246046
3.05501,0.159572,-0.0711852
3.00673,-0.000523957,-0.0875043
3.05238,0.148753,0
3.0236,-0.000526898,-0.384866
3.04356,0.148323,0.0709061
2.9882,-0.146669,0.0348301
3.02195,-0.000526609,-0.246697
3.04508,0.148397,-0.142013
3.01397,-0.00052522,0.246046
3.07475,0.30094,-0.125867
3.05555,0.148907,-0.0711852
3.04089,0.137554,0
3.01962,-0.0110675,-0.38436
3.01993,-0.0110687,-0.017552
2.97892,-0.15664,-0.27846
3.04406,0.137698,0.0709061
2.97968,-0.15668,0.034737
3.02591,-0.0110906,-0.247023
3.04159,0.137586,-0.141827
3.02383,-0.011083,-0.158473
3.00598,-0.0110175,0.245395
3.06782,0.289454,-0.125541
3.04806,0.137878,-0.0709991
3.07084,0.279469,-0.0538232
3.00665,-0.0209901,-0.0875043
3.01956,-0.0210803,-0.38436
3.01588,-0.0210545,-0.0175287
2.97838,-0.166517,-0.27846
3.04051,0.127436,0.070813
2.98314,-0.166783,0.0347836
3.02187,-0.0210964,-0.246697
3.04203,0.127499,-0.141827
2.99795,-0.0209294,0.244744
3.0485,0.127771,-0.0709991
3.07184,0.268211,-0.0538232
3.00656,-0.0320107,-0.0875043
3.03778,0.116169,0
3.0155,-0.0321059,-0.383855
2.97775,-0.177433,-0.27846
3.04095,0.11629,0.070813
3.01779,-0.0321303,-0.246372
3.04647,0.116501,-0.142013
3.00184,-0.0319605,0.24507
3.04895,0.116596,-0.0709991
3.0608,0.256485,-0.0536138
3.03417,0.105426,0
3.00743,-0.0425189,-0.382845
3.01165,-0.0425785,-0.0175055
2.97711,-0.187825,-0.27846
3.03734,0.105536,0.0707199
3.01766,-0.0426635,-0.246372
3.04286,0.105728,-0.141827
3.00171,-0.0424381,0.24507
3.06272,0.256646,-0.125216
3.03734,0.105536,-0.0707199
3.05765,0.246012,-0.053544
2.99827,-0.0523354,-0.0872716
3.0305,0.0952371,0
3.00727,-0.0524925,-0.382845
3.01149,-0.0525661,-0.0175055
3.02968,0.0952113,0.0705338
3.0175,-0.052671,-0.246372
2.98436,-0.198221,-0.174185
3.03735,0.0954523,0.176975
3.0392,0.0955104,-0.141641
3.06355,0.246487,-0.125216
3.0545,0.235032,-0.0534742
2.99408,-0.0627167,-0.0871552
3.02282,0.0844353,0
3.01501,-0.0631551,-0.383855
2.96782,-0.20753,-0.277717
3.034,0.0847474,0.0706269
2.97254,-0.20786,0.0346904
3.01331,-0.0631196,-0.246046
3.03367,0.0847385,0.176743
3.03153,0.0846786,-0.141268
3.01121,-0.0630755,-0.157845
3.00136,-0.0628692,0.24507
3.05642,0.235179,-0.12489
3.04199,0.0849707,-0.070813
3.05929,0.224661,-0.053544
2.99384,-0.0731678,-0.0871552
3.0271,0.0739806,0
3.00683,-0.0734854,-0.382845
3.0637,0.224984,0.0178542
3.03427,0.074156,0.0706269
3.01307,-0.0736379,-0.246046
3.0358,0.0741934,-0.141455
2.98916,-0.0730535,0.244093
3.06006,0.21398,-0.053544
2.99356,-0.0836178,-0.0871552
3.02334,0.0633299,0
3.00259,-0.08387,-0.38234
3.06047,0.214009,0.017831
3.02981,0.0634654,-0.326432
2.9663,-0.228244,-0.277717
3.04004,0.0636797,-0.141641
2.98889,-0.0834872,0.244093
3.054,0.213557,-0.124727
2.98924,-0.0944629,-0.0870389
3.02355,0.0522484,0
3.00227,-0.0948745,-0.38234
3.05326,0.202262,0.0177845
3.03399,0.0524289,-0.32686
2.96941,-0.239435,-0.278089
3.03073,0.0523724,0.0705338
2.97016,-0.239495,0.0346904
3.00849,-0.0950711,-0.245721
2.9733,-0.239748,-0.173719
3.01843,0.05216,0.175812
3.03226,0.0523989,-0.141268
2.98458,-0.0943155,0.243768
3.04551,0.191607,-0.0532647
3.01971,0.0421658,0
3.00193,-0.10483,-0.38234
3.06189,0.192638,0.017831
3.02222,0.0422009,-0.325575
3.02289,0.0422102,0.0703477
2.96536,-0.249008,0.0346439
3.00417,-0.104908,-0.245395
2.97248,-0.249606,-0.173719
3.02258,0.042206,0.176045
3.02043,0.0421759,-0.14071
2.98425,-0.104212,0.243768
3.05143,0.19198,-0.124564
3.04616,0.180975,-0.0532647
2.98853,-0.114808,-0.0870389
3.00155,-0.115308,-0.38234
3.05456,0.181474,0.0177845
3.03428,0.0317761,-0.32686
3.02302,0.0316581,0.0703477
2.95651,-0.258661,0.0345507
3.02271,0.0316549,0.176045
3.02455,0.0316742,-0.140896
2.98387,-0.114629,0.243768
3.03101,0.0317419,-0.0705338
3.04278,0.170118,-0.0531949
2.98012,-0.124904,-0.0868062
3.00793,0.0209996,0
2.96355,-0.269704,-0.0346439
2.99717,-0.125618,-0.381835
3.05518,0.170811,0.0177845
3.02244,0.021101,-0.325575
3.01911,0.0210777,0.0702547
2.95957,-0.269342,0.0345973
2.9954,-0.125544,-0.244744
3.03797,0.169849,0.0885516
2.97067,-0.270352,-0.173719
3.02465,0.0211164,-0.140896
2.97548,-0.12471,0.243117
3.04735,0.159705,-0.0532647
2.98366,-0.135487,-0.0869225
3.00798,0.0104999,0
2.96259,-0.280047,-0.0346439
2.98878,-0.13572,-0.380825
3.04777,0.159727,0.017738
3.0225,0.0105506,-0.325575
2.95393,-0.279229,-0.276973
3.01916,0.0105389,0.0702547
2.99892,-0.13618,-0.24507
3.04253,0.159452,0.0886679
3.01887,0.0105379,0.175812
3.0247,0.0105582,-0.140896
2.97105,-0.134914,0.242792
3.02716,0.0105668,-0.0704408
3.03591,0.148481,-0.0530553
2.99116,-0.146292,-0.0871552
3.008,-0,0
2.99225,-0.146346,-0.38133
3.0523,0.149282,0.0177612
2.99237,-0.146351,-0.0174125
3.01854,-0,-0.325147
2.9569,-0.289927,-0.277345
3.01518,-0,0.0701616
2.99843,-0.146648,-0.24507
3.03908,0.148636,0.0885516
3.02072,-0,-0.14071
2.97852,-0.145674,0.243443
3.03785,0.148575,-0.123913
3.02318,-0,-0.0703477
2.97466,-0.155895,-0.0866898
3.00798,-0.0104999,0
2.98776,-0.156582,-0.380825
3.04881,0.138446,0.017738
2.98386,-0.156377,-0.017366
3.01057,-0.0105089,-0.32429
2.94795,-0.299442,-0.276602
3.01117,-0.010511,0.0700686
2.95659,-0.300319,0.0345973
3.04757,0.138389,0.0887843
2.9637,-0.301042,-0.173487
3.01487,-0.0105239,0.17558
3.00872,-0.0105024,-0.140152
2.97401,-0.155861,0.243117
3.03288,0.127115,-0.0529855
2.97809,-0.166501,-0.0868062
2.99993,-0.0209438,0
2.99116,-0.167232,-0.38133
3.04527,0.127635,0.0177147
3.01847,-0.0210732,-0.325147
2.95085,-0.310146,-0.276973
3.01111,-0.0210219,0.0700686
2.95154,-0.310219,0.0345507
3.04004,0.127416,0.0885516
3.01082,-0.0210199,0.175347
3.00866,-0.0210048,-0.140152
2.97743,-0.166464,0.243443
3.01911,-0.0210777,-0.0702547
3.0293,0.116374,-0.0529157
2.9695,-0.176421,-0.0865734
2.99984,-0.0314154,0
2.95442,-0.320952,-0.0345973
2.98659,-0.177436,-0.380825
3.03771,0.116697,0.0176682
3.01042,-0.0315262,-0.32429
3.01102,-0.0315325,0.0700686
2.95044,-0.32052,0.0345507
2.98877,-0.177566,-0.244419
3.02848,0.116343,0.0882025
3.03553,0.116613,-0.194687
3.01073,-0.0315295,0.175347
3.00458,-0.031465,-0.139966
2.97285,-0.17662,0.243117
3.03125,0.116449,-0.123587
3.02969,0.105799,-0.0529157
2.97685,-0.187288,-0.0868062
2.99571,-0.0418307,0
2.95328,-0.331263,-0.0345973
2.982,-0.187611,-0.38032
3.0341,0.105953,0.017645
3.01029,-0.0420343,-0.32429
2.95257,-0.331183,-0.277345
3.01089,-0.0420427,0.0700686
2.98813,-0.187997,-0.244419
3.03287,0.10591,0.0883189
3.00844,-0.0420085,-0.140152
2.96426,-0.186495,0.242466
3.02605,0.0950973,-0.0528459
2.97618,-0.197678,-0.0868062
2.99954,-0.0523572,0
2.98132,-0.198019,-0.38032
3.03845,0.0954871,0.0176682
2.98138,-0.198023,-0.017366
2.94348,-0.340572,-0.276602
3.00673,-0.0524826,0.0699755
2.98746,-0.198427,-0.244419
3.02922,0.0951971,0.0882025
2.95524,-0.341933,-0.173254
3.00428,-0.05244,-0.139966
2.96359,-0.196841,0.242466
3.03199,0.095284,-0.123587
3.01073,-0.0525524,-0.0700686
2.99536,-0.0616979,0
2.97673,-0.207109,-0.379815
3.03474,0.085828,0.017645
2.97675,-0.207111,-0.0173428
3.00199,-0.0618345,-0.323433
2.93844,-0.349348,-0.27623
3.00655,-0.0619283,0.0699755
2.94704,-0.35037,0.0345507
3.02951,0.0856801,0.0882025
2.99828,-0.061758,0.17465
3.00011,-0.0617957,-0.139779
2.96296,-0.206151,0.242466
3.03227,0.0857583,-0.123587
3.02261,0.0749267,-0.0527761
2.96284,-0.216538,-0.0864571
2.99113,-0.072057,0
2.97599,-0.217498,-0.379815
3.03102,0.0751351,0.0176217
2.97601,-0.2175,-0.0173428
2.99778,-0.0722172,-0.323005
2.94116,-0.360087,-0.276602
2.94183,-0.360169,0.0345042
3.02579,0.0750055,0.0880861
2.99588,-0.0721714,-0.139593
2.97995,-0.217788,-0.156589
2.99265,-0.0720936,0.367558
2.95824,-0.216202,0.242141
3.02456,0.0749751,-0.123262
3.02285,0.0643754,-0.0527761
2.95808,-0.226573,-0.0863407
2.98686,-0.0823872,0
2.94056,-0.370436,-0.0345042
2.97917,-0.228188,-0.38032
3.02726,0.0644693,0.0175985
2.97125,-0.227582,-0.0173195
2.93593,-0.369853,-0.27623
2.93659,-0.369936,0.0344576
2.99155,-0.0825166,-0.209269
2.97735,-0.228049,-0.243768
3.02204,0.064358,0.0879698
3.02511,0.0644234,-0.193919
2.99961,-0.0827387,-0.139779
2.99238,-0.0825394,0.367558
2.9535,-0.226222,0.241815
3.02081,0.0643319,-0.123099
3.01906,0.0537521,-0.0527063
2.96126,-0.237217,-0.0864571
2.98656,-0.0928129,0
2.93925,-0.380698,-0.0345042
2.96649,-0.237636,-0.378805
3.01947,0.0537594,0.017552
2.99721,-0.0931438,-0.323005
2.93462,-0.380099,-0.27623
2.99125,-0.0929586,-0.209269
3.02624,0.0538799,0.0880861
2.99131,-0.0929605,-0.139407
2.96064,-0.237167,0.242466
3.02501,0.053858,-0.123262
2.96439,-0.247885,-0.0865734
2.97841,-0.249057,-0.597766
2.99021,-0.103376,0
2.99812,-0.103649,-0.466717
2.96959,-0.24832,-0.37931
3.02364,0.0432764,0.0175752
3.02241,0.0432588,0.0879698
2.94105,-0.391375,-0.172789
2.99097,-0.103402,-0.139407
2.94787,-0.246503,0.24149
3.01719,0.0431841,-0.122936
2.9974,-0.103624,-0.0697894
3.01536,0.0326307,-0.0526365
2.95555,-0.257537,-0.0863407
2.97362,-0.259112,-0.596981
2.98983,-0.113813,0
2.99379,-0.113963,-0.466102
2.96871,-0.258684,-0.37931
3.02377,0.0327216,0.0175752
2.99648,-0.114066,-0.323005
2.93584,-0.401116,-0.276602
2.99302,-0.113934,0.0696964
2.93652,-0.401209,0.0345042
3.02254,0.0327084,0.0879698
3.01763,0.0326552,-0.193408
2.96231,-0.258126,0.121145
2.9866,-0.113689,-0.139221
2.98739,-0.113719,0.36707
2.95494,-0.257484,0.242141
3.01332,0.0326086,-0.122773
3.01946,0.0221342,-0.0527063
2.96488,-0.268782,-0.595412
2.98143,-0.123916,0
2.9351,-0.411457,-0.0345042
2.99338,-0.124413,-0.466102
2.97174,-0.269403,-0.379815
3.01987,0.0221372,0.017552
2.99209,-0.12436,-0.322576
2.93837,-0.411915,-0.276973
2.99261,-0.124381,0.0696964
2.92322,-0.409791,0.0343645
3.01464,0.0220989,0.087737
3.01374,0.0220922,-0.193152
2.96139,-0.268465,0.121145
2.98618,-0.124114,-0.139221
2.983,-0.123982,0.366583
2.95005,-0.267437,0.241815
3.01742,0.0221192,-0.122936
3.00752,0.0115481,-0.0524968
2.94969,-0.277789,-0.0862243
2.96393,-0.27913,-0.595412
2.98098,-0.134323,0
2.92969,-0.42113,-0.0344576
2.97078,-0.279775,-0.379815
3.02393,0.0116111,0.0175752
2.99164,-0.134803,-0.322576
2.93691,-0.422169,-0.276973
2.96894,-0.279602,-0.243443
3.00671,0.011545,0.0875043
3.0138,0.0115722,-0.193152
2.98174,-0.134357,-0.139035
2.94513,-0.277359,0.24149
3.00948,0.0115556,-0.12261
3.00754,0.00104983,-0.0524968
2.94871,-0.288084,-0.0862243
2.96684,-0.289856,-0.596197
2.98049,-0.144727,0
2.9282,-0.431354,-0.0344576
2.96189,-0.289372,-0.378805
3.01195,0.00105137,0.0175055
2.98718,-0.145052,-0.322148
2.93542,-0.432418,-0.276973
2.9282,-0.431354,0.0344576
2.9812,-0.144762,-0.208711
2.96398,-0.289576,-0.243117
3.01073,0.00105095,0.0876207
3.00982,0.00105063,-0.192896
2.98342,-0.14487,0.173952
2.98524,-0.144958,-0.139221
2.94017,-0.28725,0.241164
3.0095,0.00105052,-0.12261
3.00353,-0.0094359,-0.052427
2.94371,-0.297973,-0.086108
2.96581,-0.30021,-0.596197
2.97997,-0.15513,0
2.96086,-0.299709,-0.378805
3.01193,-0.00946231,0.0175055
2.95684,-0.299302,-0.017273
2.93389,-0.442662,-0.276973
2.98715,-0.155504,0.0696033
2.97669,-0.15496,-0.208432
3.01071,-0.00945846,0.0876207
2.98073,-0.15517,-0.139035
2.93519,-0.29711,0.240839
3.00949,-0.00945462,-0.12261
3.00348,-0.0199201,-0.052427
2.94265,-0.308246,-0.086108
2.96084,-0.310152,-0.595412
2.97941,-0.165531,0
2.92512,-0.451786,-0.0344576
2.96374,-0.310456,-0.37931
3.01588,-0.0200024,0.0175287
2.9284,-0.452293,-0.276602
2.92116,-0.451176,0.034411
2.97613,-0.16535,-0.208432
3.01066,-0.0199678,0.0876207
3.01375,-0.0199883,-0.193152
2.98234,-0.165694,0.173952
2.98017,-0.165574,-0.139035
2.94206,-0.308185,0.24149
3.00944,-0.0199597,-0.12261
2.99939,-0.0303636,-0.0523572
2.95974,-0.320486,-0.595412
2.97082,-0.175459,0
2.96658,-0.321226,-0.379815
3.01579,-0.0305297,0.0175287
2.97756,-0.175856,-0.321291
2.9268,-0.462512,-0.276602
2.982,-0.176119,0.0695103
2.91562,-0.460746,0.0343645
2.96079,-0.320599,-0.243117
3.00257,-0.0303958,0.087388
3.00568,-0.0304273,-0.19264
2.97957,-0.175975,-0.139035
2.9685,-0.175321,0.365121
2.94097,-0.318453,0.24149
3.01335,-0.0305049,-0.122773
2.98599,-0.176354,-0.0696033
3.00326,-0.0408877,-0.052427
2.93645,-0.328338,-0.0859916
2.95471,-0.330379,-0.594628
2.97019,-0.185828,0
2.91794,-0.471558,-0.034411
2.95756,-0.330698,-0.378805
3.01167,-0.0410021,0.0175055
2.97693,-0.186249,-0.321291
2.92517,-0.472726,-0.276602
2.97092,-0.185873,-0.208153
2.95965,-0.330932,-0.243117
2.99845,-0.0408222,0.0872716
3.00555,-0.0409189,-0.19264
2.94717,-0.329537,0.120819
2.97495,-0.186126,-0.138849
2.97183,-0.18593,0.365608
2.92795,-0.327388,0.240513
3.00123,-0.04086,-0.122285
2.99911,-0.0507789,-0.0523572
2.93932,-0.338531,-0.086108
2.95749,-0.340624,-0.595412
2.96956,-0.195676,0
2.91636,-0.481232,-0.034411
2.94462,-0.339142,-0.377289
3.00352,-0.0508535,0.017459
2.97232,-0.195858,-0.320863
2.92751,-0.483072,-0.276973
2.91636,-0.481232,0.034411
2.97029,-0.195724,-0.208153
2.9943,-0.0506975,0.0871552
2.97432,-0.19599,-0.138849
2.92685,-0.337095,0.240513
3.00508,-0.0508799,-0.122448
2.98073,-0.196412,-0.0695103
2.99892,-0.0612475,-0.0523572
2.93812,-0.348789,-0.086108
2.95239,-0.350483,-0.594628
2.96886,-0.206041,0
2.91861,-0.492074,-0.0344576
2.95524,-0.350822,-0.378805
3.00332,-0.0613374,0.017459
2.94726,-0.349874,-0.0172498
2.92188,-0.492626,-0.276602
2.91466,-0.491409,0.034411
2.96959,-0.206091,-0.208153
2.99411,-0.0611492,0.0871552
2.99722,-0.0612129,-0.192128
2.9776,-0.206648,-0.139035
2.92962,-0.34778,0.240839
3.00088,-0.0612876,-0.122285
2.99469,-0.0716196,-0.0522874
2.93291,-0.358558,-0.0859916
2.95504,-0.361263,-0.595412
2.96413,-0.216112,0
2.91687,-0.502259,-0.0344576
2.94218,-0.359691,-0.377289
2.99909,-0.071725,0.0174357
2.92014,-0.502822,-0.276602
2.91293,-0.50158,0.034411
2.96487,-0.216166,-0.207874
2.99787,-0.0716958,0.0872716
3.00098,-0.0717702,-0.192384
2.97107,-0.216617,0.173487
2.96889,-0.216459,-0.138663
2.92838,-0.358004,0.240839
3.00065,-0.0717623,-0.122285
2.99042,-0.081963,-0.0522176
2.92768,-0.368294,-0.0858753
2.94598,-0.370597,-0.593843
2.96735,-0.226762,0
2.94878,-0.370949,-0.3783
2.99882,-0.0821933,0.0174357
2.96614,-0.22667,-0.320434
2.91445,-0.512323,-0.27623
2.90328,-0.51036,0.0343179
2.9976,-0.0821599,0.0872716
2.99672,-0.0821358,-0.192128
2.96812,-0.226821,-0.138663
2.96106,-0.226282,0.364633
2.93107,-0.368721,0.241164
3.00438,-0.0823456,-0.122448
2.99411,-0.0925246,-0.0522874
2.92637,-0.378511,-0.0858753
2.95245,-0.381884,-0.595412
2.96255,-0.2368,0
2.90542,-0.521198,-0.0343645
2.94747,-0.38124,-0.3783
2.99452,-0.0925371,0.0174125
2.96533,-0.237022,-0.320434
2.92048,-0.523899,-0.276973
2.96972,-0.237373,0.0693242
2.90936,-0.521904,0.034411
2.9933,-0.0924995,0.0871552
2.99642,-0.0925958,-0.192128
2.96731,-0.23718,-0.138663
2.96026,-0.236617,0.364633
2.91791,-0.377416,0.240188
3.00008,-0.0927089,-0.122285
2.99377,-0.102975,-0.0522874
2.92503,-0.388724,-0.0858753
2.9511,-0.392188,-0.595412
2.95373,-0.246475,0
2.94218,-0.391003,-0.377795
2.98618,-0.102714,0.017366
2.96053,-0.247041,-0.320006
2.91472,-0.533373,-0.276602
2.90752,-0.532056,0.034411
2.96245,-0.247201,-0.207874
2.98497,-0.102673,0.0869225
2.99209,-0.102917,-0.191873
2.97443,-0.248201,-0.139035
2.91657,-0.387599,0.240188
2.99574,-0.103043,-0.122122
2.9894,-0.113274,-0.0522176
2.92366,-0.398932,-0.0858753
2.94971,-0.402487,-0.595412
2.96083,-0.257477,0
2.93294,-0.400198,-0.376784
2.9898,-0.113289,0.0173892
2.90171,-0.541468,0.0343645
2.95759,-0.257195,-0.207595
2.98859,-0.113243,0.0870389
2.99171,-0.113361,-0.191873
2.9127,-0.543519,-0.172557
2.96558,-0.25789,-0.138663
2.91915,-0.398317,0.240513
2.99137,-0.113348,-0.121959
2.96799,-0.2581,-0.0693242
2.98099,-0.123377,-0.052078
2.94052,-0.411693,-0.593843
2.96389,-0.268171,0
2.90373,-0.552341,-0.034411
2.93545,-0.410984,-0.377289
2.98539,-0.123559,0.017366
2.93532,-0.410965,-0.0172265
2.95911,-0.267738,0.0691381
2.90373,-0.552341,0.034411
2.96065,-0.267877,-0.207874
2.98818,-0.123674,0.0870389
2.9913,-0.123804,-0.191873
2.9549,-0.267357,0.172789
2.92502,-0.409523,0.120331
2.96068,-0.26788,-0.138477
2.91379,-0.407951,0.240188
2.99096,-0.123789,-0.121959
2.96309,-0.268098,-0.0692311
2.98454,-0.133961,-0.0521478
2.92476,-0.419901,-0.0859916
2.93906,-0.421955,-0.593843
2.95099,-0.277392,0
2.94186,-0.422356,-0.3783
2.98894,-0.134159,0.0173892
2.95382,-0.277658,-0.319578
2.90897,-0.563866,-0.276602
2.89786,-0.561713,0.0343645
2.95175,-0.277463,-0.207316
2.99172,-0.134284,0.0871552
2.99085,-0.134244,-0.191873
2.92357,-0.419731,0.120331
2.95575,-0.277839,-0.13829
2.9163,-0.418686,0.240513
2.99051,-0.134229,-0.121959
2.98405,-0.144378,-0.0521478
2.92328,-0.430108,-0.0859916
2.93369,-0.43164,-0.593059
2.94602,-0.287303,0
2.93251,-0.431467,-0.377289
2.98446,-0.144398,0.017366
2.95283,-0.287967,-0.319578
2.90699,-0.574017,-0.276602
2.89588,-0.571825,0.0343645
2.93848,-0.432346,-0.242466
2.97526,-0.143953,0.0866898
2.98637,-0.144491,-0.191617
2.95874,-0.288543,-0.138477
2.91087,-0.428283,0.240188
2.98603,-0.144474,-0.121796
2.98353,-0.154794,-0.0521478
2.92571,-0.440905,-0.086108
2.93217,-0.441878,-0.593059
2.945,-0.297585,0
2.92707,-0.44111,-0.376784
2.97994,-0.154608,0.0173428
2.95972,-0.299072,-0.320434
2.89387,-0.58193,0.0343645
2.94974,-0.298063,-0.207316
2.97474,-0.154338,0.0866898
2.97788,-0.154501,-0.191105
2.94797,-0.297884,0.172557
2.95374,-0.298468,-0.13829
2.94675,-0.297761,0.363658
2.9855,-0.154896,-0.121796
2.97499,-0.164765,-0.0520082
2.9202,-0.450506,-0.0859916
2.93061,-0.452111,-0.593059
2.93997,-0.307447,0
2.92551,-0.451324,-0.376784
2.97938,-0.165009,0.0173428
2.95075,-0.308574,-0.319578
2.90291,-0.594298,-0.276602
2.94868,-0.308358,-0.207316
2.97817,-0.164942,0.0868062
2.98131,-0.165115,-0.191361
2.92297,-0.450932,0.120494
2.95268,-0.308776,-0.13829
2.90387,-0.447987,0.239862
2.98495,-0.165317,-0.121796
2.95508,-0.309027,-0.0691381
2.97842,-0.174864,-0.052078
2.91079,-0.458942,-0.0857589
2.93684,-0.463048,-0.594628
2.94291,-0.317624,0
2.89376,-0.602429,-0.034411
2.92791,-0.461641,-0.377289
2.97882,-0.174888,0.0173428
2.92383,-0.460997,-0.0172033
2.94575,-0.317931,-0.319149
2.88593,-0.600799,0.0343179
2.94764,-0.318135,-0.207316
2.96963,-0.174348,0.0865734
2.97676,-0.174767,-0.191105
2.94587,-0.317943,0.172557
2.91751,-0.46,0.120331
2.95164,-0.318566,-0.13829
2.90631,-0.458235,0.240188
2.98438,-0.175214,-0.121796
2.95404,-0.318825,-0.0691381
2.97779,-0.18526,-0.052078
2.90917,-0.469099,-0.0857589
2.93133,-0.472673,-0.593843
2.93781,-0.327451,0
2.92237,-0.471227,-0.376784
2.9742,-0.185036,0.0173195
2.94858,-0.328652,-0.319578
2.8988,-0.614043,-0.276602
2.8799,-0.61004,0.0342714
2.97299,-0.184961,0.0866898
2.9841,-0.185652,-0.191617
2.91194,-0.469545,0.120168
2.95051,-0.328867,-0.13829
2.90469,-0.468377,0.240188
2.95291,-0.329135,-0.0691381
2.97712,-0.195653,-0.052078
2.91541,-0.480552,-0.0859916
2.9258,-0.482264,-0.593059
2.94062,-0.338161,0
2.92462,-0.48207,-0.377289
2.97354,-0.195417,0.0173195
2.94741,-0.338942,-0.319578
2.89663,-0.624158,-0.276602
2.88166,-0.620932,0.0343179
2.94139,-0.338249,-0.207037
2.92664,-0.482403,-0.242141
2.96435,-0.194813,0.0864571
2.97148,-0.195282,-0.190849
2.91423,-0.480357,0.120331
2.94934,-0.339164,-0.13829
2.93842,-0.337908,0.363171
2.89517,-0.477216,0.239537
2.97112,-0.195258,-0.121308
2.97243,-0.205768,-0.0520082
2.91371,-0.490726,-0.0859916
2.92796,-0.493125,-0.593843
2.93942,-0.348424,0
2.88729,-0.632699,-0.034411
2.91901,-0.491617,-0.376784
2.96884,-0.205519,0.0172963
2.94226,-0.34876,-0.319149
2.88338,-0.631843,0.0343645
2.94019,-0.348514,-0.207037
2.91708,-0.491292,-0.24149
2.96764,-0.205436,0.0865734
2.9668,-0.205378,-0.190593
2.91253,-0.490527,0.120331
2.94417,-0.348987,-0.138104
2.93723,-0.348163,0.363171
2.89349,-0.487319,0.239537
2.97042,-0.205628,-0.121308
2.96771,-0.215852,-0.0519384
2.90804,-0.500216,-0.0858753
2.92236,-0.502678,-0.593059
2.94216,-0.359167,0
2.92118,-0.502476,-0.377289
2.96811,-0.215881,0.0172963
2.93708,-0.358547,-0.318721
2.89221,-0.644365,-0.276602
2.88506,-0.642774,0.034411
2.94291,-0.359259,-0.207316
2.96292,-0.215503,0.0864571
2.97005,-0.216022,-0.190849
2.93718,-0.358559,0.172324
2.90686,-0.500013,0.120168
2.94294,-0.359262,-0.138104
2.89963,-0.498768,0.240188
2.97367,-0.216286,-0.121471
2.94533,-0.359554,-0.069045
2.96694,-0.22621,-0.0519384
2.90234,-0.509672,-0.0857589
2.92445,-0.513554,-0.593843
2.93692,-0.368936,0
2.9155,-0.511984,-0.376784
2.96335,-0.225936,0.017273
2.88994,-0.654457,-0.276602
2.94009,-0.369335,0.0689519
2.8789,-0.651957,0.0343645
2.93768,-0.369032,-0.207037
2.96613,-0.226149,0.0865734
2.96927,-0.226388,-0.190849
2.93591,-0.36881,0.172324
2.90904,-0.510848,0.120331
2.94167,-0.369532,-0.138104
2.89002,-0.507508,0.239537
2.9729,-0.226664,-0.121471
2.96214,-0.236247,-0.0518686
2.91878,-0.523067,-0.593059
2.93165,-0.378673,0
2.92151,-0.523557,-0.377795
2.96653,-0.236597,0.0172963
2.9345,-0.379043,-0.318721
2.88764,-0.664541,-0.276602
2.93878,-0.379595,0.0689519
2.87271,-0.661105,0.0343179
2.93242,-0.378773,-0.206758
2.91962,-0.523219,-0.242141
2.96449,-0.236434,-0.190593
2.93065,-0.378544,0.172092
2.9033,-0.520294,0.120168
2.94036,-0.379799,-0.138104
2.88823,-0.517593,0.239537
2.96811,-0.236723,-0.121308
2.96528,-0.246917,-0.0519384
2.89871,-0.529922,-0.0857589
2.91693,-0.533253,-0.593059
2.93031,-0.388904,0
2.91186,-0.532325,-0.376784
2.95771,-0.246287,0.0172498
2.93316,-0.389284,-0.318721
2.93744,-0.389851,0.0689519
2.87428,-0.67204,0.0343645
2.92712,-0.388482,-0.206479
2.95253,-0.245855,0.0862243
2.96364,-0.246781,-0.190593
2.9054,-0.531144,0.120331
2.93505,-0.389534,-0.137918
2.92814,-0.388617,0.362683
2.96328,-0.24675,-0.121145
2.9644,-0.257267,-0.0519384
2.90078,-0.54077,-0.0858753
2.91891,-0.54415,-0.593843
2.92497,-0.39859,0
2.90998,-0.542486,-0.376784
2.95684,-0.25661,0.0172498
2.93179,-0.39952,-0.318721
2.88293,-0.684684,-0.276602
2.93606,-0.400102,0.0689519
2.87192,-0.682069,0.0343645
2.9297,-0.399236,-0.206758
2.95165,-0.25616,0.0862243
2.95879,-0.256779,-0.190338
2.8996,-0.54055,0.120168
2.93368,-0.399777,-0.137918
2.92677,-0.398836,0.362683
2.9624,-0.257092,-0.121145
2.95552,-0.266893,-0.0517987
2.89494,-0.550145,-0.0857589
2.92085,-0.555068,-0.594628
2.92356,-0.408798,0
2.91197,-0.553381,-0.377289
2.95194,-0.26657,0.0172265
2.90398,-0.551863,-0.01718
2.92644,-0.409201,-0.318292
2.88052,-0.694743,-0.276602
2.87341,-0.693027,0.034411
2.92829,-0.40946,-0.206758
2.95074,-0.266461,0.0862243
2.9539,-0.266746,-0.190082
2.88039,-0.694711,-0.172557
2.92652,-0.409213,0.172092
2.89377,-0.549922,0.120005
2.93226,-0.410015,-0.137918
2.96148,-0.267432,-0.121145
2.95851,-0.278098,-0.0518686
2.89291,-0.560752,-0.0857589
2.91494,-0.565024,-0.593843
2.92204,-0.419511,0
2.90992,-0.56405,-0.377289
2.95094,-0.277387,0.0172265
2.92885,-0.420489,-0.318721
2.88182,-0.706244,-0.276973
2.92521,-0.419966,0.0687658
2.86308,-0.70165,0.0343179
2.92677,-0.42019,-0.206758
2.94974,-0.277275,0.0862243
2.925,-0.419936,0.172092
2.89566,-0.561285,0.120168
2.92283,-0.419624,-0.137546
2.96446,-0.278658,-0.121308
2.92917,-0.420534,-0.0688589
2.95359,-0.28752,-0.0517987
2.90536,-0.573168,-0.592274
2.92063,-0.429198,0
2.90804,-0.573697,-0.377289
2.95399,-0.287559,0.0172498
2.92351,-0.429621,-0.318292
2.87947,-0.715797,-0.276973
2.92775,-0.430245,0.0688589
2.86462,-0.712105,0.0343645
2.92141,-0.429313,-0.206479
2.94881,-0.287055,0.0862243
2.95196,-0.287362,-0.190082
2.89378,-0.570885,0.120168
2.92538,-0.429895,-0.137732
2.9185,-0.428885,0.362196
2.88267,-0.568692,0.239862
2.94859,-0.297427,-0.0517289
2.8851,-0.579643,-0.0856425
2.91103,-0.584852,-0.593843
2.91516,-0.438795,0
2.86599,-0.723079,-0.034411
2.90601,-0.583844,-0.377289
2.94899,-0.297467,0.0172265
2.92592,-0.440415,-0.318721
2.87695,-0.725843,-0.276973
2.92623,-0.440462,0.0688589
2.86211,-0.7221,0.0343645
2.9199,-0.439508,-0.206479
2.90411,-0.583463,-0.241815
2.93983,-0.296544,0.0859916
2.95888,-0.298466,-0.190593
2.92208,-0.439836,0.172092
2.89177,-0.580982,0.120168
2.91595,-0.438915,-0.13736
2.91699,-0.43907,0.362196
2.95454,-0.298028,-0.120982
2.95549,-0.308548,-0.0518686
2.88698,-0.590512,-0.0857589
2.90513,-0.594223,-0.593059
2.91361,-0.448968,0
2.90785,-0.59478,-0.377795
2.94395,-0.307344,0.0172033
2.92437,-0.450626,-0.318721
2.8744,-0.735881,-0.276973
2.92073,-0.450065,0.0687658
2.85958,-0.732087,0.0343645
2.91835,-0.449698,-0.206479
2.94988,-0.307963,-0.190082
2.89364,-0.591874,0.120331
2.95746,-0.308754,-0.121145
2.94649,-0.31749,-0.0517289
2.88892,-0.600896,-0.0858753
2.91211,-0.458628,0
2.90197,-0.603611,-0.377289
2.94292,-0.317105,0.0172033
2.89009,-0.60114,-0.0171568
2.91893,-0.459702,-0.318292
2.92317,-0.46037,0.0688589
2.85713,-0.741565,0.0343645
2.92078,-0.459994,-0.206758
2.93774,-0.316547,0.0859916
2.94488,-0.317316,-0.189826
2.91901,-0.459716,0.172092
2.88775,-0.600652,0.120168
2.92079,-0.459996,-0.137732
2.87666,-0.598345,0.239862
2.95642,-0.31856,-0.121145
2.92317,-0.46037,-0.0688589
2.94537,-0.327773,-0.0517289
2.87898,-0.609321,-0.0856425
2.91049,-0.46879,0
2.89597,-0.612916,-0.376784
2.94179,-0.327375,0.0172033
2.91731,-0.469888,-0.318292
2.86932,-0.75543,-0.276973
2.9176,-0.469935,0.0687658
2.86226,-0.753571,0.0344576
2.91916,-0.470186,-0.206758
2.93662,-0.3268,0.0859916
2.93978,-0.327152,-0.18957
2.91739,-0.469902,0.172092
2.87781,-0.609074,0.119842
2.91523,-0.469553,-0.137546
2.87065,-0.607558,0.239537
2.94735,-0.327994,-0.120819
2.94415,-0.338567,-0.0517289
2.87673,-0.619869,-0.0856425
2.9048,-0.478804,0
2.89758,-0.624362,-0.377289
2.94057,-0.338155,0.0172033
2.88963,-0.622648,-0.01718
2.91557,-0.480578,-0.318292
2.86653,-0.765941,-0.276973
2.91585,-0.480625,0.0687658
2.85175,-0.761991,0.0343645
2.91348,-0.480233,-0.206479
2.93938,-0.338018,0.086108
2.9465,-0.338837,-0.190082
2.91565,-0.480592,0.172092
2.88728,-0.622143,0.120331
2.90954,-0.479585,-0.13736
2.8723,-0.618915,0.239862
2.94698,-0.348798,-0.0517987
2.87466,-0.629405,-0.0856425
2.90714,-0.489098,0
2.85693,-0.773535,-0.0344576
2.89549,-0.633967,-0.377289
2.93546,-0.347435,0.01718
2.91396,-0.490243,-0.318292
2.91424,-0.490292,0.0687658
2.84921,-0.771444,0.0343645
2.90793,-0.48923,-0.2062
2.9303,-0.346824,0.0858753
2.94139,-0.348137,-0.189826
2.8813,-0.630859,0.120168
2.91188,-0.489894,-0.137546
2.90505,-0.488745,0.361708
2.86244,-0.626731,0.239212
2.94498,-0.348562,-0.120819
2.91819,-0.490955,-0.0688589
2.94177,-0.358599,-0.0517289
2.88025,-0.641173,-0.0858753
2.90542,-0.499242,0
2.88939,-0.643208,-0.376784
2.93026,-0.357195,0.0171568
2.90831,-0.499738,-0.317864
2.91252,-0.500462,0.0687658
2.85036,-0.782444,0.034411
2.91014,-0.500053,-0.206479
2.9251,-0.356566,0.0857589
2.9362,-0.357919,-0.18957
2.88298,-0.641781,0.120331
2.91409,-0.500732,-0.137732
2.86024,-0.636719,0.239212
2.94772,-0.359323,-0.120982
2.93257,-0.36787,-0.0515893
2.88189,-0.652106,-0.0859916
2.89578,-0.507999,0
2.891,-0.654166,-0.377289
2.92899,-0.367422,0.0171568
2.91046,-0.510575,-0.318292
2.84761,-0.792388,0.034411
2.90838,-0.510209,-0.206479
2.92384,-0.366775,0.0857589
2.93493,-0.368166,-0.18957
2.87682,-0.650959,0.120168
2.91232,-0.510901,-0.137732
2.86189,-0.647579,0.239537
2.94248,-0.369113,-0.120819
2.91075,-0.510625,-0.0687658
2.93126,-0.378104,-0.0515893
2.86791,-0.659473,-0.0856425
2.90186,-0.519514,0
2.8887,-0.664253,-0.377289
2.92769,-0.377643,0.0171568
2.90475,-0.52003,-0.317864
2.85953,-0.806472,-0.277345
2.90658,-0.520358,-0.206479
2.9265,-0.37749,0.0858753
2.93759,-0.378919,-0.189826
2.90482,-0.520042,0.171859
2.87064,-0.660101,0.120005
2.90265,-0.519655,-0.13736
2.93721,-0.378871,-0.120656
2.91289,-0.521487,-0.0688589
2.92993,-0.388334,-0.0515893
2.86559,-0.66948,-0.0856425
2.90003,-0.52964,0
2.88636,-0.674333,-0.377289
2.92636,-0.387861,0.0171568
2.90683,-0.530881,-0.318292
2.84585,-0.813348,0.0344576
2.90082,-0.529784,-0.2062
2.92517,-0.387703,0.0858753
2.92833,-0.388122,-0.189314
2.90298,-0.530179,0.171859
2.86832,-0.670118,0.120005
2.90475,-0.530502,-0.137546
2.89404,-0.528545,0.361221
2.8573,-0.667543,0.239537
2.93983,-0.389646,-0.120819
2.91105,-0.531652,-0.0688589
2.92855,-0.398559,-0.0515893
2.86323,-0.679479,-0.0856425
2.9021,-0.540492,0
2.843,-0.823277,-0.0344576
2.88399,-0.684404,-0.377289
2.92499,-0.398073,0.0171568
2.90887,-0.541752,-0.318721
2.85383,-0.826416,-0.277345
2.90524,-0.541078,0.0687658
2.83915,-0.822164,0.034411
2.89895,-0.539906,-0.2062
2.93091,-0.39888,-0.18957
2.86985,-0.681049,0.120168
2.90681,-0.54137,-0.137732
2.93449,-0.399367,-0.120656
2.90918,-0.54181,-0.0688589
2.92714,-0.408779,-0.0515893
2.86473,-0.690406,-0.0857589
2.89233,-0.549127,0
2.87772,-0.693537,-0.376784
2.90305,-0.551161,-0.318292
2.84011,-0.833196,0.0344576
2.89705,-0.550022,-0.2062
2.91447,-0.407009,0.0856425
2.92555,-0.408556,-0.189314
2.87134,-0.691999,0.120331
2.90098,-0.550768,-0.137546
2.85257,-0.687474,0.239537
2.92912,-0.409055,-0.120494
2.92174,-0.418427,-0.0515195
2.85842,-0.699451,-0.0856425
2.8904,-0.55922,0
2.84485,-0.845383,-0.0345507
2.92214,-0.418484,0.0171568
2.90111,-0.561291,-0.318292
2.89903,-0.560889,-0.206479
2.91303,-0.41718,0.0856425
2.92411,-0.418766,-0.189314
2.89727,-0.560549,0.171859
2.86891,-0.702017,0.120331
2.89904,-0.560891,-0.137546
2.93163,-0.419844,-0.120656
2.90532,-0.562107,-0.0688589
2.92026,-0.428623,-0.0515195
2.86372,-0.711352,-0.0858753
2.88843,-0.569306,0
2.88051,-0.715523,-0.377795
2.9167,-0.4281,0.0171335
2.89913,-0.571415,-0.318292
2.90097,-0.571777,-0.206758
2.91156,-0.427346,0.0856425
2.92263,-0.42897,-0.189314
2.86256,-0.711064,0.120168
2.89314,-0.570234,-0.13736
2.85157,-0.708333,0.239862
2.93015,-0.430074,-0.120656
2.90334,-0.572245,-0.0688589
2.91479,-0.43822,-0.0514497
2.86122,-0.721344,-0.0858753
2.8825,-0.578597,0
2.87415,-0.724604,-0.377289
2.91123,-0.437684,0.0171103
2.89712,-0.581531,-0.318292
2.83122,-0.862891,0.0344576
2.88722,-0.579544,-0.205921
2.91005,-0.437506,0.0856425
2.92901,-0.440356,-0.189826
2.86394,-0.722029,0.120331
2.89505,-0.581116,-0.137546
2.88827,-0.579754,0.361708
2.85294,-0.719257,0.240188
2.93258,-0.440894,-0.120819
2.9172,-0.449,-0.0515195
2.85094,-0.729346,-0.0856425
2.88439,-0.589457,0
2.87545,-0.735616,-0.377795
2.90969,-0.447844,0.0171103
2.8676,-0.733608,-0.0172033
2.89507,-0.59164,-0.318292
2.89536,-0.591699,0.0687658
2.83202,-0.873948,0.0345042
2.88909,-0.590418,-0.2062
2.92351,-0.449971,-0.18957
2.89692,-0.592018,-0.137732
2.87844,-0.588242,0.360733
2.84269,-0.727235,0.239537
2.91522,-0.448696,-0.120168
2.90787,-0.456921,-0.0513799
2.8525,-0.739302,-0.0857589
2.88252,-0.598515,0
2.83308,-0.884032,-0.0345507
2.86928,-0.74365,-0.377289
2.90099,-0.60235,-0.319149
2.89503,-0.601113,-0.206758
2.86102,-0.741509,0.0515893
2.91419,-0.457914,-0.189058
2.89505,-0.601116,-0.137732
2.84039,-0.736162,0.239537
2.9217,-0.459093,-0.120494
2.8974,-0.601605,-0.0688589
2.90626,-0.467068,-0.0513799
2.85764,-0.751287,-0.0859916
2.88433,-0.6094,0
2.86667,-0.753661,-0.377289
2.86267,-0.75261,-0.0172033
2.88719,-0.610006,-0.317864
2.89137,-0.610889,0.0687658
2.88901,-0.61039,-0.206479
2.91652,-0.468717,-0.189314
2.88726,-0.61002,0.171859
2.89293,-0.611218,-0.137732
2.8378,-0.746072,0.239537
2.91613,-0.468655,-0.120331
2.90856,-0.477859,-0.0514497
2.84727,-0.759198,-0.0857589
2.88218,-0.619465,0
2.83064,-0.905007,-0.0345973
2.86402,-0.763663,-0.377289
2.89282,-0.621752,-0.318721
2.88531,-0.620137,0.0686728
2.88686,-0.620471,-0.206479
2.90382,-0.477081,0.0856425
2.91092,-0.478247,-0.189058
2.88121,-0.619256,0.171626
2.85384,-0.760949,0.120331
2.88297,-0.619633,-0.13736
2.83518,-0.755974,0.239537
2.92237,-0.480127,-0.120656
2.89313,-0.621818,-0.0688589
2.90687,-0.488008,-0.0514497
2.88,-0.629522,0
2.89063,-0.631846,-0.318721
2.88313,-0.630205,0.0686728
2.82366,-0.913651,0.0345507
2.87688,-0.62884,-0.205921
2.8982,-0.486552,0.0855262
2.85696,-0.772472,0.0516591
2.90924,-0.488405,-0.189058
2.88293,-0.630162,0.171859
2.85117,-0.770906,0.120331
2.88469,-0.630546,-0.137546
2.87793,-0.629068,0.361708
2.83638,-0.766906,0.239862
2.91673,-0.489663,-0.120494
2.91303,-0.499504,-0.0515893
2.8419,-0.779057,-0.0857589
2.87779,-0.639571,0
2.81666,-0.922257,-0.0345042
2.89766,-0.496868,0.017087
2.88841,-0.641932,-0.318721
2.88481,-0.641133,0.0687658
2.88636,-0.641476,-0.206758
2.91145,-0.499232,-0.189314
2.85231,-0.78191,0.120494
2.88637,-0.641479,-0.137732
2.90712,-0.498491,-0.120168
2.90724,-0.509487,-0.0515195
2.87542,-0.650114,0
2.88604,-0.652514,-0.318721
2.88245,-0.651702,0.0687658
2.8762,-0.65029,-0.2062
2.85136,-0.792896,0.0516591
2.90567,-0.509211,-0.189058
2.8801,-0.651172,-0.137546
2.90528,-0.509142,-0.120168
2.8478,-0.802627,-0.086108
2.87703,-0.661043,0
2.8775,-0.661151,-0.459338
2.84896,-0.802953,-0.0172033
2.88374,-0.662585,-0.318721
2.82136,-0.946205,0.0346439
2.8778,-0.66122,-0.206479
2.89679,-0.518084,0.0856425
2.84857,-0.802844,0.0516591
2.90387,-0.51935,-0.189058
2.87606,-0.660819,0.171859
2.88171,-0.662117,-0.137732
2.87107,-0.659672,0.361708
2.83189,-0.798141,0.240188
2.91135,-0.520688,-0.120494
2.88015,-0.66176,-0.0687658
2.89584,-0.52783,-0.0513799
2.84897,-0.813163,-0.0862243
2.87093,-0.669671,0
2.85013,-0.813494,-0.0172265
2.87766,-0.67124,-0.318292
2.87405,-0.670399,0.0686728
2.87948,-0.671666,-0.206758
2.89899,-0.528404,0.0857589
2.90213,-0.528977,-0.189058
2.84397,-0.811736,0.120494
2.8756,-0.670761,-0.137546
2.82922,-0.807528,0.240188
2.90568,-0.529623,-0.120331
2.87794,-0.671307,-0.0687658
2.89389,-0.53844,-0.0513799
2.83445,-0.820265,-0.0858753
2.86846,-0.680189,0
2.84713,-0.823935,-0.0172265
2.87518,-0.681783,-0.318292
2.87546,-0.681851,0.0687658
2.86924,-0.680374,-0.2062
2.89703,-0.539026,0.0857589
2.9041,-0.54034,-0.189314
2.84098,-0.822155,0.120494
2.87313,-0.681296,-0.137546
2.86639,-0.6797,0.361708
2.90765,-0.541,-0.120494
2.89994,-0.549523,-0.0515195
2.83939,-0.831909,-0.086108
2.87396,-0.691569,0
2.88855,-0.547363,0.017087
2.87677,-0.692244,-0.318721
2.8693,-0.690447,0.0686728
2.87084,-0.690818,-0.206479
2.90229,-0.549968,-0.189314
2.87474,-0.691755,-0.137732
2.89798,-0.549151,-0.120168
2.89015,-0.558126,-0.0513799
2.8403,-0.842953,-0.0862243
2.86765,-0.700648,0
2.87047,-0.701338,-0.318292
2.86841,-0.700835,-0.206479
2.88545,-0.557216,0.0855262
2.89643,-0.559338,-0.189058
2.83915,-0.842611,0.120656
2.8723,-0.701786,-0.137732
2.89997,-0.560021,-0.120331
2.83336,-0.852205,-0.086108
2.86506,-0.711154,0
2.84217,-0.854856,-0.0172498
2.87174,-0.712812,-0.318721
2.8697,-0.712305,-0.206758
2.88338,-0.567788,0.0855262
2.83796,-0.853588,0.0517289
2.89437,-0.569951,-0.189058
2.83604,-0.853011,0.120656
2.86971,-0.712308,-0.137732
2.8979,-0.570646,-0.120331
2.88629,-0.577785,-0.0513799
2.83067,-0.861102,-0.086108
2.86669,-0.721127,0
2.83947,-0.863781,-0.0172498
2.86949,-0.72183,-0.318721
2.86591,-0.720932,0.0687658
2.86745,-0.721317,-0.206758
2.88551,-0.577629,0.0856425
2.89256,-0.579041,-0.189058
2.86184,-0.719907,0.171859
2.83334,-0.861916,0.120656
2.86746,-0.72132,-0.137732
2.90001,-0.580532,-0.120494
2.88425,-0.587857,-0.0513799
2.83147,-0.872155,-0.0862243
2.88073,-0.587137,0.017087
2.86695,-0.731842,-0.318721
2.86338,-0.730931,0.0687658
2.85718,-0.729348,-0.2062
2.88347,-0.587697,0.0856425
2.89052,-0.589134,-0.189058
2.86492,-0.731325,-0.137732
2.89405,-0.589853,-0.120331
2.88981,-0.600555,-0.0515195
2.82428,-0.881829,-0.086108
2.85746,-0.741117,0
2.87845,-0.598194,0.017087
2.86797,-0.743844,-0.319149
2.86208,-0.742317,-0.206758
2.88824,-0.600228,-0.189058
2.82695,-0.882662,0.120656
2.86596,-0.743324,-0.137918
2.88785,-0.600148,-0.120168
2.88399,-0.608804,-0.0514497
2.85511,-0.75009,0
2.86562,-0.75285,-0.319149
2.85821,-0.750903,0.0687658
2.85974,-0.751305,-0.206758
2.87539,-0.606987,0.0855262
2.88634,-0.609299,-0.189058
2.85975,-0.751308,-0.137732
2.88595,-0.609218,-0.120168
2.87783,-0.61853,-0.0513799
2.82964,-0.904686,-0.0864571
2.85234,-0.76055,0
2.82698,-0.903835,-0.0172498
2.859,-0.762323,-0.318721
2.8593,-0.762404,0.0688589
2.85311,-0.760753,-0.206479
2.87705,-0.618362,0.0856425
2.88799,-0.620713,-0.189314
2.85524,-0.761321,0.172092
2.85698,-0.761785,-0.137732
2.89151,-0.621471,-0.120494
2.8593,-0.762404,-0.0688589
2.87577,-0.62807,-0.0513799
2.81901,-0.911604,-0.0862243
2.84981,-0.770004,0
2.82777,-0.914436,-0.017273
2.85645,-0.7718,-0.318721
2.84904,-0.769796,0.0686728
2.85827,-0.772292,-0.207037
2.87499,-0.6279,0.0856425
2.82739,-0.914312,0.0518686
2.88591,-0.630286,-0.189314
2.8527,-0.770785,0.172092
2.86215,-0.773339,-0.138104
2.88553,-0.630203,-0.120331
2.87746,-0.638971,-0.0514497
2.82342,-0.923925,-0.0864571
2.85096,-0.781004,0
2.87394,-0.638191,0.0171103
2.85758,-0.782817,-0.319149
2.85556,-0.782264,-0.207037
2.87668,-0.638798,0.0857589
2.8837,-0.640356,-0.189314
2.82227,-0.92355,0.120982
2.85943,-0.783325,-0.138104
2.88722,-0.641138,-0.120494
2.8673,-0.647751,-0.0513101
2.81621,-0.93301,-0.0863407
2.85193,-0.792519,0
2.86768,-0.647839,0.017087
2.85469,-0.793285,-0.319149
2.85267,-0.792725,-0.207037
2.87042,-0.648456,0.0856425
2.88133,-0.650921,-0.189314
2.88485,-0.651716,-0.120494
2.87281,-0.659545,-0.0514497
2.82431,-0.946647,-0.0866898
2.8693,-0.65874,0.0171103
2.85956,-0.805401,-0.320006
2.85373,-0.80376,-0.207316
2.86424,-0.657577,0.0855262
2.87904,-0.660975,-0.189314
2.8666,-0.668661,-0.0513799
2.81342,-0.953932,-0.0864571
2.84633,-0.81241,0
2.86699,-0.668752,0.0171103
2.81077,-0.953035,-0.0172498
2.85091,-0.813716,-0.207316
2.86972,-0.669388,0.0857589
2.8806,-0.671928,-0.18957
2.88412,-0.672748,-0.120656
2.80646,-0.96196,-0.0863407
2.84362,-0.821844,0
2.86475,-0.678255,0.0171103
2.81138,-0.963648,-0.017273
2.84436,-0.822058,-0.207037
2.87137,-0.679822,0.0858753
2.87836,-0.681476,-0.18957
2.84822,-0.823173,-0.138104
2.88187,-0.682308,-0.120656
2.86587,-0.689093,-0.0514497
2.81064,-0.974369,-0.0865734
2.84073,-0.831765,0
2.86626,-0.689186,0.0171335
2.808,-0.973455,-0.017273
2.8438,-0.832664,0.0689519
2.84147,-0.831982,-0.207037
2.86121,-0.687971,0.0856425
2.87984,-0.692453,-0.189826
2.84916,-0.834233,-0.13829
2.86721,-0.700541,-0.0515195
2.80328,-0.983341,-0.0864571
2.83383,-0.841033,0
2.86371,-0.699687,0.0171335
2.8384,-0.842391,-0.207037
2.85866,-0.698453,0.0856425
2.87341,-0.702056,-0.18957
2.87692,-0.702913,-0.120656
2.86499,-0.709545,-0.0515195
2.80771,-0.994814,-0.0866898
2.83884,-0.852232,0
2.8615,-0.70868,0.0171335
2.83957,-0.852451,-0.207316
2.85646,-0.707431,0.0856425
2.80847,-0.995083,0.0520082
2.86731,-0.71012,-0.189314
2.8585,-0.719066,-0.0514497
2.83569,-0.862631,0
2.86276,-0.720139,0.0171568
2.83642,-0.862853,-0.207316
2.84997,-0.71692,0.0855262
2.86469,-0.720624,-0.189314
2.84409,-0.865185,-0.138477
2.85997,-0.729529,-0.0515195
2.829,-0.870853,0
2.85648,-0.728639,0.0171335
2.83587,-0.87297,0.069045
2.83736,-0.873428,-0.207595
2.86307,-0.73032,0.0859916
2.83184,-0.87173,0.172557
2.84121,-0.874612,-0.138477
2.86128,-0.74051,-0.0515893
2.85779,-0.739608,0.0171568
2.83281,-0.882864,0.069045
2.83429,-0.883326,-0.207595
2.8605,-0.740309,0.0859916
2.86745,-0.742107,-0.189826
2.83814,-0.884524,-0.138477
2.86241,-0.752008,-0.0516591
2.83032,-0.893483,0
2.8628,-0.75211,0.0172033
2.83104,-0.893709,-0.207595
2.8539,-0.749773,0.0858753
2.83488,-0.894921,-0.138477
2.86434,-0.752515,-0.120656
2.82337,-0.90214,0
2.85629,-0.761069,0.01718
2.85127,-0.75973,0.0858753
2.86592,-0.763635,-0.190082
2.8617,-0.762509,-0.120656
2.85723,-0.771475,-0.0516591
2.82798,-0.913958,0
2.84603,-0.768451,0.0171335
2.85259,-0.770223,0.0859916
2.86338,-0.773134,-0.190082
2.82872,-0.914196,-0.138477
2.85452,-0.781443,-0.0516591
2.82477,-0.923823,0
2.84719,-0.779437,0.0171568
2.85375,-0.781232,0.086108
2.85681,-0.78207,-0.189826
2.85164,-0.791901,-0.0516591
2.82137,-0.93417,0
2.84431,-0.789867,0.0171568
2.84701,-0.790616,0.0859916
2.85392,-0.792536,-0.189826
2.8221,-0.934415,-0.138477
2.84885,-0.80185,-0.0516591
2.81809,-0.944013,0
2.84539,-0.800875,0.01718
2.83654,-0.798383,0.0857589
2.82261,-0.945529,-0.138663
2.85462,-0.803473,-0.120819
2.85003,-0.812389,-0.0517289
2.81115,-0.95207,0
2.84656,-0.811402,0.0172033
2.84156,-0.809977,0.0859916
2.84846,-0.811943,-0.189826
2.85194,-0.812935,-0.120819
2.84333,-0.821223,-0.0516591
2.8116,-0.963173,0
2.83987,-0.820224,0.01718
2.84256,-0.821,0.086108
2.84561,-0.821881,-0.189826
2.80822,-0.972982,0
2.84083,-0.831255,0.0172033
2.84351,-0.83204,0.0862243
2.84656,-0.832931,-0.190082
2.84136,-0.842189,-0.0517289
2.80481,-0.982778,0
2.83791,-0.841167,0.0172033
2.84059,-0.841961,0.0862243
2.84746,-0.843996,-0.190338
2.80513,-0.993899,0
2.80814,-0.994965,0.0693242
2.83764,-0.851871,0.0862243
2.82447,-0.858138,0.0171568
2.82714,-0.858952,0.0859916
2.84547,-0.864519,-0.190593
2.83636,-0.872579,-0.0517987
2.83675,-0.872697,0.0172498
2.82795,-0.869991,0.086108
2.84243,-0.874446,-0.190593
2.83696,-0.884159,-0.0518686
2.83353,-0.883088,0.0172498
2.83238,-0.88273,0.0863407
2.83402,-0.893561,-0.0518686
2.82943,-0.892117,0.0863407
2.83088,-0.903449,-0.0518686
2.82745,-0.902355,0.0172498
2.82249,-0.900773,0.0862243
2.82413,-0.912712,0.0172498
2.81537,-0.909882,0.086108
2.82814,-0.924926,-0.0519384
2.81598,-0.920947,0.0862243
2.82506,-0.934299,-0.0519384
2.81291,-0.93028,0.0862243
2.81723,-0.94263,0.0864571
2.82226,-0.955281,-0.0520082
2.81392,-0.952459,0.0864571
2.82413,-0.955916,-0.121471
2.80679,-0.96098,0.0863407
2.81134,-0.984516,0.0866898
2.80902,-0.994728,0.0173195
