2.44238,0.804432,-0.20992
2.50205,0.690589,-0.151161
2.45986,0.81019,0.105513
2.44467,0.795735,-0.0748209
2.39642,0.911749,0
2.52009,0.686111,-0.0304065
2.50551,0.682141,-0.242398
2.50444,0.68185,-0.151161
2.45888,0.80036,0.10535
2.45124,0.788422,-0.0749372
2.39958,0.903379,0
2.52247,0.677311,-0.0304065
2.51557,0.675457,-0.243142
2.51838,0.676211,-0.151859
2.47071,0.794685,0.211873
2.39893,0.903134,-0.0596467
2.45778,0.781071,-0.0750536
2.52869,0.669524,-0.0304531
2.52176,0.667691,-0.243513
2.45827,0.781226,-0.210571
2.51686,0.666393,-0.151627
2.47347,0.786055,0.211873
2.46431,0.773686,-0.0751699
2.40583,0.886606,0
2.52714,0.659685,-0.0304065
2.51917,0.657605,-0.151627
2.48,0.778612,0.212199
2.46318,0.763894,-0.0750536
2.41643,0.880942,0
2.53717,0.652852,-0.0304996
2.52636,0.650071,-0.243513
2.46747,0.765227,-0.210897
2.52145,0.648807,-0.151627
2.47745,0.76832,0.105676
2.46583,0.755291,-0.0750536
2.41196,0.869787,0
2.53944,0.643991,-0.0304996
2.52862,0.641247,-0.243513
2.47394,0.757776,-0.211222
2.52757,0.640983,-0.151859
2.48011,0.759667,0.105676
2.48919,0.762446,0.212524
2.47228,0.747837,-0.0751699
2.42252,0.86405,0
2.54167,0.635124,-0.0304996
2.53857,0.634348,-0.244257
2.47275,0.747982,-0.210897
2.53367,0.633124,-0.152092
2.4904,0.75332,0.106002
2.4199,0.863114,-0.119678
2.42552,0.855588,0
2.54776,0.627203,-0.0305462
2.35857,0.963957,0.0148088
2.5369,0.624531,-0.243885
2.55552,0.629116,0.0306393
2.48299,0.741627,-0.211548
2.53974,0.62523,-0.152324
2.42289,0.854662,-0.119678
2.48511,0.732821,-0.0754027
2.42472,0.8458,0
2.54993,0.618307,-0.0305462
2.36934,0.958719,0.0148553
2.48556,0.732956,-0.211548
2.37208,0.95983,0.0744718
2.54191,0.616362,-0.152324
2.43947,0.850945,0.150464
2.42964,0.847516,-0.119864
2.50086,0.737466,0.212849
2.43522,0.839938,0
2.54818,0.608472,-0.0304996
2.37639,0.95193,0.0148785
2.54894,0.608655,-0.244629
2.55985,0.611259,0.0306393
2.49193,0.725389,-0.211873
2.55181,0.609339,-0.152789
2.50199,0.728316,0.106165
2.4288,0.837726,-0.119678
2.49016,0.715454,-0.0754027
2.43056,0.828851,0
2.55808,0.601405,-0.0305928
2.37969,0.943629,0.0148785
2.55493,0.600665,-0.245001
2.56586,0.603236,0.0306859
2.54615,0.598601,-0.152324
2.50836,0.720682,0.106327
2.42793,0.827954,-0.119492
2.4888,0.705667,-0.0752863
2.43723,0.82164,0
2.56016,0.592473,-0.0305928
2.3867,0.936779,0.0149017
2.57185,0.595178,0.0307325
2.4931,0.706888,-0.211548
2.38573,0.936398,0.0745881
2.55211,0.59061,-0.152557
2.43838,0.822027,-0.119864
2.51612,0.713413,0.2135
2.49497,0.698487,-0.0754027
2.43994,0.813553,0
2.56211,0.583979,-0.0305928
2.38233,0.92596,0.0148553
2.56673,0.585031,-0.245744
2.57771,0.587534,0.030779
2.49927,0.69969,-0.211873
2.39255,0.929929,0.0747045
2.56574,0.584805,-0.153254
2.44488,0.8152,-0.12005
2.51847,0.705064,0.2135
2.38912,0.918534,-0.0446782
2.50137,0.690402,-0.075519
2.45051,0.807108,0
2.56814,0.575459,-0.0306393
2.38944,0.918658,0.0148785
2.44454,0.805142,-0.179972
2.50951,0.692647,-0.212524
2.39594,0.921155,0.0747045
2.56397,0.574525,-0.153022
2.51962,0.695439,0.10649
2.44406,0.804984,-0.119864
2.52103,0.69583,0.2135
2.38858,0.908766,-0.0446084
2.50762,0.682716,-0.0756354
2.45331,0.798549,0
2.57404,0.567352,-0.0306859
2.50009,0.680666,-0.329813
2.39264,0.910311,0.0148785
2.57474,0.567506,-0.246116
2.58576,0.569935,0.0308256
2.43974,0.794133,-0.179414
2.51191,0.683883,-0.212524
2.56986,0.56643,-0.153254
2.52589,0.687689,0.106653
2.44685,0.796447,-0.119864
2.53114,0.689119,0.214151
2.39532,0.90225,-0.0446782
2.50987,0.674398,-0.0756354
2.45214,0.789184,0
2.57981,0.559661,-0.0307325
2.51,0.674431,-0.330823
2.40313,0.905192,0.014925
2.5766,0.558965,-0.246116
2.51801,0.676584,-0.212849
2.40589,0.906234,0.0748209
2.57172,0.557906,-0.153254
2.46699,0.793966,0.150929
2.52815,0.679309,0.106653
2.45328,0.789553,-0.12005
2.53341,0.680722,0.214151
2.39845,0.893884,-0.0446782
2.45487,0.78062,0
2.58175,0.550653,-0.0307325
2.51234,0.665666,-0.330823
2.40253,0.895402,0.0149017
2.58243,0.550799,-0.246488
2.58957,0.552322,0.0308256
2.44889,0.778718,-0.179693
2.5165,0.66677,-0.212524
2.57756,0.549759,-0.153487
2.45602,0.780985,-0.12005
2.53577,0.671876,0.214151
2.40057,0.894675,-0.104373
2.40906,0.888273,-0.0448178
2.51452,0.656859,-0.0756354
2.46522,0.774443,0
2.58366,0.541637,-0.0307325
2.51465,0.656892,-0.330823
2.40564,0.88701,0.0149017
2.58824,0.542598,-0.246859
2.59932,0.54492,0.0309187
2.4516,0.770165,-0.179693
2.52267,0.658989,-0.212849
2.40841,0.888032,0.0747045
2.58728,0.542396,-0.153952
2.54196,0.664027,0.214477
2.40839,0.878487,-0.044748
2.46791,0.765832,0
2.59337,0.534229,-0.0308256
2.51693,0.648109,-0.330823
2.40872,0.878606,0.0149017
2.60512,0.536649,0.0309653
2.45808,0.762784,-0.179972
2.52882,0.651172,-0.213175
2.41901,0.88236,0.0749372
2.58524,0.532555,-0.15372
2.46905,0.766187,-0.120423
2.5404,0.654155,0.214151
2.41521,0.871433,-0.0448178
2.47439,0.758386,0
2.59522,0.525173,-0.0308256
2.51917,0.63932,-0.330823
2.41553,0.871551,0.014925
2.59977,0.526095,-0.247603
2.6109,0.528347,0.0310118
2.46073,0.7542,-0.179972
2.53108,0.642342,-0.213175
2.42207,0.873911,0.0749372
2.59492,0.525113,-0.154185
2.54127,0.644928,0.106816
2.46789,0.756393,-0.120236
2.5504,0.647245,0.214802
2.40605,0.86813,-0.104211
2.41447,0.861653,-0.044748
2.47702,0.749744,0
2.60096,0.516891,-0.0308722
2.52524,0.631486,-0.331328
2.60159,0.517018,-0.247603
2.48783,0.753017,0.0604842
2.61273,0.51923,0.0310118
2.5333,0.633503,-0.213175
2.59673,0.516052,-0.154185
2.54738,0.637023,0.106979
2.47434,0.748932,-0.120423
2.54212,0.635709,-0.13733
2.54877,0.637372,0.214477
2.41283,0.86107,-0.104373
2.47196,0.738803,0
2.60274,0.50781,-0.0308722
2.53513,0.624566,-0.332338
2.42533,0.855999,0.0149482
2.46155,0.735693,-0.276739
2.49045,0.744329,0.0604842
2.6106,0.509341,0.0309653
2.46594,0.737003,-0.179972
2.54324,0.626564,-0.213826
2.43189,0.858312,0.0750536
2.59852,0.506985,-0.154185
2.55735,0.63004,0.107304
2.48459,0.74258,-0.120795
2.55873,0.630379,0.215128
2.41582,0.852643,-0.104373
2.42797,0.847412,-0.0448876
2.48219,0.732433,0
2.6045,0.498721,-0.0308722
2.5373,0.615713,-0.332338
2.42453,0.846209,0.014925
2.61629,0.500977,0.0310118
2.47232,0.72952,-0.180251
2.53767,0.615802,-0.213175
2.43487,0.849817,0.0750536
2.42337,0.845806,-0.164499
2.60419,0.498662,-0.154417
2.55953,0.621109,0.107304
2.48334,0.732771,-0.120609
2.56091,0.621443,0.215128
2.42256,0.845522,-0.104536
2.42336,0.836322,-0.044748
2.54328,0.607772,-0.0761008
2.49626,0.72712,0
2.61409,0.491102,-0.0309653
2.53943,0.606851,-0.332338
2.43503,0.84035,0.0149715
2.4819,0.722938,-0.278452
2.62588,0.493318,0.031105
2.47868,0.722001,-0.18053
2.55143,0.609719,-0.214151
2.60984,0.490305,-0.15465
2.50354,0.72924,0.151859
2.48588,0.724097,-0.120609
2.51196,0.731693,0.321248
2.56694,0.613426,0.215453
2.4255,0.837059,-0.104536
2.43383,0.830441,-0.0448876
2.49109,0.716192,0
2.61972,0.4827,-0.0310118
2.5454,0.598893,-0.332843
2.44173,0.833137,0.0149947
2.48059,0.713172,-0.278024
2.62031,0.482808,-0.248718
2.50579,0.720418,0.0606703
2.63152,0.484874,0.0311515
2.48886,0.71555,-0.181088
2.54966,0.599897,-0.213826
2.44452,0.834089,0.0751699
2.61547,0.481916,-0.154882
2.5099,0.7216,0.152092
2.5677,0.60414,0.107467
2.49223,0.71652,-0.120795
2.56907,0.604463,0.215453
2.43218,0.829879,-0.104699
2.43672,0.821939,-0.0448876
2.48973,0.706399,0
2.62926,0.474974,-0.031105
2.54747,0.590003,-0.332843
2.44084,0.823329,0.0149715
2.48689,0.705593,-0.278452
2.62926,0.474974,0.031105
2.48366,0.704679,-0.18053
2.43588,0.821658,-0.164755
2.61713,0.472783,-0.154882
2.57368,0.596074,0.10763
2.49472,0.707816,-0.120795
2.52082,0.715222,0.321735
2.57505,0.59639,0.215779
2.43507,0.821383,-0.104699
2.44336,0.814696,-0.0449574
2.49603,0.698784,0
2.62696,0.465098,-0.0310584
2.55338,0.581991,-0.333348
2.44749,0.816071,0.0149947
2.49316,0.697982,-0.278881
2.63146,0.465893,-0.249462
2.6309,0.465795,0.031105
2.49379,0.698158,-0.181088
2.55768,0.58297,-0.214151
2.45029,0.817004,0.0751699
2.43873,0.813151,-0.164755
2.63056,0.465735,-0.15558
2.51488,0.704062,0.152092
2.57965,0.587977,0.107793
2.50872,0.702336,-0.121353
2.56267,0.584107,-0.137748
2.51948,0.705349,0.321248
2.57323,0.586513,0.215453
2.43792,0.81288,-0.104699
2.44239,0.804909,-0.0448876
2.56322,0.574828,-0.0764499
2.50617,0.692197,0
2.63251,0.456608,-0.031105
2.5554,0.573074,-0.333348
2.45412,0.808774,0.015018
2.49558,0.689274,-0.278881
2.64039,0.457975,0.0311981
2.49621,0.689448,-0.181088
2.56748,0.575782,-0.214802
2.45692,0.809697,0.0752863
2.58343,0.57936,0.046214
2.43777,0.803384,-0.164499
2.63611,0.457231,-0.155813
2.52117,0.696341,0.152324
2.58558,0.579842,0.107956
2.51115,0.693574,-0.121353
2.57638,0.57778,-0.138376
2.52958,0.698664,0.322223
2.58304,0.579272,0.216104
2.44074,0.804365,-0.104699
2.44125,0.795566,-0.0448178
2.56512,0.566324,-0.0764499
2.50845,0.683881,0
2.63401,0.447875,-0.031105
2.56116,0.565451,-0.333853
2.45679,0.800631,0.015018
2.64979,0.450557,0.0312912
2.49849,0.681166,-0.181088
2.56937,0.567264,-0.214802
2.45959,0.801544,0.0752863
2.58534,0.570789,0.046214
2.44421,0.796531,-0.164755
2.63367,0.447817,-0.15558
2.52347,0.687976,0.152324
2.58749,0.571264,0.107956
2.51344,0.685242,-0.121353
2.58494,0.570702,0.216104
2.4434,0.796266,-0.104699
2.60528,0.575191,0.486448
2.45162,0.78949,-0.0449574
2.51854,0.677198,0
2.6474,0.440647,-0.0312447
2.56312,0.556507,-0.333853
2.46338,0.793275,0.0150412
2.5079,0.674335,-0.279738
2.64397,0.440077,-0.250205
2.65529,0.44196,0.0313378
2.50856,0.674512,-0.181646
2.57523,0.559137,-0.215128
2.46618,0.794179,0.0754027
2.59122,0.562609,0.0462838
2.45078,0.789218,-0.16501
2.6431,0.439931,-0.156045
2.52971,0.6802,0.152557
2.51196,0.675427,-0.121167
2.59471,0.563367,0.216755
2.44616,0.787731,-0.104699
2.45818,0.782142,-0.0450272
2.56621,0.547808,-0.52481
2.51703,0.667379,0
2.65681,0.432691,-0.0313378
2.57281,0.549215,-0.334863
2.46613,0.784674,0.0150412
2.51408,0.666598,-0.280166
2.53181,0.671298,0.0609494
2.65287,0.432048,0.0312912
2.50704,0.66473,-0.181367
2.58497,0.551811,-0.215779
2.59317,0.553562,0.0462838
2.45352,0.78066,-0.16501
2.64462,0.430704,-0.156045
2.53593,0.67239,0.152789
2.59532,0.554022,0.108119
2.51816,0.66768,-0.121353
2.59001,0.552888,-0.138795
2.54048,0.673597,0.32271
2.59276,0.553475,0.21643
2.45651,0.781613,-0.105025
2.61308,0.557812,0.487166
2.46089,0.773556,-0.0450272
2.52321,0.6596,0
2.65041,0.422155,-0.0312447
2.57471,0.54023,-0.334863
2.47267,0.777259,0.0150645
2.51255,0.656812,-0.279738
2.65485,0.422862,-0.250949
2.538,0.663467,0.0610425
2.65436,0.422784,0.0312912
2.50934,0.655974,-0.181367
2.58297,0.541965,-0.215453
2.47548,0.778142,0.075519
2.46003,0.773287,-0.165266
2.65005,0.422098,-0.156278
2.59724,0.544959,0.108119
2.52434,0.659896,-0.121539
2.54281,0.664724,0.32271
2.59468,0.544421,0.21643
2.4516,0.770636,-0.104699
2.4674,0.766148,-0.045097
2.5255,0.650788,0
2.65187,0.412902,-0.0312447
2.57658,0.53124,-0.334863
2.47155,0.767438,0.0150412
2.51868,0.64903,-0.280166
2.66372,0.414748,0.0313844
2.51935,0.649203,-0.181925
2.58876,0.533751,-0.215779
2.47818,0.769497,0.075519
2.60089,0.536253,0.0463536
2.46272,0.764696,-0.165266
2.66334,0.414688,-0.156975
2.54443,0.655666,0.153022
2.60304,0.536697,0.108281
2.53437,0.653075,-0.121912
2.55281,0.657826,0.323685
2.59656,0.535361,0.21643
2.45809,0.763259,-0.104862
2.46241,0.755184,-0.0449574
2.59028,0.524646,-0.0769154
2.5795,0.522462,-0.526379
2.53551,0.643937,0
2.66515,0.405446,-0.0313844
2.58231,0.52303,-0.335368
2.47421,0.758805,0.0150412
2.51707,0.639255,-0.279738
2.66515,0.405446,0.0313844
2.59842,0.526293,-0.21643
2.48468,0.762014,0.0756354
2.60666,0.527964,0.0464234
2.46537,0.756094,-0.165266
2.66477,0.405388,-0.156975
2.5467,0.64678,0.153022
2.60882,0.5284,0.108444
2.53276,0.64324,-0.121725
2.61014,0.528668,0.217406
2.46456,0.755845,-0.105025
2.47651,0.750062,-0.0451668
2.58131,0.513454,-0.526379
2.53774,0.635082,0
2.66655,0.39614,-0.0313844
2.58801,0.514786,-0.335873
2.48068,0.751323,0.0150645
2.60885,0.518931,-0.0154597
2.52315,0.63143,-0.280166
2.54481,0.636852,0.0610425
2.67447,0.397315,0.0314775
2.52382,0.631598,-0.181925
2.60415,0.517997,-0.216755
2.48732,0.753335,0.0756354
2.60849,0.518861,0.0464234
2.47182,0.74864,-0.165522
2.66617,0.396083,-0.156975
2.55282,0.638855,0.153254
2.61457,0.520069,0.108607
2.53887,0.635364,-0.121912
2.61979,0.521108,0.218057
2.47484,0.749554,-0.10535
2.47912,0.741413,-0.0451668
2.58308,0.504441,-0.526379
2.54383,0.627178,0
2.67584,0.387978,-0.0314775
2.58979,0.50575,-0.335873
2.48712,0.743805,0.0150877
2.61457,0.510589,-0.0154829
2.53306,0.624523,-0.281023
2.67188,0.387404,0.0314309
2.52988,0.62374,-0.182204
2.60985,0.509668,-0.21708
2.61814,0.511286,0.046563
2.48206,0.742295,-0.166034
2.67544,0.387921,-0.15744
2.55891,0.630897,0.153487
2.62029,0.511706,0.10877
2.54107,0.626499,-0.121912
2.60319,0.508366,-0.139004
2.61768,0.511197,0.217731
2.48127,0.742056,-0.105513
2.48169,0.732754,-0.0451668
2.58483,0.49542,-0.526379
2.54211,0.61735,0
2.68113,0.379195,-0.0315241
2.59933,0.4982,-0.336884
2.53136,0.614738,-0.280594
2.6776,0.378694,-0.252436
2.56085,0.621901,0.0613216
2.68113,0.379195,0.0315241
2.53204,0.614905,-0.182204
2.61162,0.500555,-0.21708
2.49252,0.735952,0.0756354
2.62383,0.502896,0.0466328
2.48847,0.734756,-0.16629
2.62206,0.502556,0.10877
2.55101,0.61951,-0.122284
2.56946,0.623991,0.32466
2.62336,0.502806,0.218057
2.48001,0.732258,-0.10535
2.48807,0.725208,-0.0452366
2.60521,0.489908,-0.0771481
2.59425,0.487846,-0.527948
2.55592,0.611265,0
2.67848,0.369289,-0.0314775
2.59716,0.488392,-0.336379
2.49609,0.727544,0.015111
2.54122,0.60775,-0.281451
2.56301,0.61296,0.0613216
2.69037,0.370928,0.0316172
2.5497,0.609776,-0.18332
2.61727,0.492174,-0.217406
2.49507,0.727249,0.0756354
2.62164,0.492997,0.046563
2.48719,0.72495,-0.166034
2.68204,0.36978,-0.157673
2.56713,0.613947,0.15372
2.62772,0.49414,0.108933
2.55315,0.610603,-0.122284
2.61845,0.492396,-0.139632
2.57548,0.615944,0.325147
2.62902,0.494384,0.218382
2.49022,0.725835,-0.105676
2.48674,0.715412,-0.0451668
2.61477,0.48226,-0.0773808
2.60365,0.480209,-0.529517
2.55415,0.601422,0
2.69164,0.361534,-0.0316172
2.60275,0.480042,-0.336884
2.50246,0.719932,0.0151342
2.63157,0.485358,-0.0155527
2.53946,0.597963,-0.281023
2.68807,0.361053,-0.25318
2.68768,0.361001,0.0315706
2.54793,0.599957,-0.183041
2.62289,0.483757,-0.217731
2.62335,0.483842,0.046563
2.48587,0.715159,-0.165778
2.68332,0.360415,-0.157673
2.63336,0.485689,0.109096
2.63073,0.485203,0.218382
2.49274,0.717138,-0.105676
2.48923,0.706726,-0.0451668
2.60145,0.470419,-0.528732
2.56792,0.595212,0
2.69686,0.352654,-0.0316637
2.54125,0.589029,-0.40584
2.60831,0.47166,-0.337389
2.50495,0.711192,0.0151342
2.5454,0.589993,-0.281451
2.69326,0.352184,-0.253551
2.70082,0.353172,0.0317103
2.54612,0.590158,-0.182762
2.62849,0.475307,-0.218057
2.51163,0.713087,0.0759845
2.63683,0.476816,0.0467725
2.48835,0.706477,-0.165778
2.69248,0.352081,-0.158138
2.57525,0.59691,0.153952
2.63504,0.476493,0.109096
2.56514,0.594567,-0.122656
2.63633,0.476726,0.218708
2.49523,0.708431,-0.105676
2.49938,0.700191,-0.0453064
2.62201,0.464692,-0.0774972
2.6108,0.462705,-0.530301
2.56608,0.585356,0
2.70204,0.343743,-0.0317103
2.54714,0.581035,-0.406455
2.61385,0.463245,-0.337894
2.55908,0.583758,-0.282736
2.6941,0.342734,0.0316172
2.55594,0.583042,-0.18332
2.49849,0.699941,-0.16629
2.70161,0.343689,-0.158603
2.64456,0.468688,0.109421
2.5672,0.58561,-0.122656
2.58953,0.590705,0.326122
2.63798,0.467521,0.218708
2.50154,0.700796,-0.105839
2.50566,0.692527,-0.0453763
2.62362,0.455536,-0.0774972
2.6124,0.453588,-0.530301
2.56811,0.576394,0
2.70322,0.334309,-0.0317103
2.54915,0.572139,-0.406455
2.61936,0.454796,-0.338399
2.51757,0.695818,0.0151807
2.55722,0.57395,-0.282308
2.57912,0.578865,0.0615077
2.71116,0.33529,0.0318034
2.55796,0.574116,-0.18332
2.51269,0.69447,0.0758681
2.50091,0.691215,-0.16629
2.70676,0.334746,-0.158836
2.58714,0.580666,0.154417
2.64224,0.458769,0.109258
2.57313,0.57752,-0.122842
2.64081,0.458521,-0.14047
2.6396,0.45831,0.218708
2.50012,0.690994,-0.105676
2.50783,0.684653,-0.0453763
2.63292,0.448635,-0.0777299
2.61768,0.446038,-0.531086
2.57381,0.569188,0
2.70426,0.325815,-0.0317103
2.62469,0.447232,-0.338904
2.51974,0.687906,0.0151807
2.57066,0.56849,-0.283593
2.70855,0.326332,-0.254667
2.70823,0.326293,0.0317569
2.56755,0.567801,-0.183878
2.63709,0.449346,-0.218382
2.52258,0.688679,0.0761008
2.50307,0.683355,-0.16629
2.65155,0.451809,0.109584
2.57883,0.570297,-0.123028
2.64102,0.450015,0.218708
2.50227,0.683137,-0.105676
2.50646,0.674418,-0.0453064
2.63849,0.439639,-0.0778463
2.62317,0.437086,-0.53187
2.57979,0.5606,0
2.71338,0.31683,-0.0318034
2.55685,0.555615,-0.40707
2.62631,0.43761,-0.338904
2.52611,0.679706,0.015204
2.6514,0.44179,-0.0156224
2.56495,0.557376,-0.282736
2.59082,0.562996,0.0616939
2.71735,0.317293,0.03185
2.56571,0.55754,-0.183599
2.64265,0.440333,-0.218708
2.52508,0.67943,0.0761008
2.50942,0.675214,-0.166545
2.71294,0.316778,-0.159068
2.58714,0.562196,0.154185
2.64781,0.441192,-0.140679
2.65052,0.441644,0.219359
2.51248,0.676038,-0.106002
2.583,0.561298,-0.0615077
2.64001,0.430426,-0.0778463
2.63242,0.429189,-0.533439
2.58565,0.552427,0
2.72242,0.308255,-0.0318966
2.56264,0.547512,-0.407685
2.63565,0.429716,-0.339914
2.57077,0.549249,-0.283165
2.71873,0.307838,-0.25541
2.59277,0.553948,0.0616939
2.72242,0.308255,0.0318966
2.57544,0.550247,-0.184157
2.5313,0.671636,0.0762172
2.66046,0.43376,0.0470517
2.51176,0.66645,-0.166545
2.71403,0.307306,-0.159068
2.59689,0.55483,0.15465
2.65472,0.432824,0.109584
2.57894,0.550993,-0.122842
2.65598,0.43303,0.219684
2.51869,0.668288,-0.106165
2.59277,0.553948,-0.0616939
2.51873,0.659367,-0.0454461
2.63383,0.420458,-0.533439
2.59138,0.544673,0
2.73138,0.3001,-0.0319897
2.56444,0.539011,-0.407685
2.6449,0.422225,-0.340924
2.53455,0.663508,0.0152272
2.58037,0.542358,-0.284021
2.7237,0.299256,-0.255782
2.5985,0.54617,0.0617869
2.72343,0.299226,0.0318966
2.57726,0.541704,-0.184157
2.51781,0.659128,-0.166801
2.72297,0.299177,-0.159533
2.66008,0.424649,0.109747
2.58466,0.543261,-0.123028
2.6574,0.42422,0.219684
2.52089,0.659933,-0.106165
2.525,0.651129,-0.0455159
2.6469,0.412601,-0.0779626
2.63535,0.410801,-0.533439
2.59727,0.535979,0
2.7245,0.289242,-0.0318966
2.65035,0.413138,-0.341429
2.53696,0.654214,0.0152272
2.58623,0.5337,-0.28445
2.72874,0.289691,-0.256154
2.7245,0.289242,0.0318966
2.57922,0.532254,-0.184157
2.65894,0.414477,-0.219684
2.53593,0.653948,0.0762172
2.52408,0.650892,-0.167057
2.66557,0.415511,0.10991
2.59055,0.534591,-0.123214
2.66413,0.415286,-0.141307
2.6168,0.540008,0.328072
2.66288,0.415091,0.22001
2.51942,0.64969,-0.106002
2.52714,0.642753,-0.0455159
2.66011,0.40563,-0.0783117
2.64446,0.403242,-0.535008
2.59904,0.527363,0
2.73738,0.281433,-0.0320363
2.64386,0.403151,-0.340419
2.59578,0.526703,-0.285307
2.72572,0.280234,-0.255782
2.60617,0.528811,0.06188
2.73341,0.281024,0.0319897
2.5888,0.525285,-0.184715
2.66424,0.406259,-0.22001
2.54196,0.646521,0.0763336
2.67665,0.408151,0.0472611
2.52235,0.641534,-0.166801
2.61421,0.530442,0.155347
2.67484,0.407875,0.110235
2.66944,0.407052,-0.141516
2.61857,0.531327,0.328072
2.66424,0.406259,0.22001
2.52543,0.642318,-0.106165
2.53325,0.634899,-0.0455857
2.66942,0.397519,-0.0785444
2.65361,0.395164,-0.536577
2.60478,0.519069,0
2.73835,0.271875,-0.0320363
2.6531,0.395088,-0.341429
2.54524,0.637902,0.0152505
2.67842,0.398859,-0.0157387
2.5898,0.516084,-0.28445
2.73857,0.271897,-0.256897
2.61585,0.521273,0.0620661
2.75029,0.273061,0.032176
2.59453,0.517025,-0.184994
2.66958,0.397543,-0.220335
2.5442,0.637643,0.0763336
2.53232,0.634666,-0.167313
2.7339,0.271434,-0.159999
2.61604,0.521313,0.155347
2.6802,0.399123,0.110398
2.67084,0.39773,-0.141516
2.66958,0.397543,0.220335
2.53154,0.634469,-0.106327
2.608,0.51971,-0.06188
2.53945,0.626569,-0.0456555
2.66295,0.386584,-0.0783117
2.65892,0.385999,-0.537361
2.61452,0.511054,0
2.75127,0.262979,-0.032176
2.58344,0.504979,-0.40953
2.65846,0.385932,-0.341934
2.55144,0.629528,0.0152737
2.68382,0.389614,-0.0157619
2.59948,0.508115,-0.285307
2.74351,0.262238,-0.257269
2.61381,0.510915,0.061973
2.60815,0.509809,-0.185831
2.68346,0.389562,0.0473309
2.53076,0.624425,-0.167057
2.73885,0.261792,-0.160231
2.62186,0.512487,0.15558
2.67373,0.38815,0.110073
2.61169,0.5105,-0.123959
2.67891,0.388902,0.220986
2.53773,0.626145,-0.10649
2.60989,0.510148,-0.06188
2.53773,0.616756,-0.0455857
2.66824,0.377847,-0.0784281
2.65637,0.376166,-0.536577
2.61236,0.501171,0
2.75616,0.253741,-0.0322225
2.59295,0.497448,-0.41076
2.66765,0.377763,-0.342945
2.55362,0.620618,0.0152737
2.60124,0.499038,-0.285307
2.74045,0.252295,-0.256897
2.62344,0.503296,0.0621591
2.74819,0.253008,0.0321294
2.59816,0.498447,-0.184994
2.56035,0.622255,0.0766826
2.5368,0.61653,-0.167313
2.75168,0.253329,-0.160929
2.61971,0.502581,0.155347
2.68298,0.379935,0.110398
2.61346,0.501381,-0.123959
2.63188,0.504916,0.329047
2.68815,0.380667,0.221637
2.54378,0.618227,-0.106653
2.54365,0.60927,-0.0456555
2.68136,0.37064,-0.0787772
2.66537,0.36843,-0.538146
2.61401,0.492506,0
2.76097,0.244954,-0.0322691
2.59459,0.488847,-0.41076
2.67675,0.370002,-0.343955
2.6107,0.491883,-0.286163
2.74524,0.243558,-0.257269
2.62902,0.495334,0.0622522
2.75698,0.244601,0.0322225
2.60372,0.490568,-0.185273
2.6815,0.370659,-0.220986
2.55852,0.61283,0.0765663
2.53883,0.608115,-0.167313
2.74853,0.243851,-0.160696
2.62921,0.49537,0.155813
2.68819,0.371584,0.110561
2.68545,0.371205,0.221311
2.54193,0.608857,-0.10649
2.62509,0.494594,-0.0621591
2.54976,0.600858,-0.0457253
2.68666,0.361341,-0.0788935
2.67059,0.359179,-0.53893
2.6276,0.485099,0
2.76185,0.234831,-0.0322691
2.59636,0.479332,-0.41076
2.67415,0.359658,-0.34345
2.56179,0.603692,0.015297
2.61639,0.483031,-0.286592
2.75405,0.234168,-0.258013
2.62295,0.484241,0.0620661
2.76185,0.234831,0.0322691
2.61335,0.482468,-0.185831
2.56075,0.603447,0.0765663
2.54493,0.599719,-0.167569
2.76134,0.234788,-0.161394
2.63493,0.486453,0.156045
2.69745,0.362792,0.110887
2.64315,0.48797,0.330022
2.69074,0.361889,0.221637
2.54804,0.600452,-0.106653
2.55184,0.591956,-0.0457253
2.69187,0.352481,-0.0790099
2.67961,0.350875,-0.540499
2.63321,0.476638,0
2.76664,0.225516,-0.0323156
2.60191,0.470972,-0.411375
2.67933,0.350839,-0.343955
2.56777,0.595652,0.0153202
2.61415,0.473188,-0.286163
2.75882,0.224879,-0.258385
2.77461,0.226166,0.0324088
2.61502,0.473345,-0.185831
2.69199,0.352497,-0.221637
2.56673,0.59541,0.0766826
2.70053,0.353615,0.0475404
2.55089,0.591736,-0.167825
2.75816,0.224825,-0.161161
2.63268,0.476543,0.155813
2.70663,0.354414,0.111212
2.63036,0.476122,-0.124517
2.69594,0.353014,0.221962
2.5579,0.593362,-0.106979
2.72347,0.356619,0.500798
2.6325,0.476509,-0.0622522
2.56169,0.584824,-0.0458649
2.68081,0.341519,-0.540499
2.6388,0.468141,0
2.77538,0.216479,-0.0324088
2.60743,0.462577,-0.41199
2.68447,0.341985,-0.34446
2.57374,0.587574,0.0153435
2.61187,0.463365,-0.285735
2.75958,0.215246,-0.258385
2.63808,0.468015,0.0623452
2.77937,0.21679,0.0324553
2.62844,0.466304,-0.186668
2.57269,0.587336,0.076799
2.70572,0.344691,0.0476102
2.55294,0.582827,-0.167825
2.76689,0.215816,-0.161626
2.6422,0.468745,0.156278
2.69992,0.343953,0.110887
2.70507,0.344608,0.222613
2.56385,0.585318,-0.107142
2.63808,0.468015,-0.0623452
2.56742,0.577651,-0.0459347
2.69415,0.334619,-0.0790099
2.68187,0.333094,-0.540499
2.63631,0.459162,0
2.61666,0.455739,-0.413219
2.68947,0.334038,-0.344965
2.57947,0.580363,0.0153667
2.6329,0.458568,-0.287877
2.76422,0.206872,-0.258756
2.64742,0.461096,0.0625313
2.78004,0.208056,0.0324553
2.62596,0.457359,-0.186389
2.57842,0.580127,0.0769154
2.55476,0.574803,-0.167825
2.77552,0.207718,-0.162092
2.70099,0.335468,0.110887
2.63739,0.45935,-0.124703
2.65969,0.463233,0.331485
2.70614,0.336108,0.222613
2.56568,0.57726,-0.107142
2.63954,0.459724,-0.0623452
2.56942,0.568686,-0.0459347
2.69927,0.325692,-0.0791263
2.69081,0.324671,-0.542068
2.64579,0.451302,0
2.78075,0.198351,-0.0324553
2.62213,0.447267,-0.413834
2.70244,0.326074,-0.34648
2.63449,0.449376,-0.287877
2.7689,0.197506,-0.259128
2.64901,0.451853,0.0625313
2.78474,0.198636,0.0325019
2.63147,0.448861,-0.186668
2.58043,0.571124,0.0769154
2.57234,0.569333,-0.168848
2.78021,0.198313,-0.162324
2.65706,0.453225,0.156975
2.71405,0.327475,0.111375
2.71125,0.327138,0.222939
2.56768,0.568301,-0.107142
2.64507,0.45118,-0.0624383
2.57549,0.559664,-0.0460045
2.70844,0.316252,-0.079359
2.69983,0.315246,-0.543637
2.65144,0.441797,0
2.78947,0.18821,-0.0325485
2.61993,0.436545,-0.413219
2.69973,0.315234,-0.345975
2.58757,0.562288,0.0153899
2.64012,0.43991,-0.288305
2.78156,0.187676,-0.260243
2.65073,0.441677,0.0625313
2.78947,0.18821,0.0325485
2.63711,0.439409,-0.186947
2.59042,0.562909,0.0771481
2.56671,0.557756,-0.168336
2.78095,0.187636,-0.162324
2.72719,0.318441,0.111864
2.71645,0.317187,0.223264
2.57375,0.559286,-0.107304
2.65073,0.441677,-0.0625313
2.57333,0.550734,-0.0459347
2.7134,0.308194,-0.0794753
2.7008,0.306763,-0.543637
2.65282,0.433465,0
2.79803,0.17996,-0.0326416
2.62519,0.42895,-0.413834
2.70465,0.3072,-0.34648
2.59323,0.554994,0.0154132
2.64149,0.431614,-0.288305
2.78611,0.179193,-0.260615
2.66,0.434638,0.0627174
2.79404,0.179703,0.032595
2.64636,0.43241,-0.187505
2.59218,0.554769,0.0771481
2.56845,0.54969,-0.168336
2.78153,0.178899,-0.162324
2.66016,0.434664,0.156975
2.72818,0.309873,0.111864
2.72535,0.309551,0.223915
2.5794,0.552034,-0.107467
2.6521,0.433348,-0.0625313
2.58306,0.543394,-0.0460744
2.71446,0.298719,-0.0794753
2.70576,0.297762,-0.544422
2.65827,0.424833,0
2.79465,0.169948,-0.032595
2.63447,0.421031,-0.415064
2.70965,0.29819,-0.346985
2.59515,0.545938,0.0154132
2.64298,0.42239,-0.288305
2.78274,0.169224,-0.260243
2.64785,0.423169,-0.187505
2.59801,0.546539,0.0772645
2.73507,0.300988,0.048029
2.57816,0.542364,-0.168848
2.78612,0.16943,-0.162557
2.71733,0.299035,0.111375
2.65933,0.425004,-0.125448
2.73038,0.300472,0.22424
2.58131,0.543026,-0.107467
2.65755,0.424718,-0.0626244
2.58895,0.534733,-0.0461442
2.71553,0.288769,-0.0794753
2.71073,0.288258,-0.545206
2.80723,0.160389,-0.0327347
2.63991,0.411982,-0.415679
2.71072,0.288257,-0.346985
2.59714,0.536423,0.0154132
2.65237,0.413927,-0.289162
2.79129,0.159479,-0.260987
2.66699,0.416209,0.0628105
2.80324,0.160161,0.0326882
2.64938,0.413462,-0.187505
2.6,0.537014,0.0772645
2.73615,0.290962,0.048029
2.58404,0.533719,-0.169104
2.79071,0.159446,-0.162789
2.67503,0.417464,0.157673
2.73033,0.290342,0.111864
2.67921,0.418116,0.332947
2.73939,0.291306,0.224891
2.5872,0.534371,-0.10763
2.58688,0.524898,-0.0460744
2.72448,0.280107,-0.0797081
2.71562,0.279196,-0.545991
2.66915,0.407007,0
2.80777,0.15059,-0.0327347
2.71961,0.279606,-0.347995
2.59899,0.527355,0.0154132
2.6538,0.404667,-0.289162
2.79979,0.150162,-0.261731
2.67633,0.408103,0.0629966
2.81177,0.150804,0.0327813
2.6587,0.405415,-0.188063
2.59794,0.527141,0.0771481
2.59372,0.526284,-0.169615
2.79923,0.150132,-0.163254
2.68042,0.408727,0.157906
2.74325,0.282037,0.112352
2.68457,0.40936,0.333435
2.74039,0.281743,0.224891
2.58905,0.525337,-0.10763
2.66842,0.406897,-0.0628105
2.60038,0.518664,-0.0462838
2.72937,0.271467,-0.0798244
2.71263,0.269801,-0.545206
2.67444,0.398744,0
2.80826,0.141279,-0.0327347
2.64265,0.394005,-0.415679
2.73236,0.271764,-0.34951
2.60073,0.518734,0.0154132
2.66692,0.397624,-0.290447
2.80425,0.141077,-0.262102
2.68162,0.399816,0.0630896
2.82024,0.141882,0.0328744
2.66398,0.397185,-0.188342
2.60359,0.519305,0.0772645
2.75001,0.273519,0.0482385
2.59153,0.5169,-0.16936
2.81167,0.141451,-0.163952
2.74815,0.273334,0.112515
2.74924,0.273443,0.225542
2.5947,0.517531,-0.107793
2.59833,0.508359,-0.046214
2.74229,0.262603,-0.0801735
2.72531,0.260977,-0.547559
2.67984,0.389513,0
2.81275,0.131169,-0.0327813
2.6519,0.385451,-0.416909
2.73334,0.261746,-0.34951
2.61046,0.510732,0.0154597
2.66049,0.386701,-0.28959
2.80872,0.130981,-0.262474
2.68703,0.390558,0.0631827
2.82074,0.131542,0.0328744
2.66542,0.387416,-0.188342
2.61333,0.511292,0.0774972
2.75498,0.263817,0.0483083
2.59733,0.508162,-0.169615
2.8042,0.13077,-0.163487
2.69111,0.391151,0.158371
2.75709,0.26402,0.112841
2.7542,0.263743,0.225868
2.60442,0.50955,-0.108119
2.67912,0.389407,-0.0629966
2.60795,0.500797,-0.0463536
2.73523,0.252296,-0.0799408
2.73011,0.251824,-0.548344
2.6891,0.381281,0
2.81719,0.121525,-0.0328279
2.74214,0.252934,-0.350521
2.61616,0.502373,0.0154829
2.6697,0.37853,-0.290447
2.81314,0.12135,-0.262846
2.68838,0.381178,0.0631827
2.83317,0.122214,0.0330141
2.67465,0.379232,-0.188901
2.61509,0.502169,0.0774972
2.59908,0.499095,-0.169615
2.80464,0.120983,-0.163487
2.75004,0.253662,0.112515
2.75907,0.254495,0.226193
2.60618,0.500458,-0.108119
2.77821,0.256261,0.50869
2.60968,0.49169,-0.0463536
2.74007,0.243099,-0.0800572
2.73098,0.242292,-0.548344
2.68646,0.371343,0
2.82159,0.111848,-0.0328744
2.62183,0.493978,0.0155062
2.67495,0.369752,-0.290876
2.82151,0.111844,-0.263589
2.83358,0.112323,0.0330141
2.67991,0.370439,-0.18918
2.62862,0.495258,0.0778463
2.60473,0.490758,-0.169871
2.81701,0.111666,-0.164185
2.76285,0.24512,0.113003
2.75737,0.244634,-0.145075
2.70576,0.374012,0.335384
2.76391,0.245214,0.226519
2.61577,0.492837,-0.108444
2.78301,0.246909,0.509408
2.68969,0.371791,-0.0631827
2.61138,0.482578,-0.0463536
2.74887,0.234213,-0.0802899
2.73181,0.232759,-0.548344
2.6917,0.362498,0
2.82596,0.102143,-0.032921
2.74779,0.234121,-0.351026
2.62747,0.48555,0.0155294
2.67622,0.360413,-0.290876
2.82586,0.102139,-0.263961
2.84195,0.102721,0.0331072
2.6891,0.362148,-0.189738
2.62247,0.484627,0.0776135
2.61821,0.483839,-0.170639
2.82536,0.102121,-0.16465
2.70298,0.364017,0.158836
2.77165,0.236153,0.113329
2.69274,0.362639,-0.126565
2.71098,0.365095,0.335872
2.76475,0.235566,0.226519
2.61747,0.483704,-0.108444
2.62477,0.476056,-0.046563
2.75362,0.225421,-0.0804062
2.74429,0.224658,-0.550697
2.69685,0.35409,0
2.83028,0.0929014,-0.0329675
2.74855,0.225007,-0.351026
2.62513,0.47612,0.0155062
2.68529,0.352571,-0.291732
2.83415,0.0930282,-0.264705
2.84228,0.0932951,0.0331072
2.69424,0.353747,-0.190017
2.63193,0.477354,0.0778463
2.7743,0.227114,0.0485875
2.61587,0.474441,-0.170383
2.82968,0.0928816,-0.164882
2.77242,0.22696,0.113329
2.71612,0.356619,0.336359
2.76949,0.226721,0.226844
2.61513,0.474307,-0.108281
2.63044,0.467131,-0.0466328
2.7624,0.21595,-0.080639
2.75292,0.215208,-0.552266
2.70607,0.345215,0
2.8346,0.0826431,-0.0330141
2.75332,0.21524,-0.351531
2.63473,0.467894,0.0155527
2.69445,0.343733,-0.292589
2.8426,0.0828763,0.0331072
2.69552,0.343869,-0.190017
2.63366,0.467703,0.0778463
2.7791,0.217255,0.0486573
2.62152,0.465548,-0.170639
2.83,0.0825089,-0.164882
2.71338,0.346147,0.159301
2.7812,0.21742,0.113655
2.7174,0.346661,0.336359
2.77428,0.216878,0.22717
2.62866,0.466815,-0.10877
2.80114,0.218978,0.512277
2.70137,0.344616,-0.0633688
2.62795,0.458178,-0.046563
2.76306,0.207271,-0.080639
2.70714,0.336712,0
2.83885,0.0738421,-0.0330607
2.76585,0.20748,-0.353046
2.63619,0.459615,0.0155527
2.68762,0.334285,-0.291732
2.84268,0.0739417,-0.265448
2.71434,0.337609,0.0636479
2.85484,0.0742581,0.0332469
2.70055,0.335892,-0.190296
2.63512,0.459428,0.0778463
2.77977,0.208524,0.0486573
2.62297,0.45731,-0.170639
2.84222,0.0739299,-0.16558
2.77788,0.208383,0.113492
2.70817,0.336841,-0.127123
2.78687,0.209057,0.228146
2.63405,0.459241,-0.108933
2.80181,0.210177,0.512277
2.71038,0.337115,-0.0635549
2.63742,0.450349,-0.0467026
2.76776,0.197911,-0.0807553
2.71227,0.327741,0
2.84709,0.0641129,-0.0331538
2.77052,0.198108,-0.353551
2.64172,0.451083,0.0155759
2.69667,0.325856,-0.292589
2.85088,0.0641984,-0.266192
2.71551,0.328132,0.0636479
2.85908,0.0643831,0.0332935
2.7017,0.326464,-0.190296
2.65247,0.452919,0.0783117
2.62849,0.448824,-0.170895
2.84645,0.0640987,-0.165813
2.79055,0.199541,0.11398
2.7133,0.327865,-0.127309
2.72753,0.329585,0.337334
2.79156,0.199613,0.228471
2.63957,0.450717,-0.109096
2.71551,0.328132,-0.0636479
2.643,0.441338,-0.0467725
2.77245,0.188035,-0.0808717
2.71345,0.317797,0
2.8513,0.0537521,-0.0332004
2.77518,0.18822,-0.354056
2.65125,0.442715,0.0156224
2.7018,0.316432,-0.293018
2.8553,0.0538275,0.0332469
2.70684,0.317023,-0.190575
2.78432,0.188839,-0.227821
2.64622,0.441877,0.078079
2.64192,0.441159,-0.171662
2.85466,0.0538153,-0.166278
2.79525,0.189581,0.114143
2.7366,0.320509,0.338309
2.79625,0.189649,0.228797
2.64515,0.441697,-0.109258
2.81109,0.190655,0.513712
2.64839,0.433216,-0.0468423
2.77705,0.179096,-0.080988
2.72244,0.309701,0
2.85546,0.0443579,-0.0332469
2.77975,0.17927,-0.354561
2.6527,0.43392,0.0156224
2.71074,0.308369,-0.293874
2.72965,0.310521,0.0639271
2.87146,0.0446064,0.0334332
2.71184,0.308495,-0.190854
2.65162,0.433744,0.0781954
2.63943,0.43175,-0.171406
2.8628,0.0444719,-0.166743
2.79587,0.18031,0.114143
2.71949,0.309365,-0.127495
2.73765,0.311431,0.338309
2.80482,0.180887,0.229448
2.6466,0.432922,-0.109258
2.64989,0.42397,-0.0468423
2.78564,0.16989,-0.0812208
2.73146,0.301074,0
2.8596,0.0344403,-0.0332935
2.78432,0.16981,-0.355066
2.65025,0.424028,0.0155992
2.70784,0.298471,-0.293446
2.8716,0.0345848,0.0334332
2.7248,0.300341,-0.191691
2.7935,0.17037,-0.228471
2.66102,0.42575,0.0784281
2.80237,0.17091,0.0490064
2.64881,0.423797,-0.171918
2.86294,0.0344806,-0.166743
2.73874,0.301878,0.160464
2.80446,0.171038,0.114469
2.74267,0.30231,0.338797
2.8134,0.171583,0.230099
2.65994,0.425578,-0.109747
2.6553,0.415335,-0.0469121
2.78622,0.160165,-0.0812208
2.73249,0.291537,0
2.8717,0.0245601,-0.0334332
2.65962,0.41601,0.0156457
2.80732,0.161378,-0.0163431
2.71282,0.289438,-0.293874
2.7397,0.292307,0.0641132
2.8797,0.0246285,0.0335263
2.72584,0.290827,-0.191691
2.66249,0.416458,0.0784281
2.80694,0.161356,0.0490762
2.65027,0.414548,-0.171918
2.87103,0.0245544,-0.167208
2.80504,0.161247,0.114469
2.81398,0.161761,0.230099
2.6614,0.416289,-0.109747
2.73573,0.291883,-0.0640202
2.66076,0.406204,-0.0469819
2.79078,0.150167,-0.0813371
2.73354,0.281521,0
2.87577,0.0140548,-0.0334798
2.79735,0.150521,-0.356581
2.66508,0.406863,0.0156689
2.72178,0.280309,-0.294731
2.74474,0.282674,0.0642063
2.87977,0.0140744,0.0335263
2.73085,0.281244,-0.19197
2.6719,0.407904,0.0786608
2.8155,0.151497,0.0492158
2.65967,0.406037,-0.17243
2.87909,0.014071,-0.167673
2.81359,0.151395,0.114795
2.73456,0.281625,-0.128054
2.75266,0.28349,0.339772
2.81455,0.151446,0.230099
2.66291,0.406533,-0.109747
2.67001,0.398559,-0.0471215
2.79526,0.141113,-0.0814535
2.73844,0.27285,0
2.8018,0.141443,-0.357087
2.66246,0.397432,0.0156457
2.72665,0.271675,-0.295159
2.88346,0.00452956,-0.269166
2.8838,0.00453009,0.0335729
2.73177,0.272186,-0.19197
2.80708,0.141709,-0.229448
2.66928,0.398451,0.0785444
2.81998,0.142361,0.0492856
2.661,0.397214,-0.17243
2.88311,0.00452901,-0.167906
2.75368,0.274368,0.161161
2.81807,0.142264,0.114957
2.74343,0.273347,-0.128426
2.76149,0.275146,0.340747
2.81902,0.142312,0.230424
2.66425,0.397699,-0.109747
2.67145,0.388771,-0.0471215
2.80374,0.131241,-0.0816862
2.74739,0.263576,0
2.8878,-0.00604734,-0.0336195
2.80626,0.131359,-0.357592
2.67181,0.388823,0.0156922
2.73158,0.26206,-0.295588
2.7546,0.264269,0.0643924
2.8918,-0.00605572,0.033666
2.73672,0.262553,-0.192249
2.81156,0.131607,-0.229773
2.67072,0.388665,0.0785444
2.66638,0.388034,-0.172685
2.82656,0.132309,0.115283
2.74043,0.262909,-0.12824
2.76643,0.265403,0.341234
2.82351,0.132166,0.23075
2.66964,0.388508,-0.10991
2.67279,0.379443,-0.0471215
2.74829,0.253984,0
2.89576,-0.016173,-0.0337126
2.8067,0.121562,-0.357592
2.8293,0.122541,-0.0164593
2.73248,0.252523,-0.295588
2.89576,-0.016173,0.0337126
2.74159,0.253365,-0.192528
2.6879,0.381588,0.0790099
2.83291,0.122697,0.049495
2.67168,0.379284,-0.172941
2.88706,-0.0161245,-0.168138
2.827,0.122441,0.115283
2.74929,0.254076,-0.128612
2.76734,0.255744,0.341234
2.83192,0.122654,0.231401
2.67889,0.380309,-0.110235
2.67403,0.370578,-0.0471215
2.75708,0.245579,0
2.89969,-0.0258107,-0.0337591
2.72825,0.24301,-0.426132
2.81898,0.11273,-0.359107
2.67836,0.371177,0.0157154
2.83369,0.113318,-0.0164826
2.73727,0.243814,-0.296016
2.90369,-0.0258463,0.0338057
2.75037,0.244981,-0.193086
2.82434,0.112944,-0.23075
2.68915,0.372673,0.0790099
2.8333,0.113303,0.049495
2.67687,0.370971,-0.173197
2.89897,-0.0258043,-0.168836
2.76833,0.246581,0.161859
2.83538,0.113386,0.115609
2.74614,0.244604,-0.128426
2.82985,0.113165,-0.148425
2.77608,0.247271,0.342209
2.83629,0.113422,0.231726
2.6841,0.371973,-0.110398
2.6872,0.362847,-0.0473309
2.75793,0.235954,0
2.91158,-0.0360804,-0.0338988
2.81936,0.10289,-0.359107
2.69153,0.363432,0.0157852
2.74603,0.234936,-0.296873
2.90358,-0.0359812,0.0338057
2.75518,0.235719,-0.193365
2.6944,0.363819,0.0791263
2.83768,0.103558,0.0495648
2.68606,0.362694,-0.173709
2.90685,-0.0360218,-0.169301
2.83975,0.103634,0.115772
2.75096,0.235358,-0.128612
2.83023,0.103286,-0.148425
2.77297,0.237241,0.341722
2.84065,0.103667,0.232052
2.68934,0.363137,-0.110561
2.69638,0.354507,-0.0474705
2.76272,0.226652,0
2.90744,-0.0461807,-0.0338523
2.8316,0.0934396,-0.360622
2.69278,0.354034,0.0157852
2.8424,0.0937962,-0.0165291
2.75079,0.225673,-0.297301
2.91543,-0.0463078,0.0339454
2.75599,0.2261,-0.193365
2.83303,0.0934867,-0.231401
2.69961,0.354932,0.0792426
2.84602,0.0939154,0.0497045
2.69523,0.354356,-0.17422
2.9107,-0.0462326,-0.169533
2.84809,0.0939836,0.116097
2.75574,0.22608,-0.128798
2.77774,0.227884,0.342209
2.841,0.0937497,0.232052
2.69059,0.353746,-0.110561
2.70151,0.346071,-0.0475404
2.76744,0.217802,0
2.91526,-0.0559762,-0.0339454
2.82793,0.0839307,-0.360117
2.68997,0.344593,0.0157619
2.8507,0.0846064,-0.0165756
2.74756,0.216237,-0.296873
2.91926,-0.056053,0.033992
2.7607,0.217272,-0.193644
2.83731,0.0842091,-0.231726
2.70078,0.345977,0.0792426
2.84232,0.0843577,0.0496346
2.69639,0.345415,-0.17422
2.91852,-0.0560386,-0.169998
2.85238,0.0846563,0.11626
2.76046,0.217253,-0.128984
2.84284,0.0843734,-0.149053
2.78639,0.219294,0.343184
2.84926,0.0845639,0.232702
2.69968,0.345837,-0.110887
2.69873,0.336145,-0.0474705
2.77217,0.208441,0
2.92305,-0.0663329,-0.0340385
2.83614,0.0742672,-0.361127
2.6991,0.336191,0.0158084
2.85497,0.0747604,-0.0165988
2.7602,0.207541,-0.298158
2.78339,0.209284,0.0649507
2.91905,-0.0662422,0.033992
2.76542,0.207933,-0.193923
2.70594,0.337042,0.079359
2.85059,0.0746456,0.0497743
2.7055,0.336988,-0.174732
2.9223,-0.0663158,-0.170231
2.78341,0.209286,0.162557
2.85665,0.0748043,0.116423
2.77316,0.208515,-0.129543
2.7911,0.209864,0.343672
2.85353,0.0747225,0.233028
2.69691,0.335918,-0.110724
2.70789,0.32721,-0.0476102
2.83808,0.063909,-0.0826171
2.77691,0.198564,0
2.93478,-0.0773629,-0.0341782
2.83639,0.063871,-0.361127
2.71222,0.327735,0.0158782
2.85523,0.0642952,-0.0165988
2.76491,0.197705,-0.298587
2.78813,0.199366,0.0650437
2.93078,-0.0772575,0.0341317
2.77811,0.198649,-0.19476
2.71906,0.328561,0.0797081
2.85884,0.0643765,0.0499139
2.70672,0.327069,-0.174732
2.79611,0.199937,0.163254
2.8609,0.0644229,0.116586
2.76992,0.198064,-0.129357
2.85536,0.0642981,-0.149681
2.79977,0.200199,0.344647
2.86175,0.0644421,0.233679
2.71002,0.327468,-0.111212
2.71298,0.318224,-0.04768
2.84628,0.054156,-0.0828498
2.78158,0.189143,0
2.94249,-0.0878435,-0.0342714
2.76034,0.187699,-0.430437
2.8485,0.0541982,-0.362642
2.71732,0.318733,0.0159014
2.86743,0.0545584,-0.0166686
2.76955,0.188325,-0.299015
2.79678,0.190177,0.0652298
2.93849,-0.0877241,0.0342248
2.7748,0.188682,-0.194481
2.72416,0.319535,0.0798244
2.86704,0.054551,0.0500535
2.71181,0.318086,-0.174988
2.79679,0.190177,0.163254
2.8691,0.0545902,0.116911
2.78654,0.18948,-0.130101
2.80045,0.190426,0.344647
2.86595,0.0545301,0.234004
2.71909,0.31894,-0.111538
2.72197,0.31013,-0.0478196
2.78618,0.180175,0
2.94618,-0.0977341,-0.0343179
2.76095,0.178543,-0.430437
2.72632,0.310625,0.0159479
2.8636,0.0449858,-0.0166453
2.77412,0.179395,-0.299443
2.80139,0.181158,0.0653229
2.93818,-0.0974688,0.0342248
2.77541,0.179479,-0.194481
2.86212,0.0449626,-0.233679
2.72521,0.310499,0.0798244
2.87521,0.0451681,0.0501931
2.72078,0.309994,-0.1755
2.87326,0.0451376,0.117074
2.78316,0.17998,-0.129915
2.85972,0.0449249,-0.14989
2.80503,0.181394,0.345134
2.86212,0.0449626,0.233679
2.71219,0.309016,-0.111212
2.72304,0.300626,-0.0478196
2.79079,0.170692,0
2.94982,-0.108165,-0.0343645
2.7655,0.169145,-0.431052
2.71943,0.300228,0.0159014
2.87174,0.0350866,-0.0166918
2.7787,0.169953,-0.299872
2.802,0.171378,0.0653229
2.94982,-0.108165,0.0343645
2.78797,0.17052,-0.195318
2.73025,0.301422,0.0799408
2.87135,0.0350819,0.0501233
2.71788,0.300056,-0.175244
2.8734,0.035107,0.117074
2.78776,0.170507,-0.130101
2.80961,0.171843,0.345621
2.87024,0.0350683,0.23433
2.7212,0.300423,-0.111538
2.72407,0.291119,-0.0478196
2.86268,0.0249815,-0.0833153
2.79536,0.161179,0
2.95742,-0.118783,-0.0344576
2.72842,0.291583,0.0159479
2.87184,0.0250614,-0.0166918
2.77928,0.160252,-0.299872
2.81057,0.162056,0.065509
2.95742,-0.118783,0.0344576
2.78855,0.160786,-0.195318
2.73924,0.292739,0.0801735
2.87545,0.0250929,0.0501931
2.72288,0.290991,-0.1755
2.94862,-0.11843,-0.171859
2.81056,0.162055,0.163952
2.8855,0.0251806,0.117563
2.80031,0.161464,-0.130659
2.81812,0.162491,0.346596
2.87832,0.0251179,0.234981
2.73303,0.282432,-0.0479592
2.7999,0.151638,0
2.96098,-0.129278,-0.0345042
2.7824,0.150691,-0.433511
2.88391,0.0151015,-0.0167616
2.78776,0.150981,-0.300729
2.81112,0.152246,0.065509
2.96497,-0.129452,0.0345507
2.79308,0.151269,-0.195597
2.74422,0.283588,0.0802899
2.88752,0.0151204,0.0504026
2.73182,0.282307,-0.176011
2.88157,0.0150892,0.1174
2.79686,0.151474,-0.130473
2.88237,0.0150934,0.235306
2.73118,0.282241,-0.111864
2.73798,0.273287,-0.048029
2.8044,0.142065,0
2.97249,-0.140179,-0.0346439
2.79081,0.141377,-0.434741
2.73835,0.273324,0.0159944
2.89195,0.00504785,-0.0168081
2.79622,0.141651,-0.301585
2.81962,0.142836,0.0656951
2.9645,-0.139802,0.0345507
2.80156,0.141921,-0.196155
2.74519,0.274007,0.0802899
2.89156,0.00504717,0.0504724
2.73279,0.272769,-0.176011
2.82359,0.143037,0.16465
2.88161,0.0050298,0.1174
2.80137,0.141912,-0.130659
2.82712,0.143216,0.347571
2.89038,0.00504512,0.235957
2.7401,0.273499,-0.112189
2.74688,0.264495,-0.0481686
2.80888,0.132464,0
2.96799,-0.150351,-0.0345973
2.79128,0.131635,-0.434741
2.75123,0.264914,0.0160641
2.89595,-0.00505333,-0.0168313
2.80067,0.132077,-0.302014
2.8241,0.133182,0.0657882
2.97998,-0.150958,0.034737
2.80602,0.13233,-0.196434
2.89038,-0.00504362,-0.235957
2.74613,0.264423,0.0802899
2.89955,-0.00505963,0.050612
2.74564,0.264376,-0.176779
2.83205,0.133557,0.165115
2.8896,-0.00504226,0.117725
2.80983,0.132509,-0.131032
2.83553,0.133721,0.348546
2.89038,-0.00504362,0.235957
2.74104,0.263933,-0.112189
2.74778,0.254904,-0.0481686
2.88274,-0.0150939,-0.0838971
2.82131,0.123181,0
2.97544,-0.161144,-0.0346904
2.79172,0.12189,-0.434741
2.74815,0.254939,0.0160409
2.89991,-0.0151838,-0.0168546
2.80906,0.122646,-0.30287
2.82854,0.123497,0.0658812
2.97943,-0.16136,0.034737
2.81444,0.122881,-0.196992
2.755,0.255574,0.0805226
2.89952,-0.0151817,0.050612
2.7386,0.254052,-0.176267
2.8325,0.12367,0.165115
2.90155,-0.0151924,0.118214
2.81826,0.123048,-0.131404
2.89998,-0.0151841,-0.151984
2.83598,0.123822,0.348546
2.7499,0.255101,-0.112515
2.75264,0.245666,-0.0482385
2.89866,-0.0252967,-0.0843626
2.82572,0.113492,0
2.99083,-0.172451,-0.0348767
2.757,0.246055,0.0160874
2.90784,-0.0253768,-0.016901
2.80947,0.112839,-0.30287
2.98684,-0.17222,0.0348301
2.81884,0.113216,-0.197271
2.75986,0.24631,0.080639
2.90745,-0.0253734,0.0507516
2.7514,0.245555,-0.177034
2.8369,0.113941,0.165347
2.90948,-0.0253911,0.11854
2.82266,0.113369,-0.13159
2.84036,0.11408,0.349034
2.90223,-0.0253279,0.236933
2.75476,0.245855,-0.112678
2.83295,0.113782,-0.0659743
2.75746,0.236398,-0.0483083
2.89456,-0.0353653,-0.0842462
2.8301,0.103775,0
2.75784,0.23643,0.0160874
2.91173,-0.0355752,-0.0169243
2.81382,0.103178,-0.303299
2.83732,0.10404,0.0660673
2.9942,-0.183133,0.0349233
2.8232,0.103522,-0.19755
2.76867,0.237359,0.0808717
2.91934,-0.0356681,0.050961
2.76019,0.236632,-0.177546
2.84127,0.104185,0.16558
2.91337,-0.0355951,0.118702
2.82703,0.103663,-0.131776
2.84868,0.104456,0.350009
2.90612,-0.0355065,0.237259
2.76356,0.236921,-0.113003
2.76226,0.227098,-0.0483781
2.90241,-0.0455954,-0.0844789
3.00153,-0.194101,-0.0350164
2.76662,0.227457,0.0161339
2.91959,-0.0458652,-0.0169708
2.82609,0.0937504,-0.304584
2.84167,0.0942672,0.0661604
3.00153,-0.194101,0.0350164
2.82355,0.0936661,-0.19755
2.76498,0.227322,-0.177802
2.8496,0.0945304,0.166045
2.90923,-0.0457024,0.11854
2.83936,0.0941906,-0.132335
2.85299,0.0946429,0.350496
2.76437,0.227272,-0.113003
2.77097,0.218567,-0.0485177
2.91024,-0.0553714,-0.0847116
2.83074,0.0845088,0
3.00486,-0.204324,-0.0350629
2.77932,0.219225,0.0162036
2.92342,-0.0556222,-0.016994
2.83433,0.0846161,-0.305441
2.84596,0.0849633,0.0662534
2.8398,0.0847792,-0.198666
2.77421,0.218822,0.080988
2.92702,-0.0556908,0.0511006
2.7697,0.218466,-0.178058
2.8499,0.0850808,0.166045
2.92504,-0.0556531,0.119191
2.84365,0.0848942,-0.132521
2.86123,0.085419,0.351471
2.76511,0.218104,-0.113003
2.84596,0.0849633,-0.0662534
2.77567,0.209677,-0.0485875
2.92203,-0.0652906,-0.0850607
2.847,0.0755449,0
3.00815,-0.214573,-0.0351095
2.77604,0.209705,0.0161804
2.83857,0.0753214,-0.305869
2.85422,0.0757366,0.0664395
3.00815,-0.214573,0.0351095
2.84006,0.0753609,-0.198666
2.78289,0.210223,0.0812208
2.93482,-0.0655763,0.0512403
2.76643,0.208979,-0.177802
2.86214,0.0759467,0.166743
2.92884,-0.0654427,0.119354
2.86943,0.0761402,0.352446
2.7698,0.209234,-0.113166
2.85422,0.0757366,-0.0664395
2.77642,0.199503,-0.0485875
2.93377,-0.076311,-0.0854098
2.85125,0.0652019,0
3.01931,-0.226493,-0.0352492
2.78876,0.20039,0.0162501
2.93896,-0.076446,-0.017087
2.83883,0.0649178,-0.305869
2.86248,0.0654585,0.0666256
2.8483,0.0651343,-0.199224
2.78763,0.200309,0.0813371
2.77116,0.199125,-0.178058
2.8624,0.0654568,0.166743
2.94057,-0.0764878,0.119842
2.85216,0.0652226,-0.132893
2.87763,0.0658051,0.353421
2.77454,0.199368,-0.113329
2.85848,0.0653671,-0.0665326
2.77706,0.190295,-0.0485875
2.9295,-0.085922,-0.0852934
2.85545,0.0558247,0
3.01854,-0.236504,-0.0352492
2.78941,0.191141,0.0162501
2.94269,-0.0863088,-0.0171103
2.84698,0.0556591,-0.306726
2.85868,0.0558877,0.0665326
2.85249,0.0557667,-0.199504
2.79626,0.19161,0.0815699
2.93829,-0.0861798,0.0513101
2.77977,0.19048,-0.178569
2.8626,0.0559644,0.166743
2.93231,-0.0860043,0.119517
2.85636,0.0558423,-0.133079
2.87386,0.0561846,0.352934
2.78316,0.190713,-0.113655
2.86268,0.0559659,-0.0666256
2.78572,0.180633,-0.0487271
2.93316,-0.0967905,-0.0854098
2.86364,0.0454856,0
3.02962,-0.248547,-0.0353889
2.79409,0.181175,0.0162734
2.94635,-0.0972256,-0.0171335
2.85512,0.0453503,-0.307583
2.86286,0.0454732,0.0666256
2.85267,0.0453114,-0.199504
2.80093,0.181619,0.0816862
2.95394,-0.0974762,0.0515893
2.78841,0.180807,-0.179081
2.87876,0.0457257,0.167673
2.94395,-0.0971466,0.120005
2.86453,0.0454997,-0.133451
2.78783,0.180769,-0.113818
2.86686,0.0455368,-0.0667187
2.78634,0.170908,-0.0487271
2.94479,-0.107466,-0.0857589
2.86778,0.0355389,0
2.79869,0.171666,0.0162966
2.86322,0.0354823,-0.30844
2.875,0.0356284,0.0669048
2.86478,0.0355018,-0.200341
2.80155,0.171841,0.0816862
2.79301,0.171317,-0.179337
2.88289,0.0357262,0.167906
2.95159,-0.107714,0.120331
2.87266,0.0355994,-0.133824
2.79243,0.171282,-0.11398
2.875,0.0356284,-0.0669048
2.79487,0.16213,-0.0488667
2.94842,-0.11739,-0.0858753
2.87588,0.0261014,0
2.80324,0.162616,0.0163199
2.8791,0.0261306,0.0669978
2.86888,0.0260378,-0.20062
2.81008,0.163013,0.0819189
2.9652,-0.118058,0.0517987
2.79356,0.162054,-0.179337
2.88699,0.0262022,0.168138
2.9592,-0.117819,0.120656
2.79298,0.162021,-0.11398
2.8791,0.0261306,-0.0669978
2.79944,0.152103,-0.0489365
2.95196,-0.128369,-0.0859916
2.87996,0.0155822,0
2.96515,-0.128943,-0.0172498
2.87135,0.0155356,-0.309296
2.89118,0.0156429,0.067277
2.87693,0.0155659,-0.201178
2.81466,0.152929,0.0820353
2.96874,-0.129099,0.0518686
2.79414,0.151814,-0.179337
2.88707,0.0156207,0.168138
2.97073,-0.129185,0.121145
2.79755,0.152,-0.114143
2.88318,0.0155996,-0.0670909
2.80395,0.142533,-0.0490064
2.95948,-0.139048,-0.0862243
2.888,0.00554456,0
2.81232,0.142958,0.0163664
2.87536,0.00552031,-0.309725
2.89121,0.00555074,0.067277
