3.45314,0.988215,-0.0418148
3.44485,0.973496,-0.0416751
3.43667,0.958241,-0.0415354
3.44016,0.94564,-0.0415354
3.43153,0.931684,-0.0413957
3.4309,0.918665,-0.0413491
3.41544,0.914527,0.0411629
3.43304,0.919239,-0.206975
3.4149,0.900982,-0.0411163
3.42264,0.903023,0.0412094
3.43639,0.90665,-0.206975
3.414,0.888645,-0.0410697
3.42174,0.89066,0.0411629
3.42778,0.892231,-0.206277
3.40933,0.874733,-0.0409766
3.41708,0.876722,0.0410697
3.42314,0.878275,-0.205812
3.41624,0.863809,-0.0410232
3.40461,0.860867,0.0408835
3.42231,0.865342,-0.20558
3.40386,0.847416,-0.0408369
3.39998,0.846449,0.0407904
3.41384,0.849898,-0.204882
3.39889,0.834219,-0.0407438
3.39889,0.834219,0.0407438
3.41663,0.838575,-0.204882
3.40178,0.822349,-0.0407438
3.394,0.820469,0.0406507
3.41178,0.824766,-0.204417
3.44442,0.999396,-0.104377
3.40088,0.80895,-0.0406972
3.42126,0.813798,-0.328278
3.40088,0.80895,0.0406972
3.39924,0.808561,-0.203487
3.40354,0.797667,-0.0406972
3.41618,0.800629,-0.327535
3.39965,0.796754,0.0406507
3.4019,0.797283,-0.203487
3.44345,0.973749,-0.104144
3.39851,0.783982,-0.0406041
3.4487,0.975234,-0.0208299
3.41119,0.786908,-0.326791
3.39461,0.783083,0.0405575
3.40077,0.784505,-0.203254
3.43528,0.958502,-0.103795
3.39342,0.770346,-0.040511
3.44438,0.961042,-0.0207834
3.40615,0.773235,-0.326048
3.39732,0.771232,0.0405575
3.3957,0.770863,-0.202789
3.43475,0.945443,-0.103679
3.38438,0.75588,-0.0403713
3.43614,0.945827,-0.0207137
3.40494,0.760472,-0.325676
3.39219,0.757623,0.0404644
3.39447,0.758134,-0.202556
3.45075,0.949848,-0.187572
3.42629,0.930902,-0.10333
3.39078,0.745511,-0.0404178
3.42768,0.93128,-0.0206439
3.40356,0.74832,-0.325304
3.39078,0.745511,0.0404178
3.38527,0.7443,-0.201859
3.42581,0.917304,-0.103213
3.38176,0.730545,-0.0402782
3.4388,0.920781,-0.0206904
3.3946,0.733319,-0.324189
3.38407,0.731045,-0.201626
3.44572,0.922634,-0.186944
3.42126,0.903298,-0.10298
3.38037,0.717904,-0.0402316
3.43039,0.905707,-0.0206207
3.38935,0.719809,-0.323445
3.38037,0.717904,0.0402316
3.42993,0.905585,0.0619211
3.3827,0.718397,-0.201394
3.43733,0.907541,-0.186316
3.41666,0.889336,-0.102748
3.37894,0.705283,-0.040185
3.42966,0.892721,-0.0205974
3.38794,0.707161,-0.323074
3.37894,0.705283,0.040185
3.41758,0.889578,0.0616419
3.38128,0.70577,-0.201161
3.43275,0.893525,-0.185897
3.41571,0.877008,-0.102631
3.37735,0.693271,-0.0401385
3.42485,0.879354,-0.0205509
3.39026,0.695923,-0.323074
3.37343,0.692467,0.0400919
3.41664,0.877246,0.0615721
3.37577,0.692948,-0.200696
3.40728,0.861541,-0.102282
3.37594,0.680097,-0.0400919
3.4203,0.864833,-0.0205044
3.38108,0.681131,-0.321958
3.37202,0.679307,0.0400453
3.4082,0.861775,0.0613627
3.37829,0.68057,-0.200696
3.37033,0.667343,-0.0399988
3.4115,0.850582,-0.0204347
3.37941,0.669141,-0.321587
3.37033,0.667343,0.0399988
3.42346,0.853563,-0.28803
3.40716,0.8495,0.0612928
3.36878,0.667035,-0.199998
3.42626,0.854263,-0.18506
3.41057,0.837716,-0.0204114
3.36609,0.654302,-0.320099
3.41867,0.839707,-0.287379
3.40622,0.836648,0.061223
3.37109,0.655273,-0.199998
3.41759,0.83944,-0.184432
3.36705,0.642299,-0.0399056
3.40958,0.824864,-0.0203882
3.36835,0.642547,-0.320099
3.36312,0.641549,0.0398591
3.40996,0.824955,-0.286403
3.40135,0.822871,0.0610834
3.36551,0.642004,-0.199533
3.40293,0.823254,0.142638
3.4205,0.827505,-0.184432
3.36141,0.629073,-0.0398125
3.40855,0.812032,-0.0203649
3.36666,0.630055,-0.319728
3.35748,0.628337,0.0397659
3.41282,0.813049,-0.286403
3.39642,0.809142,0.0609438
3.36773,0.630255,-0.199533
3.40189,0.810447,0.142476
3.41559,0.81371,-0.184013
3.39051,0.795238,-0.101351
3.40357,0.798302,-0.0203185
3.36492,0.61758,-0.319356
3.35178,0.615168,0.0396728
3.40787,0.79931,-0.285752
3.39533,0.796367,0.060874
3.35812,0.616332,-0.198835
3.40081,0.797654,0.142313
3.41063,0.799958,-0.183595
3.3553,0.603713,-0.318241
3.34997,0.602755,0.0396262
3.41064,0.787408,-0.285752
3.39809,0.78451,0.060874
3.36026,0.604605,-0.198835
3.39579,0.783979,0.141987
3.44101,0.973707,-0.166581
3.43656,0.959506,0
3.40126,0.772749,-0.020272
3.35346,0.591307,-0.317869
3.34418,0.58967,0.0395331
3.40559,0.773733,-0.285101
3.3969,0.771758,0.0608042
3.35448,0.591486,-0.19837
3.39071,0.77035,0.141661
3.44054,0.960616,-0.166395
3.40055,0.772588,-0.182757
3.43956,0.948706,0
3.39587,0.760312,-0.0202255
3.35923,0.581448,-0.318241
3.34208,0.578479,0.0394866
3.38856,0.758675,-0.283474
3.39151,0.759336,0.0606646
3.35632,0.580945,-0.19837
3.43584,0.947679,-0.166023
3.39907,0.761029,-0.182548
3.37786,0.74267,-0.100653
3.34822,0.566309,-0.0395331
3.35358,0.567216,-0.317497
3.34033,0.564975,0.03944
3.39534,0.746514,-0.283799
3.37877,0.742871,0.0603853
3.35459,0.567387,-0.198138
3.38429,0.744085,0.141173
3.43559,0.93343,-0.165837
3.39806,0.747113,-0.182338
3.37652,0.73003,-0.100537
3.43097,0.919326,0
3.38962,0.732863,-0.0201557
3.35554,0.555507,-0.317497
3.33833,0.552659,0.0393934
3.39013,0.732973,-0.283148
3.38134,0.731074,0.0603853
3.34867,0.55437,-0.197673
3.43497,0.920399,-0.165651
3.39675,0.734403,-0.182129
3.43384,0.908542,0
3.33611,0.541526,-0.0393469
3.3881,0.721399,-0.440929
3.34548,0.543048,-0.316382
3.33611,0.541526,0.0393469
3.38462,0.720658,-0.282497
3.38362,0.720446,0.0603853
3.34645,0.543206,-0.19744
3.37352,0.718294,0.140522
3.42626,0.906536,-0.165092
3.39122,0.722064,-0.18171
3.42904,0.907273,-0.0825376
3.42151,0.892512,0
3.3906,0.709569,-0.440929
3.33949,0.530118,-0.315638
3.32612,0.527997,0.0392072
3.42862,0.894367,-0.247775
3.38321,0.708023,-0.282172
3.37829,0.706993,0.0602457
3.34439,0.530896,-0.197208
3.376,0.706515,0.140522
3.43327,0.89558,-0.165279
3.3859,0.708586,-0.181292
3.36415,0.691787,-0.0999551
3.3319,0.516998,-0.0392537
3.38917,0.696931,-0.440424
3.34525,0.519069,-0.31601
3.42368,0.880326,0.0822585
3.32004,0.515158,0.039114
3.42399,0.880407,-0.247217
3.38176,0.695407,-0.281847
3.37682,0.694391,0.0601759
3.37453,0.693922,0.140359
3.4325,0.882596,-0.165092
3.42755,0.881322,-0.0823515
3.42378,0.867621,0
3.32973,0.504764,-0.0392072
3.3838,0.683524,-0.439413
3.41898,0.866404,0.0820724
3.32578,0.504164,0.0391606
3.41931,0.866488,-0.246659
3.37635,0.682018,-0.281196
3.36746,0.680223,0.0599665
3.43169,0.869626,-0.164906
3.42285,0.867387,-0.0821654
3.3196,0.49138,-0.0390675
3.37838,0.670163,-0.438403
3.34091,0.494535,-0.315266
3.41422,0.852526,0.0818863
3.31565,0.490794,0.0390209
3.41844,0.85358,-0.24638
3.37089,0.668676,-0.280545
3.36589,0.667685,0.0598967
3.33001,0.492921,-0.196045
3.41034,0.851557,-0.0817932
3.4181,0.840831,0
3.32526,0.480362,-0.039114
3.37681,0.657608,-0.437898
3.36866,0.656022,-0.0199465
3.40941,0.838693,0.0817001
3.31338,0.478646,0.0389743
3.41365,0.839736,-0.245822
3.3732,0.656906,-0.280545
3.36035,0.654404,0.059757
3.32776,0.480724,-0.195812
3.362,0.654725,0.139545
3.41828,0.840875,-0.163976
3.41329,0.839649,-0.0817932
3.35778,0.641744,-0.0994896
3.40935,0.826068,0
3.31899,0.467635,-0.0390209
3.37908,0.645816,-0.437898
3.40066,0.823961,0.081421
3.31107,0.466519,0.0389278
3.40492,0.824996,-0.244985
3.37547,0.645126,-0.280545
3.36262,0.642669,0.059757
3.32942,0.469104,-0.195812
3.35641,0.641484,0.139219
3.41343,0.827055,-0.163603
3.40843,0.825845,-0.0816071
3.34821,0.627811,-0.0991405
3.30872,0.454416,-0.0388812
3.37741,0.633288,-0.437393
3.33013,0.457357,-0.313779
3.39573,0.810232,0.0812349
3.30079,0.453328,0.0387881
3.40778,0.813107,-0.244985
3.36203,0.630403,-0.279243
3.4124,0.81421,-0.163417
3.4074,0.813016,-0.081514
3.44028,0.988434,-0.0624796
3.35027,0.616704,-0.0991405
3.40711,0.801013,0
3.3102,0.44344,-0.0388812
3.36779,0.619929,-0.435878
3.39061,0.797136,0.0810488
3.30228,0.442378,0.0387881
3.39881,0.799062,-0.244148
3.3641,0.61925,-0.279243
3.35511,0.617595,0.0595476
3.35284,0.617177,0.138893
3.4112,0.801974,-0.163231
3.32881,0.612754,0.276314
3.44563,0.989972,-0.146058
3.40619,0.800796,-0.081421
3.43986,0.975327,-0.0624098
3.34847,0.604295,-0.0990242
3.39819,0.786409,0
3.30777,0.431365,-0.0388347
3.36603,0.607464,-0.435373
3.35377,0.605251,-0.019807
3.38948,0.784393,0.0809557
3.3038,0.430848,0.0387881
3.40158,0.787192,-0.244148
3.3584,0.606086,-0.278592
3.35331,0.605169,0.0594778
3.31823,0.43273,-0.194882
3.35104,0.604759,0.13873
3.40619,0.788259,-0.162859
3.36495,0.607269,-0.179198
3.32701,0.600422,0.275988
3.39727,0.786196,-0.0811418
3.43956,0.961637,-0.06234
3.33885,0.589932,-0.0986751
3.30139,0.418234,-0.0387415
3.36432,0.594433,-0.434868
3.37674,0.768416,0.0805835
3.29742,0.417731,0.038695
3.36059,0.593774,-0.278592
3.34763,0.591483,0.0593382
3.31583,0.420064,-0.194649
3.37972,0.769096,0.201859
3.34143,0.590388,0.138242
3.39737,0.773111,-0.162301
3.32134,0.586837,0.275337
3.43723,0.960986,-0.145406
3.40403,0.774627,-0.0812349
3.4392,0.947962,-0.0622702
3.34493,0.578372,-0.0987915
3.38435,0.757113,0
3.3029,0.406132,-0.0387415
3.36257,0.581423,-0.434363
3.41146,0.763177,-0.376553
3.37563,0.755162,0.0804905
3.29099,0.404667,0.0386018
3.35882,0.580774,-0.278267
3.34583,0.578529,0.0592684
3.30943,0.406934,-0.194184
3.37473,0.754961,0.201394
3.33963,0.577456,0.138079
3.38848,0.758038,-0.161742
3.32346,0.574661,0.275337
3.43688,0.94732,-0.145244
3.39904,0.7604,-0.0810488
3.43445,0.93505,-0.0621306
3.34673,0.56786,-0.0987915
3.38671,0.746476,0
3.29224,0.394325,-0.0386018
3.35656,0.569527,-0.433353
3.30985,0.396434,-0.311177
3.37798,0.744552,0.0804905
3.29224,0.394325,0.0386018
3.38625,0.746375,-0.242473
3.35277,0.568884,-0.277616
3.34369,0.567345,0.0591986
3.31069,0.396534,-0.194184
3.36928,0.742635,0.200928
3.33355,0.565624,0.137753
3.39085,0.747388,-0.161742
3.43212,0.934417,-0.144918
3.39751,0.748856,-0.0809557
3.42996,0.920982,-0.061991
3.33291,0.553554,-0.098326
3.38929,0.73465,0
3.2936,0.382832,-0.0386018
3.35852,0.557808,-0.433353
3.36884,0.730216,0.0802113
3.28963,0.38237,0.0385553
3.38104,0.732861,-0.241915
3.3508,0.556525,-0.27729
3.33776,0.55436,0.0590589
3.36795,0.730024,0.200696
3.33156,0.55333,0.137591
3.39343,0.735547,-0.161742
3.39228,0.735299,-0.0807696
3.42156,0.905932,-0.0617815
3.33483,0.541916,-0.098326
3.37228,0.718646,0
3.29094,0.370884,-0.0385553
3.35262,0.544807,-0.432342
3.39178,0.722801,-0.373555
3.37136,0.718451,0.0802113
3.28697,0.370436,0.0385087
3.42665,0.90728,-0.227177
3.2975,0.371623,-0.193254
3.36657,0.71743,0.200463
3.33347,0.541696,0.137591
3.38816,0.722031,-0.16137
3.42311,0.906342,-0.144267
3.39092,0.722619,-0.0806766
3.42083,0.892972,-0.0617117
3.32485,0.528389,-0.0979769
3.37085,0.706049,0
3.28824,0.358959,-0.0385087
3.3545,0.5331,-0.432342
3.3341,0.529859,-0.019621
3.39428,0.710957,-0.373555
3.30194,0.360455,-0.310061
3.36211,0.704218,0.0799322
3.28824,0.358959,0.0385087
3.37826,0.707601,-0.241357
3.42594,0.894304,-0.226921
3.29084,0.359243,-0.192789
3.36124,0.704036,0.199998
3.3235,0.528174,0.137102
3.37502,0.706922,-0.160625
3.41852,0.892368,-0.143941
3.38559,0.709137,-0.0804905
3.41231,0.878037,-0.0615023
3.32667,0.51678,-0.0979769
3.28152,0.346639,-0.0384156
3.35242,0.520779,-0.431837
3.33198,0.517604,-0.0195978
3.39285,0.698303,-0.373126
3.36455,0.692479,0.0799322
3.27754,0.346219,0.038369
3.34463,0.519569,-0.276314
3.40364,0.875806,0.102282
3.33153,0.517534,0.0588495
3.42517,0.881346,-0.226666
3.29605,0.348173,-0.193022
3.36368,0.692299,0.199998
3.32138,0.515957,0.136939
3.37355,0.694332,-0.160439
3.41387,0.878438,-0.143615
3.41148,0.865136,-0.0614325
3.32055,0.503964,-0.0977442
3.36001,0.679328,0
3.27077,0.333962,-0.0382759
3.32981,0.505369,-0.0195745
3.38747,0.684878,-0.372269
3.36303,0.679937,0.0798391
3.27475,0.334369,0.0383224
3.34248,0.507292,-0.275988
3.42049,0.867421,-0.226154
3.29327,0.33626,-0.192789
3.36216,0.679762,0.199766
3.31525,0.50316,0.136614
3.37596,0.682551,-0.160439
3.40283,0.850316,-0.061223
3.32625,0.492958,-0.0978606
3.34839,0.49624,-0.676997
3.35844,0.666818,0
3.27192,0.322545,-0.0382759
3.3442,0.495619,-0.430322
3.38204,0.671503,-0.371413
3.36538,0.668196,0.0798391
3.26794,0.322153,0.0382293
3.36059,0.667246,0.199533
3.31699,0.491587,0.136614
3.37048,0.669209,-0.160067
3.33495,0.494248,-0.176686
3.28926,0.487477,0.606267
3.31212,0.479055,-0.0973951
3.3501,0.484549,-0.676997
3.3529,0.65356,0
3.27302,0.311122,-0.0382759
3.34198,0.483373,-0.429817
3.31742,0.479822,-0.0194815
3.37655,0.658171,-0.370556
3.36376,0.655678,0.079746
3.27302,0.311122,0.0382759
3.32093,0.480329,0.0585703
3.41095,0.839705,-0.225131
3.27963,0.31175,-0.191859
3.35898,0.654746,0.199301
3.31077,0.47886,0.136288
3.35711,0.654381,-0.159323
3.40736,0.83882,-0.142964
3.28704,0.475428,0.605549
3.30981,0.466931,-0.0972787
3.34012,0.471207,-0.674644
3.27011,0.299329,-0.0382293
3.33972,0.47115,-0.429312
3.3936,0.822879,0.0202952
3.31908,0.468238,-0.0194815
3.37492,0.645632,-0.370127
3.35032,0.640926,0.0793738
3.27011,0.299329,0.0382293
3.33182,0.470035,-0.274686
3.31863,0.468175,0.0585005
3.2807,0.300299,-0.191859
3.34556,0.640015,0.19837
3.2966,0.465066,0.135637
3.39585,0.811513,-0.0609438
3.30738,0.455409,-0.0971624
3.33778,0.459595,-0.673859
3.34547,0.628508,0
3.27108,0.288486,-0.0382293
3.32947,0.458451,-0.427797
3.31665,0.456686,-0.0194583
3.37314,0.633705,-0.369699
3.35243,0.629815,0.0793738
3.26311,0.287783,0.0381362
3.3162,0.456624,0.0584307
3.40883,0.814614,-0.224619
3.2777,0.28907,-0.191626
3.35159,0.629657,0.198603
3.30208,0.454679,0.135799
3.35363,0.630041,-0.15895
3.27461,0.450897,0.602679
3.39477,0.798738,-0.060874
3.30895,0.443861,-0.0971624
3.33548,0.447419,-0.673075
3.34371,0.616101,0
3.25613,0.275715,-0.0380431
3.32712,0.446297,-0.427292
3.38744,0.797014,0.0202255
3.37142,0.621205,-0.369271
3.35461,0.618108,0.0793738
3.25613,0.275715,0.0380431
3.32308,0.445756,-0.27371
3.30985,0.443981,0.058291
3.39999,0.799967,-0.223851
3.27869,0.277626,-0.191626
3.34984,0.617229,0.19837
3.29572,0.442086,0.135474
3.34795,0.616881,-0.158578
3.39247,0.798197,-0.141987
3.39002,0.783894,-0.0607344
3.30667,0.430635,-0.097046
3.32939,0.433595,-0.671506
3.33818,0.601837,0
3.26115,0.263532,-0.0380896
3.36463,0.606605,-0.531897
3.32094,0.432493,-0.426282
3.38268,0.782198,0.020179
3.36986,0.607549,-0.368842
3.34908,0.603803,0.0791877
3.25716,0.26321,0.0380431
3.3036,0.430235,0.0581514
3.27177,0.26439,-0.191161
3.34825,0.603653,0.198138
3.29343,0.428912,0.135311
3.34243,0.602603,-0.158206
3.30022,0.418084,-0.0968133
3.33478,0.422462,-0.67229
3.33632,0.589484,0
3.25806,0.251837,-0.0380431
3.35894,0.59348,-0.530667
3.31849,0.420399,-0.425776
3.30552,0.418757,-0.0193653
3.3563,0.593013,-0.367129
3.34723,0.591412,0.0790947
3.25806,0.251837,0.0380431
3.3902,0.771478,-0.222828
3.26869,0.25266,-0.190929
3.34248,0.590571,0.197673
3.29888,0.417914,0.135474
3.34845,0.591626,-0.158392
3.35511,0.592803,-0.0792808
3.28961,0.406244,-0.0964642
3.32441,0.410542,-0.669937
3.33816,0.579,0
3.25485,0.241306,-0.0379965
3.35689,0.58225,-0.530052
3.31979,0.409972,-0.425776
3.37609,0.75712,0.0201092
3.30682,0.408371,-0.0193653
3.35031,0.581108,-0.366272
3.27275,0.242633,-0.306344
3.3412,0.579527,0.0789086
3.25485,0.241306,0.0379965
3.29844,0.407335,0.0580118
3.38871,0.75995,-0.222572
3.26549,0.242095,-0.190696
3.34038,0.579386,0.19744
3.29224,0.406569,0.135148
3.34242,0.579739,-0.15802
3.26887,0.403683,0.600527
3.28704,0.394284,-0.0963479
3.32972,0.399403,-0.670721
3.25168,0.229662,-0.0379499
3.31726,0.397909,-0.425271
3.37871,0.745331,0.0201092
3.29631,0.395397,-0.0192956
3.35232,0.56941,-0.366272
3.33531,0.566522,0.0787225
3.2437,0.229098,0.0378568
3.36953,0.743306,0.100421
3.29984,0.395819,0.0580118
3.38354,0.746398,-0.222061
3.25835,0.230133,-0.190231
3.33451,0.566386,0.196975
3.28173,0.393648,0.13466
3.33654,0.566731,-0.157647
3.32309,0.564446,0.413868
3.26635,0.391803,0.599809
3.34714,0.568531,-0.0790016
3.29236,0.383269,-0.0964642
3.3194,0.386416,-0.668368
3.33028,0.553713,0
3.24448,0.217773,-0.0378568
3.34528,0.556207,-0.527593
3.31075,0.385409,-0.424261
3.37347,0.731836,0.0200627
3.34251,0.555747,-0.364987
3.33727,0.554875,0.0787225
3.24448,0.217773,0.0378568
3.3066,0.384926,-0.271757
3.29326,0.383373,0.0578722
3.25515,0.218489,-0.189998
3.33647,0.554742,0.196975
3.28309,0.382189,0.13466
3.3385,0.55508,-0.157647
3.32112,0.552191,0.413381
3.2677,0.380398,0.599809
3.28176,0.370429,-0.0961151
3.31294,0.373948,-0.666799
3.3243,0.540801,0
3.24123,0.206193,-0.0378102
3.30813,0.373406,-0.423756
3.36818,0.718388,0.0200162
3.29502,0.371926,-0.0192723
3.34443,0.544077,-0.364987
3.24522,0.206447,0.0378568
3.28265,0.37053,0.0576628
3.25191,0.206872,-0.189766
3.32656,0.541169,0.196277
3.2844,0.370727,0.13466
3.33647,0.542782,-0.157461
3.31911,0.539958,0.412893
3.26901,0.36899,0.599809
3.28303,0.358972,-0.0961151
3.32222,0.528566,0
3.24193,0.194879,-0.0378102
3.30547,0.361425,-0.423251
3.36676,0.705806,0.019993
3.33846,0.53115,-0.36413
3.32921,0.52968,0.0784433
3.24193,0.194879,0.0378102
3.2879,0.359504,0.0577326
3.24862,0.195281,-0.189533
3.32448,0.528927,0.196045
3.2817,0.358827,0.134497
3.33046,0.529877,-0.157089
3.31706,0.527745,0.412406
3.25854,0.356294,0.597657
3.33711,0.530937,-0.0786294
3.28029,0.347088,-0.0959988
3.31547,0.35081,-0.666799
3.32404,0.516965,0
3.24658,0.183786,-0.0378568
3.33921,0.519324,-0.525748
3.29882,0.349049,-0.422241
3.28163,0.34723,-0.0191793
3.33243,0.51827,-0.363273
3.26058,0.184579,-0.304857
3.31919,0.516211,0.0781642
3.2386,0.183334,0.0377637
3.32383,0.516933,-0.235219
3.36,0.692154,0.0998387
3.2772,0.346762,0.0575231
3.24928,0.183939,-0.189533
3.32236,0.516705,0.195812
3.27101,0.346106,0.134008
3.32439,0.51702,-0.156717
3.25585,0.344502,0.59694
3.33499,0.518669,-0.0785364
3.31277,0.338837,-0.666014
3.31792,0.504158,0
3.24321,0.172241,-0.0378102
3.33318,0.506478,-0.524518
3.29607,0.337129,-0.421736
3.35984,0.679905,0.0199232
3.28282,0.335773,-0.0191793
3.33029,0.506038,-0.362845
3.25723,0.172985,-0.304485
3.31702,0.504022,0.0780711
3.23123,0.171605,0.0376705
3.36867,0.681691,-0.22027
3.24592,0.172385,-0.189301
3.3202,0.504505,0.19558
3.2722,0.334687,0.134008
3.32222,0.504813,-0.156531
3.30888,0.502786,0.410943
3.24529,0.331935,0.594787
3.35781,0.667302,-0.059757
3.2707,0.323,-0.0956497
3.31003,0.326884,-0.66523
3.31966,0.492572,0
3.22781,0.160125,-0.037624
3.29328,0.32523,-0.421231
3.35435,0.666612,0.0198767
3.27999,0.323918,-0.0191561
3.33203,0.494409,-0.362845
3.32271,0.493026,0.0781642
3.23181,0.160324,0.0376705
3.31946,0.492544,-0.234661
3.29297,0.3252,-0.27013
3.27158,0.323088,0.0573835
3.3632,0.668371,-0.219758
3.31404,0.491739,0.195115
3.26539,0.322477,0.133683
3.32396,0.493212,-0.156531
3.30669,0.490649,0.410456
3.25818,0.321764,0.59694
3.35227,0.654044,-0.0596174
3.27181,0.311581,-0.0956497
3.30724,0.314956,-0.664445
3.3174,0.480408,0
3.22835,0.148856,-0.037624
3.29044,0.313356,-0.420726
3.27712,0.312087,-0.0191328
3.32587,0.481634,-0.361988
3.3165,0.480278,0.0779781
3.22835,0.148856,0.037624
3.29012,0.313325,-0.269805
3.26473,0.310907,0.0572439
3.23906,0.14935,-0.188836
3.31178,0.479595,0.194882
3.25854,0.310318,0.133357
3.32171,0.481033,-0.156345
3.29267,0.476827,0.408506
3.24361,0.308896,0.59407
3.32837,0.481997,-0.0782572
3.30051,0.302695,-0.662876
3.31509,0.468268,0
3.22485,0.137418,-0.0375774
3.28362,0.301145,-0.419716
3.27022,0.299917,-0.0190863
3.32359,0.469468,-0.36156
3.31419,0.468141,0.077885
3.22885,0.137589,0.037624
3.31492,0.468243,-0.234103
3.2658,0.299511,0.0572439
3.35602,0.642625,-0.218991
3.23957,0.138045,-0.188836
3.30158,0.466358,0.194184
3.26757,0.299673,0.133683
3.32337,0.469437,-0.156345
3.28568,0.301335,-0.172918
3.29824,0.465888,0.408994
3.24752,0.297835,0.266225
3.35619,0.642658,-0.139219
3.31815,0.4687,-0.0779781
3.29764,0.290827,-0.662092
3.30878,0.455601,0
3.22531,0.12616,-0.0375774
3.28069,0.289332,-0.419211
3.27125,0.288499,-0.0190863
3.32521,0.457863,-0.36156
3.29996,0.454387,0.0775128
3.22931,0.126316,0.037624
3.31258,0.456124,-0.233824
3.34406,0.628241,0.0990242
3.2708,0.28846,0.0573137
3.35824,0.630905,-0.218991
3.24003,0.126735,-0.188836
3.30318,0.45483,0.194184
3.25665,0.287212,0.133194
3.31707,0.456742,-0.155972
3.29592,0.453829,0.408506
3.35056,0.629462,-0.138893
3.3432,0.616007,-0.0593382
3.29864,0.279315,-0.662092
3.30242,0.442985,0
3.22574,0.114901,-0.0375774
3.28168,0.277879,-0.419211
3.26825,0.276742,-0.0190631
3.3189,0.445196,-0.360703
3.23985,0.115404,-0.302626
3.30153,0.442865,0.0775128
3.21374,0.114474,0.0374377
3.30624,0.443498,-0.233266
3.2813,0.277847,-0.268828
3.33837,0.615116,0.0987915
3.26382,0.276367,0.0571741
3.35257,0.617733,-0.218479
3.23247,0.115141,-0.18837
3.30475,0.443298,0.194184
3.25763,0.275843,0.133194
3.31469,0.44463,-0.155786
3.28961,0.441267,0.407531
3.35273,0.617763,-0.138893
3.31738,0.444992,-0.077885
3.3414,0.603622,-0.0592684
3.29568,0.267481,-0.661308
3.29998,0.430936,0
3.21812,0.103383,-0.0374843
3.28263,0.266422,-0.419211
3.26122,0.264684,-0.0190166
3.31649,0.433092,-0.360274
3.29909,0.43082,0.0774197
3.21412,0.103255,0.0374377
3.30381,0.431436,-0.232987
3.27033,0.265423,-0.267852
3.25679,0.264324,0.0570345
3.35471,0.606026,-0.218479
3.23285,0.103856,-0.18837
3.2944,0.430207,0.193487
3.25459,0.264146,0.133031
3.30829,0.432022,-0.155414
3.28719,0.429266,0.407044
3.31098,0.432373,-0.0776989
3.33955,0.591256,-0.0591986
3.28486,0.255063,-0.658954
3.29353,0.418405,0
3.21446,0.0920337,-0.0374377
3.26772,0.253732,-0.41719
3.26213,0.253297,-0.0190166
3.32193,0.422013,-0.360703
3.30454,0.419804,0.0775128
3.20647,0.0918047,0.0373446
3.3053,0.419901,-0.232987
3.27521,0.254314,-0.268177
3.33077,0.589702,0.0984424
3.25371,0.252644,0.0569647
3.34894,0.592919,-0.217967
3.29588,0.418704,0.193487
3.25549,0.252782,0.133031
3.30978,0.42047,-0.155414
3.28867,0.417788,0.407044
3.31247,0.420812,-0.0776989
3.33361,0.578811,-0.0590589
3.25365,0.241788,-0.0949515
3.28178,0.243879,-0.65817
3.29887,0.407973,0
3.21875,0.0814754,-0.0374843
3.26854,0.242895,-0.41719
3.25896,0.242183,-0.0189933
3.31147,0.409531,-0.359418
3.22892,0.0817329,-0.301511
3.29401,0.407372,0.0772336
3.21475,0.0813742,0.0374377
3.30667,0.408938,-0.232987
3.25054,0.241557,0.0568948
3.34696,0.581128,-0.217711
3.2255,0.0816463,-0.187905
3.28536,0.406303,0.192789
3.25233,0.24169,0.132869
3.30719,0.409002,-0.155228
3.27822,0.405419,0.405581
3.34317,0.58047,-0.138242
3.29798,0.407863,-0.0773267
3.33167,0.566501,-0.0589891
3.2963,0.395979,0
3.21102,0.0700656,-0.0373912
3.26937,0.231485,-0.41719
3.25978,0.230806,-0.0189933
3.31288,0.39797,-0.359418
3.22919,0.0704621,-0.301511
3.28747,0.394918,0.0770475
3.20302,0.0698911,0.037298
3.30016,0.396442,-0.232429
3.24737,0.229927,0.056825
3.34896,0.569442,-0.217711
3.22177,0.0703003,-0.187673
3.2828,0.394357,0.192556
3.24518,0.229772,0.132543
3.30463,0.39698,-0.155042
3.27961,0.393974,0.405581
3.34123,0.568128,-0.138079
3.29144,0.395395,-0.0771406
3.32968,0.55421,-0.0589193
3.2834,0.220961,-0.65817
3.28574,0.38308,0
3.21524,0.058929,-0.0374377
3.2662,0.219804,-0.416685
3.25259,0.218888,-0.0189468
3.3103,0.385943,-0.358989
3.22543,0.0591158,-0.301139
3.28883,0.383439,0.0770475
3.20324,0.0587092,0.037298
3.29359,0.383995,-0.231871
3.32089,0.552747,0.0979769
3.34306,0.556437,-0.2172
3.222,0.0590529,-0.187673
3.28415,0.382894,0.192556
3.29806,0.384516,-0.154669
3.26413,0.219664,-0.171453
3.26914,0.381144,0.404119
3.33925,0.555804,-0.137916
3.28883,0.383439,-0.0770475
3.32764,0.541942,-0.0588495
3.24004,0.206686,-0.0944861
3.27632,0.209,-0.656601
3.27911,0.37071,0
3.19943,0.0474687,-0.0372515
3.25903,0.207897,-0.415675
3.30767,0.373939,-0.358561
3.22164,0.0477982,-0.300767
3.2822,0.371059,0.0768614
3.19943,0.0474687,0.0372515
3.29095,0.372048,-0.231591
3.25852,0.207864,-0.26655
3.2489,0.207251,0.056825
3.3371,0.543482,-0.216688
3.27753,0.370531,0.192091
3.23872,0.206602,0.132217
3.29938,0.373002,-0.154669
3.26089,0.208016,-0.171243
3.27439,0.370177,0.404606
3.29412,0.372407,-0.0771406
3.32162,0.529064,-0.0587099
3.27703,0.197562,-0.656601
3.28436,0.359696,0
3.20358,0.0363449,-0.037298
3.24785,0.195802,-0.41416
3.24605,0.195694,-0.0189003
3.30501,0.361957,-0.358133
3.22179,0.0365514,-0.300767
3.2795,0.359163,0.0767684
3.19558,0.0362541,0.0372049
3.29223,0.360557,-0.231591
3.25922,0.196488,-0.26655
3.33109,0.530573,-0.216176
3.27484,0.358653,0.191859
3.23943,0.195294,0.132217
3.29272,0.360611,-0.154297
3.26777,0.357879,0.403631
3.33121,0.530592,-0.137428
3.28745,0.360034,-0.0769545
3.23342,0.183606,-0.0942533
3.27366,0.346964,0
3.20768,0.0251927,-0.0373446
3.25248,0.184688,-0.414665
3.24671,0.184361,-0.0189003
3.30229,0.349998,-0.357704
3.27676,0.347291,0.0766753
3.19169,0.025067,0.0371583
3.2895,0.348642,-0.231312
3.25193,0.184657,-0.265899
3.24228,0.184109,0.0566854
3.33292,0.518941,-0.216176
3.21046,0.0252145,-0.186975
3.26416,0.345956,0.191161
3.24009,0.183985,0.132217
3.2503,0.184564,-0.170615
3.26506,0.346051,0.403144
3.32514,0.51773,-0.137102
3.28073,0.347713,-0.0767684
3.31337,0.504059,-0.0585005
3.27884,0.335944,0
3.20375,0.0139803,-0.037298
3.25706,0.173547,-0.41517
3.23935,0.172603,-0.0188539
3.29163,0.337255,-0.356419
3.214,0.014025,-0.300023
3.19575,0.0139454,0.0372049
3.2907,0.337159,-0.231312
3.25255,0.173307,-0.265899
3.24291,0.172793,0.0566854
3.33077,0.506706,-0.215921
3.21053,0.0140099,-0.186975
3.26137,0.334155,0.190929
3.28721,0.336802,-0.153925
3.25834,0.333845,0.402169
3.32298,0.505521,-0.136939
3.27795,0.335853,-0.0766753
3.31906,0.493077,-0.0585703
3.26407,0.322921,0
3.25369,0.161978,-0.414665
3.23594,0.161095,-0.0188306
3.21004,0.00280167,-0.299652
3.26318,0.322833,0.0763031
3.18378,0.00277875,0.0370652
3.25314,0.161951,-0.265899
3.2355,0.161073,0.0565458
3.32857,0.494489,-0.215665
3.22932,0.160765,0.131729
3.28439,0.324931,-0.153739
3.24752,0.161671,-0.170406
3.25554,0.322077,0.401681
3.32472,0.493918,-0.136939
3.28308,0.324802,-0.0767684
3.30889,0.479767,-0.0583608
3.22318,0.149184,-0.0939042
3.26517,0.311526,0
3.18777,-0.0083445,-0.0371118
3.25423,0.150621,-0.414665
3.23648,0.149799,-0.0188306
3.26429,0.311442,0.0763031
3.17977,-0.00832356,0.0370186
3.24572,0.150227,-0.265248
3.32632,0.482295,-0.215409
3.25567,0.31062,0.190463
3.22986,0.149493,0.131729
3.28152,0.313086,-0.153553
3.24407,0.15015,-0.170197
3.25269,0.310335,0.401194
3.31061,0.480016,-0.136288
3.28419,0.313341,-0.0767684
3.3145,0.468773,-0.0584307
3.21969,0.13776,-0.0937879
3.26624,0.300126,0
3.19172,-0.0194972,-0.0371583
3.24681,0.13892,-0.413655
3.25739,0.299313,0.076117
3.17973,-0.0194239,0.0370186
3.2702,0.30049,-0.229638
3.24224,0.138725,-0.264923
3.22456,0.137968,0.0563364
3.32403,0.470121,-0.215153
3.20251,-0.0195631,-0.18651
3.25674,0.299253,0.190463
3.22238,0.137875,0.131403
3.2826,0.301629,-0.153553
3.24189,0.297888,0.399731
3.31622,0.469016,-0.136451
3.2773,0.301142,-0.0765823
3.30424,0.455561,-0.0582212
3.22415,0.126676,-0.0939042
3.25531,0.287665,0
3.18364,-0.0305623,-0.0370652
3.24331,0.127429,-0.41315
3.22945,0.126885,-0.0187841
3.28809,0.290562,-0.355562
3.25443,0.287587,0.0760239
3.17564,-0.0304855,0.0369721
3.26726,0.288721,-0.229359
3.2427,0.127405,-0.264923
3.22502,0.126711,0.0563364
3.31774,0.457424,-0.214642
3.22284,0.126625,0.131403
3.27965,0.289816,-0.153367
3.24291,0.286569,0.399731
3.31388,0.456891,-0.136288
3.27435,0.289347,-0.0764892
3.30184,0.443493,-0.0581514
3.26028,0.276639,0
3.17951,-0.0416221,-0.0370186
3.27273,0.277695,-0.51099
3.2358,0.115824,-0.41214
3.22588,0.115469,-0.0187609
3.28512,0.278747,-0.355134
3.19782,-0.0418618,-0.298536
3.23914,0.115944,-0.264597
3.22145,0.11531,0.0562666
3.31537,0.445309,-0.214386
3.19431,-0.0418158,-0.186045
3.24681,0.275496,0.189766
3.21128,0.114946,0.130915
3.26472,0.277015,-0.152622
3.2439,0.275248,0.399731
3.31149,0.444789,-0.136125
3.26737,0.277241,-0.0763031
3.29544,0.430928,-0.0580118
3.24927,0.264285,0
3.18735,-0.0528524,-0.0371118
3.26974,0.26595,-0.510375
3.23619,0.104529,-0.41214
3.19766,-0.0530233,-0.298536
3.24839,0.264213,0.0758378
3.16735,-0.0525208,0.036879
3.23554,0.104508,-0.264272
3.22183,0.104065,0.0562666
3.31294,0.433217,-0.21413
3.19415,-0.0529652,-0.186045
3.24775,0.264162,0.189766
3.21166,0.103737,0.130915
3.26965,0.265942,-0.152808
3.23692,0.26328,0.398757
3.3051,0.432191,-0.135799
3.26832,0.265834,-0.0763031
3.29678,0.420572,-0.0580118
3.2461,0.253763,0
3.17517,-0.0626297,-0.0369721
3.26662,0.255367,-0.50976
3.2365,0.0943608,-0.41214
3.24522,0.253694,0.0757448
3.16717,-0.0624719,0.036879
3.25808,0.2547,-0.228522
3.23187,0.0942258,-0.263946
3.22214,0.0939421,0.0562666
3.31429,0.422806,-0.21413
3.18997,-0.0629217,-0.185812
3.24857,0.253956,0.189766
3.21197,0.0936456,0.130915
3.26648,0.255357,-0.152622
3.23377,0.2528,0.398269
3.29454,0.420287,-0.135311
3.29036,0.407504,-0.0578722
3.2056,0.0817027,-0.0933224
3.17492,-0.0742661,-0.0369721
3.26359,0.2431,-0.509145
3.23286,0.0823974,-0.411634
3.19324,-0.0746948,-0.298165
3.24613,0.241799,0.0757448
3.16692,-0.0740791,0.036879
3.25501,0.242461,-0.228243
3.22422,0.0821773,-0.263295
3.21447,0.0819286,0.0561269
3.29997,0.408694,-0.213107
3.24151,0.241455,0.189301
3.2083,0.0817714,0.130752
3.26341,0.243087,-0.152436
3.29606,0.40821,-0.135311
3.26607,0.243284,-0.0762101
3.20587,0.0705117,-0.0933224
3.23985,0.229962,0
3.17864,-0.0854565,-0.0370186
3.26048,0.231426,-0.50853
3.22916,0.071024,-0.411129
3.21917,0.0708042,-0.0187144
3.25094,0.230749,0.0758378
3.15864,-0.0849191,0.0367858
3.2638,0.231661,-0.228801
3.22848,0.071009,-0.263621
3.21073,0.0706188,0.0560571
3.29345,0.396218,-0.212595
3.18146,-0.0855324,-0.185347
3.23437,0.229573,0.188836
3.20856,0.070571,0.130752
3.26025,0.23141,-0.15225
3.2935,0.396224,-0.135148
3.20608,0.0598809,-0.0933224
3.17434,-0.0958754,-0.0369721
3.26123,0.220613,-0.50853
3.22938,0.060316,-0.411129
3.21139,0.05998,-0.0186679
3.2656,0.220909,-0.352564
3.1847,-0.0961883,-0.297421
3.23573,0.218888,0.0754656
3.15835,-0.0953924,0.0367858
3.26057,0.220568,-0.228522
3.21095,0.0599718,0.0560571
3.29871,0.385758,-0.212851
3.23113,0.218577,0.188603
3.25303,0.220059,-0.151878
3.28686,0.384373,-0.134823
3.25967,0.220507,-0.0760239
3.28252,0.371676,-0.0576628
3.16997,-0.107373,-0.0369255
3.25807,0.208407,-0.507915
3.22958,0.04848,-0.411129
3.21158,0.04821,-0.0186679
3.26242,0.208685,-0.352135
3.23252,0.206772,0.0753726
3.24543,0.207598,-0.227406
3.21694,0.0482903,-0.262645
3.20715,0.0481434,0.0559873
3.29613,0.373217,-0.212595
3.23589,0.206988,0.188836
3.189,0.0478709,0.129938
3.24185,0.20737,-0.151319
3.21922,0.0483246,-0.168731
3.27579,0.359914,-0.0575231
3.19443,0.0373565,-0.0929733
3.23406,0.196104,0
3.1616,-0.117588,-0.0368324
3.22178,0.0376764,-0.410119
3.20773,0.037512,-0.0186446
3.2631,0.197865,-0.352135
3.23718,0.196293,0.0754656
3.14961,-0.117142,0.0366927
3.25008,0.197075,-0.227685
3.21309,0.0375747,-0.262319
3.20729,0.0375069,0.0559873
3.29735,0.362284,-0.212595
3.22859,0.195772,0.18837
3.19313,0.0373413,0.1301
3.24252,0.196617,-0.151319
3.19454,0.0262048,-0.0929733
3.15318,-0.128299,-0.0367393
3.25152,0.185773,-0.506686
3.21396,0.0263641,-0.409109
3.26951,0.347678,0.0191096
3.20784,0.0263139,-0.0186446
3.22986,0.184535,0.0752795
3.15318,-0.128299,0.0367393
3.25473,0.185956,-0.227964
3.2132,0.0263579,-0.262319
3.2034,0.0262775,0.0559175
3.28272,0.349082,-0.211572
3.23324,0.184728,0.188603
3.19324,0.0261942,0.1301
3.24319,0.185297,-0.151319
3.19062,0.0144786,-0.092857
3.15668,-0.140032,-0.0367858
3.25218,0.173855,-0.506686
3.21403,0.0145849,-0.409109
3.26678,0.335284,0.0190863
3.19991,0.0145208,-0.0185981
3.25649,0.174085,-0.351278
3.23451,0.17291,0.0753726
3.14469,-0.1395,0.0366461
3.24344,0.173387,-0.227127
3.20929,0.0145634,-0.261994
3.19148,0.0144825,0.0557081
3.28001,0.336641,-0.211316
3.1715,-0.140689,-0.184882
3.22193,0.172238,0.187905
3.18932,0.0144727,0.129938
3.24385,0.173409,-0.151319
3.27606,0.336236,-0.134171
3.19065,0.0038987,-0.092857
3.22395,0.161627,0
3.1522,-0.150308,-0.0367393
3.24879,0.162872,-0.506071
3.21803,0.00393217,-0.409614
3.27186,0.324845,0.0191096
3.19994,0.00391006,-0.0185981
3.25705,0.163286,-0.351278
3.22707,0.161783,0.0751865
3.14421,-0.149927,0.0366461
3.24798,0.162831,-0.227406
3.20932,0.00392152,-0.261994
3.19951,0.00390953,0.0558477
3.27713,0.325369,-0.21106
3.16703,-0.151015,-0.18465
3.2185,0.161353,0.187673
3.18136,0.00388736,0.129612
3.26457,0.312618,-0.0572439
3.18264,-0.00721994,-0.0926243
3.15566,-0.161514,-0.0367858
3.24539,0.151347,-0.505456
3.21009,-0.00728221,-0.408604
3.26899,0.313042,0.0190863
3.19594,-0.0072501,-0.0185749
3.25362,0.151731,-0.35085
3.22362,0.150332,0.0750934
3.23657,0.150936,-0.226569
3.20533,-0.00727141,-0.261668
3.19151,-0.00724005,0.0557081
3.27427,0.313548,-0.210804
3.22303,0.150304,0.187905
3.17736,-0.00720795,0.129449
3.14306,-0.172422,-0.0366461
3.23803,0.139111,-0.504226
3.20608,-0.019025,-0.408099
3.26215,0.300324,0.0190398
3.19589,-0.0189646,-0.0185749
3.22815,0.138687,0.0751865
3.13907,-0.172203,0.0365996
3.23312,0.1389,-0.22629
3.20129,-0.0189966,-0.261343
3.19146,-0.0189383,0.0557081
3.2754,0.301544,-0.210804
3.21558,0.138147,0.18744
3.18131,-0.018878,0.129612
3.22082,0.138372,0.395832
3.17851,-0.0299566,-0.0925079
3.2135,0.126822,0
3.13845,-0.183159,-0.0365996
3.23454,0.127652,-0.503611
3.20202,-0.0301781,-0.407594
3.25521,0.28823,0.0189933
3.1878,-0.0300441,-0.0185284
3.2427,0.127974,-0.349565
3.22462,0.12726,0.0750934
3.13845,-0.183159,0.0365996
3.23358,0.127614,-0.22629
3.19722,-0.0301329,-0.261017
3.18337,-0.0300024,0.0555685
3.26848,0.289405,-0.210292
3.22003,0.127079,0.187673
3.17722,-0.0299444,0.129449
3.22998,0.127472,-0.150575
3.1784,-0.0399414,-0.0925079
3.14185,-0.193263,-0.0366461
3.24283,0.117777,-0.504841
3.20191,-0.0402368,-0.407594
3.25211,0.277663,0.0189701
3.1837,-0.0400079,-0.0185051
3.23911,0.117643,-0.349136
3.225,0.11713,0.0750934
3.13386,-0.192772,0.036553
3.222,0.117021,-0.225453
3.25079,0.27755,0.0949515
3.17527,-0.0399019,0.0554288
3.26937,0.279136,-0.210292
3.15269,-0.19393,-0.183952
3.20844,0.116529,0.186975
3.17312,-0.039875,0.129286
3.23436,0.11747,-0.150761
3.13716,-0.20397,-0.0365996
3.23532,0.106197,-0.503611
3.24908,0.265982,0.0189468
3.18754,-0.0511859,-0.0185284
3.2174,0.105609,0.0749073
3.13317,-0.203711,0.036553
3.23037,0.106034,-0.226011
3.19695,-0.0513371,-0.261017
3.24776,0.265874,0.0948351
3.17911,-0.0510505,0.0554987
3.25839,0.266745,-0.209525
3.15199,-0.204934,-0.183952
3.21282,0.105458,0.187208
3.16896,-0.0508876,0.129124
3.22676,0.105916,-0.150389
3.13636,-0.216015,-0.0365996
3.2357,0.0937726,-0.503611
3.25007,0.253504,0.0189468
3.18332,-0.0633459,-0.0185051
3.21378,0.0931373,0.0748143
3.19275,-0.0635336,-0.260692
3.24477,0.25309,0.0947188
3.17489,-0.0631782,0.0554288
3.25541,0.25392,-0.209269
3.20921,0.0930049,0.186975
3.16475,-0.0629764,0.128961
3.22315,0.0934089,-0.150202
3.16579,-0.074054,-0.0921588
3.12761,-0.226385,-0.0365064
3.22415,0.0821743,-0.501766
3.24296,0.241562,0.0189003
3.17908,-0.0743647,-0.0184819
3.21808,0.0820196,0.0749073
3.21909,0.0820453,-0.225174
3.18852,-0.0745855,-0.260366
3.24164,0.241464,0.0946024
3.17465,-0.0742611,0.0554288
3.25628,0.242554,-0.209269
3.20553,0.0816995,0.186743
3.16451,-0.0740239,0.128961
3.21547,0.0819529,-0.14983
3.16552,-0.0851035,-0.0921588
3.20323,0.070454,0
3.12281,-0.236998,-0.0364599
3.22837,0.0710071,-0.502381
3.24378,0.230241,0.0189003
3.21435,0.0706987,0.0748143
3.21537,0.0707211,-0.224895
3.18824,-0.0857143,-0.260366
3.23848,0.229865,0.0944861
3.16238,-0.085019,0.0552194
3.20579,0.0705104,0.186743
3.16423,-0.0850689,0.128961
3.22372,0.0709048,-0.150202
3.16523,-0.0950478,-0.0921588
3.19943,0.060315,0
3.12603,-0.247122,-0.0365064
3.22463,0.06079,-0.501766
3.24449,0.220049,0.0189003
3.17052,-0.0952065,-0.0184354
3.22079,0.0607177,-0.346994
3.21159,0.0605441,-0.224616
3.18397,-0.0956104,-0.260041
3.2352,0.219419,0.0943697
3.16209,-0.0949535,0.0552194
3.24985,0.220413,-0.208757
3.19801,0.0602883,0.186277
3.15596,-0.0947693,0.128635
3.21994,0.0607016,-0.150016
3.19963,0.0485881,0
3.13308,-0.259238,-0.0365996
3.23273,0.0490908,-0.502996
3.23729,0.207644,0.0188539
3.17015,-0.106826,-0.0184354
3.2078,0.0487121,-0.224337
3.23598,0.20756,0.0943697
3.16572,-0.106677,0.0552892
3.24665,0.208245,-0.208502
3.13595,-0.259475,-0.183254
3.19821,0.0485666,0.186277
3.20416,0.0486568,-0.149272
3.16048,-0.117546,-0.0920424
3.12817,-0.269829,-0.036553
3.23401,0.196101,0.0188306
3.20291,0.0374556,0.0745351
3.20396,0.0374678,-0.224058
3.23668,0.196263,0.0943697
3.16533,-0.117727,0.0552892
3.24338,0.196669,-0.208246
3.19836,0.0374024,0.186277
3.20431,0.0374719,-0.149272
3.16007,-0.128026,-0.0920424
3.18789,0.0267074,0
3.23863,0.185604,0.0188539
3.16535,-0.12824,-0.0184121
3.21728,0.0269536,-0.346566
3.20302,0.0268342,0.0745351
3.20007,0.0268095,-0.223779
3.22933,0.185071,0.094137
3.16093,-0.128061,0.0552194
3.19448,0.0267626,0.186045
3.20841,0.0268793,-0.149458
3.19196,0.015599,0
3.16089,-0.139113,-0.0183889
3.20015,0.015639,-0.223779
3.17436,-0.139706,-0.25939
3.22197,0.173368,0.0939042
3.15247,-0.138742,0.0550798
3.19455,0.0156116,0.186045
3.20449,0.0156602,-0.149272
3.15108,-0.150255,-0.0918097
3.184,0.00388999,0
3.22789,0.161824,0.0187841
3.15237,-0.150316,-0.0183424
3.20943,0.00392107,-0.345709
3.19619,0.00390489,-0.2235
3.22259,0.161558,0.0939042
3.14395,-0.149915,0.0549402
3.2333,0.162095,-0.207478
3.1866,0.00389317,0.18558
3.19254,0.00390042,-0.148713
3.14255,-0.160845,-0.091577
3.18799,-0.00723333,0
3.23243,0.150741,0.0188074
3.15182,-0.161319,-0.0183424
3.20545,-0.00727294,-0.345281
3.20018,-0.00726098,-0.223779
3.21914,0.150121,0.0937879
3.15139,-0.161297,0.0550798
3.22986,0.150621,-0.207222
3.1826,-0.00722109,0.185347
3.19653,-0.00725269,-0.1489
3.22582,0.150433,-0.131566
3.146,-0.171482,-0.0916934
3.18395,-0.0177827,0
3.22093,0.139502,0.0187376
3.15127,-0.17177,-0.0183424
3.20541,-0.0179026,-0.345281
3.19109,-0.0178226,0.0742559
3.18816,-0.0178063,-0.222942
3.21962,0.139446,0.0937879
3.14685,-0.171529,0.05501
3.23034,0.13991,-0.207222
3.18655,-0.0177972,0.18558
3.19648,-0.0178527,-0.1489
3.21696,0.128082,-0.0561968
3.17987,-0.0288604,0
3.23338,0.128736,0.0188074
3.14266,-0.182306,-0.0182959
3.19737,-0.0290192,-0.344424
3.19207,-0.0289711,-0.223221
3.21209,0.127888,0.0935552
3.22283,0.128315,-0.206711
3.18248,-0.028884,0.185347
3.1964,-0.0290104,-0.1489
3.21337,0.117267,-0.0561269
3.17576,-0.0393555,0
3.2178,0.117429,0.0187144
3.14603,-0.192971,-0.0183192
3.18797,-0.0395068,-0.222942
3.21925,0.117482,-0.206455
3.17837,-0.0393879,0.185115
3.19229,-0.0395604,-0.148713
3.20978,0.105358,-0.0560571
3.13605,-0.203898,-0.0914606
3.17559,-0.0509949,0
3.22221,0.105766,0.0187376
3.13333,-0.203722,-0.0182494
3.19709,-0.0513402,-0.344424
3.19179,-0.0512551,-0.223221
3.20891,0.105329,0.0934388
3.21966,0.105682,-0.206455
3.17022,-0.0509087,0.18465
3.18813,-0.0511963,-0.148527
3.18673,-0.0511738,-0.0741629
3.13133,-0.214571,-0.0913443
3.17939,-0.0621577,0
3.21456,0.0942829,0.0186911
3.13659,-0.214931,-0.0182727
3.18894,-0.0623444,-0.343567
3.17453,-0.0620627,0.0738837
3.18362,-0.0622403,-0.222663
3.20926,0.0941274,0.0934388
3.22001,0.0944426,-0.206455
3.18394,-0.0622466,-0.148341
3.18653,-0.0622972,-0.0741629
3.20644,0.0828436,-0.0559873
3.13056,-0.2255,-0.0913443
3.16716,-0.072979,0
3.21487,0.0830614,0.0186911
3.13183,-0.225591,-0.0182494
3.19268,-0.0735671,-0.343996
3.17939,-0.0732609,-0.222384
3.20557,0.0828211,0.0933224
3.22032,0.0832021,-0.206455
3.1837,-0.0733602,-0.148341
3.20827,0.0828907,-0.130752
3.2067,0.0722102,-0.0559873
3.1669,-0.0834813,0
3.21113,0.0723101,0.0186679
3.13506,-0.236276,-0.0182727
3.18844,-0.0840491,-0.343567
3.17913,-0.0838037,-0.222384
3.22057,0.0725227,-0.206455
3.17945,-0.083812,-0.148155
3.20453,0.0721614,-0.130589
3.20693,0.0610163,-0.0559873
3.12497,-0.246489,-0.0912279
3.17459,-0.0947741,0
3.20337,0.0609485,0.0186214
3.13421,-0.247218,-0.0182727
3.18018,-0.094941,-0.342711
3.16973,-0.0946291,0.0737907
3.17882,-0.0949004,-0.222384
3.20883,0.0610525,-0.205687
3.17914,-0.0949099,-0.148155
3.12404,-0.257941,-0.0912279
3.16622,-0.106141,0
3.19957,0.0491457,0.0185981
3.16936,-0.106246,0.0737907
3.17845,-0.106551,-0.222384
3.19027,0.0490029,0.092857
3.20904,0.0492911,-0.205687
3.17477,-0.106427,-0.147969
3.20496,0.0492286,-0.130589
3.17336,-0.10638,-0.0738837
3.19529,0.0379242,-0.0557779
3.16983,-0.11734,0
3.19572,0.0379294,0.0185749
3.16498,-0.117161,0.0736976
3.17407,-0.117497,-0.222105
3.19842,0.0379614,0.0930897
3.20919,0.0380892,-0.205687
3.17039,-0.117361,-0.147783
3.20112,0.0379934,-0.130426
3.1994,0.0268038,-0.0558477
3.1142,-0.279031,-0.0909952
3.14942,-0.127595,0
3.19983,0.0268075,0.0185981
3.16455,-0.128208,0.0736976
3.17364,-0.128576,-0.222105
3.19054,0.0267296,0.092857
3.20531,0.0268534,-0.205432
3.16996,-0.128427,-0.147783
3.20123,0.0268192,-0.130426
3.16854,-0.12837,-0.0737907
3.19547,0.0161739,-0.0557779
3.11724,-0.289726,-0.0911116
3.16096,-0.138563,0
3.18391,0.0161154,0.0185051
3.16011,-0.138526,0.0736046
3.1732,-0.1391,-0.222105
3.18661,0.016129,0.0927406
3.20937,0.0162443,-0.205687
3.16552,-0.138763,-0.147597
3.19731,0.0161832,-0.130263
3.20351,0.00503207,-0.0559175
3.10825,-0.299838,-0.0908788
3.14848,-0.149029,0
3.18394,0.00500134,0.0185051
3.15561,-0.149367,0.0735115
3.16472,-0.149798,-0.221547
3.20143,0.0050288,-0.205176
3.16103,-0.149623,-0.147411
3.19335,0.00501611,-0.1301
3.18351,-0.0061119,-0.0555685
3.15193,-0.160221,0
3.17994,-0.00610505,0.0184819
3.14708,-0.159975,0.0733254
3.20143,-0.0061463,-0.205176
3.16448,-0.160859,-0.147597
3.18935,-0.00612311,-0.129938
3.15907,-0.160584,-0.0736046
3.19147,-0.0172677,-0.0557081
3.15135,-0.171223,0
3.1839,-0.0172267,0.0185051
3.1636,-0.171888,-0.221547
3.17861,-0.0171981,0.0925079
3.20139,-0.0173213,-0.205176
3.15991,-0.171688,-0.147411
3.1933,-0.0172776,-0.1301
3.18339,-0.0283367,-0.0555685
3.14275,-0.18176,0
3.17582,-0.0282693,0.0184586
3.15899,-0.1827,-0.221268
3.17853,-0.0282934,0.0925079
3.20131,-0.0284961,-0.205176
3.15929,-0.182717,-0.147411
3.18923,-0.0283886,-0.129938
3.18328,-0.038893,-0.0555685
3.13414,-0.191692,0
3.17571,-0.0388005,0.0184586
3.15439,-0.192931,-0.220989
3.1972,-0.0390631,-0.20492
3.18512,-0.0389155,-0.129775
3.18312,-0.0500045,-0.0555685
3.14144,-0.203148,0
3.16756,-0.0497599,0.0184121
3.14971,-0.203683,-0.220709
3.19305,-0.0501605,-0.204664
3.15399,-0.203959,-0.147224
3.18496,-0.0500334,-0.129775
3.17092,-0.0614384,-0.055359
3.14466,-0.214933,0
3.15293,-0.215498,-0.220989
3.16207,-0.0612669,0.0920424
3.18487,-0.0617086,-0.204152
3.17677,-0.0615517,-0.129449
3.13184,-0.214057,-0.0730463
3.1707,-0.0719533,-0.055359
3.13994,-0.225074,0
3.16313,-0.0717815,0.0183889
3.14822,-0.225667,-0.220709
3.16984,-0.0719338,0.0922752
3.18864,-0.0723603,-0.204408
3.18054,-0.0721766,-0.129612
3.14308,-0.225299,-0.0733254
3.17843,-0.08323,-0.0554987
3.16686,-0.0829272,0.0184121
3.15758,-0.0826841,0.0919261
3.18027,-0.0832783,-0.129612
3.14228,-0.236269,-0.0733254
3.17412,-0.0942057,-0.0554288
3.16655,-0.0939811,0.0184121
3.18406,-0.0945008,-0.204152
3.17197,-0.0941419,-0.129286
3.13745,-0.246922,-0.0732324
3.16578,-0.10502,-0.0552892
3.15421,-0.104636,0.0183424
3.17162,-0.105214,-0.129286
3.13657,-0.257873,-0.0732324
3.16539,-0.11607,-0.0552892
3.14983,-0.115499,0.0183192
3.17124,-0.116284,-0.129286
3.15697,-0.126797,-0.0551496
3.14941,-0.126493,0.0183192
3.14413,-0.126281,0.091577
3.17081,-0.127353,-0.129286
3.12672,-0.279053,-0.0730463
3.16051,-0.137991,-0.0552194
3.14495,-0.137312,0.0182959
3.17047,-0.138426,-0.203385
3.12573,-0.289965,-0.0730463
3.15601,-0.148834,-0.0551496
3.14445,-0.148289,0.0182959
3.16585,-0.149298,-0.129124
3.15547,-0.159849,-0.0551496
3.16544,-0.160354,-0.203129
3.15093,-0.170097,-0.0550798
3.1609,-0.170635,-0.202873
3.16077,-0.170628,-0.128961
3.15032,-0.181095,-0.0550798
3.15617,-0.181431,-0.128798
3.14172,-0.191055,-0.0549402
3.13416,-0.190595,0.0182494
3.15156,-0.191653,-0.128635
3.12945,-0.201824,0.0182262
3.14685,-0.202946,-0.128472
3.14426,-0.213803,-0.05501
3.15011,-0.2142,-0.128635
3.13157,-0.223375,-0.0548006
3.13073,-0.234851,-0.0548006
3.14056,-0.235589,-0.128309
3.13387,-0.246091,-0.0548704
3.13972,-0.24655,-0.128309
3.12905,-0.256156,-0.0548006
3.1349,-0.256634,-0.128147
3.12411,-0.267281,-0.0547307
3.12996,-0.267782,-0.127984
3.12901,-0.278706,-0.127984
3.12403,-0.289258,-0.127821
