2.75866,0.729832,-0.090375
2.75534,0.710894,-0.0901217
2.76801,0.729755,-0.117426
2.74058,0.548719,0.013415
2.7404,0.547737,-0.0885073
2.74038,0.532602,0.11437
2.74291,0.531702,0.0134102
2.75043,0.6338,-0.219014
2.74065,0.515223,0.114247
2.74514,0.514678,0.0134054
2.77308,0.730605,-0.0407943
2.74249,0.507644,-0.395653
2.73983,0.497683,0.114083
2.74726,0.497646,0.0134006
2.76492,0.710342,-0.0406094
2.74608,0.496492,-0.0883807
2.76495,0.708806,-0.144296
2.74447,0.493975,-0.18947
2.73988,0.480345,0.11396
2.74632,0.480091,0.0133814
2.75759,0.690449,-0.0404387
2.75006,0.479804,-0.0884124
2.74745,0.477126,-0.18947
2.7431,0.579153,-0.217544
2.74363,0.47311,-0.394951
2.73883,0.462858,0.113796
2.74921,0.463231,0.0133814
2.754,0.671621,-0.0403249
2.74408,0.46143,-0.0881275
2.75209,0.669628,-0.143185
2.74541,0.459436,-0.189131
2.75064,0.459472,-0.292076
2.74406,0.560642,-0.320293
2.74648,0.456266,-0.394951
2.74162,0.446044,0.113796
2.74806,0.445713,0.0133622
2.75126,0.653093,-0.0402253
2.74489,0.444264,-0.0880642
2.75906,0.653419,-0.143336
2.74128,0.441471,-0.188657
2.7455,0.543408,-0.320066
2.72936,0.4279,0.214373
2.74233,0.428905,0.113715
2.74185,0.427456,0.013319
2.75424,0.635974,-0.0402111
2.77348,0.746532,-0.0680381
2.74065,0.426338,-0.0878426
2.76107,0.636029,-0.143235
2.73506,0.423269,-0.188046
2.75439,0.633478,-0.246176
2.74488,0.525804,-0.319611
2.727,0.410403,0.213986
2.74294,0.411773,0.113633
2.7286,0.408257,0.0132422
2.75126,0.61753,-0.0401116
2.76157,0.725183,-0.0676355
2.73827,0.408776,-0.0876843
2.75518,0.616893,-0.142731
2.73563,0.406186,-0.187911
2.74276,0.509112,-0.216461
2.75531,0.615913,-0.245915
2.74219,0.507867,-0.31893
2.74168,0.40376,-0.393125
2.72453,0.392951,0.213599
2.74047,0.394224,0.113428
2.72511,0.390655,0.0132134
2.74621,0.59872,-0.0399835
2.76016,0.706737,-0.0674934
2.73875,0.391683,-0.087621
2.7433,0.596581,-0.141923
2.76079,0.706746,-0.171906
2.73017,0.388269,-0.187369
2.73602,0.490514,-0.215688
2.75125,0.597304,-0.245221
2.74134,0.490332,-0.318475
2.74313,0.386791,-0.392985
2.73522,0.383242,-0.495309
2.73195,0.375903,0.112978
2.72349,0.373384,0.0131942
2.74298,0.580409,-0.039884
2.75862,0.688335,-0.0673513
2.73813,0.374465,-0.087526
2.74202,0.578706,-0.14167
2.75927,0.688343,-0.171545
2.72855,0.370972,-0.187097
2.73407,0.472867,-0.215301
2.74804,0.578974,-0.244614
2.74038,0.472826,-0.318021
2.73334,0.469842,-0.419689
2.7245,0.359697,0.313792
2.72529,0.357962,0.112609
2.74285,0.564367,0.0621299
2.73271,0.458862,-0.0132031
2.74453,0.563166,-0.0398555
2.75211,0.668799,-0.0670908
2.73244,0.356622,-0.0872728
2.74552,0.56187,-0.14167
2.75859,0.670221,-0.171244
2.72978,0.354095,-0.18703
2.73594,0.455918,-0.215224
2.75154,0.562102,-0.244614
2.73931,0.455351,-0.317566
2.73617,0.453062,-0.419689
2.72567,0.342849,0.313678
2.72743,0.341233,0.112609
2.71993,0.338945,0.0131558
2.72955,0.441129,-0.0131745
2.73458,0.33985,-0.0872728
2.74108,0.543459,-0.141266
2.75391,0.651215,-0.170702
2.7319,0.337339,-0.18703
2.74163,0.439596,-0.215456
2.74419,0.54308,-0.243659
2.73911,0.438064,-0.317225
2.73973,0.540957,-0.346157
2.73792,0.436109,-0.419539
2.73855,0.330252,-0.600518
2.72476,0.325765,0.313338
2.72848,0.324374,0.112568
2.74074,0.528961,0.0619302
2.72295,0.322367,0.0131606
2.73562,0.322947,-0.0872411
2.7598,0.634753,-0.170822
2.72897,0.319989,-0.186691
2.74132,0.42231,-0.215224
2.7416,0.525108,-0.243139
2.73727,0.320139,-0.288638
2.73978,0.420947,-0.316998
2.73761,0.418853,-0.41909
2.72984,0.312221,-0.598178
2.7198,0.308256,0.312544
2.72523,0.408367,0.187137
2.73591,0.511279,0.162334
2.73042,0.307626,0.112568
2.72544,0.406746,0.0869842
2.74983,0.513234,0.0620633
2.72389,0.305542,0.0131558
2.73557,0.305933,-0.0871778
2.75585,0.616065,-0.170341
2.72592,0.302687,-0.186352
2.73597,0.404315,-0.214605
2.74183,0.507732,-0.242878
2.74753,0.61189,-0.272477
2.74035,0.403838,-0.316771
2.73622,0.401473,-0.418492
2.73171,0.295465,-0.598178
2.72362,0.291774,0.312771
2.72796,0.392115,0.287965
2.72274,0.390929,0.186798
2.73899,0.494482,0.162334
2.73126,0.290761,0.112528
2.72294,0.389308,0.0868265
2.74112,0.494223,0.0617971
2.72074,0.288296,0.0131318
2.73242,0.288618,-0.0870196
2.74982,0.597026,-0.169739
2.7317,0.286372,-0.186623
2.73248,0.386682,-0.21414
2.73803,0.489671,-0.242271
2.75026,0.59481,-0.27238
2.73786,0.386322,-0.316203
2.73178,0.383714,-0.417444
2.72861,0.381666,-0.520994
2.73347,0.278698,-0.598178
2.72931,0.275456,0.313224
2.72114,0.373672,0.186527
2.73902,0.477153,0.16216
2.72902,0.273598,0.112364
2.73228,0.475339,0.061531
2.71847,0.271199,0.0131126
2.73392,0.4741,-0.0394715
2.74171,0.577672,-0.169016
2.72844,0.269115,-0.186284
2.72887,0.369107,-0.213676
2.73705,0.472184,-0.241924
2.74801,0.576697,-0.271802
2.72884,0.268338,-0.28718
2.73427,0.368719,-0.315521
2.7336,0.47036,-0.34382
2.73212,0.366681,-0.417145
2.73382,0.365307,-0.521551
2.72766,0.258825,0.413884
2.72304,0.257954,0.312317
2.72041,0.356579,0.186324
2.7419,0.460337,0.16216
2.72766,0.256567,0.112241
2.7312,0.457904,0.0614422
2.7171,0.254234,0.0130982
2.73283,0.456657,-0.0394146
2.72581,0.254137,-0.086703
2.72092,0.352734,-0.112548
2.74618,0.561038,-0.169076
2.72905,0.252277,-0.186216
2.72911,0.3521,-0.213522
2.7399,0.455381,-0.241924
2.74858,0.559229,-0.271513
2.73352,0.351554,-0.31518
2.7335,0.453091,-0.343451
2.7304,0.349408,-0.416547
2.74284,0.453755,-0.448091
2.73699,0.34865,-0.521737
2.73005,0.241081,-0.705419
2.72061,0.240891,0.311863
2.71228,0.239342,0.211278
2.71958,0.33951,0.186121
2.74073,0.442868,0.161927
2.74103,0.544874,0.136584
2.72719,0.239651,0.112159
2.72902,0.44034,0.0613313
2.74333,0.544186,0.0348055
2.7206,0.237732,0.0131078
2.7336,0.439562,-0.0393861
2.72134,0.236887,-0.0865131
2.72006,0.335665,-0.112425
2.73978,0.54224,-0.168474
2.72924,0.335105,-0.213367
2.73871,0.437931,-0.241577
2.74805,0.541584,-0.271128
2.7307,0.334172,-0.314612
2.73525,0.436154,-0.343328
2.73249,0.332648,-0.416547
2.74557,0.436916,-0.448091
2.73127,0.330904,-0.520251
2.72006,0.22403,0.311636
2.71602,0.322586,0.285783
2.70773,0.222206,0.210814
2.71666,0.322229,0.185782
2.74142,0.425736,0.16181
2.74825,0.5288,0.136779
2.72363,0.222506,0.111954
2.73069,0.423434,0.0613092
2.74858,0.52772,0.0348304
2.72301,0.221115,0.0131126
2.72835,0.42156,-0.0392723
2.72573,0.220426,-0.086608
2.72431,0.317545,-0.212825
2.73543,0.420211,-0.241056
2.7435,0.52322,-0.270357
2.72381,0.316379,-0.31359
2.73395,0.418762,-0.342836
2.74768,0.523273,-0.374302
2.73055,0.315422,-0.415948
2.7404,0.418868,-0.446818
2.73423,0.314251,-0.520437
2.71841,0.207109,0.311296
2.71498,0.305581,0.285471
2.73124,0.408275,0.262165
2.71103,0.205738,0.210969
2.71759,0.305442,0.185714
2.743,0.40876,0.161752
2.75242,0.51211,0.136828
2.72395,0.205714,0.111914
2.73125,0.406377,0.0612648
2.74882,0.510298,0.0347931
2.71833,0.203954,0.0130838
2.7289,0.404518,-0.0392439
2.72105,0.203251,-0.0864181
2.71603,0.301379,-0.112098
2.73838,0.507123,-0.167992
2.72125,0.300276,-0.212438
2.73599,0.403128,-0.240882
2.74862,0.506737,-0.27055
2.72472,0.299551,-0.313476
2.72861,0.400825,-0.341852
2.75084,0.506404,-0.374302
2.73803,0.40133,-0.446022
2.73024,0.296831,-0.519322
2.71467,0.190078,0.310729
2.71681,0.288916,0.285471
2.72876,0.390803,0.261693
2.70429,0.188545,0.21035
2.72041,0.288867,0.185782
2.73854,0.390934,0.161345
2.72118,0.18872,0.11175
2.71555,0.286721,0.0861955
2.73271,0.389469,0.0612426
2.74599,0.492363,0.0347184
2.71055,0.186652,0.0130406
2.73874,0.489976,-0.0659067
2.72225,0.186551,-0.0864181
2.72437,0.385322,-0.139095
2.73751,0.489608,-0.167752
2.72304,0.283573,-0.212438
2.73249,0.385498,-0.240362
2.74481,0.488641,-0.269875
2.72354,0.282519,-0.313135
2.73004,0.383937,-0.341729
2.7539,0.489515,-0.374302
2.7293,0.281383,-0.4152
2.73653,0.383973,-0.445385
2.72419,0.279272,-0.517835
2.71317,0.272948,0.385663
2.71182,0.173165,0.310275
2.71655,0.272043,0.285263
2.72914,0.373782,0.261504
2.70241,0.171758,0.210118
2.72312,0.272268,0.185849
2.73989,0.373988,0.161286
2.72029,0.171894,0.111668
2.71725,0.270053,0.0861955
2.72118,0.370804,0.0609321
2.74601,0.474993,0.0346811
2.70865,0.169829,0.0130262
2.72573,0.369924,-0.0391301
2.73479,0.471972,-0.065741
2.71935,0.169595,-0.0862915
2.71754,0.267831,-0.112016
2.72372,0.368197,-0.138944
2.71558,0.167219,-0.18486
2.72076,0.266471,-0.212129
2.73185,0.368325,-0.240102
2.74089,0.470611,-0.269201
2.72522,0.265803,-0.313135
2.72742,0.366517,-0.341114
2.74904,0.471269,-0.37324
2.729,0.264441,-0.414901
2.73688,0.366913,-0.445067
2.72781,0.262739,-0.518207
2.73377,0.36465,-0.548546
2.71853,0.159639,-0.59286
2.71775,0.256574,0.386083
2.71085,0.156407,0.310048
2.71916,0.255462,0.285367
2.72644,0.356384,0.261031
2.70242,0.155116,0.21004
2.72077,0.255182,0.185578
2.73917,0.356783,0.161112
2.7163,0.154915,0.111463
2.71289,0.252819,0.0860062
2.74591,0.457642,0.0346438
2.70964,0.153206,0.0130262
2.73271,0.454363,-0.0656226
2.72034,0.152906,-0.0862915
2.71316,0.2506,-0.11177
2.7289,0.351861,-0.139095
2.71556,0.150498,-0.184793
2.72632,0.250136,-0.212438
2.73109,0.351175,-0.239841
2.73293,0.451998,-0.268141
2.72383,0.248805,-0.312794
2.72568,0.349271,-0.340622
2.74699,0.453585,-0.372577
2.72959,0.247602,-0.414751
2.73516,0.349612,-0.444431
2.72644,0.245732,-0.517649
2.73109,0.34725,-0.547571
2.71653,0.142801,-0.592222
2.70419,0.138745,-0.696944
2.72026,0.23998,0.386223
2.70878,0.139618,0.309708
2.71671,0.238425,0.284951
2.72364,0.339033,0.260558
2.73957,0.441631,0.23653
2.70132,0.13843,0.209885
2.72327,0.23857,0.185646
2.71221,0.137991,0.111259
2.71339,0.236082,0.0859746
2.72056,0.336769,0.0608212
2.74373,0.439993,0.0345815
2.70753,0.136426,0.0130118
2.71915,0.335101,-0.0389736
2.73051,0.436797,-0.0655041
2.71624,0.135962,-0.0861332
2.71166,0.23369,-0.111647
2.72605,0.334502,-0.138843
2.73028,0.436615,-0.166788
2.71145,0.133588,-0.184454
2.72085,0.232808,-0.211897
2.73023,0.334048,-0.239581
2.74056,0.436003,-0.268623
2.72333,0.231919,-0.312567
2.72186,0.331819,-0.339884
2.72515,0.230349,-0.413853
2.73627,0.332704,-0.444272
2.74326,0.435205,-0.475627
2.71757,0.128279,-0.487895
2.72789,0.228999,-0.517649
2.73122,0.330251,-0.54718
2.71931,0.126221,-0.592647
2.72168,0.223285,0.386223
2.70661,0.122859,0.309367
2.71317,0.221347,0.284432
2.72666,0.322432,0.260653
2.74124,0.424661,0.236445
2.69914,0.121717,0.209653
2.71872,0.22137,0.18524
2.70902,0.121168,0.111095
2.71479,0.219428,0.0859746
2.72158,0.319953,0.060799
2.73452,0.421322,0.0344322
2.70632,0.119722,0.0130022
2.72016,0.318294,-0.0389594
2.73017,0.41958,-0.0654331
2.71302,0.119117,-0.0860066
2.72507,0.317423,-0.138692
2.72896,0.419248,-0.166547
2.71222,0.116948,-0.184454
2.72123,0.21603,-0.21182
2.73222,0.317289,-0.239581
2.73728,0.418277,-0.268044
2.72074,0.214891,-0.312112
2.71892,0.314542,-0.339269
2.72355,0.213392,-0.413405
2.73532,0.315568,-0.443794
2.74004,0.417474,-0.474615
2.71831,0.111602,-0.487895
2.72827,0.21218,-0.517464
2.73417,0.313598,-0.547375
2.71905,0.109494,-0.592435
2.72004,0.206356,0.385803
2.72805,0.307275,0.361475
2.70334,0.106093,0.308913
2.71249,0.204545,0.284224
2.73056,0.305917,0.260842
2.74281,0.407686,0.23636
2.71903,0.204609,0.185172
2.70572,0.104389,0.110931
2.71509,0.202692,0.0859431
2.72151,0.303027,0.0607546
2.73705,0.404536,0.0344322
2.70001,0.102848,0.0129686
2.72207,0.301598,-0.0389594
2.72973,0.402382,-0.0653621
2.7137,0.102468,-0.0860066
2.70834,0.199955,-0.111401
2.72399,0.300367,-0.13854
2.7305,0.40235,-0.166487
2.7099,0.100193,-0.18425
2.72151,0.199255,-0.211742
2.73115,0.300192,-0.239321
2.7398,0.401473,-0.268044
2.72101,0.198121,-0.311999
2.71883,0.297637,-0.339023
2.74408,0.401367,-0.371118
2.71988,0.19632,-0.412656
2.74547,0.401081,-0.475121
2.7256,0.195155,-0.51672
2.73214,0.296392,-0.546595
2.71829,0.189456,0.385382
2.72299,0.289796,0.360561
2.70096,0.0894054,0.308573
2.70377,0.187211,0.283185
2.72744,0.288633,0.260369
2.69843,0.0885202,0.209499
2.71327,0.18744,0.184698
2.70331,0.0876883,0.110808
2.7103,0.185619,0.0857538
2.72232,0.286218,0.0607324
2.73552,0.387173,0.0343824
2.69459,0.0860875,0.0129398
2.72188,0.284682,-0.038931
2.72621,0.384787,-0.06522
2.70829,0.0856259,-0.0858167
2.70952,0.183333,-0.111401
2.71982,0.283027,-0.138237
2.73193,0.385449,-0.166427
2.70747,0.0834715,-0.184047
2.71771,0.182219,-0.211355
2.726,0.282709,-0.238713
2.74221,0.384654,-0.268044
2.71289,0.082833,-0.284263
2.72317,0.181487,-0.312112
2.72202,0.179693,-0.412806
2.71596,0.177722,-0.514677
2.73293,0.279523,-0.5464
2.71446,0.172459,0.384682
2.73063,0.273676,0.361344
2.69947,0.0727774,0.308346
2.72421,0.271399,0.259897
2.73379,0.372116,0.235171
2.69494,0.071855,0.209189
2.71238,0.170663,0.184562
2.6978,0.0709419,0.110563
2.70341,0.168488,0.0855014
2.72104,0.269213,0.0606659
2.72497,0.368639,0.0342207
2.69607,0.0695779,0.0129446
2.72158,0.26778,-0.0389025
2.72653,0.367785,-0.0651726
2.70277,0.0688539,-0.0856267
2.71952,0.266139,-0.138136
2.73226,0.368412,-0.166306
2.70494,0.0667833,-0.183844
2.71778,0.16548,-0.211278
2.73066,0.266267,-0.238973
2.74057,0.367292,-0.267659
2.70738,0.0660399,-0.283638
2.72225,0.164655,-0.311885
2.71635,0.263675,-0.338285
2.71912,0.162751,-0.412208
2.71503,0.160937,-0.514305
2.73167,0.262467,-0.545815
2.71151,0.155573,0.384122
2.72733,0.256451,0.360692
2.69689,0.0561504,0.308006
2.7009,0.153735,0.282665
2.72086,0.254215,0.259424
2.7291,0.354436,0.234577
2.71437,0.154074,0.18463
2.69819,0.0543872,0.110563
2.71667,0.251958,0.0605328
2.72321,0.3514,0.0341709
2.69445,0.0529945,0.012935
2.72019,0.2508,-0.0388598
2.72676,0.350793,-0.0651252
2.70114,0.05223,-0.0855634
2.71414,0.248809,-0.137783
2.72952,0.351004,-0.166005
2.70131,0.0501109,-0.183572
2.71576,0.148637,-0.211046
2.73026,0.249326,-0.2388
2.73784,0.349839,-0.267177
2.70873,0.0494446,-0.283743
2.71825,0.147679,-0.311317
2.71989,0.247182,-0.338531
2.70946,0.0470455,-0.384417
2.71513,0.145799,-0.41146
2.73044,0.247277,-0.441885
2.71107,0.144014,-0.513376
2.72738,0.347438,-0.575485
2.7092,0.0425477,-0.589882
2.71242,0.138933,0.384122
2.7316,0.339667,0.335398
2.69619,0.0395869,0.307892
2.72039,0.237342,0.259235
2.73024,0.337562,0.234492
2.71028,0.137164,0.184291
2.69747,0.0378164,0.110522
2.72115,0.235543,0.0605994
2.72928,0.335171,0.0342207
2.69872,0.0365148,0.0129542
2.71669,0.233676,-0.0387887
2.72787,0.333934,-0.0651016
2.70141,0.0356552,-0.0855634
2.71561,0.232151,-0.137783
2.72865,0.333885,-0.165825
2.69857,0.0334979,-0.183369
2.70766,0.131535,-0.21035
2.72578,0.232062,-0.238279
2.70501,0.0327751,-0.283326
2.71513,0.130806,-0.310863
2.71839,0.230238,-0.338162
2.7097,0.0304197,-0.384417
2.714,0.129042,-0.41116
2.72896,0.230269,-0.441407
2.71092,0.127331,-0.51319
2.72686,0.228271,-0.544254
2.72654,0.330343,-0.574871
2.70668,0.0224959,-0.696695
2.70728,0.12202,0.383282
2.73462,0.323017,0.335519
2.69141,0.0230002,0.307325
2.71882,0.220405,0.258952
2.72632,0.320106,0.233982
2.70609,0.120309,0.183952
2.69566,0.0212485,0.11044
2.71657,0.218361,0.0604663
2.72533,0.317724,0.034146
2.6949,0.0199255,0.012935
2.71409,0.216684,-0.0387318
2.72887,0.317074,-0.0650779
2.69858,0.0190578,-0.0854685
2.69823,0.116138,-0.110786
2.71599,0.215405,-0.137732
2.73065,0.317136,-0.165825
2.69673,0.0169266,-0.183233
2.70343,0.114708,-0.209963
2.7212,0.214862,-0.237759
2.70118,0.0161531,-0.282909
2.71092,0.113935,-0.310295
2.71876,0.213476,-0.338039
2.71079,0.112224,-0.410562
2.72441,0.213059,-0.440453
2.7087,0.110574,-0.512633
2.72332,0.211156,-0.543279
2.72366,0.313048,-0.573846
2.70952,0.00929843,-0.589882
2.69999,0.00587281,-0.69495
2.70483,0.204852,0.458213
2.706,0.105329,0.383002
2.6915,0.00648558,0.307325
2.69731,0.103765,0.282041
2.71813,0.203569,0.258763
2.7213,0.302601,0.233388
2.70079,0.103474,0.183546
2.72283,0.202678,0.159249
2.69573,0.00470789,0.11044
2.71985,0.201836,0.0605106
2.72524,0.300776,0.0341211
2.68697,0.00337948,0.0128966
2.71038,0.199659,-0.0386607
2.72878,0.300106,-0.0650305
2.69665,0.00249741,-0.0854051
2.69789,0.0995432,-0.110745
2.7083,0.19808,-0.137278
2.73354,0.300484,-0.165885
2.69379,0.000379062,-0.18303
2.70309,0.0980815,-0.209885
2.70123,-0.000421361,-0.282909
2.70661,0.0971211,-0.309726
2.72101,0.196861,-0.338162
2.71439,0.0956929,-0.411011
2.7237,0.196196,-0.440134
2.71031,0.093986,-0.512819
2.72555,0.194512,-0.543474
2.72455,0.296225,-0.573641
2.70659,-0.0073191,-0.589244
2.70191,-0.0107018,-0.695448
2.71587,0.188936,0.459878
2.70561,0.0886906,0.382862
2.69348,-0.0100367,0.307552
2.69491,0.0871159,0.28173
2.71635,0.186683,0.258479
2.71815,0.285377,0.232963
2.69539,0.0867076,0.183139
2.69571,-0.0118329,0.11044
2.70907,0.184329,0.0602445
2.72803,0.284152,0.0341336
2.68994,-0.0131221,0.012911
2.71156,0.183025,-0.0386607
2.7256,0.282841,-0.0649121
2.69461,-0.0140385,-0.0853418
2.73334,0.2835,-0.165765
2.68775,-0.0161138,-0.182623
2.70065,0.0814037,-0.209653
2.72263,0.181386,-0.237672
2.73372,0.281321,-0.266021
2.70515,-0.0170208,-0.283326
2.7002,0.0803051,-0.308931
2.71821,0.1799,-0.33767
2.70386,-0.0194195,-0.383574
2.70504,0.0787481,-0.409514
2.72091,0.17922,-0.439498
2.70575,-0.0217944,-0.485248
2.70396,0.0771579,-0.511518
2.71984,0.177338,-0.542108
2.72827,0.279701,-0.574051
2.70356,-0.0239004,-0.588606
2.70373,-0.0272998,-0.695947
2.71402,0.172081,0.459379
2.71105,0.0722194,0.383562
2.72105,0.171858,0.358995
2.69337,-0.0265634,0.307552
2.71347,0.169763,0.258101
2.72481,0.269183,0.233388
2.69288,0.0700894,0.182936
2.69359,-0.0283522,0.110358
2.71115,0.167765,0.0602666
2.68981,-0.029627,0.012911
2.70963,0.1662,-0.038618
2.72728,0.266112,-0.0649121
2.68948,-0.0305154,-0.0851836
2.70255,0.164345,-0.136874
2.73205,0.266433,-0.165584
2.69512,0.0646877,-0.209189
2.71872,0.164376,-0.237238
2.69903,-0.0335448,-0.282701
2.69369,0.0635714,-0.308136
2.71133,0.162742,-0.336686
2.70548,0.0621488,-0.409514
2.72196,0.162522,-0.439498
2.69966,-0.0383124,-0.484188
2.69947,0.0604553,-0.510589
2.72185,0.160704,-0.542304
2.72214,0.262205,-0.572412
2.6975,-0.0404009,-0.587329
2.69867,-0.0438105,-0.694701
2.71109,0.155199,0.458712
2.70352,0.0554211,0.382442
2.68918,-0.0430255,0.307098
2.6918,0.0539588,0.281314
2.70651,0.152662,0.257345
2.72343,0.252184,0.233133
2.69037,-0.0448293,0.110235
2.70314,0.150626,0.060067
2.72434,0.250014,0.0340464
2.68357,-0.0460279,0.0128822
2.70661,0.149351,-0.0385611
2.71691,0.248281,-0.0646279
2.68924,-0.0470172,-0.0851836
2.69447,0.0481317,-0.209112
2.7167,0.147529,-0.236978
2.69479,-0.0500312,-0.282284
2.69303,0.0470247,-0.308022
2.71228,0.146103,-0.336686
2.69946,-0.0525215,-0.383013
2.70482,0.0455305,-0.409365
2.71699,0.1455,-0.438543
2.70232,-0.0549364,-0.484718
2.70176,0.0439224,-0.510961
2.71299,0.143482,-0.540353
2.72077,0.245234,-0.571797
2.69232,-0.0568486,-0.586266
2.72133,0.142732,-0.647747
2.69255,-0.0602385,-0.693205
2.7123,0.0404478,-0.725722
2.70805,0.13836,0.458046
2.69872,-0.0593193,0.40776
2.68995,0.0386325,0.380481
2.68489,-0.0594372,0.306644
2.69208,0.0374412,0.281314
2.7064,0.136002,0.257251
2.72691,0.23564,0.233303
2.69155,0.0370109,0.182801
2.68805,-0.0612907,0.110153
2.70102,0.133889,0.0600005
2.72383,0.233123,0.0340216
2.70248,0.132495,-0.03849
2.6899,-0.0635407,-0.0852152
2.70037,0.130975,-0.136672
2.69272,0.0315745,-0.208957
2.70859,0.130426,-0.236197
2.72752,0.230034,-0.264961
2.69344,-0.0665407,-0.28218
2.70619,0.129126,-0.335824
2.69414,-0.0689574,-0.38231
2.69121,0.0287851,-0.40727
2.71192,0.128546,-0.437588
2.69603,-0.0713603,-0.483659
2.70198,0.0273439,-0.510961
2.70892,0.126604,-0.539377
2.7193,0.228289,-0.571183
2.68411,-0.0731543,-0.584564
2.71924,0.125897,-0.647053
2.69213,-0.0767585,-0.693205
2.7038,0.0237284,-0.723396
2.70491,0.121564,0.45738
2.69337,-0.0757383,0.407014
2.70103,0.0222161,0.382022
2.68448,-0.0759103,0.306644
2.69027,0.0209067,0.281106
2.70321,0.119218,0.256873
2.68873,0.0204724,0.182597
2.68562,-0.0777253,0.110071
2.72023,0.216009,0.0339593
2.70025,0.115782,-0.0384473
2.7078,0.213976,-0.0643437
2.68546,-0.0799255,-0.0850886
2.69187,0.0150461,-0.20888
2.70337,0.113553,-0.235676
2.69398,-0.0830967,-0.282284
2.69043,0.013958,-0.307681
2.70594,0.112478,-0.335701
2.69564,-0.0855499,-0.382591
2.69529,0.0122897,-0.407869
2.71463,0.111985,-0.437907
2.69554,-0.0879015,-0.483659
2.69914,0.0107527,-0.510403
2.70573,0.10982,-0.538597
2.71772,0.211372,-0.570568
2.68459,-0.0896549,-0.584777
2.70574,0.00874828,-0.616072
2.7151,0.109014,-0.645897
2.6858,-0.0930743,-0.691709
2.701,0.00713014,-0.722621
2.70561,0.104965,0.45738
2.69186,-0.0922292,0.406864
2.7021,0.00564454,0.382162
2.679,-0.0922096,0.306077
2.68936,0.00439752,0.281002
2.7019,0.102554,0.256684
2.71867,0.201349,0.232368
2.6908,0.00397721,0.182733
2.70949,0.101611,0.158142
2.68509,-0.0942025,0.110071
2.69946,0.100621,0.0599339
2.71751,0.199022,0.0339096
2.67927,-0.0953093,0.0128678
2.70806,0.197285,-0.0643201
2.68492,-0.0964017,-0.0850886
2.69978,0.097755,-0.136571
2.71686,0.197783,-0.164319
2.68991,-0.00147005,-0.208725
2.70501,0.096999,-0.235763
2.68944,-0.0994781,-0.281868
2.69444,-0.00255414,-0.308136
2.70063,0.0956618,-0.334963
2.69605,-0.102126,-0.382732
2.7123,0.0952223,-0.437429
2.68905,-0.104211,-0.4826
2.69326,-0.00579648,-0.509288
2.70145,0.0930475,-0.537622
2.71408,0.194343,-0.569544
2.68496,-0.106164,-0.584989
2.70086,-0.00783982,-0.614962
2.71086,0.0921873,-0.64474
2.72292,0.194259,-0.678907
2.70002,-0.00943963,-0.722363
2.70127,0.0882004,0.456547
2.69322,-0.108824,0.407163
2.69417,-0.0109033,0.381041
2.68334,-0.108847,0.306644
2.68635,-0.0120907,0.28069
2.70248,0.0859734,0.256684
2.71786,0.184529,0.232199
2.69077,-0.0125333,0.182733
2.70407,0.0847959,0.157793
2.68447,-0.110676,0.110071
2.69703,0.0839624,0.0598674
2.70671,0.181541,0.0337602
2.67864,-0.111747,0.0128678
2.70146,0.0826374,-0.0384473
2.70523,0.180399,-0.0642253
2.68728,-0.113,-0.0851836
2.69534,0.0810375,-0.136319
2.71005,0.180578,-0.163838
2.68985,-0.017975,-0.208725
2.69958,0.080222,-0.235242
2.68779,-0.115935,-0.281763
2.6904,-0.0190587,-0.307681
2.69719,0.0789731,-0.334471
2.68944,-0.118405,-0.381889
2.70198,0.0782637,-0.435679
2.72248,0.178017,-0.467188
2.68836,-0.120708,-0.4826
2.68728,-0.0222731,-0.508173
2.71327,0.177558,-0.569134
2.68524,-0.122681,-0.585202
2.69784,-0.0243854,-0.614296
2.70554,0.0753894,-0.643353
2.72503,0.177611,-0.679148
2.69412,-0.0259507,-0.720812
2.69782,0.0715195,0.455881
2.69152,-0.125302,0.407014
2.69009,-0.0273939,0.380481
2.67965,-0.125171,0.306304
2.68324,-0.0285419,0.280379
2.70295,0.0693897,0.256684
2.71895,0.167849,0.232199
2.68466,-0.0289787,0.182326
2.70354,0.0681772,0.157735
2.68374,-0.127146,0.110071
2.70877,0.16499,0.0337727
2.6769,-0.128133,0.012863
2.70292,0.0660845,-0.0384616
2.70828,0.163917,-0.0642727
2.68354,-0.129343,-0.0850886
2.71011,0.163885,-0.163778
2.68571,-0.0344282,-0.208416
2.68901,-0.132523,-0.281972
2.68824,-0.03554,-0.307454
2.69064,-0.135004,-0.38217
2.69945,0.0616156,-0.435202
2.72056,0.161134,-0.466682
2.6856,-0.137101,-0.482247
2.71431,0.160906,-0.569134
2.68443,-0.139155,-0.585202
2.69666,-0.0409238,-0.614074
2.704,0.0587449,-0.64289
2.69198,-0.0424505,-0.720295
2.69821,0.0549647,0.455881
2.68971,-0.141762,0.406864
2.69284,-0.0439479,0.380901
2.69736,0.0526867,0.256117
2.70998,0.15061,0.231349
2.68144,-0.0454003,0.182123
2.69992,0.0515111,0.157502
2.6839,-0.143664,0.110112
2.68325,-0.0470237,0.0847126
2.70574,0.148148,0.0337229
2.67407,-0.144448,0.0128534
2.69927,0.0494252,-0.0384047
2.70924,0.147296,-0.0642727
2.68369,-0.14586,-0.0851203
2.70708,0.147037,-0.163537
2.67376,-0.147427,-0.181945
2.69538,0.047001,-0.234808
2.72037,0.145568,-0.263709
2.68914,-0.149075,-0.282076
2.68797,-0.0520341,-0.307454
2.69201,0.0457672,-0.333733
2.6868,-0.151344,-0.381748
2.69484,0.0449685,-0.434406
2.7215,0.144438,-0.466682
2.68668,-0.15369,-0.4826
2.70547,0.143729,-0.567085
2.6845,-0.155681,-0.585415
2.69344,-0.0574071,-0.613408
2.68587,-0.0588404,-0.718744
2.69554,0.0383656,0.455381
2.68583,-0.158089,0.406416
2.68658,-0.0603366,0.380061
2.70439,0.0378307,0.356123
2.67493,-0.157869,0.305964
2.6797,-0.0613989,0.280067
2.69663,0.0361217,0.256022
2.70018,0.0349438,0.157502
2.68696,-0.160367,0.110276
2.69212,0.0342285,0.0597343
2.7046,0.131446,0.033698
2.67114,-0.160733,0.0128438
2.69353,0.0327888,-0.0383193
2.70809,0.130574,-0.0642253
2.68175,-0.162264,-0.0850886
2.70694,0.130376,-0.163476
2.67679,-0.164074,-0.182217
2.69662,0.0304728,-0.234895
2.68917,-0.165634,-0.28218
2.68264,-0.0683996,-0.306886
2.67297,-0.167025,-0.379923
2.68155,-0.0700578,-0.405923
2.71741,0.127505,-0.465838
2.6847,-0.17011,-0.482423
2.70239,0.126942,-0.566266
2.6835,-0.17215,-0.585415
2.69011,-0.0738524,-0.612742
2.71233,0.126698,-0.675286
2.71021,0.121974,0.533933
2.69769,0.0218414,0.455714
2.68319,-0.0767351,0.379641
2.70259,0.0212206,0.355862
2.67689,-0.174473,0.306304
2.67828,-0.0778112,0.279963
2.68267,-0.0783605,0.182259
2.70534,0.018409,0.157793
2.68892,-0.177048,0.110399
2.70535,0.114848,0.033698
2.69168,0.0162489,-0.0382909
2.70784,0.113913,-0.0642016
2.67272,-0.178184,-0.0848354
2.71068,0.113889,-0.163657
2.67574,-0.180496,-0.182217
2.69177,0.0139004,-0.234461
2.69009,-0.182265,-0.282388
2.68614,-0.0849843,-0.30734
2.67387,-0.183558,-0.380203
2.68403,-0.0866058,-0.406372
2.71618,0.110749,-0.4655
2.68262,-0.186511,-0.482247
2.70019,0.110239,-0.565651
2.68337,-0.18868,-0.585628
2.68961,-0.0903572,-0.612742
2.71403,0.110092,-0.675528
2.6958,0.00528438,0.455381
2.68168,-0.093163,0.379501
2.70168,0.00463575,0.355731
2.68469,-0.191531,0.307325
2.6909,0.00302044,0.255455
2.7093,0.100592,0.231095
2.68015,-0.0947491,0.182123
2.6828,-0.193185,0.110194
2.70201,0.0981013,0.0336482
2.67096,-0.193644,0.0128534
2.68873,-0.000266898,-0.0382482
2.7055,0.0971877,-0.0641306
2.67856,-0.195088,-0.0850569
2.70833,0.0971476,-0.163476
2.67458,-0.19691,-0.182217
2.69081,-0.00261528,-0.234374
2.71066,0.0950519,-0.262553
2.68594,-0.198548,-0.282076
2.68457,-0.101427,-0.307227
2.68455,-0.200848,-0.381889
2.68345,-0.103073,-0.406372
2.71483,0.0940124,-0.465163
2.68143,-0.202968,-0.482247
2.68508,-0.205365,-0.586266
2.68705,-0.106781,-0.612298
2.69101,-0.007594,-0.639653
2.70204,0.0930029,-0.67239
2.70334,-0.008714,-0.751994
2.68691,-0.0112198,0.453882
2.67809,-0.109494,0.379081
2.69769,-0.011924,0.355209
2.71257,0.0859449,0.33068
2.69186,-0.0134957,0.25555
2.70389,0.0837805,0.230585
2.6669,-0.207513,0.207565
2.67957,-0.209487,0.110112
2.68829,-0.0153077,0.0596456
2.69956,0.0814298,0.0336109
2.67271,-0.210265,0.0128678
2.69905,0.0803769,-0.0639648
2.67532,-0.211363,-0.0849936
2.70389,0.0803794,-0.163175
2.67431,-0.213397,-0.182284
2.68776,-0.0191045,-0.234114
2.70621,0.078274,-0.262071
2.68368,-0.214946,-0.281972
2.68622,-0.217556,-0.38231
2.6798,-0.119404,-0.405923
2.68625,-0.0211099,-0.432974
2.70945,0.0771843,-0.46415
2.68013,-0.219417,-0.482247
2.6883,-0.123356,-0.612742
2.688,-0.0240794,-0.638959
2.69771,0.0762846,-0.671183
2.69457,-0.0252201,-0.749582
2.68186,-0.0276553,0.453049
2.67737,-0.125925,0.379081
2.69657,-0.028466,0.355078
2.71106,0.0692485,0.330439
2.68214,-0.224462,0.307325
2.68476,-0.0299347,0.254888
2.70535,0.0672129,0.23067
2.66557,-0.223873,0.207565
2.67679,-0.127537,0.181988
2.70123,-0.0313442,0.15756
2.67724,-0.22584,0.110071
2.68915,-0.0318143,0.0596677
2.70301,0.0649361,0.0336482
2.67635,-0.227083,0.0128918
2.69949,0.0638144,-0.0639648
2.67098,-0.22752,-0.0848987
2.70034,0.063693,-0.162935
2.66798,-0.229375,-0.181945
2.68659,-0.0355827,-0.234027
2.70266,0.0615768,-0.261685
2.68231,-0.231408,-0.281972
2.68484,-0.234034,-0.38231
2.68099,-0.135945,-0.406223
2.70987,0.060558,-0.46415
2.67678,-0.235685,-0.481894
2.68944,-0.13995,-0.613186
2.69619,0.0596873,-0.670701
2.68762,-0.0416487,-0.747706
2.68559,-0.0441753,0.453716
2.67555,-0.142298,0.378941
2.69833,-0.0450444,0.355339
2.68154,-0.0463559,0.254604
2.70372,0.0505746,0.2305
2.67695,-0.144012,0.182055
2.69599,-0.0478295,0.157269
2.67481,-0.242173,0.110031
2.6889,-0.048314,0.0596677
2.69236,0.0481528,0.0335114
2.67292,-0.243319,0.0128822
2.69783,0.0472144,-0.0639175
2.69669,0.0470532,-0.162694
2.67447,-0.246473,-0.182488
2.7,0.0449427,-0.261396
2.68084,-0.247862,-0.281972
2.67729,-0.150545,-0.306659
2.70948,0.0443909,-0.36263
2.68335,-0.250504,-0.38231
2.67715,-0.152225,-0.405774
2.68677,-0.0540926,-0.433133
2.70625,0.0438655,-0.463475
2.6792,-0.252475,-0.4826
2.69145,-0.156619,-0.613852
2.68555,-0.0570222,-0.638497
2.69748,0.0431582,-0.670942
2.67935,-0.0605193,0.452716
2.69404,-0.0615097,0.354817
2.67067,-0.159693,0.279547
2.68021,-0.0627853,0.25451
2.7,0.0339339,0.23016
2.67303,-0.160256,0.181852
2.69864,-0.0644424,0.157443
2.67128,-0.258389,0.109949
2.68656,-0.0647637,0.0596234
2.69361,0.0316437,0.0335238
2.67137,-0.259715,0.0128822
2.70107,0.0306941,-0.0639885
2.69393,0.0304719,-0.162513
2.67788,-0.263367,-0.182827
2.68097,-0.0684216,-0.233594
2.69724,0.0283436,-0.261107
2.68026,-0.264405,-0.282076
2.70574,0.0277244,-0.362099
2.67979,-0.266767,-0.382029
2.67912,-0.168835,-0.406223
2.69034,-0.070681,-0.43377
2.70252,0.0272198,-0.4628
2.67956,-0.269106,-0.482953
2.69141,-0.173193,-0.614074
2.68515,-0.0734993,-0.638497
2.68583,-0.0771565,0.453882
2.69262,-0.0780102,0.354687
2.6872,0.0172831,0.229056
2.66199,-0.273001,0.207642
2.67001,-0.176523,0.181716
2.67263,-0.275081,0.110071
2.68411,-0.0811865,0.059579
2.69475,0.015121,0.0335362
2.66575,-0.27569,0.012863
2.69821,0.0141044,-0.0639175
2.69307,0.0139365,-0.162453
2.67522,-0.27969,-0.182759
2.6805,-0.0848704,-0.233594
2.69438,0.01178,-0.260818
2.67909,-0.283309,-0.38217
2.67508,-0.185066,-0.405774
2.68393,-0.0869954,-0.432815
2.69771,0.0106175,-0.461956
2.67688,-0.285438,-0.482776
2.68368,-0.0899412,-0.638265
2.67939,-0.0934288,0.452883
2.69209,-0.0945303,0.354687
2.67346,-0.192812,0.280067
2.67824,-0.0956354,0.254415
2.68825,0.000794688,0.229141
2.66225,-0.289545,0.207797
2.67286,-0.19319,0.181988
2.68867,-0.0972293,0.156919
2.67387,-0.2918,0.110194
2.66859,-0.194474,0.0844602
2.67957,-0.0975089,0.0594903
2.68679,-0.00140973,0.0334367
2.69524,-0.00244907,-0.0638464
2.68711,-0.00258238,-0.162092
2.67444,-0.296209,-0.182827
2.67257,-0.19861,-0.207951
2.69142,-0.00474732,-0.260529
2.6711,-0.199578,-0.306318
2.67927,-0.299963,-0.382451
2.67586,-0.201625,-0.406073
2.68335,-0.103462,-0.432815
2.69773,-0.00593556,-0.461956
2.67703,-0.302078,-0.483129
2.67919,-0.106252,-0.63734
2.66926,-0.208979,0.279755
2.68059,-0.112192,0.254699
2.6892,-0.015706,0.229226
2.67361,-0.209743,0.182123
2.68603,-0.11364,0.156803
2.67203,-0.308201,0.110194
2.66934,-0.211002,0.0845233
2.67892,-0.113949,0.0594903
2.6572,-0.307807,0.012839
2.68918,-0.0189445,-0.0637043
2.67059,-0.312382,-0.182691
2.67727,-0.215484,-0.208416
2.69134,-0.0212614,-0.260529
2.67873,-0.216685,-0.30734
2.70182,-0.0220517,-0.361568
2.67639,-0.316281,-0.38231
2.67359,-0.21796,-0.405923
2.68266,-0.119925,-0.432815
2.69863,-0.0224966,-0.462125
2.68776,-0.127418,0.354295
2.66792,-0.225354,0.279755
2.67786,-0.128542,0.25451
2.68308,-0.0321347,0.228717
2.66631,-0.225639,0.181716
2.68727,-0.130216,0.156919
2.67009,-0.324591,0.110194
2.69557,-0.0344958,0.0335487
2.65824,-0.324469,0.0128534
2.68601,-0.0354051,-0.0636333
2.66665,-0.328518,-0.182556
2.66994,-0.231391,-0.207951
2.69414,-0.0378167,-0.260818
2.67043,-0.232514,-0.306545
2.70065,-0.0386152,-0.361436
2.67637,-0.332941,-0.382591
2.66826,-0.234015,-0.405325
2.68484,-0.136534,-0.433292
2.69548,-0.0390119,-0.461618
2.67768,-0.139122,-0.63734
2.68686,-0.0394499,-0.668287
2.69101,-0.0440942,0.529685
2.68296,-0.143696,0.353773
2.67045,-0.242079,0.280171
2.67702,-0.144971,0.25451
2.68582,-0.0486513,0.228971
2.65845,-0.338751,0.207951
2.66785,-0.242265,0.18192
2.68543,-0.146648,0.156861
2.67102,-0.341348,0.110317
2.68531,-0.0508456,0.0334243
2.68974,-0.0519627,-0.063728
2.65578,-0.341615,-0.0848037
2.6626,-0.344618,-0.18242
2.67244,-0.248138,-0.208261
2.69386,-0.0543469,-0.260818
2.66895,-0.248895,-0.306545
2.69144,-0.0550031,-0.360242
2.6717,-0.250845,-0.406073
2.67705,-0.152611,-0.432178
2.69223,-0.0554893,-0.461112
2.67801,-0.154448,-0.533525
2.67581,-0.155493,-0.637109
2.69831,-0.0625673,0.429514
2.67708,-0.15986,0.35312
2.67387,-0.258939,0.28069
2.67112,-0.161094,0.254037
2.68846,-0.0652027,0.229226
2.66632,-0.258631,0.18192
2.68547,-0.163183,0.156919
2.66689,-0.357465,0.110235
2.65505,-0.357199,0.0128582
2.67367,-0.164527,-0.038106
2.68738,-0.0684148,-0.0636806
2.6634,-0.361352,-0.182623
2.67682,-0.265121,-0.208725
2.67627,-0.266151,-0.307568
2.697,-0.0716744,-0.361038
2.67011,-0.267233,-0.406073
2.67902,-0.169221,-0.432656
2.69677,-0.0721393,-0.461956
2.67701,-0.170877,-0.533525
2.6959,-0.0790648,0.4292
2.67605,-0.176283,0.35312
2.67223,-0.275341,0.28069
2.67008,-0.177481,0.254037
2.68502,-0.0816067,0.228971
2.6617,-0.274679,0.181716
2.68741,-0.179858,0.157094
2.66663,-0.3741,0.110317
2.65479,-0.373762,0.0128678
2.68491,-0.0848398,-0.0636333
2.66425,-0.375995,-0.0852152
2.66113,-0.377687,-0.182623
2.67514,-0.28154,-0.208725
2.67556,-0.183475,-0.233594
2.68702,-0.0872069,-0.26024
2.67755,-0.282881,-0.307909
2.69651,-0.0882215,-0.361038
2.67039,-0.283821,-0.406372
2.67793,-0.185656,-0.432656
2.69233,-0.0885554,-0.461281
2.672,-0.187026,-0.532745
2.69339,-0.0955351,0.428885
2.69235,-0.096486,0.328261
2.68347,-0.0980438,0.228886
2.66294,-0.291331,0.18192
2.66527,-0.3906,0.110358
2.66062,-0.292675,0.0844918
2.67017,-0.195778,0.0594016
2.65541,-0.390481,0.0128822
2.68733,-0.101426,-0.0637043
2.65877,-0.394009,-0.182623
2.67336,-0.297949,-0.208725
2.67737,-0.200111,-0.233854
2.68345,-0.103577,-0.259951
2.67774,-0.299525,-0.308136
2.68997,-0.104534,-0.360242
2.66761,-0.30009,-0.406223
2.67575,-0.20201,-0.432497
2.6878,-0.10492,-0.460606
2.68585,-0.111772,0.427785
2.66571,-0.210077,0.253848
2.68581,-0.114635,0.229141
2.6611,-0.307665,0.18192
2.66579,-0.407399,0.110481
2.66892,-0.212158,0.0594016
2.68026,-0.116601,0.0333869
2.65395,-0.406918,0.012887
2.67019,-0.213713,-0.038106
2.68266,-0.117738,-0.0636096
2.65944,-0.408661,-0.0852152
2.67655,-0.117609,-0.16161
2.6632,-0.411381,-0.183098
2.66752,-0.313881,-0.208416
2.68205,-0.217017,-0.234374
2.67978,-0.119907,-0.259662
2.67092,-0.315368,-0.307568
2.68037,-0.120637,-0.359048
2.66867,-0.316802,-0.406672
2.67053,-0.218103,-0.43186
2.68908,-0.121499,-0.460943
2.67328,-0.127685,0.425899
2.66834,-0.226767,0.254226
2.68306,-0.131015,0.228971
2.65619,-0.323625,0.181716
2.68365,-0.229294,0.157094
2.65929,-0.42312,0.110317
2.66458,-0.228274,0.059335
2.67749,-0.132945,0.033362
2.65338,-0.42351,0.0128966
2.66783,-0.230007,-0.0380918
2.6749,-0.133846,-0.0634438
2.66756,-0.231391,-0.135359
2.65669,-0.427081,-0.182827
2.6695,-0.330733,-0.208725
2.68066,-0.23347,-0.234374
2.678,-0.136297,-0.259566
2.67386,-0.332363,-0.308136
2.66632,-0.233393,-0.331765
2.68057,-0.137132,-0.359181
2.66426,-0.431542,-0.382872
2.66863,-0.333416,-0.406971
2.67209,-0.234744,-0.432337
2.68828,-0.137996,-0.460943
2.66615,-0.236004,-0.532355
2.68912,-0.145973,0.32814
2.66591,-0.243045,0.254132
2.67425,-0.147038,0.228292
2.65416,-0.339917,0.181716
2.68219,-0.245756,0.157094
2.65676,-0.341853,0.0845549
2.66413,-0.244711,0.0593572
2.67763,-0.149427,0.0333745
2.65073,-0.439783,0.0128966
2.66936,-0.246648,-0.0381344
2.65028,-0.44061,-0.0850886
2.66709,-0.247847,-0.13541
2.6749,-0.150446,-0.16161
2.66446,-0.346721,-0.208493
2.6772,-0.249729,-0.234201
2.67811,-0.152783,-0.259662
2.66783,-0.348249,-0.307681
2.68265,-0.153747,-0.359579
2.66164,-0.349141,-0.406223
2.67453,-0.251505,-0.432974
2.68541,-0.154376,-0.460606
2.6862,-0.162351,0.327899
2.66734,-0.259687,0.254415
2.6723,-0.163384,0.228207
2.66686,-0.358189,0.182733
2.67964,-0.262112,0.157036
2.65263,-0.357881,0.0844918
2.67167,-0.165545,0.0333123
2.65094,-0.456548,0.012911
2.67576,-0.263807,-0.0382482
2.67206,-0.166599,-0.0634201
2.65245,-0.457713,-0.0852469
2.66452,-0.264109,-0.135359
2.67493,-0.166918,-0.16167
2.66228,-0.363063,-0.208493
2.67264,-0.265855,-0.233941
2.6801,-0.169401,-0.259951
2.66236,-0.462392,-0.283013
2.6686,-0.365016,-0.308022
2.67017,-0.266786,-0.332626
2.67769,-0.169953,-0.359048
2.66042,-0.365601,-0.406372
2.6749,-0.268108,-0.433292
2.68147,-0.170662,-0.460099
2.6657,-0.276049,0.254415
2.67423,-0.179978,0.228462
2.67599,-0.278342,0.156919
2.66961,-0.181867,0.0332998
2.65301,-0.473685,0.012935
2.6721,-0.280012,-0.0382198
2.67398,-0.183196,-0.0634912
2.64762,-0.473628,-0.0851836
2.66285,-0.280453,-0.135359
2.67584,-0.183465,-0.161791
2.64248,-0.474851,-0.18242
2.66,-0.379392,-0.208493
2.67393,-0.282563,-0.234201
2.68397,-0.186187,-0.260433
2.65948,-0.478719,-0.283013
2.65942,-0.380398,-0.307227
2.6766,-0.18638,-0.359048
2.66302,-0.382621,-0.40712
2.6784,-0.186975,-0.459762
2.659,-0.291857,0.253943
2.66811,-0.196018,0.228037
2.67324,-0.294647,0.156861
2.65002,-0.390698,0.0845549
2.66215,-0.294037,0.0594237
2.67343,-0.198614,0.033362
2.65399,-0.490681,0.0129542
2.67132,-0.296513,-0.038234
2.67879,-0.200047,-0.0636333
2.64761,-0.490411,-0.0852785
2.67467,-0.19988,-0.161791
2.64835,-0.492698,-0.18303
2.66453,-0.396734,-0.209035
2.67116,-0.298854,-0.234114
2.68477,-0.202802,-0.260626
2.65062,-0.493935,-0.282388
2.66195,-0.397442,-0.307795
2.67936,-0.203099,-0.359579
2.6616,-0.3991,-0.40727
2.67622,-0.203331,-0.459593
2.6748,-0.213019,0.228717
2.67535,-0.311506,0.157094
2.64757,-0.406951,0.0845549
2.66228,-0.310597,0.0594681
2.68113,-0.215736,0.033474
2.65682,-0.508084,0.012983
2.66846,-0.312781,-0.0382198
2.67651,-0.216399,-0.0636096
2.64456,-0.506647,-0.0852785
2.65822,-0.312992,-0.135309
2.67637,-0.216529,-0.161971
2.64038,-0.507996,-0.182691
2.6581,-0.412464,-0.208725
2.66631,-0.314888,-0.233854
2.68645,-0.219515,-0.260915
2.64657,-0.510002,-0.282284
2.65946,-0.413768,-0.307795
2.65889,-0.315189,-0.331888
2.68498,-0.220103,-0.360507
2.67736,-0.318231,-0.434565
2.67984,-0.220152,-0.460437
2.67151,-0.227383,0.326689
2.6794,-0.229938,0.229226
2.66231,-0.327171,0.0595125
2.67278,-0.231579,0.0333869
2.66153,-0.328536,-0.0381486
2.67414,-0.232731,-0.0635859
2.675,-0.232947,-0.161971
2.65454,-0.428607,-0.208648
2.66828,-0.331734,-0.234201
2.63949,-0.525454,-0.281868
2.64903,-0.428809,-0.306886
2.65691,-0.331498,-0.331888
2.68457,-0.23666,-0.36064
2.6734,-0.334408,-0.434247
2.67745,-0.236504,-0.460268
2.66759,-0.235492,-0.56053
2.68092,-0.246648,0.229481
2.64632,-0.440066,0.084681
2.66224,-0.343756,0.0595568
2.66832,-0.247697,0.0333496
2.66541,-0.345633,-0.038234
2.67565,-0.249413,-0.063657
2.63814,-0.539061,-0.0852785
2.67053,-0.249078,-0.161791
2.67212,-0.348874,-0.234722
2.68256,-0.252372,-0.260818
2.64108,-0.542641,-0.282388
2.65125,-0.445879,-0.307454
2.65679,-0.348052,-0.332134
2.67912,-0.252756,-0.360109
2.67325,-0.351062,-0.434565
2.67889,-0.253206,-0.460774
2.6734,-0.262509,0.228971
2.66404,-0.360622,0.0596456
2.66576,-0.263966,0.0333371
2.66621,-0.362385,-0.0382767
2.67705,-0.266123,-0.063728
2.653,-0.362003,-0.135359
2.67293,-0.265854,-0.162031
2.66894,-0.365128,-0.234635
2.68096,-0.268827,-0.260818
2.65237,-0.462821,-0.307909
2.65657,-0.364617,-0.33238
2.67949,-0.269388,-0.360375
2.67202,-0.367593,-0.434724
2.66976,-0.278701,0.228801
2.66294,-0.37651,0.156861
2.66277,-0.377101,0.0596677
2.6611,-0.280004,0.0332998
2.66295,-0.378597,-0.0382624
2.67437,-0.282439,-0.0637043
2.63328,-0.571819,-0.0853418
2.65864,-0.379404,-0.135763
2.67125,-0.28225,-0.162031
2.63394,-0.574129,-0.183166
2.66369,-0.381074,-0.234374
2.67926,-0.285272,-0.260818
2.65046,-0.479264,-0.308022
2.65822,-0.381474,-0.332872
2.67877,-0.285929,-0.360507
2.66701,-0.294968,0.228717
2.6604,-0.393433,0.0596677
2.6643,-0.296881,0.033362
2.66058,-0.394929,-0.0382624
2.66862,-0.298399,-0.0636096
2.63265,-0.58862,-0.0854368
2.65626,-0.39571,-0.135763
2.66649,-0.298302,-0.161851
2.66229,-0.397558,-0.234461
2.67845,-0.301818,-0.260915
2.64454,-0.494969,-0.307681
2.67893,-0.302583,-0.360773
2.66614,-0.311442,0.228801
2.65893,-0.409901,0.0596899
2.66342,-0.31334,0.0333745
2.6581,-0.411247,-0.0382624
2.66376,-0.314416,-0.0635386
2.65181,-0.411694,-0.135662
2.66362,-0.314541,-0.161791
2.65881,-0.413733,-0.234374
2.67358,-0.317894,-0.260626
2.64536,-0.511942,-0.308136
2.65636,-0.426209,0.0596899
2.6684,-0.330537,0.0334616
2.65454,-0.42739,-0.0382482
2.66872,-0.331617,-0.0637043
2.64824,-0.427798,-0.135612
2.65867,-0.330509,-0.16161
2.65328,-0.429562,-0.234114
2.67378,-0.335753,-0.46145
2.65567,-0.442829,0.0597343
2.66929,-0.347291,0.0334989
2.65008,-0.542146,-0.0128886
2.65187,-0.44367,-0.0382482
2.66366,-0.347598,-0.0636333
2.65659,-0.346816,-0.16161
2.64961,-0.445668,-0.234027
2.67265,-0.352282,-0.461618
2.6598,-0.460309,0.0598896
2.6681,-0.363798,0.0335114
2.64811,-0.459762,-0.038234
2.66445,-0.364342,-0.0637043
2.66232,-0.364193,-0.162092
2.66483,-0.380021,0.0334989
2.64524,-0.476002,-0.038234
2.66711,-0.381391,-0.0638227
2.66399,-0.381087,-0.162332
2.67133,-0.38504,-0.361171
2.66443,-0.396659,0.0335238
2.65864,-0.396983,-0.162152
2.66749,-0.400495,-0.261107
2.66794,-0.401277,-0.361038
2.65898,-0.412541,0.0334865
2.65927,-0.413631,-0.0637517
2.65517,-0.413136,-0.162092
2.66695,-0.417163,-0.2613
2.66035,-0.429485,0.0335362
2.65372,-0.429461,-0.0636806
2.65652,-0.430058,-0.162332
2.6614,-0.43304,-0.261011
2.66379,-0.434146,-0.361171
2.65273,-0.444974,0.033474
2.65498,-0.446399,-0.0637754
2.64891,-0.445522,-0.162031
2.65575,-0.448864,-0.260722
2.65522,-0.44949,-0.360375
2.65094,-0.461414,0.0334865
2.65022,-0.462338,-0.063728
2.65392,-0.465323,-0.260818
2.65691,-0.479269,0.0335985
2.64733,-0.478591,-0.063728
2.64423,-0.478172,-0.162092
2.65395,-0.482132,-0.261107
2.65095,-0.498407,-0.261107
2.64491,-0.514094,-0.260818
2.6417,-0.530313,-0.260818
2.6384,-0.546512,-0.260818
2.63792,-0.563314,-0.261107
