2.44651,0.766689,0.0298477
2.45681,0.760509,-0.0299409
2.46327,0.7531,-0.0299874
2.4671,0.754269,0.030034
2.47738,0.747964,-0.0301271
2.47355,0.746808,0.0300806
2.47971,0.740178,-0.0301271
2.48354,0.741322,0.0301737
2.49379,0.734909,-0.0302668
2.49763,0.736039,0.0303134
2.50428,0.727559,-0.0303599
2.50812,0.728675,0.0304065
2.5068,0.718814,-0.0303599
2.5068,0.718814,0.0303599
2.51289,0.712026,-0.0304065
2.52059,0.714206,0.0304996
2.52692,0.70648,-0.0305462
2.53077,0.707557,0.0305928
2.53335,0.698277,-0.0305928
2.53721,0.69934,0.0306393
2.54723,0.693023,-0.0307325
2.42678,0.789446,-0.014832
2.55495,0.695123,0.0308256
2.54191,0.682053,-0.0306393
2.5535,0.685163,0.030779
2.56092,0.687155,-0.154417
2.54427,0.673177,-0.0306393
2.45892,0.78096,-0.0149947
2.56361,0.678292,0.0308722
2.55172,0.675148,-0.15372
2.55435,0.66631,-0.0307325
2.45781,0.771174,-0.0149715
2.56983,0.670348,0.0309187
2.56565,0.669259,-0.154417
2.57215,0.661373,-0.0309187
2.46049,0.76259,-0.0149715
2.58377,0.664361,0.0310584
2.56411,0.659305,-0.154185
2.57832,0.653375,-0.0309653
2.47844,0.758681,-0.0150645
2.58995,0.656322,0.031105
2.57413,0.652314,-0.15465
2.58824,0.64676,-0.0310584
2.48477,0.751616,-0.0150877
2.59212,0.647729,0.031105
2.49591,0.754988,0.0455159
2.58403,0.645709,-0.155115
2.59048,0.63772,-0.0310584
2.49887,0.746371,-0.0151575
2.59824,0.639633,0.0311515
2.5062,0.748559,0.0456555
2.59403,0.638594,-0.15558
2.60446,0.631048,-0.0311981
2.50543,0.738338,-0.0151807
2.60835,0.63199,0.0312447
2.50509,0.738238,0.0455857
2.60799,0.631904,-0.156278
2.48765,0.724141,-0.0754027
2.60654,0.622407,-0.0311981
2.5117,0.731143,-0.015204
2.61821,0.625194,0.0313378
2.5152,0.732162,0.0457253
2.60619,0.622324,-0.156045
2.62816,0.617882,-0.0314309
2.51809,0.723477,-0.0152272
2.62816,0.617882,0.0314309
2.52928,0.726692,0.0459347
2.62389,0.616879,-0.156975
2.49649,0.707848,-0.075519
2.6381,0.610508,-0.0315241
2.52829,0.716865,-0.0152737
2.64238,0.611499,-0.25318
2.6342,0.609607,0.0314775
2.53564,0.71895,0.0460045
2.63381,0.609517,-0.15744
2.5105,0.702361,-0.0758681
2.64021,0.601295,-0.0315241
2.53848,0.71019,-0.0153202
2.63673,0.600502,-0.252436
2.64411,0.602183,0.0315706
2.53429,0.709016,0.0459347
2.64371,0.602092,-0.157906
2.53642,0.709613,0.107304
2.51679,0.694658,-0.0759845
2.6501,0.593825,-0.0316172
2.54095,0.701325,-0.0153202
2.64658,0.593036,-0.25318
2.6501,0.593825,0.0316172
2.5406,0.70123,0.0460045
2.65359,0.594607,-0.158371
2.55044,0.703946,0.107793
2.54521,0.702501,-0.138376
2.52691,0.687968,-0.0762172
2.65997,0.586292,-0.0317103
2.5511,0.694552,-0.0153667
2.65252,0.584651,-0.253551
2.66387,0.587153,0.0317569
2.55461,0.695509,0.046214
2.65565,0.58534,-0.158371
2.55674,0.696088,0.107956
2.53994,0.691513,-0.137958
2.5293,0.679143,-0.0762172
2.67373,0.579545,-0.03185
2.55737,0.68668,-0.0153899
2.66622,0.577919,-0.254667
2.66982,0.578697,0.0318034
2.56475,0.688661,0.0463536
2.66548,0.577758,-0.158836
2.56301,0.688195,0.108119
2.55391,0.68575,-0.138586
2.53552,0.671335,-0.0763336
2.67964,0.571044,-0.0318966
2.56362,0.678774,-0.0154132
2.66823,0.56861,-0.254667
2.68356,0.571877,0.0319431
2.57873,0.682777,0.046563
2.6792,0.570949,-0.159533
2.57313,0.681292,0.108444
2.55629,0.676833,-0.138586
2.54957,0.665064,-0.0766826
2.4464,0.767595,0
2.68563,0.562037,-0.0319431
2.56996,0.670382,-0.0154364
2.67419,0.559642,-0.255039
2.68563,0.562037,0.0319431
2.58122,0.67332,0.046563
2.68909,0.56276,-0.159999
2.58334,0.673873,0.10877
2.56648,0.669475,-0.139004
2.56338,0.659595,-0.0770317
2.46422,0.764218,0
2.69532,0.554741,-0.0320363
2.57604,0.662854,-0.0154597
2.68383,0.552377,-0.255782
2.69924,0.555548,0.0320828
2.58344,0.664757,0.046563
2.69094,0.55384,-0.159999
2.59717,0.668291,0.109258
2.58029,0.663947,-0.139632
2.46355,0.764011,-0.0600189
2.56578,0.650195,-0.0770317
2.47083,0.756351,0
2.7091,0.547234,-0.032176
2.58621,0.655372,-0.0155062
2.68974,0.543325,-0.256154
2.7091,0.547234,0.032176
2.59361,0.657248,0.0467026
2.69687,0.544764,-0.160231
2.60348,0.659749,0.109421
2.58271,0.654485,-0.139632
2.5718,0.642652,-0.0771481
2.47332,0.748153,0
2.71482,0.539025,-0.0322225
2.58837,0.646792,-0.0155062
2.69934,0.535953,-0.256897
2.71874,0.539804,0.0322691
2.60742,0.651552,0.0469121
2.71433,0.538928,-0.161161
2.60565,0.651111,0.109421
2.59649,0.648821,-0.14026
2.60304,0.650457,0.219033
2.57791,0.634627,-0.0772645
2.47975,0.74066,0
2.72846,0.531842,-0.0323622
2.60226,0.640621,-0.0155759
2.71292,0.528813,-0.258013
2.49824,0.746182,0.0606703
2.72453,0.531076,0.0323156
2.61303,0.643273,-0.219684
2.60968,0.642447,0.0469121
2.72011,0.530214,-0.161394
2.61179,0.642967,0.109584
2.6065,0.641664,-0.140679
2.60916,0.64232,0.219359
2.48674,0.742748,-0.0603911
2.59565,0.629392,-0.0777299
2.48616,0.73313,0
2.7303,0.522314,-0.0323622
2.61226,0.633419,-0.0156224
2.71867,0.520088,-0.258385
2.50466,0.738587,0.0607633
2.73816,0.523817,0.0324553
2.59976,0.63039,-0.218382
2.62745,0.637103,0.0471913
2.72587,0.521466,-0.161626
2.6179,0.634788,0.109747
2.60872,0.632561,-0.140679
2.50083,0.737456,-0.0606703
2.60161,0.621711,-0.0778463
2.49242,0.726001,0
2.73988,0.514734,-0.0324553
2.62212,0.626612,-0.0156689
2.73212,0.513276,-0.2595
2.51862,0.733633,0.0610425
2.74381,0.515473,0.0325019
2.61735,0.625472,-0.219684
2.62566,0.627457,0.0471215
2.73543,0.513898,-0.162092
2.63166,0.628891,0.110235
2.62634,0.627621,-0.141516
2.5071,0.730278,-0.0607633
2.61155,0.614458,-0.078079
2.51031,0.721718,0
2.74953,0.506617,-0.0325485
2.62819,0.618372,-0.0156922
2.73781,0.504459,-0.259872
2.52116,0.724837,0.0610425
2.76133,0.508792,0.0326882
2.6234,0.617246,-0.22001
2.63951,0.621037,0.0473309
2.74113,0.505071,-0.162324
2.63773,0.620616,0.110398
2.63241,0.619365,-0.141726
2.51348,0.722628,-0.0608564
2.62147,0.607142,-0.0783117
2.51666,0.714042,0
2.75521,0.497727,-0.032595
2.63812,0.610999,-0.0157387
2.73955,0.494898,-0.259872
2.52752,0.717123,0.0611355
2.76702,0.49986,0.0327347
2.63719,0.610782,-0.220986
2.65335,0.614526,0.0475404
2.74681,0.496209,-0.162557
2.63988,0.611404,0.110398
2.64234,0.611974,-0.142144
2.52368,0.716032,-0.0610425
2.63137,0.599766,-0.0785444
2.51914,0.705255,0
2.76087,0.488806,-0.0326416
2.64804,0.603566,-0.0157852
2.74519,0.486028,-0.260243
2.53771,0.710454,0.0613216
2.77269,0.490898,0.0327813
2.65485,0.605119,-0.222288
2.66328,0.607039,0.04768
2.76032,0.488708,-0.163254
2.65368,0.604852,0.110887
2.52026,0.705568,-0.121912
2.65224,0.604524,-0.142563
2.53771,0.710454,-0.0613216
2.64125,0.592327,-0.0787772
2.53315,0.699651,0
2.77439,0.481215,-0.0327813
2.66184,0.596944,-0.0158549
2.75864,0.478484,-0.261359
2.54789,0.70372,0.0615077
2.78621,0.483266,0.032921
2.64917,0.594103,-0.221637
2.67319,0.599489,0.0478196
2.76595,0.479751,-0.163487
2.55196,0.704846,0.154185
2.66358,0.597334,0.111212
2.53426,0.699957,-0.12247
2.66603,0.597884,-0.143191
2.54018,0.701591,-0.0613216
2.67063,0.589132,-0.0795917
2.53944,0.691855,0
2.77605,0.471527,-0.0327813
2.67172,0.589371,-0.0159014
2.776,0.471519,-0.262846
2.55805,0.696924,0.0616939
2.79182,0.474206,0.0329675
2.66291,0.587427,-0.222613
2.67526,0.590153,0.0478196
2.77941,0.472099,-0.164185
2.66565,0.588032,0.111212
2.53669,0.691106,-0.12247
2.672,0.589434,-0.143401
2.54647,0.69377,-0.0614147
2.64923,0.574721,-0.0788935
2.55343,0.686101,0
2.78951,0.463803,-0.032921
2.66985,0.579194,-0.0158782
2.78156,0.46248,-0.263218
2.56819,0.690066,0.06188
2.8053,0.466427,0.0331072
2.66884,0.578974,-0.222939
2.68903,0.583355,0.048029
2.78104,0.462395,-0.164185
2.56068,0.688049,0.154417
2.68331,0.582113,0.111864
2.55066,0.685358,-0.123028
2.68185,0.581798,-0.143819
2.55274,0.685915,-0.0615077
2.44307,0.776864,-0.044748
2.65904,0.567137,-0.0791263
2.55968,0.678208,0
2.80296,0.455989,-0.0330607
2.68359,0.572374,-0.0159479
2.79102,0.454046,-0.263961
2.57058,0.681097,0.06188
2.8227,0.4592,0.0332935
2.68254,0.572149,-0.223915
2.70279,0.576467,0.0482385
2.79052,0.453966,-0.16465
2.57465,0.682174,0.155115
2.68923,0.573576,0.112026
2.5569,0.677473,-0.123214
2.69168,0.574099,-0.144238
2.55898,0.678024,-0.0616008
2.67666,0.561134,-0.0795917
2.5659,0.67028,0
2.80453,0.446202,-0.0330607
2.44991,0.769635,0.014925
2.69732,0.565465,-0.0160176
2.80045,0.445553,-0.264705
2.58068,0.674141,0.0620661
2.81638,0.448088,0.0332004
2.69622,0.565236,-0.224891
2.71261,0.568671,0.0483781
2.80787,0.446733,-0.16558
2.58088,0.674192,0.155347
2.70295,0.566646,0.112515
2.56312,0.669554,-0.123401
2.69758,0.56552,-0.144447
2.5652,0.670099,-0.0616939
2.45225,0.760975,-0.0448178
2.68252,0.552593,-0.0797081
2.56435,0.660321,0
2.81398,0.437639,-0.0331538
2.46404,0.764634,0.0149947
2.71103,0.558467,-0.0160874
2.81379,0.43761,-0.26582
2.59076,0.667123,0.0622522
2.82584,0.439483,0.0332935
2.69428,0.555016,-0.224566
2.7185,0.560005,0.0484479
2.82125,0.438769,-0.166278
2.59868,0.669162,0.156278
2.71274,0.55882,0.112841
2.57318,0.662595,-0.123773
2.70345,0.556905,-0.144657
2.57914,0.664131,-0.061973
2.46254,0.754755,-0.0449574
2.7001,0.546399,-0.0801735
2.58215,0.655302,0
2.82735,0.429616,-0.0332935
2.4667,0.756029,0.0149947
2.71296,0.549001,-0.0160874
2.82318,0.428982,-0.266564
2.60083,0.660043,0.0624383
2.83526,0.430818,0.0333866
2.56812,0.651743,-0.185273
2.70401,0.54719,-0.225217
2.72435,0.551306,0.0485177
2.82671,0.429519,-0.16651
2.59713,0.659105,0.156045
2.72251,0.550933,0.113166
2.57935,0.654592,-0.123959
2.71321,0.54905,-0.145075
2.58532,0.656108,-0.0620661
2.46899,0.747313,-0.0450272
2.70592,0.53775,-0.0802899
2.59994,0.650167,0
2.83279,0.420332,-0.0333401
2.68539,0.533672,-0.3485
2.48081,0.750891,0.0150645
2.71879,0.540308,-0.0161106
2.83648,0.420879,-0.267679
2.60699,0.651931,0.0625313
2.84466,0.422093,0.0334798
2.58199,0.645679,-0.18611
2.71764,0.54008,-0.226193
2.73411,0.543353,0.0486573
2.83214,0.420236,-0.166743
2.60329,0.651005,0.156278
2.72834,0.542206,0.113329
2.58937,0.647524,-0.124331
2.72294,0.541134,-0.145494
2.72155,0.540857,0.226519
2.59536,0.649021,-0.0622522
2.47912,0.741413,-0.0451668
2.70768,0.528773,-0.0802899
2.61373,0.644413,0
2.83813,0.411509,-0.0333866
2.69883,0.527045,-0.350016
2.48328,0.742659,0.0150645
2.72841,0.532821,-0.0161571
2.83786,0.41147,-0.267679
2.61302,0.644239,0.0626244
2.85396,0.413805,0.0335729
2.58799,0.638068,-0.186389
2.72333,0.531828,-0.226519
2.73197,0.533516,0.0485875
2.84142,0.411987,-0.167208
2.61319,0.644279,0.156743
2.74189,0.535453,0.113818
2.59926,0.640846,-0.124703
2.73256,0.533632,-0.145913
2.73115,0.533356,0.22717
2.59749,0.64041,-0.0622522
2.48169,0.732754,-0.0451668
2.71737,0.520823,-0.0805226
2.60819,0.633397,0
2.85143,0.403279,-0.0335263
2.71235,0.519861,-0.351531
2.49737,0.737384,0.0151342
2.73811,0.524799,-0.0162036
2.84716,0.402676,-0.268423
2.62303,0.637001,0.0628105
2.85143,0.403279,0.0335263
2.59408,0.629971,-0.186668
2.73691,0.524569,-0.227495
2.50402,0.739349,0.0759845
2.75345,0.52774,0.0489365
2.85075,0.403184,-0.167673
2.62318,0.637038,0.157208
2.74767,0.52663,0.11398
2.60925,0.633654,-0.125076
2.73441,0.524089,-0.145913
2.74866,0.526821,0.228471
2.61526,0.635113,-0.0626244
2.49191,0.726327,-0.0453064
2.72703,0.512814,-0.0807553
2.62206,0.627082,0
2.86074,0.394418,-0.0336195
2.72194,0.511858,-0.352541
2.51529,0.733141,0.0152272
2.75172,0.517458,-0.0162734
2.86433,0.394913,-0.26991
2.6369,0.630633,0.0630896
2.86867,0.395511,0.0337126
2.60791,0.623698,-0.187505
2.73873,0.515014,-0.227495
2.50659,0.730605,0.0759845
2.76314,0.519605,0.0490762
2.87192,0.395959,-0.168836
2.63704,0.630665,0.157906
2.75734,0.518515,0.114306
2.61145,0.624544,-0.125076
2.74407,0.516019,-0.146331
2.75048,0.517225,0.228471
2.49406,0.726954,-0.105839
2.61746,0.625982,-0.0626244
2.50596,0.72094,-0.0455159
2.73666,0.504742,-0.080988
2.63591,0.620675,0
2.87399,0.386026,-0.0337591
2.72762,0.503073,-0.353046
2.52168,0.725462,0.0152505
2.76138,0.5093,-0.0163199
2.87359,0.385972,-0.270653
2.64688,0.623257,0.0632757
2.87796,0.386559,0.0338057
2.61784,0.61642,-0.188063
2.74443,0.506174,-0.227821
2.51681,0.724061,0.0762172
2.76887,0.510682,0.049146
2.8812,0.386994,-0.169301
2.65089,0.624202,0.158603
2.77093,0.511061,0.114795
2.62528,0.618171,-0.125634
2.75764,0.50861,-0.146959
2.76403,0.509789,0.229448
2.50426,0.720453,-0.106165
2.63131,0.619591,-0.0629035
2.50461,0.711096,-0.0454461
2.74234,0.495897,-0.0811044
2.63806,0.61147,0
2.87929,0.37651,-0.0338057
2.73326,0.494254,-0.353551
2.52419,0.716654,0.0152505
2.7592,0.498945,-0.0162966
2.66462,0.617625,0.0636479
2.89119,0.378066,0.0339454
2.63164,0.60998,-0.188901
2.75402,0.498009,-0.228471
2.52701,0.717455,0.0764499
2.77064,0.501013,0.049146
2.88649,0.377452,-0.169533
2.65305,0.614944,0.158603
2.77663,0.502096,0.114957
2.6391,0.61171,-0.126192
2.76726,0.500402,-0.147378
2.77364,0.501556,0.230099
2.51061,0.712798,-0.106327
2.63345,0.610401,-0.0629035
2.51478,0.704507,-0.0455857
2.74406,0.486322,-0.0811044
2.64408,0.603148,0
2.88852,0.367467,-0.0338988
2.74669,0.486788,-0.355066
2.53438,0.709997,0.015297
2.76881,0.490707,-0.0163431
2.65896,0.606542,0.0634618
2.89646,0.368476,0.033992
2.63375,0.600791,-0.188901
2.76752,0.49048,-0.229448
2.53335,0.709709,0.0765663
2.77631,0.492037,0.0492158
2.89572,0.368382,-0.169998
2.66297,0.607456,0.159068
2.7823,0.493099,0.11512
2.63732,0.601606,-0.126006
2.77292,0.491437,-0.147587
2.7793,0.492567,0.230424
2.52078,0.706186,-0.106653
2.64336,0.602984,-0.0630896
2.52494,0.697854,-0.0457253
2.75756,0.478791,-0.0814535
2.64617,0.593914,0
2.90567,0.359345,-0.0340851
2.75619,0.478554,-0.356076
2.54456,0.703277,0.0153435
2.78232,0.483092,-0.0164128
2.66886,0.599007,0.0636479
2.90567,0.359345,0.0340851
2.63583,0.591593,-0.188901
2.77707,0.48218,-0.230099
2.53967,0.701926,0.0766826
2.78983,0.484394,0.0494252
2.90887,0.359742,-0.170696
2.67286,0.599905,0.159533
2.79582,0.485434,0.115609
2.655,0.595896,-0.126751
2.77856,0.482438,-0.147797
2.78886,0.484226,0.231075
2.52708,0.698447,-0.106816
2.65716,0.59638,-0.0633688
2.53507,0.691141,-0.0458649
2.76315,0.469833,-0.0815699
2.66385,0.588123,0
2.9069,0.349201,-0.0340851
2.76567,0.470261,-0.357087
2.55085,0.695443,0.0153667
2.79582,0.475389,-0.0164826
2.64076,0.583026,-0.291304
2.67875,0.591413,0.0638341
2.91484,0.350155,0.0341782
2.64567,0.58411,-0.189459
2.77481,0.471815,-0.229773
2.54982,0.69516,0.0769154
2.79939,0.475995,0.0495648
2.53412,0.690881,-0.168336
2.92201,0.351015,-0.171394
2.67884,0.591433,0.159766
2.79749,0.475672,0.115609
2.65706,0.586625,-0.126751
2.7881,0.474075,-0.148215
2.79446,0.475157,0.231401
2.53722,0.691725,-0.107142
2.67094,0.589688,-0.0636479
2.54133,0.683327,-0.0459347
2.77267,0.461499,-0.0818026
2.6698,0.57967,0
2.92002,0.340442,-0.0342248
2.76729,0.460605,-0.357087
2.55713,0.687574,0.0153899
2.80141,0.466284,-0.0165058
2.69252,0.584604,0.0641132
2.93194,0.341831,0.0343645
2.65939,0.577412,-0.190296
2.79217,0.464746,-0.231075
2.55609,0.687295,0.0770317
2.80498,0.466877,0.0496346
2.93115,0.341739,-0.171859
2.6926,0.584621,0.160464
2.81491,0.46853,0.11626
2.67081,0.57989,-0.127309
2.79762,0.465653,-0.148634
2.69257,0.584616,0.338309
2.8079,0.467364,0.232377
2.53961,0.682864,-0.107142
2.67689,0.58121,-0.063741
2.54757,0.675476,-0.0460045
2.79004,0.454388,-0.082268
2.67963,0.572017,0
2.93709,0.332043,-0.034411
2.77672,0.452217,-0.358097
2.56338,0.679668,0.0154132
2.81092,0.457787,-0.0165523
2.65255,0.566236,-0.292161
2.70628,0.577706,0.0643924
2.94106,0.332493,0.0344576
2.66139,0.568124,-0.190296
2.80165,0.456277,-0.231726
2.5662,0.680417,0.0772645
2.81843,0.459011,0.0498441
2.54274,0.674196,-0.168592
2.93629,0.331953,-0.172092
2.69853,0.576051,0.160696
2.82441,0.459985,0.116586
2.68454,0.573066,-0.127868
2.80317,0.456526,-0.148843
2.69848,0.576042,0.338797
2.81345,0.4582,0.232702
2.55744,0.678092,-0.107793
2.6789,0.571862,-0.063741
2.54991,0.66658,-0.0460045
2.79161,0.444647,-0.082268
2.68944,0.564303,0
2.94221,0.322225,-0.0344576
2.78612,0.443771,-0.359107
2.57348,0.67274,0.0154597
2.81645,0.448602,-0.0165756
2.66618,0.559424,-0.293446
2.70828,0.568256,0.0643924
2.95414,0.323531,0.0345973
2.67898,0.562109,-0.191412
2.8111,0.44775,-0.232377
2.57243,0.672466,0.0773808
2.82002,0.449171,0.0498441
2.5528,0.667336,-0.169104
2.70834,0.568269,0.161161
2.82206,0.449495,0.116423
2.68261,0.562871,-0.127681
2.82447,0.44988,-0.14989
2.71602,0.56988,0.340747
2.82291,0.449631,0.233353
2.55979,0.669161,-0.107793
2.68871,0.56415,-0.0639271
2.57159,0.662664,-0.0463536
2.805,0.436744,-0.0826171
2.69139,0.554911,0
2.95127,0.312795,-0.0345507
2.79549,0.435263,-0.360117
2.58743,0.666746,0.0155294
2.82985,0.440614,-0.0166453
2.66423,0.54931,-0.293018
2.71808,0.560413,0.0645785
2.95525,0.313217,0.0345973
2.68483,0.553559,-0.191691
2.81658,0.438547,-0.232702
2.58251,0.665478,0.0776135
2.82947,0.440554,0.0499837
2.56285,0.660412,-0.169615
2.71813,0.560423,0.161626
2.83151,0.440871,0.116748
2.68456,0.553503,-0.127681
2.82208,0.439403,-0.149681
2.83234,0.441,0.234004
2.57372,0.663213,-0.108281
2.70241,0.557183,-0.0642063
2.57776,0.654669,-0.0464234
2.81046,0.427552,-0.0827335
2.70115,0.547102,0
2.9603,0.303307,-0.0346439
2.59362,0.658696,0.0155527
2.83928,0.431937,-0.0166918
2.67782,0.542376,-0.294303
2.73177,0.553304,0.0648576
2.96826,0.304123,0.034737
2.69066,0.544977,-0.19197
2.82598,0.429912,-0.233353
2.58869,0.657444,0.0777299
2.84681,0.433081,0.0502629
2.57288,0.653428,-0.170127
2.72398,0.551725,0.161859
2.84093,0.432187,0.117074
2.69823,0.546509,-0.12824
2.83149,0.430751,-0.1501
2.58376,0.656193,-0.108607
2.70826,0.548541,-0.0642993
2.58756,0.648511,-0.046563
2.82761,0.421075,-0.0831989
2.7107,0.540176,0
2.97318,0.29519,-0.0347836
2.59567,0.650544,0.0155527
2.84063,0.423014,-0.0166918
2.67951,0.53396,-0.294303
2.73742,0.5455,0.0649507
2.98114,0.295981,0.0348767
2.70019,0.53808,-0.192528
2.84309,0.42338,-0.234655
2.59462,0.650279,0.0778463
2.84815,0.424135,0.0502629
2.57879,0.646311,-0.170383
2.74136,0.546286,0.162789
2.85809,0.425614,0.117725
2.71168,0.540371,-0.128798
2.85259,0.424795,-0.151146
2.58969,0.649044,-0.10877
2.72173,0.542374,-0.0645785
2.59369,0.640434,-0.0466328
2.83698,0.412353,-0.0834316
2.72042,0.532247,0
2.98215,0.285573,-0.0348767
2.6057,0.643397,0.0155992
2.85396,0.414822,-0.0167616
2.68916,0.526131,-0.295159
2.74323,0.53671,0.0650437
2.99012,0.286336,0.0349698
2.70988,0.530184,-0.193086
2.84849,0.414027,-0.234981
2.60464,0.643136,0.078079
2.86149,0.415917,0.0504724
2.59265,0.640177,-0.17115
2.73542,0.53518,0.162324
2.86746,0.416785,0.118051
2.71355,0.530903,-0.128798
2.86196,0.415985,-0.151565
2.60358,0.642875,-0.109258
2.72754,0.533639,-0.0646715
2.6038,0.632813,-0.0467725
2.83847,0.401953,-0.0834316
2.73807,0.525288,0
2.99115,0.275375,-0.0349698
2.61581,0.635732,0.0156457
2.86734,0.406042,-0.0168313
2.69889,0.517771,-0.296016
2.74911,0.527406,0.0651368
3.00708,0.276842,0.0351561
2.71964,0.521753,-0.193644
2.86183,0.405262,-0.235957
2.61475,0.635474,0.0783117
2.87092,0.406548,0.050612
2.59886,0.631613,-0.171406
2.75305,0.528161,0.163254
2.86502,0.405713,0.117888
2.71941,0.521707,-0.128984
2.87137,0.406613,-0.151984
2.61369,0.635216,-0.109584
2.73733,0.525146,-0.0648576
2.61366,0.626039,-0.0469121
2.85167,0.394181,-0.0837807
2.73586,0.515465,0
3.00001,0.266162,-0.0350629
2.62179,0.627987,0.0156689
2.86867,0.396532,-0.0168313
2.71622,0.511764,-0.29773
2.75477,0.519028,0.0652298
3.004,0.266516,0.0351095
2.71744,0.511993,-0.193365
2.86711,0.396316,-0.236282
2.62462,0.628663,0.0785444
2.88413,0.398669,0.0508214
2.61259,0.625782,-0.172174
2.75478,0.519029,0.163254
2.87426,0.397305,0.118214
2.7329,0.514907,-0.129543
2.87666,0.397636,-0.152193
2.61966,0.627477,-0.109747
2.74691,0.517547,-0.0650437
2.62361,0.618747,-0.0470517
2.86095,0.385291,-0.0840135
2.74158,0.506638,0
3.00889,0.256367,-0.0351561
2.63176,0.620667,0.0157154
2.87797,0.387583,-0.0168778
2.71799,0.502279,-0.29773
2.76836,0.511588,0.065509
3.01686,0.257046,0.0352492
2.72313,0.503229,-0.193644
2.87638,0.387369,-0.236933
2.6268,0.619497,0.0785444
2.89343,0.389666,0.050961
2.61864,0.617574,-0.17243
2.77228,0.512312,0.164185
2.89148,0.389402,0.118865
2.74254,0.506815,-0.129915
2.88199,0.388125,-0.152402
2.91589,0.39269,0.240188
2.62573,0.619245,-0.10991
2.75657,0.509408,-0.0652298
2.63755,0.611838,-0.0472611
2.8782,0.37688,-0.0844789
2.75129,0.498012,0
3.01779,0.245988,-0.0352492
2.63401,0.611017,0.0157154
2.89524,0.37911,-0.0169708
2.72764,0.493731,-0.298587
2.78203,0.503575,0.0657882
3.02975,0.246963,0.0353889
2.74066,0.496088,-0.19476
2.88568,0.37786,-0.237584
2.64073,0.612576,0.0788935
2.89881,0.379578,0.0510308
2.62478,0.608875,-0.172685
2.782,0.503571,0.16465
2.89685,0.379321,0.119028
2.75617,0.498896,-0.130473
2.89528,0.379116,-0.15303
2.63577,0.611424,-0.110235
2.76629,0.500726,-0.0654159
2.63577,0.601737,-0.0471913
2.8914,0.368346,-0.084828
2.76483,0.4905,0
3.0266,0.236074,-0.0353423
2.72029,0.482599,-0.429822
2.64393,0.603599,0.0157619
2.90448,0.370012,-0.0170173
2.73718,0.485595,-0.299443
2.7877,0.494559,0.0658812
3.04255,0.237318,0.0355286
2.74631,0.487215,-0.195039
2.91072,0.370807,-0.239537
2.65845,0.606914,0.079359
2.91599,0.371478,0.0513101
2.63078,0.600597,-0.172941
2.77981,0.493158,0.164417
2.90608,0.370217,0.119354
2.7697,0.491365,-0.131032
2.9164,0.37153,-0.154077
2.64958,0.604888,-0.110724
2.77589,0.492463,-0.0656021
2.65347,0.596039,-0.0474705
2.8887,0.35776,-0.0847116
2.77046,0.481532,0
2.65383,0.59612,0.0158084
2.91369,0.360855,-0.0170638
2.74669,0.4774,-0.3003
2.78941,0.484825,0.0658812
3.03937,0.226399,0.035482
2.75978,0.479676,-0.195876
2.66055,0.597631,0.079359
2.92917,0.362772,0.0515195
2.64844,0.59491,-0.173965
2.79332,0.485504,0.165115
2.91529,0.361053,0.119679
2.76746,0.48101,-0.130846
2.92164,0.36184,-0.154286
2.65947,0.597388,-0.111049
2.78153,0.483456,-0.0656951
2.66324,0.588963,-0.0476102
2.90178,0.349613,-0.0850607
2.77205,0.472341,0
2.66751,0.589907,0.0158782
2.92678,0.352626,-0.0171335
2.7561,0.469625,-0.301157
2.80283,0.477587,0.0661604
2.76529,0.471191,-0.196155
2.67423,0.591394,0.0797081
2.9383,0.354013,0.0516591
2.65819,0.587847,-0.174476
2.79491,0.476238,0.165115
2.92441,0.352339,0.120005
2.78086,0.473843,-0.131404
2.92679,0.352626,-0.154496
2.66924,0.590291,-0.111375
2.79495,0.476244,-0.0659743
2.66929,0.580047,-0.04768
2.91098,0.339901,-0.0852934
2.79743,0.466122,0
2.67747,0.581824,0.0159246
2.93998,0.343287,-0.0172033
2.76957,0.46148,-0.302442
2.80062,0.466653,0.0660673
2.77881,0.463019,-0.196992
2.67638,0.581588,0.0797081
2.94752,0.344168,0.0517987
2.66423,0.578947,-0.174732
2.80846,0.467959,0.165813
2.93759,0.343008,0.120494
2.7944,0.465617,-0.131962
2.93996,0.343286,-0.155124
2.66748,0.579654,-0.111212
2.80456,0.46731,-0.0661604
2.67912,0.572398,-0.0478196
2.9201,0.330638,-0.0855262
2.80299,0.456999,0
2.67948,0.572475,0.0159246
2.94911,0.333923,-0.0172498
2.77509,0.45245,-0.30287
2.82197,0.460092,0.0665326
2.78435,0.453959,-0.197271
2.69012,0.574749,0.0800572
2.95665,0.334778,0.0519384
2.67404,0.571313,-0.175244
2.81795,0.459438,0.166278
2.95465,0.334551,0.121145
2.80784,0.457789,-0.132521
2.94511,0.333471,-0.155333
2.67731,0.57201,-0.111538
2.81013,0.458162,-0.0662534
2.69274,0.565979,-0.048029
2.9331,0.322264,-0.0858753
2.82424,0.450854,0
2.69311,0.566055,0.0159944
2.95417,0.324579,-0.017273
2.78051,0.443873,-0.303299
2.83137,0.451993,0.0667187
2.80554,0.447869,-0.198666
2.70375,0.568292,0.0804062
2.9657,0.325846,0.052078
2.67592,0.562443,-0.175244
2.81552,0.449462,0.166045
2.95972,0.325189,0.121308
2.81724,0.449736,-0.132893
2.96209,0.325448,-0.156171
2.68701,0.564773,-0.111864
2.81163,0.448841,-0.0662534
2.6948,0.556106,-0.048029
2.93426,0.311512,-0.0858753
2.82983,0.441117,0
2.703,0.557798,0.0160409
2.96728,0.315017,-0.0173428
2.79783,0.436129,-0.305012
2.83696,0.442229,0.0668117
2.8111,0.438198,-0.198945
2.71365,0.559996,0.080639
2.97483,0.315819,0.0522176
2.68969,0.555052,-0.176011
2.82504,0.440371,0.16651
2.97281,0.315605,0.121796
2.82281,0.440023,-0.133079
2.9712,0.315434,-0.156589
2.7008,0.557345,-0.112352
2.82116,0.439765,-0.0664395
2.70848,0.549079,-0.0482385
2.95124,0.3029,-0.0863407
2.83135,0.431235,0
2.71669,0.550743,0.0161106
2.97631,0.305473,-0.0173892
2.8072,0.427557,-0.305869
2.84244,0.432925,0.0669048
2.81656,0.428983,-0.199224
2.71951,0.551314,0.0807553
2.98785,0.306657,0.052427
2.69553,0.546452,-0.176267
2.84235,0.432911,0.16744
2.9739,0.305225,0.121796
2.82828,0.430768,-0.133265
2.70665,0.548708,-0.112515
2.82663,0.430517,-0.0665326
2.71804,0.542133,-0.0483781
2.96014,0.294419,-0.0865734
2.84456,0.424108,0
2.71841,0.542206,0.0161106
2.99716,0.298101,-0.0175055
2.82033,0.420496,-0.307154
2.84774,0.424583,0.0669978
2.82579,0.42131,-0.199783
2.72514,0.54355,0.0808717
2.9888,0.297269,0.052427
2.70506,0.539543,-0.176779
2.85159,0.425158,0.167906
2.84148,0.423649,-0.133824
2.7162,0.541766,-0.112841
2.84774,0.424583,-0.0669978
2.71991,0.532641,-0.0483781
2.96512,0.284465,-0.0866898
2.85394,0.415328,0
2.72028,0.532713,0.0161106
2.99818,0.287637,-0.0175055
2.83359,0.412366,-0.30844
2.86504,0.416943,0.0673701
2.83514,0.412592,-0.200341
2.73095,0.534802,0.080988
3.00176,0.28798,0.0526365
2.70692,0.530097,-0.176779
2.86887,0.417501,0.168836
2.85875,0.416029,-0.134568
2.722,0.533048,-0.113003
2.86108,0.416367,-0.067277
2.72569,0.523897,-0.0484479
2.97406,0.274848,-0.0869225
2.86725,0.407049,0
2.73784,0.526233,0.0162036
3.01112,0.278273,-0.0175752
2.88231,0.409187,0.0677423
2.84446,0.403814,-0.200899
2.74851,0.528284,0.0814535
3.01469,0.278603,0.0528459
2.72052,0.522904,-0.177546
2.87426,0.408044,0.169068
2.86019,0.406047,-0.134568
2.73562,0.525806,-0.113492
2.86252,0.406377,-0.067277
2.73161,0.514168,-0.0485177
2.88464,0.398225,0
2.7477,0.517197,0.0162501
3.01615,0.267062,-0.0175985
2.88782,0.398664,0.0678353
2.8618,0.395073,-0.202015
2.75837,0.519206,0.0816862
3.02371,0.267732,0.0529855
2.73035,0.513932,-0.178058
2.87976,0.397552,0.169301
2.87756,0.397248,-0.135313
2.74547,0.516778,-0.113818
2.87198,0.396477,-0.0674631
2.74518,0.506809,-0.0487271
2.88601,0.388154,0
2.76129,0.509782,0.0163199
3.03699,0.258227,-0.0177147
2.90109,0.390181,0.0681145
2.87108,0.386145,-0.202573
2.76017,0.509575,0.0816862
3.03259,0.257854,0.0531251
2.74391,0.506573,-0.178825
2.88905,0.388562,0.169766
2.88289,0.387734,-0.135499
2.75119,0.507917,-0.11398
2.88127,0.387516,-0.0676492
2.75857,0.500322,-0.0489365
2.89119,0.379606,0
2.77468,0.503245,0.0163896
3.03779,0.248684,-0.0177147
2.90626,0.381585,0.0682075
2.88019,0.378161,-0.203131
2.76569,0.501614,0.0818026
3.03738,0.248651,0.0531949
2.75334,0.499374,-0.179337
2.91401,0.382602,0.171161
2.89994,0.380755,-0.136243
2.7567,0.499984,-0.114143
2.89833,0.380544,-0.0680214
2.76432,0.490907,-0.0490064
2.90843,0.37103,0
2.77257,0.492372,0.0163664
3.04267,0.23786,-0.017738
2.92748,0.37346,0.0686728
2.89343,0.369116,-0.203968
2.78326,0.49427,0.082268
2.75908,0.489977,-0.179593
2.93124,0.37394,0.172092
2.90528,0.370628,-0.136429
2.76639,0.491274,-0.114469
2.90764,0.37093,-0.0682075
2.76208,0.48057,-0.0489365
2.91765,0.361861,0
2.7861,0.484749,0.0164361
3.04348,0.227238,-0.017738
2.93273,0.363732,0.0687658
2.90658,0.360488,-0.204805
2.7889,0.485237,0.0823844
2.76471,0.481027,-0.179849
2.92856,0.363215,0.171859
2.91845,0.361961,-0.136988
2.77596,0.482985,-0.114795
2.90892,0.360779,-0.0682075
2.77548,0.473426,-0.049146
2.9228,0.352663,0
2.79163,0.47618,0.0164593
2.94583,0.355442,0.069045
2.91568,0.351804,-0.205363
2.79444,0.476659,0.0825008
2.77416,0.4732,-0.18036
2.93768,0.354459,0.172324
2.91964,0.352281,-0.136988
2.78542,0.475121,-0.11512
2.91804,0.352089,-0.0683936
2.78509,0.464567,-0.0492856
2.93599,0.343343,0
2.80519,0.46792,0.0165291
2.94711,0.344643,0.069045
2.80405,0.46773,0.0827335
2.78375,0.464343,-0.180872
2.94292,0.344154,0.172557
2.92488,0.342043,-0.137174
2.80292,0.46754,-0.115772
2.93123,0.342785,-0.0686728
2.79451,0.456617,-0.0494252
2.93711,0.333604,0
2.81857,0.460549,0.0165988
2.96016,0.336222,0.0693242
2.80559,0.458428,0.0827335
2.79315,0.456396,-0.181384
2.92996,0.332792,-0.13736
2.80051,0.457597,-0.115609
2.94427,0.334416,-0.0689519
2.80793,0.448753,-0.0496346
2.95019,0.324661,0
2.82016,0.450707,0.0165988
2.97324,0.327198,0.0696033
2.81902,0.450524,0.0830826
2.80261,0.447902,-0.181895
2.94699,0.32431,-0.138104
2.81393,0.449711,-0.116097
2.95734,0.325448,-0.0692311
2.80948,0.43895,-0.0496346
2.95926,0.315211,0
2.83358,0.442715,0.0166686
2.98629,0.31809,0.0698825
2.82452,0.4413,0.0831989
2.81205,0.439351,-0.182407
2.94811,0.314023,-0.138104
2.82338,0.441121,-0.116423
2.95448,0.314702,-0.0691381
2.81898,0.429854,-0.0497743
2.96835,0.305178,0
2.83518,0.432324,0.0166686
2.98744,0.307141,0.0698825
2.84193,0.433354,0.0836644
2.81758,0.429641,-0.182663
2.84473,0.43378,-0.117237
2.97551,0.305914,-0.0696033
2.8401,0.423949,-0.0501233
2.97726,0.296645,0
2.84839,0.425187,0.0167383
2.99635,0.298547,0.0700686
2.85119,0.425605,0.0838971
2.83866,0.423734,-0.183942
2.85003,0.425432,-0.1174
2.98441,0.297358,-0.0697894
2.8535,0.415265,-0.0503327
2.98231,0.286114,0
2.85785,0.415897,0.0167848
3.00538,0.288328,0.0702547
2.85273,0.415152,0.0838971
2.84809,0.414478,-0.184454
2.85553,0.415559,-0.117563
3.00538,0.288328,-0.0702547
2.85889,0.405863,-0.0504026
2.99922,0.277173,0
2.85532,0.405356,0.0167616
3.01832,0.278938,0.0705338
2.86604,0.406877,0.0842462
2.85348,0.405094,-0.184709
2.86092,0.40615,-0.117725
3.01035,0.278202,-0.0703477
2.86815,0.397479,-0.0505422
3.00809,0.267936,0
2.86854,0.397533,0.0168313
3.02321,0.269283,0.0706269
2.87925,0.399018,0.0845953
2.86271,0.396725,-0.185221
2.87808,0.398856,-0.118377
3.01126,0.268219,-0.0703477
2.87744,0.388536,-0.0506818
3.02096,0.258458,0
2.8818,0.389124,0.016901
3.03608,0.259752,0.0709061
2.88855,0.390036,0.084828
2.8799,0.388868,-0.186244
2.89134,0.390412,-0.118865
2.89075,0.379548,-0.0508912
3.02588,0.24771,0
2.8951,0.38012,0.0169708
2.90186,0.381007,0.0851771
2.88922,0.379348,-0.186756
2.90068,0.380852,-0.119191
2.90389,0.371481,-0.0511006
3.03466,0.2383,0
2.90428,0.371532,0.0170173
2.91104,0.372396,0.0854098
2.89839,0.370777,-0.187268
2.91382,0.372752,-0.119679
2.91707,0.362824,-0.0513101
3.04744,0.228603,0
2.90556,0.361392,0.0170173
2.91628,0.362726,0.0855262
2.91155,0.362137,-0.188035
2.927,0.364059,-0.120168
2.92236,0.35261,-0.0513799
2.91878,0.352179,0.017087
2.93347,0.353951,0.0859916
2.91285,0.351463,-0.188035
2.93228,0.353808,-0.120331
2.93151,0.343336,-0.0515195
2.93986,0.344314,0.0172033
2.94263,0.344639,0.0862243
2.94144,0.344499,-0.120656
2.94058,0.334518,-0.0516591
2.94098,0.334563,0.0172033
2.9517,0.335783,0.0864571
2.95448,0.336099,-0.121145
2.95366,0.325565,-0.0518686
2.96201,0.326486,0.0173195
2.96081,0.326353,0.0866898
2.95961,0.326221,-0.121308
2.96268,0.316618,-0.0520082
2.96308,0.316661,0.0173195
2.96982,0.317382,0.0869225
2.96465,0.316828,-0.121471
2.95978,0.305865,-0.0519384
2.96814,0.306729,0.0173428
2.98285,0.308248,0.0872716
2.98561,0.308534,-0.122285
2.98078,0.296997,-0.0522874
2.98915,0.29783,0.017459
2.98793,0.297709,0.087388
2.98976,0.287356,-0.052427
3.00211,0.288543,0.0175287
3.00487,0.288808,0.0878534
2.99867,0.278178,-0.0525666
3.015,0.279694,0.0175985
3.00759,0.268419,-0.0527063
3.01596,0.269167,0.0175985
3.01249,0.258262,-0.0527761
3.02884,0.259663,0.0176682
3.0377,0.249744,0.0177147
3.0545,0.240396,0.0178077
