2.38669,0.707627,-0.260722
2.39003,0.692693,-0.260618
2.38973,0.660925,-0.259681
2.38181,0.752069,-0.285639
2.37606,0.642233,-0.167235
2.39182,0.645731,-0.259472
2.38827,0.738027,-0.285866
2.37031,0.625098,-0.166557
2.39092,0.629776,-0.258952
2.3842,0.720771,-0.284844
2.39089,0.614104,-0.258535
2.38572,0.705284,-0.284503
2.39175,0.705433,-0.377346
2.40258,0.612594,-0.444648
2.38979,0.598215,-0.258014
2.38714,0.689804,-0.284162
2.40071,0.598677,-0.350989
2.39033,0.6891,-0.376448
2.40247,0.596891,-0.443942
2.36968,0.670062,-0.191086
2.38762,0.582127,-0.257389
2.38368,0.672985,-0.283253
2.3888,0.672812,-0.37555
2.37232,0.563741,-0.165676
2.3824,0.657897,-0.191783
2.38727,0.566547,-0.256972
2.37818,0.655705,-0.282117
2.37379,0.748336,-0.308516
2.38907,0.657093,-0.374952
2.3679,0.549323,-0.0769849
2.3767,0.549399,-0.165744
2.37677,0.640672,-0.191009
2.39167,0.552112,-0.257077
2.38216,0.641101,-0.282117
2.37549,0.732879,-0.308147
2.40071,0.551947,-0.349445
2.38924,0.641397,-0.374353
2.40537,0.55081,-0.44253
2.37317,0.535223,-0.0770482
2.37906,0.534586,-0.165676
2.37583,0.624809,-0.190622
2.39405,0.537209,-0.256972
2.3774,0.624201,-0.281094
2.37614,0.717143,-0.307655
2.39728,0.535694,-0.348461
2.38835,0.625472,-0.373605
2.40198,0.534544,-0.441295
2.37641,0.520652,-0.0770482
2.37937,0.519341,-0.165473
2.37479,0.608981,-0.190235
2.39633,0.522297,-0.256868
2.3783,0.608863,-0.280754
2.38145,0.70283,-0.307778
2.39762,0.520345,-0.34804
2.39023,0.610316,-0.373306
2.39945,0.518548,-0.440236
2.38998,0.608786,-0.466368
2.39953,0.516594,-0.534361
2.37565,0.505229,-0.0769216
2.38056,0.504318,-0.165337
2.3917,0.505937,-0.256035
2.38286,0.68738,-0.307408
2.40368,0.506236,-0.348461
2.38913,0.594445,-0.372558
2.40258,0.503816,-0.440236
2.38794,0.59269,-0.465253
2.40265,0.501861,-0.534361
2.37283,0.489431,-0.0767317
2.3797,0.488898,-0.165066
2.37292,0.669887,-0.214764
2.39671,0.491652,-0.256243
2.3827,0.578928,-0.280413
2.39995,0.490091,-0.347478
2.38985,0.579076,-0.372109
2.39387,0.673861,-0.400831
2.39984,0.487888,-0.439176
2.39345,0.578488,-0.465624
2.40281,0.486527,-0.533723
2.37285,0.474275,-0.0766367
2.37874,0.473508,-0.164795
2.37699,0.655314,-0.214764
2.3909,0.475192,-0.255306
2.3862,0.564297,-0.280413
2.38168,0.749209,-0.334113
2.40194,0.475164,-0.347338
2.38758,0.56304,-0.371211
2.39225,0.65759,-0.399876
2.39989,0.472583,-0.438647
2.39217,0.562667,-0.464695
2.40288,0.471211,-0.533085
2.3816,0.458904,-0.164795
2.38,0.640458,-0.214677
2.39084,0.459949,-0.254993
2.38672,0.548977,-0.280072
2.38073,0.63954,-0.305563
2.38908,0.735456,-0.33451
2.40189,0.459858,-0.346916
2.38521,0.547053,-0.370314
2.39052,0.641364,-0.398922
2.40081,0.45748,-0.438294
2.38983,0.546663,-0.463581
2.41148,0.457551,-0.534361
2.38339,0.444099,-0.164727
2.37714,0.624072,-0.21407
2.38059,0.71756,-0.240681
2.3946,0.445453,-0.255098
2.38616,0.533455,-0.279617
2.39355,0.720783,-0.33451
2.40272,0.444751,-0.346635
2.38466,0.531547,-0.369715
2.38868,0.625184,-0.397967
2.40261,0.442562,-0.438117
2.4056,0.441159,-0.532447
2.40384,0.437715,-0.628895
2.38607,0.429467,-0.164727
2.37803,0.608733,-0.213809
2.37826,0.700969,-0.240007
2.39631,0.430575,-0.254993
2.37782,0.607575,-0.30421
2.39507,0.705243,-0.334113
2.40345,0.429652,-0.346355
2.39271,0.517951,-0.370463
2.3896,0.609783,-0.397489
2.39655,0.42626,-0.436529
2.40826,0.426391,-0.532447
2.40218,0.516666,-0.55946
2.40934,0.42346,-0.629642
2.37492,0.414353,-0.0763518
2.37689,0.592925,-0.213375
2.3806,0.685812,-0.239814
2.39694,0.415524,-0.254785
2.38183,0.501879,-0.278368
2.38054,0.592733,-0.304087
2.40507,0.414728,-0.346214
2.39488,0.503056,-0.370314
2.38754,0.59368,-0.396535
2.4001,0.411714,-0.436705
2.40505,0.410619,-0.53117
2.40435,0.501717,-0.559238
2.4138,0.408992,-0.630141
2.3784,0.399939,-0.0763835
2.37935,0.398178,-0.163914
2.38381,0.670923,-0.239718
2.39651,0.400317,-0.254473
2.38195,0.486659,-0.278027
2.38221,0.577648,-0.303841
2.40073,0.398827,-0.345231
2.39017,0.486774,-0.369117
2.39498,0.579949,-0.397171
2.40452,0.3973,-0.437058
2.39015,0.577102,-0.489049
2.40547,0.486568,-0.558794
2.40862,0.392926,-0.628147
2.37,0.384395,0.0115239
2.37884,0.385018,-0.0763202
2.38175,0.383571,-0.163914
2.37623,0.561878,-0.212681
2.38308,0.654964,-0.239236
2.40088,0.385921,-0.254681
2.38088,0.56188,-0.303226
2.39618,0.657889,-0.332521
2.40216,0.383933,-0.34509
2.38923,0.471333,-0.368518
2.39465,0.564337,-0.396535
2.38962,0.65564,-0.424318
2.40399,0.382075,-0.436529
2.40605,0.380464,-0.53032
2.41128,0.472362,-0.55946
2.41098,0.37814,-0.628147
2.37621,0.369647,-0.0761619
2.3811,0.368491,-0.16371
2.37672,0.546617,-0.212421
2.38417,0.639556,-0.238947
2.39829,0.370423,-0.25416
2.38041,0.546373,-0.302734
2.3973,0.642404,-0.332123
2.40447,0.369186,-0.34509
2.39305,0.45685,-0.368668
2.39229,0.548309,-0.39558
2.39455,0.64122,-0.424486
2.40046,0.366426,-0.43547
2.40351,0.36496,-0.529256
2.41222,0.457194,-0.559016
2.41517,0.363628,-0.628645
2.36944,0.355703,0.0981597
2.38529,0.354167,-0.163846
2.38003,0.532024,-0.212421
2.38709,0.624663,-0.238851
2.39953,0.355555,-0.254056
2.38372,0.531757,-0.302734
2.40669,0.354426,-0.34509
2.39369,0.533191,-0.395262
2.3889,0.624025,-0.422799
2.40266,0.351691,-0.43547
2.3937,0.440344,-0.460236
2.4028,0.349784,-0.528618
2.41114,0.441682,-0.558128
2.41257,0.34811,-0.627399
2.37158,0.341158,0.0981597
2.38841,0.339665,-0.163914
2.37979,0.426648,-0.187605
2.3813,0.516988,-0.212247
2.3822,0.60779,-0.237983
2.40462,0.341244,-0.254368
2.38694,0.51712,-0.302734
2.39443,0.610244,-0.330664
2.41078,0.339928,-0.345371
2.39068,0.426061,-0.367471
2.39691,0.518494,-0.395262
2.39746,0.610571,-0.423642
2.40185,0.336532,-0.43494
2.39636,0.425648,-0.460236
2.41554,0.336517,-0.530958
2.41093,0.42637,-0.557462
2.41178,0.332903,-0.626651
2.41551,0.425703,-0.6562
2.37363,0.3266,0.0981597
2.37866,0.325304,-0.0760353
2.38451,0.324198,-0.163507
2.38345,0.502161,-0.212161
2.38685,0.593402,-0.23808
2.40372,0.326082,-0.254056
2.38424,0.50124,-0.301996
2.39232,0.502154,-0.393989
2.39925,0.595374,-0.423305
2.40289,0.321657,-0.434763
2.40691,0.320271,-0.528618
2.4135,0.411569,-0.557462
2.41858,0.318731,-0.627898
2.41427,0.410226,-0.655166
2.37658,0.31216,0.0982006
2.37135,0.48659,-0.0344362
2.38745,0.309689,-0.163575
2.38259,0.486729,-0.211813
2.38464,0.57734,-0.237502
2.3855,0.396538,-0.27655
2.39536,0.487466,-0.393989
2.40478,0.581105,-0.423642
2.40287,0.306658,-0.43441
2.41562,0.306357,-0.530107
2.41309,0.396278,-0.556796
2.4176,0.303523,-0.62715
2.41769,0.395561,-0.655424
2.37944,0.297695,0.0982416
2.37429,0.47203,-0.0344362
2.37371,0.470623,-0.122333
2.38732,0.294789,-0.163439
2.38259,0.471521,-0.211553
2.38426,0.561784,-0.237116
2.38986,0.382207,-0.276777
2.38339,0.470598,-0.301135
2.39249,0.471613,-0.393034
2.4035,0.56521,-0.422799
2.4047,0.291909,-0.43441
2.41357,0.291062,-0.529256
2.41259,0.381008,-0.55613
2.41461,0.28811,-0.625903
2.41149,0.379367,-0.653098
2.38122,0.28309,0.0982416
2.37439,0.281101,0.0114759
2.37125,0.456319,-0.0343508
2.38027,0.280997,-0.0759087
2.37655,0.456049,-0.122333
2.39008,0.280252,-0.163507
2.38462,0.367358,-0.187218
2.38251,0.45633,-0.211293
2.3896,0.547588,-0.237309
2.38725,0.366782,-0.276209
2.38526,0.455779,-0.301012
2.39999,0.549308,-0.32947
2.41348,0.280092,-0.344669
2.39534,0.456924,-0.393034
2.40404,0.549793,-0.422292
2.40352,0.27681,-0.433881
2.41434,0.276136,-0.529043
2.40524,0.364735,-0.55391
2.40208,0.455473,-0.581145
2.41537,0.27318,-0.625654
2.41281,0.364419,-0.65284
2.38093,0.26825,0.0981597
2.37508,0.266415,0.0114711
2.37105,0.441212,-0.0343082
2.37175,0.530331,-0.0575707
2.38493,0.26672,-0.0760036
2.37537,0.440729,-0.122131
2.37983,0.532006,-0.147099
2.38878,0.265251,-0.163304
2.3888,0.353011,-0.187373
2.38428,0.441521,-0.211206
2.39097,0.532483,-0.237116
2.38749,0.351837,-0.275982
2.38801,0.441134,-0.301012
2.39848,0.533496,-0.328807
2.41417,0.26517,-0.344529
2.39382,0.351235,-0.366124
2.39907,0.442397,-0.393193
2.40256,0.533962,-0.421448
2.40908,0.262484,-0.434587
2.41113,0.260791,-0.52798
2.4084,0.35011,-0.554132
2.40483,0.440726,-0.581145
2.41508,0.258148,-0.625156
2.41787,0.350023,-0.653615
2.38551,0.253953,0.0982825
2.37965,0.252153,0.0114855
2.3747,0.426832,-0.0343224
2.37105,0.514919,-0.057476
2.38851,0.252291,-0.0760669
2.37902,0.426322,-0.122182
2.37622,0.515911,-0.146677
2.39036,0.250588,-0.163304
2.39191,0.338486,-0.18745
2.38695,0.426883,-0.211206
2.3942,0.517802,-0.237116
2.39157,0.337459,-0.276209
2.39977,0.51835,-0.328542
2.39691,0.336678,-0.366274
2.39396,0.426284,-0.39192
2.40482,0.519002,-0.421279
2.40673,0.247295,-0.433881
2.3969,0.425168,-0.484172
2.41269,0.245992,-0.52798
2.4134,0.335729,-0.554798
2.40174,0.424945,-0.579758
2.42529,0.244198,-0.627399
2.41902,0.335048,-0.653357
2.38304,0.238912,0.0981188
2.36883,0.412109,0.0533461
2.37618,0.237051,0.0114615
2.37432,0.411741,-0.0342797
2.37319,0.500155,-0.0574523
2.39001,0.237631,-0.0760669
2.38159,0.411717,-0.122182
2.38032,0.501527,-0.146737
2.39483,0.236211,-0.163507
2.39097,0.323403,-0.187218
2.38854,0.41206,-0.211119
2.39538,0.502693,-0.236924
2.40048,0.323708,-0.277004
2.3864,0.410619,-0.300151
2.4,0.503006,-0.328144
2.39991,0.322096,-0.366423
2.39361,0.411086,-0.391443
2.40121,0.502823,-0.420098
2.41114,0.232806,-0.43441
2.41415,0.231183,-0.52798
2.41251,0.320529,-0.554132
2.42192,0.228856,-0.626153
2.42199,0.320326,-0.653615
2.36923,0.310548,0.162271
2.38447,0.224286,0.0981188
2.37131,0.397566,0.0533461
2.37384,0.39667,-0.0342371
2.37621,0.485584,-0.0574523
2.39541,0.223333,-0.0761935
2.38407,0.397096,-0.122182
2.38139,0.486513,-0.146617
2.39922,0.221787,-0.16371
2.38896,0.308215,-0.186909
2.38808,0.396906,-0.210859
2.39159,0.486597,-0.236249
2.39257,0.307705,-0.275868
2.3879,0.395806,-0.300028
2.39915,0.487481,-0.327613
2.40087,0.307238,-0.366274
2.39512,0.39623,-0.391284
2.39942,0.487099,-0.419254
2.41547,0.218273,-0.43494
2.41552,0.216366,-0.52798
2.4125,0.305475,-0.553688
2.42714,0.214332,-0.62715
2.42391,0.305458,-0.653615
2.42533,0.397489,-0.683656
2.36713,0.29551,0.162
2.38679,0.209738,0.0981597
2.37272,0.382849,0.0533239
2.38389,0.208309,0.0114855
2.37524,0.381938,-0.0342228
2.37817,0.470801,-0.0574286
2.39673,0.20863,-0.0761935
2.38153,0.38167,-0.121929
2.38238,0.471504,-0.146497
2.39755,0.206804,-0.163507
2.39278,0.293794,-0.187063
2.39145,0.382403,-0.210946
2.38867,0.470758,-0.235671
2.39639,0.29326,-0.276095
2.3893,0.38099,-0.299905
2.40113,0.472559,-0.327481
2.39878,0.292023,-0.365675
2.3975,0.381526,-0.391284
2.39753,0.471417,-0.41841
2.41578,0.203366,-0.434763
2.41583,0.201459,-0.527767
2.41723,0.291016,-0.554354
2.43227,0.199753,-0.628147
2.42094,0.290005,-0.652323
2.42582,0.3823,-0.68312
2.37485,0.194889,0.184897
2.36989,0.281098,0.162068
2.38505,0.194845,0.0980369
2.38413,0.193597,0.0114807
2.37458,0.366899,-0.0341802
2.37905,0.455823,-0.0573813
2.39697,0.19384,-0.0761619
2.3858,0.367354,-0.12203
2.38424,0.45669,-0.146436
2.40275,0.192408,-0.163778
2.39256,0.278876,-0.186909
2.39375,0.367723,-0.210946
2.39641,0.457025,-0.236153
2.40406,0.279239,-0.276777
2.39061,0.366172,-0.299782
2.39856,0.277072,-0.365376
2.40273,0.367256,-0.391761
2.40038,0.456697,-0.41841
2.41502,0.188386,-0.43441
2.418,0.186707,-0.52798
2.42188,0.276511,-0.55502
2.42843,0.275799,-0.653874
2.42431,0.366832,-0.682048
2.3795,0.267443,0.16261
2.38819,0.180358,0.0981188
2.37203,0.265178,0.0753422
2.36933,0.352527,0.0531464
2.36737,0.439484,0.0299649
2.38028,0.17859,0.0114567
2.37975,0.352762,-0.0342228
2.37983,0.440853,-0.0573339
2.39413,0.178831,-0.0760353
2.38801,0.352708,-0.12203
2.38406,0.441506,-0.146256
2.4019,0.177514,-0.163642
2.3972,0.264518,-0.187141
2.39793,0.353318,-0.211119
2.39231,0.441049,-0.235478
2.40474,0.264374,-0.276663
2.39379,0.351641,-0.299905
2.39825,0.262135,-0.365077
2.40493,0.352506,-0.391761
2.39829,0.441068,-0.417566
2.41613,0.173564,-0.43441
2.42202,0.172075,-0.528618
2.42256,0.261541,-0.554798
2.42874,0.169485,-0.626651
2.42336,0.260172,-0.652065
2.42461,0.351673,-0.681512
2.37812,0.252521,0.162407
2.37979,0.339722,0.140209
2.39025,0.16577,0.0981597
2.37244,0.338123,0.0531686
2.37199,0.425303,0.0299897
2.38233,0.164051,0.0114615
2.37989,0.337872,-0.0341944
2.37856,0.425538,-0.0572392
2.39119,0.163864,-0.0759087
2.38914,0.337909,-0.12198
2.38967,0.427397,-0.146436
2.39995,0.162571,-0.163439
2.39184,0.249082,-0.186599
2.40302,0.339016,-0.21138
2.39301,0.426013,-0.235286
2.39743,0.248691,-0.275641
2.39787,0.337223,-0.300151
2.39785,0.247212,-0.364778
2.40705,0.337743,-0.391761
2.39706,0.425655,-0.416891
2.41617,0.158671,-0.434234
2.40358,0.246404,-0.456892
2.42205,0.157147,-0.528405
2.40315,0.426217,-0.606985
2.42973,0.15458,-0.626651
2.42491,0.245297,-0.652065
2.42767,0.336921,-0.68178
2.37764,0.237726,0.162271
2.39322,0.151226,0.0982416
2.37149,0.323155,0.0531021
2.3716,0.410229,0.0299524
2.39128,0.14993,0.0114999
2.38129,0.236202,-0.011402
2.38192,0.323263,-0.0341944
2.37718,0.410255,-0.0571444
2.39115,0.149127,-0.075877
2.38344,0.234903,-0.0982442
2.39216,0.323377,-0.12203
2.38831,0.412047,-0.146196
2.40091,0.147842,-0.163439
2.3963,0.234692,-0.186831
2.3946,0.411153,-0.235189
2.39891,0.233976,-0.275641
2.3999,0.322504,-0.300151
2.40614,0.412486,-0.326685
2.39735,0.232303,-0.364478
2.4081,0.322836,-0.391602
2.39866,0.410773,-0.416722
2.41611,0.143784,-0.434057
2.42297,0.142283,-0.528405
2.40476,0.4113,-0.606744
2.42925,0.230688,-0.65284
2.387,0.223878,0.162813
2.39111,0.136368,0.0981188
2.37651,0.221472,0.0753422
2.37145,0.30834,0.0530577
2.37407,0.39567,0.0299524
2.39215,0.135255,0.0114999
2.3797,0.221308,-0.0113877
2.38683,0.309027,-0.0342371
2.38163,0.39599,-0.0571918
2.39502,0.13462,-0.075972
2.38583,0.220366,-0.0982851
2.3941,0.308693,-0.12203
2.38784,0.396894,-0.146015
2.40476,0.133273,-0.163642
2.3967,0.219894,-0.186754
2.40502,0.309247,-0.211206
2.40003,0.39694,-0.235478
2.40425,0.219614,-0.276095
2.39789,0.307267,-0.299659
2.40667,0.397391,-0.32642
2.40168,0.217857,-0.364927
2.40514,0.307428,-0.390806
2.40308,0.396368,-0.41706
2.41892,0.129061,-0.43441
2.42283,0.127362,-0.528192
2.43532,0.12495,-0.627648
2.4287,0.215607,-0.652323
2.37787,0.208687,0.24941
2.37474,0.121694,0.18451
2.38833,0.209228,0.162813
2.38663,0.295983,0.140267
2.3899,0.121593,0.0980369
2.37882,0.206972,0.0753737
2.37925,0.29452,0.0531908
2.37744,0.381253,0.0299649
2.39493,0.120675,0.0115095
2.38102,0.206703,-0.0113877
2.38174,0.293519,-0.0341375
2.38895,0.382158,-0.0573102
2.3958,0.119922,-0.075972
2.39496,0.293875,-0.12198
2.39417,0.382866,-0.146256
2.39955,0.118221,-0.163236
2.39701,0.205099,-0.186677
2.40588,0.294364,-0.211119
2.39848,0.381581,-0.235093
2.40457,0.204773,-0.275982
2.40367,0.293029,-0.300151
2.40808,0.382461,-0.326287
2.40495,0.203283,-0.365226
2.4109,0.293141,-0.391443
2.40644,0.38177,-0.417229
2.4177,0.114124,-0.434057
2.40477,0.201874,-0.456334
2.40211,0.290456,-0.481246
2.42259,0.112448,-0.52798
2.42631,0.201848,-0.554354
2.40704,0.289987,-0.576289
2.43094,0.20078,-0.652582
2.37811,0.194012,0.249306
2.38161,0.193921,0.162271
2.37891,0.367509,0.117644
2.3936,0.10706,0.0981597
2.38304,0.192614,0.0754684
2.37903,0.279682,0.0531464
2.37677,0.366202,0.0299275
2.39563,0.105978,0.0115095
2.38324,0.192169,-0.0113925
2.38846,0.279481,-0.0342086
2.38433,0.36643,-0.0571444
2.39749,0.105263,-0.0760036
2.39076,0.278481,-0.121677
2.39056,0.367259,-0.145894
2.40222,0.103581,-0.163371
2.39922,0.190466,-0.186754
2.40078,0.366856,-0.235093
2.39984,0.189545,-0.2753
2.40247,0.277933,-0.299782
2.40418,0.188368,-0.364927
2.40873,0.27789,-0.390806
2.41166,0.367442,-0.417735
2.4213,0.0994083,-0.434587
2.40793,0.187267,-0.456706
2.4019,0.275488,-0.480855
2.4203,0.0974632,-0.527341
2.40974,0.275323,-0.57652
2.4328,0.0949044,-0.626651
2.4302,0.185713,-0.652065
2.38223,0.179641,0.249618
2.38276,0.179304,0.162271
2.38408,0.353345,0.11779
2.39321,0.0923327,0.0981188
2.38118,0.177765,0.0753737
2.37573,0.264526,0.0530355
2.376,0.351173,0.0298902
2.39623,0.0912766,0.0115095
2.38337,0.177468,-0.0113877
2.39609,0.265481,-0.034294
2.39148,0.352522,-0.0572628
2.40009,0.0906262,-0.0760669
2.39143,0.263697,-0.121626
2.39277,0.352584,-0.145894
2.4068,0.0889869,-0.163642
2.39537,0.175377,-0.186367
2.40299,0.352119,-0.235093
2.40393,0.175033,-0.275641
2.40117,0.262862,-0.299413
2.40965,0.352451,-0.325889
2.40923,0.173898,-0.365526
2.41039,0.263105,-0.390806
2.40802,0.351783,-0.416722
2.42383,0.0846183,-0.43494
2.40707,0.172348,-0.456334
2.40647,0.261062,-0.481441
2.42085,0.0826106,-0.527341
2.41332,0.260741,-0.576982
2.43322,0.170934,-0.652582
2.42588,0.353398,-0.709162
2.38282,0.164612,0.162203
2.39173,0.0775817,0.0980369
2.38722,0.163492,0.0755315
2.38228,0.250467,0.0531464
2.37613,0.336307,0.0298653
2.39375,0.0764761,0.0114951
2.39668,0.25067,-0.0342797
2.39261,0.337702,-0.0572392
2.3976,0.0758031,-0.075972
2.39897,0.249639,-0.121929
2.39587,0.338035,-0.145955
2.39933,0.0739714,-0.1631
2.40535,0.161276,-0.187063
2.40396,0.160214,-0.275527
2.40274,0.248124,-0.299413
2.40927,0.159047,-0.365376
2.41196,0.24831,-0.390806
2.41111,0.337137,-0.416891
2.4184,0.0695745,-0.433881
2.40906,0.15764,-0.45652
2.40998,0.246491,-0.481831
2.41252,0.067509,-0.525427
2.42766,0.157027,-0.55391
2.42069,0.246519,-0.57837
2.43475,0.065069,-0.626901
2.43518,0.156063,-0.65284
2.38145,0.151302,0.33749
2.37881,0.149675,0.161865
2.39416,0.0629573,0.0981188
2.38718,0.148779,0.0754999
2.37979,0.235451,0.0530577
2.37815,0.321721,0.0298653
2.38338,0.148083,-0.0113782
2.39818,0.235959,-0.0342797
2.39067,0.32248,-0.0571444
2.40102,0.0611667,-0.0760669
2.39946,0.234817,-0.121879
2.39889,0.323461,-0.146015
2.39973,0.0592481,-0.1631
2.40033,0.146151,-0.186599
2.40742,0.234748,-0.210685
2.40093,0.14522,-0.275073
2.4052,0.233472,-0.299536
2.41118,0.14432,-0.365526
2.41147,0.233316,-0.390488
2.41411,0.322467,-0.41706
2.42075,0.0547787,-0.434234
2.409,0.142797,-0.456334
2.40851,0.231418,-0.481246
2.42168,0.0528968,-0.527341
2.42663,0.142014,-0.553466
2.42022,0.231476,-0.577908
2.43704,0.0501683,-0.627399
2.4361,0.141118,-0.65284
2.37989,0.222357,0.226914
2.3757,0.13485,0.161594
2.39351,0.0482457,0.0980778
2.38206,0.133793,0.0753106
2.38816,0.22149,0.053213
2.3781,0.306867,0.0298404
2.38551,0.0469183,0.0114519
2.38823,0.13368,-0.0113972
2.38666,0.30704,-0.0570023
2.40335,0.0464718,-0.0761302
2.39688,0.219725,-0.121677
2.39786,0.308354,-0.145834
2.40105,0.044541,-0.163168
2.3962,0.131147,-0.186212
2.40485,0.21961,-0.210338
2.3998,0.130378,-0.274845
2.40264,0.21835,-0.299044
2.40808,0.12931,-0.364927
2.41089,0.218337,-0.39017
2.41017,0.306901,-0.416047
2.42301,0.0399566,-0.434587
2.40689,0.127856,-0.455777
2.40989,0.216635,-0.481246
2.42843,0.127173,-0.553688
2.4245,0.216882,-0.578601
2.43633,0.0352,-0.62715
2.43113,0.125868,-0.651289
2.38345,0.120623,0.162068
2.38976,0.0335025,0.0979141
2.37984,0.119025,0.075216
2.39147,0.207005,0.0532573
2.38093,0.292391,0.0298529
2.38975,0.0323343,0.0114711
2.38402,0.118775,-0.0113734
2.38849,0.29239,-0.0570023
2.40159,0.0316979,-0.0760669
2.39519,0.204759,-0.121525
2.39673,0.293271,-0.145654
2.40627,0.0298695,-0.163507
2.39995,0.116587,-0.186445
2.40254,0.115746,-0.275073
2.40096,0.203353,-0.298675
2.40882,0.114532,-0.364927
2.41514,0.203789,-0.390647
2.40614,0.291396,-0.415035
2.42321,0.0250886,-0.434587
2.40861,0.113132,-0.455963
2.41019,0.201762,-0.481051
2.40297,0.29114,-0.506648
2.41629,0.023119,-0.526065
2.42917,0.11227,-0.553688
2.42287,0.201759,-0.577908
2.41241,0.291643,-0.604331
2.43359,0.0202262,-0.626402
2.42896,0.110816,-0.650514
2.38541,0.193377,0.227197
2.37303,0.278626,0.203662
2.38315,0.105952,0.162
2.39192,0.0188543,0.097996
2.38252,0.104507,0.0752791
2.38268,0.277777,0.0298529
2.38691,0.0176483,0.0114567
2.38925,0.277613,-0.0569787
2.40174,0.0169614,-0.0760669
2.40138,0.190453,-0.121778
2.39651,0.278329,-0.145533
2.40341,0.0150855,-0.163304
2.4046,0.102028,-0.186754
2.40836,0.19016,-0.210425
2.40419,0.101044,-0.275186
2.40513,0.18885,-0.299044
2.42469,0.0123413,-0.343967
2.41146,0.0998315,-0.365226
2.41831,0.18912,-0.390965
2.41376,0.277302,-0.416047
2.4243,0.0102237,-0.434763
2.41515,0.0985911,-0.457077
2.41041,0.186894,-0.480855
2.40277,0.276167,-0.506239
2.41541,0.00828912,-0.525852
2.42689,0.0972459,-0.553022
2.42213,0.186739,-0.577445
2.4103,0.276393,-0.603365
2.42302,0.00527036,-0.62366
2.43442,0.0961007,-0.651806
2.3747,0.26406,0.203662
2.38383,0.00503689,0.184975
2.38077,0.0912127,0.161797
2.38999,0.00417393,0.0979141
2.38112,0.0898113,0.075216
2.39482,0.177717,0.0532795
2.38334,0.263042,0.0298404
2.38529,0.0895101,-0.0113734
2.40025,0.176814,-0.0342371
2.3929,0.263166,-0.057026
2.4008,0.00222341,-0.0760353
2.39155,0.174914,-0.121223
2.39718,0.26351,-0.145473
2.40346,0.000338208,-0.163304
2.4012,0.0871273,-0.186445
2.40749,0.175235,-0.210252
2.40477,0.0862903,-0.275186
2.41301,0.0850681,-0.365376
2.41844,0.174207,-0.390806
2.4164,0.262593,-0.416216
2.4194,-0.00464228,-0.433881
2.4108,0.0835999,-0.456148
2.40955,0.171961,-0.480465
2.40442,0.261418,-0.506239
2.42841,0.082386,-0.553244
2.4242,0.171943,-0.577676
2.42301,-0.00959711,-0.62366
2.43303,0.0810973,-0.651289
2.39144,-0.00891123,0.273064
2.38123,0.250004,0.204087
2.38228,0.076635,0.161865
2.39397,-0.0105084,0.0980778
2.38163,0.0751993,0.075216
2.39587,0.163019,0.0532795
2.38491,0.248413,0.0298404
2.3858,0.0748725,-0.0113734
2.40076,-0.0125076,-0.0760353
2.39457,0.16037,-0.121324
2.39776,0.248693,-0.145413
2.40641,-0.0144271,-0.163507
2.40567,0.0725123,-0.186754
2.40852,0.160459,-0.210252
2.40625,0.0715628,-0.2753
2.41123,0.159583,-0.299536
2.41349,0.0702605,-0.365376
2.41946,0.159365,-0.390806
2.41796,0.247761,-0.416216
2.41932,-0.0194873,-0.433881
2.41716,0.0689741,-0.457263
2.41056,0.157173,-0.480465
2.41084,0.247159,-0.507263
2.4279,0.0674569,-0.553022
2.42326,0.156939,-0.577214
2.41737,0.247189,-0.604331
2.42962,0.0660619,-0.650256
2.38737,-0.0235455,0.272611
2.38171,0.0619902,0.161797
2.39586,-0.0252184,0.0981597
2.38104,0.0605591,0.0751844
2.39383,0.14813,0.053213
2.38241,0.233385,0.0297906
2.40264,-0.0272609,-0.0760986
2.39126,0.0588562,-0.0981212
2.39053,0.145371,-0.121071
2.4042,0.234461,-0.145714
2.40328,-0.029156,-0.163304
2.40707,0.057774,-0.186831
2.40449,0.145377,-0.209818
2.40962,0.0568674,-0.275641
2.41018,0.144666,-0.29929
2.42649,-0.0323178,-0.344248
2.41387,0.0554503,-0.365376
2.41448,0.144163,-0.389852
2.41845,0.232825,-0.416047
2.41916,-0.0343317,-0.433881
2.41361,0.0540534,-0.45652
2.41148,0.142379,-0.480465
2.41621,0.232737,-0.508082
2.42729,0.0525372,-0.5528
2.42127,0.141896,-0.57652
2.41788,0.232259,-0.604089
2.42612,0.0510715,-0.649222
2.43718,0.141847,-0.6791
2.38221,-0.0381142,0.272043
2.3861,0.220948,0.204257
2.37853,-0.0387612,0.184588
2.38204,0.0473752,0.161797
2.39566,-0.0399186,0.0981597
2.38337,0.0459867,0.0752475
2.3927,0.133328,0.0531686
2.38479,0.218854,0.0298031
2.39062,-0.0410033,0.0114759
2.38554,0.0455704,-0.0113686
2.39511,0.132162,-0.0341233
2.40143,-0.0419852,-0.0760669
2.38938,0.130591,-0.12097
2.39807,-0.0438105,-0.162965
2.40538,0.0429678,-0.186677
2.40931,0.130837,-0.210165
2.40893,0.0420638,-0.275527
2.40904,0.129768,-0.299044
2.42427,-0.0471673,-0.343967
2.41516,0.0406546,-0.365526
2.41335,0.12924,-0.389533
2.42186,-0.0492347,-0.43441
2.4139,0.0392427,-0.45652
2.40839,0.127372,-0.479685
2.41077,0.217292,-0.506648
2.42562,0.0376124,-0.552356
2.41918,0.126884,-0.575826
2.42216,0.217679,-0.604813
2.42832,0.0362129,-0.649739
2.43512,0.12674,-0.678296
2.38392,-0.0527745,0.27227
2.38876,0.0332227,0.249618
2.38642,0.206217,0.204172
2.38528,0.0327995,0.162
2.39537,-0.0546173,0.0981597
2.38361,0.0313618,0.0752475
2.39247,0.118594,0.0531464
2.39107,0.204643,0.0298653
2.39432,-0.0557642,0.0114951
2.39888,0.117611,-0.0341659
2.39963,0.204447,-0.0570497
2.39513,-0.0565777,-0.075877
2.40093,0.204432,-0.145353
2.39975,-0.0585727,-0.1631
2.40461,0.0281961,-0.186599
2.41007,0.116051,-0.210165
2.423,-0.0598596,-0.253848
2.41014,0.0272933,-0.275641
2.41277,0.115126,-0.299413
2.41997,-0.0619401,-0.343405
2.41338,0.0258136,-0.365226
2.41607,0.114523,-0.389852
2.42446,-0.0641722,-0.43494
2.41311,0.0244206,-0.456334
2.41109,0.112684,-0.480075
2.41206,0.202496,-0.506648
2.42288,0.022701,-0.55169
2.417,0.111903,-0.575132
2.42248,0.202732,-0.604572
2.42495,-0.0691406,-0.624408
2.4256,0.0212869,-0.648963
2.43297,0.111664,-0.677492
2.38554,-0.0674571,0.272497
2.39191,0.0185881,0.24993
2.38367,0.191252,0.203832
2.38544,0.0181631,0.162
2.389,-0.0691406,0.0979141
2.38475,0.0167426,0.0752791
2.39316,0.103912,0.0531464
2.39527,0.190205,0.0299026
2.39194,-0.0703956,0.0114855
2.39755,0.102803,-0.0341375
2.3908,0.10126,-0.12097
2.40015,0.189539,-0.145232
2.40832,-0.0735704,-0.16371
2.40374,0.0134356,-0.186522
2.41372,0.101387,-0.210425
2.41523,0.0125303,-0.276209
2.41145,0.100237,-0.299167
2.41658,-0.0766934,-0.342984
2.41152,0.0109958,-0.364927
2.41969,0.099818,-0.390329
2.42107,-0.0789509,-0.43441
2.41321,0.00961361,-0.456334
2.41566,0.0980468,-0.480855
2.41618,0.18792,-0.507263
2.41907,0.00782143,-0.550802
2.41764,0.0970706,-0.575132
2.42175,0.187714,-0.604089
2.42375,0.00639825,-0.648446
2.43264,0.096695,-0.677224
2.38806,-0.0821958,0.272838
2.387,0.00390312,0.24941
2.3824,-0.0827086,0.184975
2.38949,0.00353186,0.162271
2.39452,-0.084008,0.0981597
2.38381,0.00210887,0.0752475
2.39475,0.0892632,0.0531686
2.3944,0.175359,0.0298777
2.40314,0.0882739,-0.0342086
2.39525,-0.0860012,-0.0759087
2.39537,0.0867327,-0.121172
2.39629,0.174446,-0.144931
2.40278,-0.00131313,-0.186445
2.41331,0.0865387,-0.210338
2.41724,-0.00229138,-0.276436
2.41103,0.0854035,-0.299044
2.41606,-0.0915198,-0.342984
2.41154,-0.0038012,-0.364927
2.42321,0.0850731,-0.390806
2.41956,-0.0937667,-0.434234
2.41225,-0.00519166,-0.456148
2.41719,0.0832565,-0.481051
2.41241,0.172741,-0.506239
2.4181,-0.00701904,-0.55058
2.4211,0.0823337,-0.575826
2.42188,0.172782,-0.603848
2.42278,-0.00847033,-0.648188
2.43223,0.0817344,-0.676956
2.39545,-0.0971692,0.273745
2.38798,-0.0107478,0.249514
2.38904,0.0760022,0.226914
2.38284,-0.0973659,0.185052
2.38548,-0.0111113,0.162
2.39196,-0.0986166,0.0980778
2.38678,-0.0125337,0.0753422
2.39225,0.0744743,0.0531021
2.39643,0.16073,0.0298902
2.39289,-0.0998264,0.0114951
2.40463,0.0735574,-0.0342228
2.40299,0.160243,-0.0570497
2.39668,-0.100781,-0.075972
2.40384,0.0722735,-0.121576
2.4013,0.160005,-0.145172
2.40325,-0.102948,-0.163439
2.40272,-0.0160563,-0.186445
2.4118,0.0716701,-0.210165
2.41321,-0.0170951,-0.275982
2.4125,0.0706372,-0.299167
2.41941,-0.106517,-0.343545
2.41345,-0.0186133,-0.365226
2.4227,0.0701743,-0.390647
2.4268,-0.108964,-0.435646
2.41864,0.0684511,-0.481246
2.41767,0.0673681,-0.574901
2.42871,0.158297,-0.605296
2.42364,-0.0233454,-0.648446
2.43461,0.0668619,-0.677492
2.38488,-0.0253682,0.249202
2.38679,0.147344,0.203832
2.39235,-0.0258235,0.162474
2.39131,-0.113292,0.0980778
2.38666,-0.0271785,0.0753422
2.39766,0.0599192,0.053213
2.39323,-0.114555,0.0114999
2.40304,0.0587526,-0.0341944
2.39901,-0.115629,-0.0760669
2.40125,0.0574507,-0.121425
2.39925,0.145087,-0.144991
2.40656,-0.117887,-0.16371
2.39959,-0.0307605,-0.186212
2.42279,-0.119403,-0.254056
2.41008,-0.0318626,-0.275641
2.41487,0.055879,-0.299413
2.41871,-0.12136,-0.343545
2.41428,-0.0334353,-0.365376
2.42506,0.0553526,-0.390965
2.4185,0.143243,-0.414866
2.41822,-0.123451,-0.434234
2.42097,0.0536528,-0.481636
2.41999,0.0525745,-0.575364
2.42673,0.143221,-0.604572
2.4369,0.0519633,-0.678028
2.38269,-0.0399677,0.248995
2.38246,-0.126653,0.185129
2.38816,-0.0404346,0.162203
2.39456,-0.128176,0.0982416
2.38844,-0.0418572,0.0754053
2.39698,0.0451874,0.0531908
2.39836,0.0439152,-0.0341233
2.40125,-0.130509,-0.0761619
2.40155,0.0427159,-0.121425
2.3971,0.1302,-0.144811
2.4038,-0.132542,-0.163575
2.40135,-0.0455213,-0.186367
2.42301,-0.134322,-0.25416
2.41381,-0.0467269,-0.276095
2.41219,0.04101,-0.299044
2.42781,-0.136756,-0.34495
2.41106,-0.0481892,-0.364927
2.42042,0.0403893,-0.39017
2.42327,0.12861,-0.415541
2.41644,-0.138231,-0.434057
2.41831,0.0387498,-0.481051
2.42175,0.12802,-0.603124
2.43525,0.0369805,-0.677492
2.38439,-0.0546325,0.249202
2.39004,0.0320148,0.226914
2.38662,-0.141564,0.185516
2.38786,-0.0550873,0.162203
2.39572,-0.142985,0.0983234
2.39522,0.0304536,0.0531464
2.39658,0.029174,-0.0340948
2.40453,0.115937,-0.057026
2.39741,-0.14506,-0.0760669
2.40177,0.0279794,-0.121425
2.39786,0.115489,-0.144811
2.40692,-0.147533,-0.163846
2.40202,-0.0602798,-0.186445
2.41371,0.0272758,-0.210252
2.42313,-0.149248,-0.254264
2.41348,-0.0615369,-0.276095
2.41438,0.0262298,-0.29929
2.42495,-0.151526,-0.344669
2.42161,0.0255476,-0.390329
2.41751,-0.15318,-0.43441
2.4136,0.0238621,-0.480075
2.42346,0.113204,-0.603365
2.43543,0.0220374,-0.677492
2.43924,0.113472,-0.706383
2.38302,-0.0692329,0.249098
2.39119,0.0173565,0.227008
2.3867,-0.15627,0.185594
2.38948,-0.0697962,0.162339
2.3968,-0.157814,0.0984053
2.39736,0.0157694,0.0531908
2.39965,0.101871,0.0298902
2.39771,0.0144744,-0.034109
2.40146,-0.1601,-0.0762252
2.4009,0.0132364,-0.121374
2.40151,0.1009,-0.144991
2.40697,-0.162366,-0.163914
2.40161,-0.0750172,-0.186445
2.41283,0.01246,-0.210165
2.42018,-0.163978,-0.254056
2.41604,-0.0764388,-0.276436
2.41449,0.011415,-0.29929
2.42792,-0.166674,-0.345231
2.42271,0.0106927,-0.390488
2.42466,0.0988628,-0.415541
2.41272,0.00904842,-0.47988
2.42313,0.0982921,-0.603124
2.43841,0.00710192,-0.678296
2.43989,0.0985028,-0.706383
2.38056,-0.0837835,0.248891
2.38627,0.00267851,0.226536
2.38868,-0.171126,0.185826
2.39,-0.0844917,0.162407
2.39578,-0.172517,0.0984053
2.39641,0.0010587,0.0531686
2.40123,0.087181,0.0299026
2.39369,-0.173542,0.0115191
2.39576,-0.000237816,-0.0340806
2.40741,-0.17534,-0.0764468
2.39494,-0.00149172,-0.121071
2.40807,0.0863773,-0.145353
2.40891,-0.177351,-0.164117
2.4011,-0.0897518,-0.186445
2.41187,-0.00234417,-0.210078
2.42707,-0.179412,-0.254889
2.41651,-0.0912994,-0.27655
2.41253,-0.00339748,-0.299044
2.43278,-0.182011,-0.346074
2.42174,-0.00417127,-0.390329
2.42035,-0.183206,-0.435293
2.42398,-0.185395,-0.529256
2.42369,0.0834222,-0.603124
2.43262,-0.00784136,-0.676688
2.44045,0.08353,-0.706383
2.38099,-0.0984299,0.248995
2.39022,-0.0119834,0.226914
2.40051,-0.186785,0.186831
2.38944,-0.0991548,0.162407
2.39966,-0.187604,0.09861
2.39137,-0.013617,0.0530577
2.39671,-0.0149441,-0.0340948
2.40928,-0.190344,-0.0765418
2.40088,-0.0162273,-0.121374
2.40656,0.0715407,-0.145232
2.40778,-0.192129,-0.164117
2.40349,-0.104613,-0.186677
2.4128,-0.0171501,-0.210165
2.42592,-0.194301,-0.254889
2.4169,-0.106169,-0.276663
2.41545,-0.0182229,-0.299413
2.42068,-0.019023,-0.39017
2.42311,-0.198375,-0.435999
2.42125,0.0684669,-0.6024
2.4306,-0.0227495,-0.676152
2.38233,-0.113132,0.249202
2.3901,-0.0266493,0.226914
2.40329,-0.201844,0.187141
2.38579,-0.113672,0.162203
2.39976,-0.0278461,0.139976
2.39946,-0.202408,0.0986509
2.39624,-0.028349,0.0531686
2.40012,0.0576596,0.0298777
2.39537,-0.203242,0.0115383
2.39957,-0.0296869,-0.0341375
2.40807,-0.205124,-0.0765418
2.40473,-0.03101,-0.121576
2.40296,0.0566788,-0.144991
2.41252,-0.207412,-0.164524
2.40281,-0.119359,-0.186677
2.41066,-0.0319281,-0.209991
2.42865,-0.209524,-0.255306
2.4162,-0.120997,-0.276663
2.41628,-0.033057,-0.299536
2.42151,-0.0338895,-0.390329
2.42773,-0.213757,-0.437058
2.42162,0.0536091,-0.6024
2.43157,-0.2191,-0.628396
2.43138,-0.0376779,-0.67642
2.38557,-0.127961,0.249618
2.3899,-0.0413142,0.226914
2.3929,0.0447606,0.204002
2.39103,-0.12863,0.16261
2.39817,-0.217127,0.0986509
2.39802,-0.0430875,0.053213
2.40043,0.0429317,0.0298777
2.39706,-0.218208,0.0115527
2.39935,-0.0444099,-0.0341375
2.41174,-0.22035,-0.0767
2.3995,-0.0456695,-0.121324
2.40227,0.041916,-0.144931
2.41815,-0.222852,-0.164998
2.41042,-0.0467191,-0.209991
2.4293,-0.224605,-0.255514
2.41641,-0.135876,-0.276777
2.40809,-0.0477251,-0.298552
2.42126,-0.0487469,-0.390329
2.42735,-0.228742,-0.437235
2.42668,-0.141212,-0.553466
2.419,0.0387027,-0.601676
2.43211,-0.234202,-0.628895
2.43399,-0.0526584,-0.677224
2.4435,0.0386255,-0.706939
2.38661,-0.0559076,0.22663
2.39716,-0.143717,0.163084
2.3958,-0.231742,0.09861
2.39172,-0.0576561,0.0530799
2.39365,0.0281199,0.0297906
2.40065,-0.233395,0.0115767
2.39203,-0.0589587,-0.0340379
2.40717,0.0273543,-0.057026
2.41134,-0.235241,-0.0767317
2.39818,-0.0603666,-0.121273
2.40547,0.027209,-0.145112
2.42171,-0.238173,-0.165337
2.4081,-0.0614574,-0.209818
2.41156,-0.150452,-0.276322
2.4147,-0.0626803,-0.299413
2.41795,-0.0635248,-0.389852
2.42754,0.0244502,-0.41571
2.42884,-0.243926,-0.437764
2.43063,-0.156413,-0.554576
2.42016,0.0238689,-0.601917
2.43545,-0.249614,-0.630141
2.43074,-0.0675118,-0.67642
2.43793,0.023576,-0.705271
2.38921,-0.0706388,0.226914
2.39922,-0.15862,0.163287
2.40527,-0.247563,0.0990602
2.38832,-0.0722396,0.0530133
2.39678,0.013449,0.029828
2.40614,-0.248841,0.0116103
2.39562,-0.0737579,-0.0340948
2.4178,-0.250858,-0.0769849
2.40076,-0.0751742,-0.121425
2.4046,0.0124437,-0.145051
2.4202,-0.253028,-0.165337
2.40867,-0.0762636,-0.209904
2.42932,-0.254711,-0.255827
2.41059,-0.165247,-0.276322
2.41625,-0.0775591,-0.299659
2.4185,-0.0783918,-0.390011
2.42765,0.00955458,-0.41571
2.42632,-0.25872,-0.437588
2.43172,-0.261228,-0.532447
2.4306,-0.171392,-0.554798
2.43579,-0.264763,-0.630639
2.43028,-0.0824253,-0.67642
2.44379,0.0086371,-0.706939
2.39172,-0.085404,0.227197
2.39721,-0.173267,0.16322
2.40668,-0.262642,0.099183
2.39083,-0.0870018,0.0530799
2.39481,-0.00125653,0.0298031
2.40954,-0.264145,0.0116343
2.40212,-0.0887141,-0.0341944
2.40632,-0.00218654,-0.0570023
2.42019,-0.266126,-0.0771115
2.40125,-0.0899409,-0.121475
2.40463,-0.0023109,-0.145051
2.41959,-0.267983,-0.165405
2.4081,-0.178955,-0.187373
2.40816,-0.0910414,-0.209904
2.41053,-0.180109,-0.276436
2.41871,-0.0924973,-0.300028
2.41656,-0.182086,-0.366723
2.41699,-0.0931919,-0.389852
2.42372,-0.00533268,-0.415035
2.43349,-0.274597,-0.439176
2.43299,-0.276475,-0.533085
2.42562,-0.186005,-0.55391
2.43605,-0.279924,-0.631138
2.43165,-0.0974127,-0.676956
2.44187,-0.00635287,-0.706383
2.39115,-0.100078,0.227197
2.39809,-0.188129,0.163355
2.39907,-0.276717,0.0989374
2.39025,-0.10167,0.0530799
2.39476,-0.0159508,0.0298031
2.41284,-0.2795,0.0116583
2.40353,-0.103538,-0.0342228
2.40727,-0.0169585,-0.057026
2.41752,-0.280855,-0.0770799
2.40065,-0.104673,-0.121475
2.40756,-0.0170866,-0.145232
2.41691,-0.282708,-0.165337
2.41093,-0.194048,-0.187682
2.40755,-0.105816,-0.209904
2.41136,-0.195056,-0.276663
2.41909,-0.10738,-0.300151
2.43747,-0.288046,-0.34818
2.41737,-0.197071,-0.367022
2.41637,-0.108021,-0.389852
2.42659,-0.0202289,-0.415541
2.43664,-0.290105,-0.440059
2.43512,-0.291864,-0.533936
2.42734,-0.201126,-0.554576
2.43909,-0.295449,-0.632384
2.43461,-0.203183,-0.653615
2.43101,-0.112331,-0.676956
2.44275,-0.0213442,-0.706661
2.38949,-0.1147,0.227103
2.39016,-0.0286265,0.203747
2.39689,-0.202839,0.163355
2.4011,-0.116349,0.140209
2.39114,-0.203782,0.0757523
2.38958,-0.116334,0.0530799
2.39462,-0.0306445,0.0298031
2.41406,-0.294663,0.0116727
2.40984,-0.118628,-0.0343224
2.40412,-0.0316893,-0.056955
2.41774,-0.295926,-0.0771432
2.40196,-0.1195,-0.121576
2.40741,-0.0318588,-0.145232
2.42206,-0.298387,-0.165812
2.41168,-0.20901,-0.187837
2.40885,-0.120686,-0.210078
2.41605,-0.210365,-0.277345
2.41838,-0.122222,-0.300151
2.41808,-0.212073,-0.367321
2.41566,-0.122845,-0.389852
2.42347,-0.035075,-0.415035
2.43873,-0.30554,-0.440765
2.42941,-0.306311,-0.533085
2.43189,-0.216535,-0.555908
2.43819,-0.310531,-0.632634
2.43236,-0.218032,-0.653357
2.42931,-0.127195,-0.676688
2.44353,-0.0363465,-0.706939
2.38974,-0.129413,0.227197
2.40057,-0.217994,0.163694
2.40233,-0.131188,0.140325
2.39581,-0.131378,0.0532352
2.39838,-0.0454127,0.0298529
2.40923,-0.309088,0.0116583
2.41106,-0.133522,-0.0343508
2.40088,-0.0463822,-0.0568839
2.42083,-0.311393,-0.0773015
2.40417,-0.134404,-0.121727
2.40318,-0.0465525,-0.144991
2.41532,-0.224264,-0.188224
2.40906,-0.13552,-0.210165
2.4192,-0.0488058,-0.234226
2.42164,-0.225832,-0.27814
2.41164,-0.136721,-0.299413
2.42487,-0.0495554,-0.324563
2.43571,-0.318192,-0.348461
2.41772,-0.226999,-0.367471
2.41683,-0.137777,-0.39017
2.42715,-0.0500257,-0.41571
2.43388,-0.320113,-0.440236
2.43634,-0.232007,-0.55724
2.43624,-0.325486,-0.632634
2.43329,-0.14238,-0.678028
2.4423,-0.0513189,-0.706661
2.3889,-0.144074,0.227197
2.39561,-0.0581002,0.204257
2.40294,-0.146562,0.0534126
2.39806,-0.0601281,0.0298529
2.41026,-0.324265,0.0116727
2.4072,-0.14813,-0.0343082
2.40255,-0.0611637,-0.0569313
2.42086,-0.326509,-0.0773648
2.40729,-0.1494,-0.121929
2.40085,-0.0612464,-0.144871
2.42613,-0.32916,-0.166354
2.41787,-0.239473,-0.188533
2.41315,-0.15061,-0.210599
2.41885,-0.0636488,-0.234226
2.41922,-0.240588,-0.278027
2.41571,-0.151827,-0.300028
2.42219,-0.24242,-0.368368
2.41594,-0.152604,-0.39017
2.4268,-0.0649175,-0.41571
2.43772,-0.335847,-0.441295
2.43127,-0.336905,-0.534361
2.43875,-0.247346,-0.558128
2.43333,-0.15737,-0.678296
2.43714,-0.0661732,-0.705271
2.3979,-0.159389,0.228142
2.39022,-0.072647,0.203832
2.40199,-0.0740117,0.117449
2.402,-0.161304,0.0534126
2.39465,-0.0747476,0.0298155
2.41317,-0.339745,0.0116967
2.40912,-0.0761253,-0.0570971
2.4198,-0.341496,-0.0773964
2.40285,-0.2514,-0.0991049
2.40234,-0.163896,-0.121727
2.40243,-0.0760397,-0.144991
2.42703,-0.344461,-0.166557
2.41734,-0.254409,-0.188611
2.41616,-0.165686,-0.210946
2.42041,-0.078554,-0.234418
2.42363,-0.256054,-0.278708
2.41869,-0.16692,-0.30052
2.42705,-0.0794058,-0.324961
2.42852,-0.258114,-0.369565
2.41693,-0.167562,-0.390488
2.42438,-0.079742,-0.415372
2.44048,-0.351499,-0.442177
2.43206,-0.352237,-0.534999
2.43428,-0.261992,-0.557462
2.43466,-0.263494,-0.655166
2.43232,-0.172298,-0.678296
2.43861,-0.08119,-0.705827
2.39571,-0.08753,0.204342
2.39436,-0.263385,0.0760363
2.40296,-0.176185,0.053457
2.39814,-0.0895888,0.0298653
2.40906,-0.354255,0.0116871
2.40144,-0.26463,-0.0115116
2.40861,-0.090906,-0.0570971
2.40822,-0.266909,-0.0993918
2.40428,-0.178856,-0.121879
2.40591,-0.0909301,-0.145232
2.42684,-0.359639,-0.166693
2.42069,-0.269789,-0.188998
2.42105,-0.180954,-0.211466
2.42187,-0.0934806,-0.234611
2.42596,-0.271362,-0.279163
2.42059,-0.181981,-0.300889
2.42652,-0.0942965,-0.324961
2.43278,-0.273673,-0.370463
2.42078,-0.18276,-0.391284
2.42188,-0.0945393,-0.415035
2.43925,-0.366614,-0.442354
2.43553,-0.277254,-0.558128
2.43506,-0.187515,-0.679368
2.44095,-0.096265,-0.706661
2.39712,-0.102313,0.204511
2.39567,-0.278418,0.0761309
2.40183,-0.190926,0.053457
2.39954,-0.104389,0.0298902
2.40981,-0.369485,0.0117015
2.40175,-0.279592,-0.0115211
2.414,-0.105946,-0.0572392
2.40852,-0.281913,-0.0994738
2.40911,-0.194086,-0.122182
2.4063,-0.105735,-0.145292
2.42557,-0.374675,-0.166761
2.42493,-0.285336,-0.189462
2.42089,-0.195886,-0.211553
2.42025,-0.108295,-0.234515
2.42622,-0.286475,-0.27939
2.42339,-0.197152,-0.301381
2.42392,-0.109094,-0.324695
2.43008,-0.288479,-0.370314
2.4206,-0.197691,-0.391443
2.42421,-0.109531,-0.415541
2.44182,-0.382335,-0.443236
2.43959,-0.292891,-0.55946
2.43579,-0.202612,-0.679904
2.44031,-0.111241,-0.706661
2.39644,-0.11702,0.204511
2.40261,-0.205831,0.0535013
2.40086,-0.119209,0.0299151
2.4075,-0.384264,0.0117015
2.40595,-0.295054,-0.0115497
2.4148,-0.208191,-0.0344789
2.40931,-0.120556,-0.0571444
2.42297,-0.387558,-0.077713
2.40873,-0.296931,-0.0995557
2.40986,-0.209037,-0.122283
2.40461,-0.120447,-0.145232
2.4252,-0.389868,-0.166896
2.42412,-0.300332,-0.189539
2.42262,-0.210996,-0.211813
2.42253,-0.123295,-0.234804
2.4254,-0.30148,-0.279504
2.42312,-0.212105,-0.301504
2.42419,-0.124016,-0.324828
2.43611,-0.304365,-0.371511
2.42622,-0.213144,-0.392557
2.4225,-0.124353,-0.415372
2.43748,-0.396994,-0.442883
2.43775,-0.307854,-0.55946
2.43642,-0.217726,-0.68044
2.44246,-0.126361,-0.707495
2.39568,-0.131722,0.204511
2.40781,-0.220616,0.141024
2.40329,-0.220752,0.0535457
2.39708,-0.133771,0.0298777
2.40508,-0.309939,-0.0115545
2.41148,-0.22282,-0.0344504
2.42153,-0.402581,-0.0777446
2.41082,-0.312218,-0.0997197
2.40953,-0.223912,-0.122333
2.4108,-0.135592,-0.145654
2.4267,-0.405399,-0.167167
2.42322,-0.315329,-0.189616
2.42327,-0.226042,-0.211987
2.42371,-0.13827,-0.234997
2.42572,-0.227339,-0.301996
2.42734,-0.139115,-0.325359
2.43322,-0.319178,-0.371361
2.4288,-0.228397,-0.393193
2.42071,-0.139159,-0.415203
2.43694,-0.412271,-0.443236
2.43872,-0.32319,-0.560126
2.43608,-0.324312,-0.657492
2.43887,-0.233038,-0.681512
2.43876,-0.141179,-0.706661
2.40786,-0.236079,0.0536788
2.40221,-0.148848,0.0299524
2.40413,-0.324824,-0.0115592
2.41206,-0.237809,-0.0344789
2.42197,-0.417942,-0.0778396
2.40985,-0.327139,-0.0997607
2.41407,-0.239284,-0.122636
2.40992,-0.150382,-0.145654
2.42515,-0.420452,-0.167235
2.42223,-0.330327,-0.189694
2.42481,-0.241202,-0.212247
2.42282,-0.153139,-0.234997
2.42428,-0.242219,-0.301996
2.44028,-0.42606,-0.351411
2.43415,-0.334506,-0.37181
2.43325,-0.243886,-0.394148
2.42178,-0.154135,-0.415541
2.43728,-0.427727,-0.443766
2.43669,-0.338148,-0.560126
2.43978,-0.340053,-0.659043
2.43931,-0.248193,-0.682048
2.44168,-0.156385,-0.707772
2.39886,-0.161445,0.204936
2.39896,-0.249527,0.140674
2.4004,-0.250227,0.0535457
2.40025,-0.163517,0.02994
2.40407,-0.339849,-0.0115688
2.41652,-0.25323,-0.0345642
2.41739,-0.432443,-0.0777763
2.41176,-0.342481,-0.0999246
2.42348,-0.255242,-0.123192
2.41194,-0.165371,-0.145834
2.43038,-0.436736,-0.167778
2.42411,-0.345746,-0.190003
2.42481,-0.168209,-0.235286
2.43026,-0.34762,-0.280754
2.42571,-0.257404,-0.302365
2.44055,-0.441554,-0.351832
2.43107,-0.349294,-0.37166
2.43563,-0.25923,-0.394784
2.42669,-0.169403,-0.416554
2.4317,-0.442145,-0.443236
2.43939,-0.353793,-0.561236
2.43183,-0.26153,-0.581376
2.4454,-0.263983,-0.684192
2.44355,-0.171566,-0.708606
2.40279,-0.176526,0.205361
2.39044,-0.263476,0.140267
2.41372,-0.266598,0.0538784
2.4002,-0.178316,0.0299524
2.40392,-0.354886,-0.0115783
2.41592,-0.268163,-0.0345784
2.4146,-0.180318,-0.0573576
2.41764,-0.447814,-0.0778713
2.41554,-0.358152,-0.100171
2.42386,-0.270329,-0.123293
2.41785,-0.180688,-0.146256
2.42765,-0.45164,-0.167778
2.42293,-0.360761,-0.190081
2.42473,-0.183159,-0.235382
2.43943,-0.454581,-0.259889
2.42705,-0.272615,-0.302734
2.4446,-0.457796,-0.352815
2.43377,-0.364938,-0.372408
2.4389,-0.274722,-0.39558
2.42658,-0.184365,-0.416722
2.43475,-0.45815,-0.444295
2.43104,-0.36596,-0.464881
2.43814,-0.3689,-0.561458
2.44565,-0.279201,-0.684728
2.44533,-0.186776,-0.70944
2.41204,-0.281403,0.0538784
2.39707,-0.192879,0.0299275
2.40466,-0.370086,-0.0115926
2.41621,-0.283214,-0.0346069
2.41743,-0.195452,-0.0574523
2.41387,-0.462452,-0.0778396
2.41725,-0.373578,-0.100334
2.42513,-0.285547,-0.123444
2.4167,-0.19552,-0.146256
2.42777,-0.467093,-0.167981
2.42756,-0.376691,-0.190622
2.42752,-0.198358,-0.235767
2.43465,-0.469164,-0.259681
2.42631,-0.287619,-0.302857
2.44272,-0.472975,-0.352956
2.43247,-0.380017,-0.372558
2.43913,-0.289915,-0.395898
2.42934,-0.199573,-0.417397
2.43769,-0.474208,-0.445355
2.43166,-0.381326,-0.465439
2.43872,-0.384308,-0.562124
2.43327,-0.291932,-0.582533
2.44389,-0.294202,-0.684728
2.44413,-0.201777,-0.70944
2.4063,-0.29571,0.0537897
2.40281,-0.208188,0.0300146
2.41491,-0.388403,-0.100334
2.41843,-0.210605,-0.146436
2.41997,-0.481008,-0.167642
2.42324,-0.391261,-0.190467
2.43465,-0.484676,-0.259993
2.4245,-0.302501,-0.302857
2.44366,-0.488732,-0.353518
2.43009,-0.394935,-0.372558
2.43003,-0.214649,-0.417735
2.4357,-0.48935,-0.445531
2.42928,-0.39624,-0.465439
2.4392,-0.399738,-0.56279
2.4324,-0.306978,-0.582764
2.44969,-0.31016,-0.686872
2.44763,-0.217194,-0.710829
2.40543,-0.310597,0.0538119
2.40248,-0.22302,0.0300271
2.42148,-0.314001,-0.0347349
2.41248,-0.403213,-0.100334
2.42405,-0.226089,-0.146858
2.41697,-0.495848,-0.167642
2.41981,-0.405957,-0.19039
2.43552,-0.500407,-0.26041
2.43766,-0.409958,-0.282685
2.43047,-0.318403,-0.303841
2.43867,-0.503316,-0.353237
2.42957,-0.410168,-0.372857
2.44028,-0.320468,-0.396694
2.43357,-0.230019,-0.418579
2.43574,-0.414533,-0.562568
2.43432,-0.322409,-0.583689
2.43171,-0.230357,-0.607468
2.44817,-0.23239,-0.711385
2.40447,-0.325485,0.0538341
2.40903,-0.238545,0.0301266
2.41291,-0.41852,-0.100457
2.42639,-0.331082,-0.123797
2.42163,-0.24086,-0.146798
2.42022,-0.42131,-0.190622
2.43435,-0.515754,-0.260618
2.4351,-0.424907,-0.282685
2.43339,-0.333985,-0.304456
2.42993,-0.425579,-0.373306
2.44121,-0.335839,-0.397171
2.438,-0.245539,-0.419592
2.43519,-0.33774,-0.584383
2.43604,-0.245858,-0.608916
2.45052,-0.247794,-0.712497
2.40553,-0.253113,0.0301017
2.4214,-0.344256,-0.0347918
2.41227,-0.433671,-0.100539
2.42728,-0.346388,-0.123949
2.42308,-0.256029,-0.146978
2.42151,-0.436861,-0.190932
2.43406,-0.531317,-0.260931
2.43244,-0.439841,-0.282685
2.43129,-0.348909,-0.304456
2.4263,-0.440304,-0.373156
2.44105,-0.351093,-0.397489
2.43645,-0.260494,-0.419592
2.43642,-0.261007,-0.609399
2.45277,-0.263235,-0.713608
2.41288,-0.268865,0.0302137
2.42708,-0.361569,-0.12405
2.42543,-0.271335,-0.147219
2.42369,-0.452626,-0.191318
2.43561,-0.547332,-0.261452
2.42872,-0.454575,-0.282571
2.43107,-0.364115,-0.304702
2.44638,-0.552042,-0.355765
2.4323,-0.456826,-0.374503
2.43885,-0.366064,-0.397489
2.43872,-0.275882,-0.420267
2.42942,-0.366295,-0.488658
2.43664,-0.368471,-0.58577
2.43573,-0.276061,-0.60964
2.45111,-0.27828,-0.713608
2.41615,-0.284249,0.030276
2.42581,-0.376608,-0.1241
2.4238,-0.468056,-0.19155
2.43339,-0.378655,-0.214503
2.43705,-0.563387,-0.261972
2.42784,-0.469846,-0.282799
2.43369,-0.37979,-0.305317
2.44487,-0.56749,-0.356046
2.43333,-0.472496,-0.375101
2.43949,-0.381479,-0.397967
2.43978,-0.291692,-0.611088
2.45508,-0.294,-0.715275
2.42453,-0.390357,-0.034934
2.42936,-0.392441,-0.124403
2.41795,-0.482334,-0.191318
2.43451,-0.57856,-0.262076
2.42296,-0.484345,-0.282571
2.43426,-0.395193,-0.305686
2.44231,-0.58271,-0.356186
2.43426,-0.488195,-0.3757
2.4371,-0.39644,-0.397967
2.43698,-0.306536,-0.610847
2.45228,-0.308939,-0.714997
2.41124,-0.403411,-0.0347776
2.42494,-0.407009,-0.124302
2.4208,-0.498367,-0.191783
2.43446,-0.40948,-0.215024
2.43381,-0.594194,-0.262389
2.42383,-0.500006,-0.283026
2.43472,-0.410617,-0.306055
2.43773,-0.597449,-0.356046
2.43122,-0.503122,-0.3757
2.43365,-0.411222,-0.397808
2.43601,-0.32161,-0.611088
2.40675,-0.417857,-0.0347491
2.43027,-0.423251,-0.124706
2.41868,-0.513419,-0.19186
2.42993,-0.424067,-0.214851
2.43302,-0.609842,-0.262701
2.43216,-0.425548,-0.306055
2.43305,-0.612154,-0.355905
2.43108,-0.426147,-0.397808
2.43592,-0.336817,-0.611571
2.41241,-0.344023,0.0303257
2.42566,-0.4378,-0.124605
2.42925,-0.439323,-0.215024
2.4273,-0.624264,-0.262493
2.4295,-0.440464,-0.306055
2.42939,-0.441232,-0.397967
2.44277,-0.352531,-0.42263
2.43669,-0.352174,-0.612295
2.40234,-0.357641,0.0302262
2.42293,-0.452676,-0.124605
2.43042,-0.454954,-0.215371
2.42382,-0.454813,-0.305686
2.43023,-0.549751,-0.377047
2.43052,-0.45686,-0.398603
2.44251,-0.367806,-0.422967
2.42011,-0.467534,-0.124605
2.42856,-0.470047,-0.215458
2.42961,-0.472141,-0.398922
2.41719,-0.482375,-0.124605
2.43088,-0.393528,-0.148544
2.42759,-0.485331,-0.215631
2.42957,-0.487623,-0.399399
2.4417,-0.398387,-0.423642
2.4233,-0.407445,-0.0582101
2.43237,-0.501827,-0.216326
2.44116,-0.413691,-0.42398
2.41878,-0.421963,-0.0581628
2.42881,-0.423844,-0.148724
2.43119,-0.517157,-0.216499
2.44057,-0.428573,-0.331592
2.43857,-0.428661,-0.42398
2.41516,-0.436618,-0.0581391
2.4301,-0.43945,-0.148965
2.427,-0.531852,-0.216412
2.44179,-0.44425,-0.332123
2.43299,-0.443086,-0.423474
2.42834,-0.454536,-0.149026
2.42175,-0.546295,-0.216239
2.43672,-0.45813,-0.240007
2.4361,-0.458674,-0.331725
2.43216,-0.458372,-0.423811
2.42746,-0.469806,-0.149146
2.43484,-0.473263,-0.240103
2.4381,-0.47456,-0.332388
2.43414,-0.474229,-0.424655
2.4216,-0.484105,-0.148965
2.43677,-0.489173,-0.240585
2.43515,-0.489511,-0.332388
2.42054,-0.499358,-0.149086
2.43275,-0.503914,-0.240488
2.43598,-0.505248,-0.332919
2.43682,-0.505867,-0.426174
2.4335,-0.519663,-0.240874
2.43574,-0.520807,-0.333317
2.43367,-0.520809,-0.426174
2.43221,-0.535012,-0.241067
2.43347,-0.535956,-0.333449
2.4318,-0.550585,-0.241356
2.43225,-0.566399,-0.241741
2.43153,-0.566904,-0.334113
2.42776,-0.581081,-0.241645
2.43186,-0.582736,-0.334643
2.42801,-0.596917,-0.24203
2.43787,-0.600016,-0.33597
