2.38654,0.753565,-0.286207
2.38258,0.736267,-0.285185
2.39597,0.644566,-0.351973
2.38632,0.639737,-0.44306
2.37706,0.626879,-0.167032
2.3842,0.720771,-0.284844
2.39797,0.629349,-0.351692
2.39211,0.625581,-0.443413
2.377,0.611288,-0.166761
2.38286,0.704439,-0.284162
2.38416,0.703195,-0.376149
2.39304,0.610162,-0.442883
2.38714,0.689804,-0.284162
2.38368,0.687183,-0.375401
2.39387,0.594755,-0.442354
2.37947,0.580889,-0.166422
2.38846,0.674334,-0.283821
2.3869,0.672276,-0.375251
2.39748,0.580055,-0.442354
2.3868,0.658082,-0.28314
2.37947,0.750126,-0.309254
2.38526,0.656045,-0.374353
2.40003,0.565108,-0.442177
2.39846,0.553678,-0.257806
2.386,0.642133,-0.282571
2.38497,0.735805,-0.309377
2.38351,0.639858,-0.373456
2.39866,0.549272,-0.441295
2.40084,0.538733,-0.257702
2.39278,0.628238,-0.282912
2.38659,0.720297,-0.309008
2.40308,0.53699,-0.349304
2.38739,0.625221,-0.373456
2.39154,0.53025,-0.533298
2.39633,0.522297,-0.256868
2.38889,0.611573,-0.282003
2.3824,0.703111,-0.307901
2.40246,0.521395,-0.348742
2.38735,0.609582,-0.372857
2.40329,0.51938,-0.440942
2.39093,0.609029,-0.466553
2.39666,0.515977,-0.533723
2.37848,0.594398,-0.190235
2.39559,0.506761,-0.256452
2.39067,0.596423,-0.281776
2.38381,0.687655,-0.307531
2.3998,0.505419,-0.3479
2.38817,0.594206,-0.372408
2.3802,0.685804,-0.39924
2.40547,0.504422,-0.440765
2.38794,0.59269,-0.465253
2.40265,0.501861,-0.534361
2.39379,0.491053,-0.255931
2.38559,0.579632,-0.280754
2.38225,0.6714,-0.306793
2.39801,0.489695,-0.347197
2.39273,0.579774,-0.372558
2.38151,0.670383,-0.398762
2.39888,0.487692,-0.439
2.40569,0.487109,-0.534361
2.39578,0.476162,-0.255827
2.3949,0.566355,-0.281435
2.3892,0.65756,-0.307162
2.4,0.474779,-0.347057
2.39336,0.564401,-0.372109
2.38939,0.656805,-0.399399
2.40086,0.472773,-0.438823
2.38834,0.561767,-0.463952
2.40575,0.471775,-0.533723
2.38028,0.548502,-0.189539
2.39963,0.46164,-0.255931
2.39349,0.550536,-0.280867
2.3884,0.6416,-0.306547
2.39606,0.458741,-0.346074
2.39388,0.549042,-0.37166
2.38861,0.640852,-0.398603
2.40178,0.457664,-0.43847
2.38887,0.546444,-0.463395
2.40572,0.456458,-0.533085
2.38263,0.533669,-0.189462
2.39851,0.44618,-0.255514
2.38907,0.534105,-0.279958
2.38557,0.625172,-0.305686
2.40369,0.444932,-0.346776
2.39335,0.533483,-0.371062
2.38868,0.625184,-0.397967
2.40454,0.442919,-0.43847
2.39026,0.53135,-0.463023
2.40175,0.440454,-0.531596
2.41051,0.43893,-0.630639
2.38093,0.609474,-0.21407
2.38112,0.701814,-0.240296
2.4012,0.431455,-0.255514
2.38359,0.609049,-0.304948
2.4054,0.43,-0.346635
2.38691,0.516695,-0.369565
2.38481,0.608563,-0.396694
2.4014,0.427122,-0.437411
2.40826,0.426391,-0.532447
2.40408,0.517076,-0.559904
2.40648,0.422957,-0.628895
2.38378,0.415899,-0.0766367
2.38559,0.595095,-0.214156
2.37773,0.684986,-0.239525
2.40086,0.416204,-0.255202
2.38475,0.502494,-0.278708
2.38617,0.501227,-0.368967
2.39138,0.594633,-0.397171
2.40301,0.412213,-0.437235
2.39799,0.594589,-0.491389
2.40601,0.410784,-0.531383
2.40626,0.502115,-0.559682
2.40521,0.407536,-0.627898
2.38431,0.400933,-0.0765734
2.38242,0.5788,-0.213549
2.38285,0.670653,-0.239621
2.40043,0.400973,-0.254889
2.39591,0.673652,-0.333051
2.38823,0.486379,-0.368817
2.39498,0.579949,-0.397171
2.40355,0.39714,-0.436882
2.39097,0.485503,-0.461351
2.38634,0.576181,-0.488268
2.40463,0.395379,-0.530532
2.40834,0.487148,-0.55946
2.40671,0.392615,-0.627648
2.38476,0.385976,-0.0765101
2.38301,0.563483,-0.213289
2.38404,0.655228,-0.239332
2.40383,0.386394,-0.254993
2.39618,0.657889,-0.332521
2.39311,0.472099,-0.369117
2.39369,0.56411,-0.396376
2.38297,0.653815,-0.423136
2.40691,0.382539,-0.437058
2.39101,0.470254,-0.460793
2.38506,0.560406,-0.487293
2.4128,0.381532,-0.531809
2.40937,0.471987,-0.559016
2.40811,0.37769,-0.627399
2.38708,0.371337,-0.0765101
2.38546,0.548627,-0.213202
2.3909,0.641361,-0.239621
2.40615,0.371637,-0.254993
2.39634,0.642147,-0.33199
2.39305,0.45685,-0.368668
2.39614,0.549192,-0.396216
2.38693,0.639181,-0.423136
2.40921,0.367763,-0.437058
2.39096,0.455023,-0.460236
2.38654,0.545325,-0.486903
2.40834,0.365694,-0.53032
2.40934,0.45665,-0.55835
2.40751,0.362474,-0.626651
2.38635,0.35624,-0.0764151
2.38489,0.53311,-0.212855
2.39287,0.626175,-0.239429
2.4074,0.356721,-0.254889
2.38952,0.442551,-0.277913
2.39832,0.62693,-0.331725
2.41061,0.355003,-0.345652
2.39386,0.441799,-0.368368
2.39658,0.533835,-0.395739
2.3889,0.624025,-0.422799
2.4085,0.352546,-0.436529
2.3908,0.439811,-0.459679
2.40183,0.349643,-0.528405
2.41257,0.34811,-0.627399
2.38325,0.51741,-0.212421
2.3957,0.611235,-0.239332
2.40265,0.340964,-0.25416
2.38731,0.427007,-0.277345
2.39555,0.426928,-0.368219
2.39595,0.518285,-0.395103
2.38887,0.608382,-0.422123
2.4077,0.337351,-0.435999
2.40103,0.334494,-0.527767
2.41093,0.42637,-0.557462
2.41658,0.333565,-0.627898
2.40885,0.424529,-0.654391
2.38757,0.326523,-0.0763202
2.38443,0.502366,-0.212247
2.39361,0.595083,-0.238754
2.40667,0.326483,-0.254368
2.38988,0.41235,-0.277345
2.40006,0.596019,-0.330929
2.41086,0.324865,-0.34509
2.40008,0.412557,-0.368518
2.39812,0.503371,-0.394943
2.40116,0.595849,-0.423642
2.40777,0.32231,-0.435646
2.40304,0.319756,-0.527767
2.41061,0.411077,-0.556796
2.39996,0.501002,-0.582764
2.41186,0.317845,-0.626153
2.4057,0.40877,-0.65284
2.3845,0.313201,0.0985281
2.39141,0.310202,-0.163846
2.39238,0.579213,-0.238272
2.4128,0.310066,-0.34509
2.39671,0.396853,-0.36762
2.40116,0.488647,-0.394943
2.39711,0.579252,-0.422292
2.40873,0.307406,-0.43547
2.39055,0.484837,-0.485147
2.40495,0.305005,-0.527767
2.40924,0.395646,-0.555908
2.39154,0.483952,-0.579989
2.4128,0.30292,-0.625903
2.41102,0.394469,-0.653615
2.38638,0.298564,0.0985281
2.38553,0.472101,-0.211813
2.39395,0.564067,-0.23808
2.39851,0.564478,-0.329736
2.40008,0.382295,-0.36777
2.39927,0.47295,-0.394148
2.40062,0.564533,-0.422292
2.40861,0.292383,-0.435117
2.38963,0.469404,-0.484367
2.41163,0.290828,-0.52883
2.41066,0.380703,-0.555686
2.4021,0.470765,-0.581839
2.41461,0.28811,-0.625903
2.41053,0.379217,-0.65284
2.38817,0.283915,0.0985281
2.38499,0.458965,-0.03455
2.39206,0.280484,-0.163642
2.38446,0.456705,-0.211466
2.39348,0.548478,-0.237694
2.39999,0.549308,-0.32947
2.41348,0.280092,-0.344669
2.40238,0.367561,-0.36777
2.40019,0.457849,-0.39383
2.40116,0.549133,-0.421786
2.4084,0.277373,-0.434763
2.39443,0.364934,-0.458006
2.40851,0.275469,-0.527767
2.41006,0.365466,-0.55502
2.39826,0.454748,-0.58022
2.41922,0.273615,-0.626651
2.41281,0.364419,-0.65284
2.38986,0.269257,0.0985281
2.38777,0.444322,-0.03455
2.39274,0.265691,-0.163575
2.39583,0.533565,-0.237598
2.39633,0.353141,-0.277004
2.38704,0.440954,-0.300889
2.40138,0.534141,-0.329205
2.41515,0.265278,-0.344669
2.40067,0.35224,-0.367171
2.40489,0.443472,-0.394148
2.40448,0.53439,-0.421786
2.413,0.26291,-0.435293
2.39759,0.350377,-0.458192
2.39135,0.439335,-0.483586
2.41307,0.261001,-0.528405
2.41226,0.350671,-0.55502
2.39813,0.439498,-0.579526
2.41989,0.258663,-0.626402
2.41501,0.349608,-0.65284
2.39147,0.254588,0.0985281
2.38651,0.428955,-0.0344931
2.37887,0.516617,-0.0576654
2.39149,0.252606,-0.0761619
2.39929,0.251525,-0.163914
2.38933,0.51675,-0.236635
2.39845,0.338431,-0.277004
2.40171,0.518769,-0.328807
2.41575,0.250352,-0.344529
2.40083,0.337228,-0.366872
2.40465,0.428188,-0.393671
2.4029,0.518586,-0.420942
2.40164,0.335932,-0.458564
2.39304,0.424482,-0.483391
2.4156,0.246289,-0.528618
2.4134,0.335729,-0.554798
2.39887,0.424436,-0.579064
2.41328,0.334253,-0.651806
2.39299,0.239909,0.0985281
2.39008,0.414474,-0.0345073
2.38395,0.502423,-0.0577128
2.3988,0.236602,-0.163778
2.38954,0.501467,-0.236345
2.40245,0.323973,-0.277231
2.38933,0.411123,-0.30052
2.4,0.503006,-0.328144
2.40481,0.322753,-0.367171
2.40334,0.412757,-0.393034
2.41702,0.233374,-0.43547
2.40171,0.320929,-0.458192
2.39173,0.409129,-0.482611
2.41415,0.231183,-0.52798
2.41155,0.320401,-0.55391
2.39951,0.409382,-0.578601
2.41624,0.319566,-0.652065
2.39441,0.225221,0.0985281
2.38962,0.399307,-0.0344646
2.38209,0.486785,-0.0575944
2.40021,0.221879,-0.163778
2.38808,0.396906,-0.210859
2.38867,0.486001,-0.23596
2.40144,0.308846,-0.27689
2.38985,0.39613,-0.300274
2.39915,0.487481,-0.327613
2.40087,0.307238,-0.366274
2.4068,0.398163,-0.393193
2.39681,0.305317,-0.456892
2.39516,0.394606,-0.482806
2.41941,0.216714,-0.52883
2.4154,0.305843,-0.554354
2.39909,0.394178,-0.577908
2.41816,0.304734,-0.652065
2.41487,0.395775,-0.680708
2.39874,0.210788,0.0986509
2.39186,0.209005,0.0115239
2.39005,0.384319,-0.0344362
2.39092,0.473325,-0.0577365
2.39573,0.208544,-0.0761619
2.40351,0.207319,-0.163914
2.39145,0.382403,-0.210946
2.39063,0.471143,-0.235864
2.39836,0.293502,-0.276322
2.3942,0.381772,-0.30052
2.39626,0.471602,-0.326818
2.39976,0.292143,-0.365825
2.40725,0.383078,-0.392875
2.4043,0.472748,-0.419592
2.3956,0.379595,-0.482416
2.41626,0.2909,-0.554132
2.39762,0.378843,-0.576982
2.40537,0.472436,-0.60964
2.38872,0.283331,0.163355
2.39799,0.195903,0.098569
2.39509,0.194487,0.0115335
2.39377,0.458645,-0.0577365
2.39896,0.194001,-0.0762252
2.38876,0.36781,-0.122182
2.40474,0.192567,-0.163914
2.39355,0.278992,-0.186986
2.3908,0.367269,-0.210685
2.39347,0.456466,-0.235864
2.40998,0.279926,-0.277459
2.39846,0.367374,-0.300766
2.40009,0.457076,-0.32695
2.40347,0.27764,-0.366124
2.40761,0.368001,-0.392557
2.40425,0.457434,-0.419085
2.39789,0.364889,-0.482416
2.41703,0.275958,-0.55391
2.39798,0.363832,-0.57652
2.39679,0.455494,-0.606744
2.41883,0.274709,-0.651289
2.4004,0.182881,0.27488
2.39815,0.18111,0.0985281
2.38713,0.355175,0.0535457
2.39225,0.179488,0.0115143
2.38767,0.353935,-0.0343366
2.39163,0.443038,-0.0576181
2.39811,0.179129,-0.0761619
2.39097,0.353146,-0.122182
2.40488,0.177735,-0.163846
2.3972,0.264518,-0.187141
2.39005,0.352157,-0.210425
2.39525,0.441591,-0.235767
2.40968,0.264917,-0.277231
2.39772,0.352218,-0.300397
2.397,0.441264,-0.326154
2.40611,0.262994,-0.366274
2.40689,0.352792,-0.392079
2.40701,0.442673,-0.419085
2.39812,0.260723,-0.456148
2.39814,0.349885,-0.482026
2.39215,0.440069,-0.509107
2.39728,0.348691,-0.575826
2.39476,0.439902,-0.605537
2.42047,0.259862,-0.651289
2.40049,0.168079,0.274766
2.38606,0.253364,0.162949
2.40121,0.16653,0.09861
2.3933,0.164806,0.0115143
2.39078,0.339418,-0.0343508
2.3943,0.428355,-0.0576181
2.39917,0.164411,-0.0761619
2.39705,0.339028,-0.122384
2.38475,0.426518,-0.146135
2.40493,0.162908,-0.163778
2.39878,0.249804,-0.187141
2.39512,0.337902,-0.210685
2.39497,0.426362,-0.235478
2.40632,0.249613,-0.276663
2.39984,0.337499,-0.300397
2.40454,0.427415,-0.326818
2.40473,0.247922,-0.365825
2.40901,0.338017,-0.392079
2.40677,0.427378,-0.418579
2.39927,0.335028,-0.481831
2.39191,0.424869,-0.508492
2.39937,0.333975,-0.575826
2.39837,0.425369,-0.605779
2.42202,0.245006,-0.651289
2.40048,0.153284,0.274653
2.38658,0.23862,0.162881
2.39271,0.326598,0.140849
2.3992,0.151604,0.0984872
2.39527,0.150181,0.0115191
2.38985,0.324339,-0.0343082
2.39491,0.413316,-0.0575707
2.40013,0.149687,-0.0761619
2.39612,0.323912,-0.122232
2.40489,0.148087,-0.16371
2.40027,0.235081,-0.187141
2.39715,0.3232,-0.210685
2.39656,0.41149,-0.235382
2.40978,0.235037,-0.27689
2.40088,0.322636,-0.300274
2.40809,0.412821,-0.32695
2.40621,0.233162,-0.365825
2.40935,0.412603,-0.418579
2.39836,0.319912,-0.481246
2.3964,0.410515,-0.508902
2.40427,0.319632,-0.57652
2.39902,0.410318,-0.605296
2.40038,0.138495,0.274539
2.39634,0.225134,0.251489
2.39368,0.311782,0.140791
2.3951,0.136596,0.0982825
2.39615,0.135481,0.0115191
2.38882,0.309284,-0.0342655
2.39741,0.398613,-0.0575707
2.401,0.134957,-0.0761619
2.39707,0.309076,-0.122182
2.38882,0.397058,-0.146075
2.40575,0.133328,-0.16371
2.40464,0.220622,-0.187373
2.3981,0.308358,-0.210599
2.39904,0.396777,-0.235382
2.41514,0.220608,-0.277345
2.40478,0.30815,-0.30052
2.40956,0.218572,-0.366124
2.40906,0.307929,-0.391443
2.40741,0.216978,-0.457077
2.39834,0.304942,-0.480855
2.39695,0.395485,-0.508492
2.42478,0.127464,-0.528618
2.40908,0.30524,-0.577214
2.39575,0.394644,-0.603848
2.39065,0.123597,0.361607
2.40218,0.123815,0.274653
2.39075,0.209817,0.250761
2.38833,0.209228,0.162813
2.40149,0.297826,0.14114
2.39589,0.121897,0.0982825
2.38978,0.207925,0.0757208
2.3862,0.295379,0.0533461
2.38534,0.38252,0.0300644
2.39993,0.120927,0.0115335
2.39563,0.295232,-0.0343366
2.39487,0.383106,-0.0574523
2.40179,0.120222,-0.0761619
2.39694,0.294119,-0.122081
2.38826,0.38192,-0.145894
2.40653,0.118565,-0.16371
2.40893,0.206118,-0.187605
2.4039,0.294122,-0.210946
2.40438,0.382519,-0.235671
2.41447,0.205616,-0.277118
2.40564,0.293269,-0.300397
2.4079,0.203533,-0.365675
2.41065,0.202367,-0.457449
2.40114,0.290338,-0.481051
2.41575,0.112131,-0.526491
2.40994,0.290336,-0.576982
2.40005,0.38024,-0.604331
2.39729,0.109196,0.362503
2.40091,0.108983,0.274426
2.39298,0.195225,0.250865
2.38957,0.194569,0.162813
2.39959,0.107328,0.0984053
2.393,0.193419,0.0757839
2.38566,0.367572,0.0300395
2.40162,0.106243,0.0115383
2.3974,0.280527,-0.0343366
2.39421,0.367948,-0.0573813
2.40747,0.105702,-0.0763202
2.3987,0.279406,-0.122081
2.39154,0.36741,-0.145955
2.4082,0.103839,-0.163778
2.41015,0.191334,-0.187605
2.40566,0.279366,-0.210946
2.4057,0.367608,-0.235575
2.40444,0.278161,-0.300028
2.41009,0.188832,-0.365825
2.40874,0.366997,-0.417229
2.40499,0.187038,-0.456148
2.40287,0.2756,-0.481051
2.41151,0.0971093,-0.525427
2.41361,0.275764,-0.577445
2.3985,0.364922,-0.603365
2.40483,0.0947567,0.363549
2.40253,0.0942879,0.274539
2.39612,0.180688,0.251073
2.40496,0.268334,0.14114
2.39396,0.354809,0.118279
2.4002,0.0926023,0.0984053
2.39215,0.178583,0.0757208
2.38964,0.266075,0.0533461
2.38985,0.35322,0.0300644
2.40323,0.091543,0.0115431
2.39709,0.265591,-0.0343082
2.40236,0.354126,-0.0575233
2.40508,0.0908148,-0.0762252
2.39739,0.264354,-0.121929
2.39277,0.352584,-0.145894
2.40979,0.0890975,-0.163846
2.4083,0.176323,-0.187373
2.40634,0.264491,-0.210859
2.4089,0.352985,-0.235671
2.4178,0.176043,-0.277231
2.40216,0.26297,-0.299536
2.41219,0.174111,-0.365975
2.40997,0.352068,-0.41706
2.41001,0.172559,-0.456892
2.40354,0.260745,-0.480855
2.42281,0.0826773,-0.527767
2.41429,0.260845,-0.577214
2.40549,0.350899,-0.604572
2.40537,0.0799991,0.363549
2.40207,0.0795117,0.274426
2.39619,0.165914,0.250969
2.40359,0.253258,0.140965
2.39708,0.340254,0.118327
2.40172,0.0779056,0.0984462
2.39322,0.251616,0.0533904
2.389,0.338129,0.0300271
2.40175,0.0767315,0.0115335
2.39668,0.25067,-0.0342797
2.40053,0.338819,-0.0574286
2.4006,0.0758979,-0.0760669
2.39797,0.249536,-0.121879
2.39884,0.338453,-0.146135
2.4103,0.0743096,-0.163846
2.40336,0.161143,-0.186909
2.40792,0.249721,-0.210859
2.40806,0.337782,-0.235382
2.41963,0.0738789,-0.253535
2.40372,0.248226,-0.299536
2.41519,0.159437,-0.366274
2.41495,0.158025,-0.457635
2.42327,0.0678097,-0.527767
2.41875,0.246322,-0.577908
2.40183,0.335328,-0.603124
2.39871,0.0647947,0.453147
2.39988,0.0650777,0.362653
2.39655,0.0646107,0.273745
2.39517,0.151082,0.250761
2.39136,0.238239,0.228142
2.39075,0.150427,0.162678
2.4041,0.238407,0.140907
2.40209,0.325942,0.118474
2.40115,0.0631412,0.0984053
2.39273,0.23673,0.0533461
2.38707,0.322927,0.0299773
2.40217,0.0619932,0.0115335
2.40216,0.236351,-0.0343366
2.39761,0.323416,-0.0573102
2.40002,0.0611412,-0.0760353
2.40443,0.235304,-0.122131
2.39691,0.323194,-0.145894
2.40871,0.0594697,-0.16371
2.40132,0.146211,-0.186677
2.41337,0.235328,-0.211206
2.40417,0.322207,-0.234804
2.42103,0.0590552,-0.253639
2.41482,0.14606,-0.276663
2.41014,0.233952,-0.300151
2.41415,0.144497,-0.365975
2.41685,0.143262,-0.457821
2.40168,0.230761,-0.47988
2.42168,0.0528968,-0.527341
2.40577,0.32084,-0.603607
2.40594,0.0502188,0.454446
2.40221,0.0503926,0.362952
2.40013,0.137708,0.34001
2.39591,0.0498838,0.273632
2.39308,0.136214,0.250449
2.39476,0.223746,0.228331
2.39856,0.223004,0.1405
2.4015,0.0484068,0.0984053
2.39513,0.222137,0.0533682
2.38801,0.308147,0.0299649
2.40451,0.0472919,0.0115431
2.40157,0.221424,-0.0343082
2.39955,0.308698,-0.0573102
2.40435,0.0464911,-0.0761619
2.40085,0.22009,-0.121879
2.39885,0.308481,-0.145894
2.40604,0.0446335,-0.163507
2.40317,0.131529,-0.186754
2.41477,0.220516,-0.211206
2.42334,0.0442352,-0.253848
2.41567,0.13124,-0.276663
2.41153,0.219159,-0.300151
2.414,0.129628,-0.365825
2.41376,0.128221,-0.457077
2.40598,0.216284,-0.480465
2.40017,0.305755,-0.506443
2.4161,0.0379446,-0.526065
2.40865,0.306195,-0.603848
2.40248,0.0356519,0.362952
2.39796,0.122826,0.33959
2.39188,0.121426,0.250242
2.39608,0.209048,0.228331
2.39988,0.208282,0.1405
2.39875,0.0336285,0.0982825
2.39944,0.207695,0.0534348
2.38788,0.293244,0.02994
2.40675,0.0325643,0.0115527
2.40288,0.206684,-0.0343082
2.4004,0.293847,-0.0572865
2.40415,0.205525,-0.12198
2.40664,0.294483,-0.146256
2.40527,0.0298571,-0.163439
2.40592,0.116877,-0.186909
2.41509,0.20561,-0.211119
2.42158,0.0293409,-0.253639
2.41742,0.116463,-0.276777
2.41481,0.204525,-0.300397
2.42457,0.0272188,-0.343967
2.41475,0.114814,-0.365825
2.4145,0.113408,-0.457077
2.41019,0.201762,-0.481051
2.402,0.291022,-0.506443
2.41824,0.0231377,-0.526491
2.41338,0.29176,-0.604572
2.40364,0.0209186,0.363101
2.40065,0.108199,0.33987
2.39457,0.106837,0.250449
2.39732,0.194342,0.228331
2.40112,0.193553,0.1405
2.39991,0.0189173,0.0983234
2.39867,0.192808,0.0533904
2.39062,0.278703,0.0299524
2.40791,0.0178035,0.0115575
2.4061,0.192095,-0.0343366
2.40017,0.278882,-0.0572392
2.40337,0.190611,-0.121879
2.40543,0.279365,-0.146075
2.40341,0.0150855,-0.163304
2.4046,0.102028,-0.186754
2.41432,0.190631,-0.210946
2.41873,0.014464,-0.253327
2.41015,0.101294,-0.275868
2.41602,0.189704,-0.300397
2.41974,0.0123162,-0.343265
2.41541,0.0999951,-0.365825
2.41123,0.0984308,-0.456334
2.40943,0.186818,-0.48066
2.39985,0.275831,-0.505624
2.41638,0.00829247,-0.526065
2.41802,0.277278,-0.605296
2.41163,0.00619001,0.364296
2.40226,0.0935057,0.34001
2.3922,0.092027,0.250138
2.39847,0.179629,0.228331
2.38856,0.265602,0.204851
2.39373,0.0917093,0.162678
2.40326,0.178891,0.140558
2.39782,0.177939,0.0533461
2.39229,0.264029,0.0299524
2.40097,0.00301977,0.0115239
2.40524,0.177181,-0.0343082
2.4078,0.264806,-0.0573813
2.4045,0.175861,-0.121879
2.40214,0.264055,-0.145774
2.40518,0.0872719,-0.186754
2.41345,0.175669,-0.210772
2.42175,-0.000377767,-0.253639
2.40775,0.0863972,-0.275527
2.41813,0.174948,-0.30052
2.42175,-0.00253341,-0.343545
2.41598,0.0851726,-0.365825
2.41375,0.0837021,-0.456706
2.41249,0.17217,-0.481051
2.4015,0.261101,-0.505624
2.42128,-0.00654756,-0.527129
2.42744,0.082353,-0.553022
2.43269,-0.00963547,-0.626153
2.40557,0.0796118,0.430032
2.39883,0.0786342,0.33945
2.39849,0.166268,0.316568
2.39272,0.077347,0.250138
2.39953,0.164909,0.228331
2.39808,0.251773,0.205531
2.40331,0.164073,0.1405
2.39996,-0.0105347,0.0983234
2.39487,0.162951,0.0532573
2.39386,0.249345,0.0299524
2.40329,0.162217,-0.0342655
2.40441,0.249511,-0.0572628
2.40454,0.161037,-0.121828
2.40471,0.249414,-0.145834
2.40667,0.0725424,-0.186831
2.4125,0.160724,-0.210599
2.41292,0.248308,-0.234804
2.4237,-0.0152499,-0.253848
2.41816,0.0719172,-0.276663
2.41816,0.160042,-0.300397
2.41349,0.0702605,-0.365376
2.42818,-0.0195587,-0.43547
2.41618,0.0689461,-0.457077
2.41448,0.157428,-0.481246
2.405,0.24656,-0.506034
2.43096,-0.0214905,-0.529256
2.42595,0.0674028,-0.552578
2.42326,0.156939,-0.577214
2.42027,0.247485,-0.605055
2.43065,-0.0245424,-0.625654
2.40503,0.0648235,0.429856
2.4135,-0.0234241,0.364595
2.39728,0.0638611,0.33917
2.39613,0.0627423,0.250449
2.3995,0.15012,0.228237
2.40057,0.237152,0.205616
2.40726,0.149509,0.140674
2.40185,-0.0252814,0.0984053
2.40381,0.148747,0.0534348
2.39734,0.234847,0.0299773
2.40283,-0.0264661,0.0115335
2.40124,0.147284,-0.0342228
2.40092,0.234268,-0.0571444
2.40349,0.146159,-0.121727
2.4042,0.234461,-0.145714
2.40807,0.0577979,-0.186909
2.41443,0.145979,-0.210685
2.42157,-0.0300964,-0.253639
2.42154,0.0571486,-0.277004
2.41415,0.144904,-0.299782
2.42847,-0.0323442,-0.344529
2.41486,0.055473,-0.365526
2.42506,-0.0344155,-0.43494
2.41558,0.0540974,-0.456892
2.41442,0.142552,-0.481051
2.40452,0.231611,-0.505624
2.42688,-0.0363476,-0.528405
2.42242,0.0524317,-0.55169
2.41933,0.141783,-0.576057
2.42658,-0.0393933,-0.624657
2.42998,0.0511528,-0.650256
2.40538,0.0500653,0.429856
2.39763,0.0491504,0.33917
2.39349,0.0479789,0.250138
2.40038,0.135394,0.228237
2.40198,0.222418,0.205616
2.40315,0.134457,0.140383
2.39669,0.13355,0.0532573
2.39873,0.220133,0.0299773
2.4031,0.132603,-0.0342371
2.40331,0.219622,-0.0571681
2.40234,0.131299,-0.121626
2.40262,0.219432,-0.145533
2.40838,0.0430212,-0.186909
2.41528,0.131161,-0.210685
2.42134,-0.0449543,-0.253639
2.4139,0.0421505,-0.276095
2.41004,0.129822,-0.299167
2.42922,-0.0472636,-0.344669
2.41911,0.0407212,-0.366124
2.42186,-0.0492347,-0.43441
2.4139,0.0392427,-0.45652
2.41329,0.127631,-0.48066
2.40687,0.216941,-0.505829
2.42563,-0.0512174,-0.528192
2.42562,0.0376124,-0.552356
2.41918,0.126884,-0.575826
2.42726,-0.0543034,-0.624906
2.43025,0.0362417,-0.650256
2.39789,0.0344379,0.33917
2.39619,0.120414,0.227764
2.39625,0.0329504,0.162745
2.40194,0.11961,0.140267
2.39547,0.118743,0.053213
2.40104,0.205496,0.0299897
2.40187,0.117757,-0.0342086
2.4076,0.205126,-0.0572392
2.40709,0.11675,-0.121828
2.40392,0.204686,-0.145533
2.4056,0.0282078,-0.186677
2.41405,0.116243,-0.210512
2.41903,-0.0597613,-0.253431
2.4151,0.0273496,-0.276209
2.41574,0.115268,-0.299782
2.42888,-0.0621681,-0.344669
2.41338,0.0258136,-0.365226
2.42544,-0.0641982,-0.435117
2.41311,0.0244206,-0.456334
2.41305,0.112776,-0.480465
2.41206,0.202496,-0.506648
2.42234,-0.0660199,-0.527554
2.42581,0.0227284,-0.552356
2.42283,0.112173,-0.57652
2.42591,-0.0691682,-0.624657
2.43139,0.0213378,-0.650514
2.40778,0.0205606,0.430208
2.39805,0.0197241,0.33917
2.40044,-0.0678784,0.274199
2.39788,0.105752,0.227859
2.40552,0.193005,0.2057
2.4106,0.105218,0.140733
2.40198,-0.0695163,0.0984462
2.39815,0.104129,0.0532573
2.40524,0.190997,0.0300271
2.40355,0.10306,-0.0342228
2.40981,0.190428,-0.0572628
2.40876,0.10202,-0.121879
2.40513,0.189932,-0.145533
2.40473,0.0134412,-0.186599
2.41572,0.10147,-0.210599
2.42359,-0.0747564,-0.253952
2.41224,0.0125148,-0.275868
2.42136,0.100649,-0.300397
2.42944,-0.0771017,-0.34481
2.41053,0.0109913,-0.364778
2.42697,-0.0791434,-0.43547
2.41616,0.00962535,-0.456892
2.41174,0.0978877,-0.480075
2.41423,0.187768,-0.506853
2.4258,-0.0810123,-0.528405
2.42297,0.00783404,-0.55169
2.41764,0.0970706,-0.575132
2.4206,-0.0838843,-0.623411
2.43051,0.0064161,-0.650256
2.40983,0.00579108,0.43056
2.40115,0.0931532,0.405912
2.40407,0.00502197,0.34001
2.40097,-0.0826401,0.274312
2.39749,0.0909995,0.227764
2.40467,0.178094,0.205531
2.41021,0.0903871,0.140674
2.39774,0.0893749,0.0532352
2.40437,0.176089,0.0300022
2.40314,0.0882739,-0.0342086
2.40994,0.175566,-0.0572392
2.40824,-0.0864675,-0.0763202
2.40834,0.0872025,-0.121828
2.40426,0.175026,-0.145413
2.40477,-0.00131422,-0.186599
2.4153,0.0866101,-0.210512
2.42308,-0.0896258,-0.253952
2.41029,-0.00228479,-0.275641
2.41797,0.0856494,-0.299905
2.42497,-0.0918571,-0.344248
2.4155,-0.00380743,-0.365526
2.42546,-0.0939954,-0.435293
2.41421,-0.00519589,-0.45652
2.41229,0.0830877,-0.480075
2.41729,0.173091,-0.507263
2.42037,-0.0957022,-0.527341
2.42785,-0.00704735,-0.5528
2.41527,0.0821353,-0.574439
2.42198,-0.0988142,-0.623909
2.42857,-0.0084906,-0.649739
2.40785,-0.00898813,0.430208
2.40009,-0.00971319,0.33945
2.40992,0.078098,0.317482
2.41332,-0.0978941,0.275787
2.39303,0.0761288,0.227292
2.4087,0.163538,0.205785
2.40273,0.0753463,0.140209
2.39725,0.0746298,0.053213
2.40441,0.161266,0.0299897
2.40763,0.0736491,-0.0342655
2.40897,0.160643,-0.0571918
2.40766,-0.101243,-0.0763202
2.41283,0.0725436,-0.12203
2.40429,0.160204,-0.145353
2.40571,-0.0160763,-0.186677
2.41479,0.0717589,-0.210425
2.4195,-0.104363,-0.253639
2.41718,-0.0171233,-0.276436
2.41845,0.0708115,-0.299905
2.42732,-0.106865,-0.344669
2.41741,-0.0186438,-0.365825
2.4209,-0.108699,-0.434587
2.41512,-0.0200173,-0.456706
2.41276,0.0682846,-0.480075
2.41538,0.158064,-0.506648
2.41779,-0.110462,-0.526916
2.42776,-0.0219442,-0.5528
2.41573,0.0673139,-0.574439
2.4229,0.157919,-0.603848
2.42036,-0.113628,-0.62366
2.42751,-0.0233826,-0.64948
2.40494,0.151035,0.383467
2.40692,-0.0245103,0.340431
2.39643,0.0615207,0.227575
2.40866,0.148694,0.2057
2.40515,0.0606523,0.140325
2.40428,-0.113906,0.09861
2.39966,0.0599691,0.0532573
2.40536,0.146509,0.0299897
2.41104,0.0589481,-0.0343082
2.39993,0.145254,-0.056955
2.40724,0.0575941,-0.121727
2.40722,0.145569,-0.145473
2.41717,0.0569876,-0.210599
2.4218,-0.119354,-0.253952
2.41902,-0.0319808,-0.276663
2.42181,0.0560397,-0.300274
2.43058,-0.121956,-0.345231
2.41033,-0.0333806,-0.364778
2.42215,-0.123652,-0.43494
2.41298,-0.0348074,-0.456334
2.41117,0.0534355,-0.479685
2.41337,0.143066,-0.506034
2.42758,-0.0368403,-0.5528
2.4161,0.05249,-0.574439
2.42479,0.143106,-0.604089
2.42735,-0.128888,-0.625654
2.42346,-0.0382161,-0.648446
2.40443,0.0489802,0.406245
2.40673,-0.0392784,0.340431
2.39975,0.0468737,0.227859
2.40356,0.13358,0.205191
2.40647,0.0459125,0.140383
2.40598,0.045357,0.0533904
2.40321,0.131584,0.0299524
2.41135,0.0441532,-0.0343082
2.40677,0.130852,-0.0570971
2.40824,-0.130889,-0.0763835
2.40355,0.0427514,-0.121525
2.40807,0.130796,-0.145473
2.41449,0.0421029,-0.210338
2.42698,-0.134542,-0.254577
2.41381,-0.0467269,-0.276095
2.42112,0.0411618,-0.300151
2.43275,-0.137034,-0.345652
2.41106,-0.0481892,-0.364927
2.42725,-0.138849,-0.435999
2.40949,0.0386084,-0.479295
2.4142,0.128255,-0.506034
2.42634,-0.0517142,-0.552578
2.4154,0.037649,-0.574207
2.41884,0.127867,-0.6024
2.42845,-0.143894,-0.626153
2.42124,-0.0530431,-0.64793
2.40863,0.0342821,0.406912
2.41194,0.0337398,0.317612
2.399,0.0321348,0.227764
2.40533,0.118879,0.205276
2.40771,0.0311587,0.140441
2.40721,0.0306061,0.0534126
2.40398,0.116835,0.0299524
2.40658,0.0292957,-0.0342371
2.40553,0.115985,-0.0570497
2.40938,-0.145784,-0.0764468
2.40976,0.0280725,-0.121828
2.40982,0.116066,-0.145533
2.4147,0.0272871,-0.210338
2.42511,-0.14937,-0.254473
2.40951,-0.0614356,-0.275641
2.41835,0.026273,-0.299782
2.42791,-0.151712,-0.34509
2.41072,-0.0629823,-0.364927
2.41865,0.0255163,-0.389852
2.42733,-0.153802,-0.436176
2.41164,0.0238427,-0.479685
2.40712,0.113072,-0.504395
2.42695,-0.0666277,-0.5528
2.41461,0.0228184,-0.573976
2.42539,0.113294,-0.603848
2.42656,-0.158729,-0.625903
2.41894,-0.0678444,-0.647413
2.40814,0.0189086,0.31709
2.39716,0.0173998,0.227575
2.40602,0.104118,0.205276
2.40885,0.0163915,0.1405
2.4129,0.103404,0.118034
2.40536,0.015822,0.0533682
2.40764,0.10221,0.0299897
2.41171,0.0145589,-0.0343082
2.40819,0.101307,-0.0570971
2.40489,0.0132584,-0.121576
2.41049,0.101277,-0.145533
2.41283,0.01246,-0.210165
2.42911,-0.164584,-0.254993
2.41648,0.0114244,-0.299536
2.4299,-0.166809,-0.345512
2.41227,-0.0778368,-0.365226
2.41876,0.0106753,-0.389852
2.42732,-0.168761,-0.436352
2.41272,0.00904842,-0.47988
2.40679,0.0982605,-0.50419
2.41922,-0.170107,-0.52798
2.42747,-0.0815506,-0.553022
2.41179,0.00799256,-0.573282
2.42313,0.0982921,-0.603124
2.42843,-0.173822,-0.626651
2.41945,-0.0827185,-0.647671
2.41084,0.00472579,0.407245
2.40102,0.0917053,0.382366
2.4092,0.0041339,0.317221
2.40243,-0.0845532,0.251177
2.39921,0.00269303,0.227764
2.40362,0.0892422,0.205021
2.40591,0.00160878,0.140325
2.41349,0.0885963,0.118034
2.40141,0.00106091,0.0532795
2.40823,0.087435,0.0299897
2.40876,-0.000239107,-0.0342655
2.40877,0.0865286,-0.0570971
2.40393,-0.00149732,-0.121525
2.41106,0.0864846,-0.145533
2.4119,-0.177571,-0.16432
2.41585,-0.00234804,-0.210425
2.42508,-0.179265,-0.254681
2.4175,-0.00340447,-0.299659
2.41779,-0.00416446,-0.389692
2.42428,-0.183503,-0.435999
2.41224,0.0836604,-0.505214
2.42105,-0.185172,-0.528618
2.42595,-0.096405,-0.5528
2.41277,-0.00680879,-0.573514
2.42369,0.0834222,-0.603124
2.42732,-0.188719,-0.626651
2.42082,-0.0976403,-0.648188
2.43166,-0.00783825,-0.67642
2.40351,0.0770345,0.382681
2.41414,-0.0106707,0.317873
2.40385,-0.0993747,0.251385
2.39918,-0.0120283,0.227764
2.40711,0.0745847,0.205276
2.40548,-0.187171,0.187218
2.40887,-0.01317,0.1405
2.41399,0.0737857,0.118034
2.40137,-0.0136739,0.0532795
2.40972,0.0726869,0.0300022
2.40471,-0.014994,-0.0342086
2.40926,0.071747,-0.0570971
2.41227,-0.190581,-0.0766367
2.41155,0.071689,-0.145533
2.4128,-0.0171501,-0.210165
2.42067,0.0700149,-0.234418
2.43286,-0.194857,-0.255618
2.41743,-0.0182379,-0.299659
2.41508,-0.107609,-0.365825
2.42068,-0.019023,-0.39017
2.42998,-0.198937,-0.437235
2.4088,0.0687459,-0.504395
2.42864,-0.200748,-0.530532
2.42823,-0.111423,-0.553466
2.41365,-0.0216218,-0.573745
2.42707,0.0686314,-0.603848
2.42708,-0.203691,-0.626901
2.42018,-0.112492,-0.648188
2.43157,-0.0227585,-0.67642
2.40196,0.0622342,0.382366
2.4084,0.0615177,0.293548
2.40717,-0.114311,0.2518
2.39906,-0.0267492,0.227764
2.4135,0.059962,0.205785
2.4172,-0.203012,0.188224
2.40874,-0.0279503,0.1405
2.41112,0.0579238,0.0300146
2.40557,-0.0297611,-0.0342228
2.40965,0.0569628,-0.0570971
2.41603,-0.205803,-0.076795
2.41194,0.0568906,-0.145533
2.41848,-0.207924,-0.16493
2.41564,-0.0319941,-0.210425
2.4336,-0.209952,-0.255827
2.41628,-0.033057,-0.299536
2.41536,-0.122476,-0.365975
2.41559,-0.0338066,-0.389374
2.42871,-0.213843,-0.437235
2.41988,-0.124102,-0.458192
2.43028,-0.215905,-0.53117
2.42166,-0.126016,-0.552134
2.42744,0.0537379,-0.603848
2.42772,-0.218753,-0.627399
2.42234,-0.127492,-0.648963
2.42945,-0.037648,-0.675884
2.4023,0.0474949,0.382366
2.41071,0.0467774,0.29379
2.40841,-0.129186,0.252008
2.40884,0.0450588,0.205361
2.40753,-0.0427119,0.140441
2.41143,0.0431284,0.0300146
2.411,-0.219477,0.0116199
2.41134,-0.0446319,-0.0343082
2.40796,0.0421414,-0.0570497
2.41771,-0.220896,-0.07689
2.40826,0.0420205,-0.145292
2.42014,-0.223035,-0.165134
2.41142,-0.0467384,-0.210078
2.41935,0.0402712,-0.234226
2.41405,-0.0478431,-0.29929
2.41555,-0.13735,-0.366124
2.41731,-0.0486674,-0.389692
2.43519,-0.22948,-0.438647
2.41809,-0.138892,-0.458006
2.43183,-0.23109,-0.531809
2.4296,-0.141382,-0.554132
2.42676,0.0388269,-0.603607
2.43308,-0.234295,-0.629144
2.4244,-0.142523,-0.649739
2.42532,-0.0524708,-0.674812
2.41122,-0.0544629,0.407411
2.41195,0.0319978,0.293911
2.39955,-0.0562107,0.227859
2.40808,0.030265,0.205276
2.40523,-0.0574357,0.140325
2.41465,0.0283665,0.030052
2.4116,-0.23446,0.0116295
2.40603,-0.0593036,-0.0342371
2.40917,0.027377,-0.0570734
2.4183,-0.235921,-0.0769533
2.40647,0.0272203,-0.145172
2.41773,-0.237783,-0.165066
2.41108,-0.0615336,-0.210078
2.42155,0.0254465,-0.234418
2.41355,-0.150576,-0.27655
2.41172,-0.062603,-0.299044
2.41565,-0.152231,-0.366274
2.41795,-0.0635248,-0.389852
2.43374,-0.244418,-0.438647
2.42745,-0.245712,-0.53117
2.43063,-0.156413,-0.554576
2.4221,0.023888,-0.6024
2.44026,-0.250108,-0.631387
2.42637,-0.157584,-0.650514
2.42303,-0.0672978,-0.674276
2.41478,-0.0693701,0.408077
2.41117,-0.069856,0.317612
2.40912,0.0171765,0.293548
2.40016,-0.0709624,0.227953
2.40822,0.0154888,0.205276
2.40383,-0.0721629,0.140267
2.41178,0.0135332,0.0300146
2.41211,-0.249458,0.0116391
2.40929,0.0125941,-0.0570734
2.41979,-0.251064,-0.0770482
2.4056,0.0124488,-0.145112
2.41623,-0.252613,-0.165066
2.41066,-0.0763266,-0.210078
2.42166,0.0105877,-0.234418
2.41654,-0.165654,-0.277004
2.4103,-0.0773681,-0.298921
2.41751,-0.0783598,-0.389852
2.43121,-0.259242,-0.43847
2.42978,-0.26102,-0.532021
2.42768,-0.171187,-0.554132
2.41638,0.00900413,-0.600952
2.44061,-0.265286,-0.631886
2.42632,-0.172538,-0.650772
2.42642,-0.0822946,-0.675348
2.4072,0.00239214,0.293307
2.40926,0.000712215,0.205361
2.40617,-0.173914,0.163829
2.41033,-0.0871637,0.140674
2.41711,-0.000297943,0.118132
2.41463,-0.263509,0.0995105
2.41281,-0.00126598,0.0300271
2.41451,-0.26469,0.0116583
2.40732,-0.00218744,-0.057026
2.42218,-0.266344,-0.0771749
2.40363,-0.00230994,-0.144991
2.42158,-0.268203,-0.165541
2.41015,-0.0911167,-0.210078
2.42168,-0.00427154,-0.234418
2.42142,-0.180923,-0.277686
2.41077,-0.0921939,-0.299044
2.41755,-0.182161,-0.366872
2.41896,-0.093268,-0.39017
2.42667,-0.00533919,-0.415541
2.43349,-0.274597,-0.439176
2.43201,-0.276365,-0.532872
2.43339,-0.186601,-0.555686
2.41639,-0.00582265,-0.600952
2.43605,-0.279924,-0.631138
2.43196,-0.187943,-0.652582
2.42684,-0.0972199,-0.675616
2.41411,-0.0124139,0.294153
2.40823,-0.0140649,0.205276
2.40875,-0.101909,0.140616
2.41507,-0.0151166,0.118034
2.40876,-0.0160441,0.0299773
2.4188,-0.280191,0.0116871
2.40926,-0.0169725,-0.0570734
2.4205,-0.281201,-0.0771749
2.40656,-0.0170795,-0.145172
2.42385,-0.28352,-0.165812
2.4169,-0.194528,-0.188147
2.41352,-0.106078,-0.210425
2.41961,-0.0191149,-0.234226
2.42621,-0.196258,-0.278368
2.41737,-0.197071,-0.367022
2.42327,-0.108329,-0.390965
2.42857,-0.0202453,-0.415878
2.43958,-0.290454,-0.440589
2.41983,-0.198675,-0.459121
2.42736,-0.290933,-0.532234
2.43609,-0.201851,-0.556574
2.42094,-0.110892,-0.576057
2.41339,-0.0206243,-0.600228
2.44294,-0.295915,-0.633381
2.43461,-0.203183,-0.653615
2.43004,-0.112287,-0.676688
2.43506,-0.0212771,-0.704438
2.40804,-0.0271592,0.293428
2.40441,-0.115416,0.22852
2.40212,-0.0287697,0.204766
2.41506,-0.117025,0.141024
2.41793,-0.029972,0.118181
2.40762,-0.0308108,0.0299649
2.41902,-0.295269,0.0116967
2.40911,-0.0317552,-0.0570734
2.42369,-0.296655,-0.0773331
2.42998,-0.299363,-0.166354
2.41963,-0.209698,-0.188456
2.41581,-0.121035,-0.210685
2.42343,-0.0340169,-0.234611
2.42595,-0.211227,-0.278481
2.41244,-0.121921,-0.299413
2.42301,-0.212505,-0.368069
2.42355,-0.123246,-0.391125
2.42741,-0.0351321,-0.41571
2.44068,-0.305784,-0.441118
2.42052,-0.213692,-0.459493
2.41442,-0.0348176,-0.505419
2.43523,-0.307044,-0.534361
2.43675,-0.216968,-0.557018
2.42216,-0.125846,-0.57652
2.4171,-0.0354892,-0.601193
2.43531,-0.310164,-0.631886
2.43332,-0.218118,-0.653615
2.42835,-0.127145,-0.67642
2.43297,-0.0361894,-0.703882
2.41279,-0.0420206,0.294032
2.4136,-0.130705,0.229465
2.40488,-0.0435624,0.205021
2.41728,-0.132005,0.141198
2.4147,-0.0447521,0.118034
2.41914,-0.310361,0.0117063
2.40807,-0.133357,-0.0343082
2.40488,-0.0464594,-0.0569787
2.42777,-0.312286,-0.0775231
2.43107,-0.314652,-0.166557
2.4183,-0.224541,-0.188456
2.41701,-0.135968,-0.210859
2.42119,-0.048846,-0.234418
2.42955,-0.22657,-0.279049
2.41561,-0.136946,-0.299905
2.42166,-0.227368,-0.368069
2.42373,-0.138171,-0.391284
2.42518,-0.0499851,-0.415372
2.44266,-0.321268,-0.441824
2.42308,-0.22891,-0.460236
2.41808,-0.0497121,-0.506239
2.4333,-0.321981,-0.534361
2.43828,-0.232192,-0.557684
2.42134,-0.140705,-0.57652
2.43912,-0.325871,-0.633381
2.43578,-0.233413,-0.654649
2.42848,-0.142099,-0.676688
2.42886,-0.0510364,-0.702771
2.41248,-0.0568244,0.294032
2.41055,-0.0584626,0.205531
2.41643,-0.146835,0.141198
2.41139,-0.0594937,0.117888
2.40606,-0.0603286,0.0299524
2.4162,-0.325065,0.0117015
2.4082,-0.148191,-0.0343224
2.40754,-0.0612909,-0.0570497
2.43076,-0.327845,-0.0776813
2.43503,-0.330367,-0.166964
2.42084,-0.239768,-0.188765
2.41912,-0.150982,-0.211119
2.41885,-0.0636488,-0.234226
2.4301,-0.24167,-0.279276
2.41472,-0.151765,-0.299905
2.4271,-0.242912,-0.369117
2.42974,-0.153476,-0.392398
2.42581,-0.0648911,-0.415541
2.44357,-0.336653,-0.442354
2.42456,-0.244068,-0.460793
2.43418,-0.337307,-0.534999
2.44166,-0.247641,-0.558794
2.41946,-0.155497,-0.576289
2.44379,-0.34177,-0.635126
2.43623,-0.24855,-0.655166
2.43141,-0.157246,-0.67776
2.43234,-0.0660429,-0.703882
2.41705,-0.0717733,0.294637
2.40616,-0.0731313,0.205191
2.42146,-0.162059,0.141548
2.40898,-0.074227,0.11779
2.40898,-0.161773,0.0535679
2.41812,-0.340442,0.0117207
2.41223,-0.163302,-0.0343935
2.41512,-0.0763148,-0.0572392
2.42969,-0.342893,-0.077713
2.4143,-0.164712,-0.122333
2.42801,-0.344601,-0.166625
2.42032,-0.254722,-0.188843
2.42013,-0.165959,-0.211293
2.4214,-0.0785863,-0.234515
2.43548,-0.257307,-0.280072
2.42904,-0.0794707,-0.325226
2.42753,-0.258009,-0.369416
2.42777,-0.168313,-0.392238
2.42734,-0.0798392,-0.415878
2.42888,-0.259567,-0.461908
2.43883,-0.353217,-0.536488
2.43719,-0.262305,-0.558128
2.42331,-0.170682,-0.577445
2.41798,-0.0800384,-0.601676
2.43398,-0.355638,-0.633132
2.44234,-0.264326,-0.657234
2.43232,-0.172298,-0.678296
2.42613,-0.0807744,-0.702215
2.41113,-0.085523,0.383938
2.40666,-0.0879302,0.205276
2.41644,-0.176623,0.141315
2.41247,-0.0891544,0.117986
2.40994,-0.176697,0.0536122
2.41418,-0.178321,-0.0344362
2.4166,-0.0912076,-0.0572865
2.4315,-0.358378,-0.0778396
2.41623,-0.179745,-0.122485
2.43276,-0.360516,-0.1671
2.42862,-0.270672,-0.189616
2.42404,-0.181177,-0.211727
2.42386,-0.0935574,-0.234804
2.43583,-0.272466,-0.280299
2.42257,-0.18213,-0.301135
2.42553,-0.094258,-0.324828
2.43475,-0.273894,-0.370762
2.42669,-0.183206,-0.392238
2.42483,-0.0946547,-0.415541
2.42724,-0.274466,-0.461908
2.42338,-0.184573,-0.483391
2.43662,-0.368175,-0.536488
2.43747,-0.277475,-0.558572
2.42804,-0.185993,-0.578833
2.43654,-0.371295,-0.634378
2.44067,-0.279307,-0.657234
2.43602,-0.187589,-0.679636
2.42943,-0.0958107,-0.703326
2.40707,-0.102738,0.205361
2.4163,-0.191525,0.141373
2.41886,-0.104256,0.118327
2.4108,-0.191639,0.0536566
2.41304,-0.193131,-0.0344362
2.41699,-0.106078,-0.0573102
2.43222,-0.373746,-0.0779346
2.43248,-0.375741,-0.167235
2.4279,-0.285685,-0.189694
2.42586,-0.196288,-0.211987
2.42224,-0.108384,-0.234708
2.42536,-0.197313,-0.301627
2.4259,-0.109184,-0.324961
2.43597,-0.289178,-0.371211
2.42847,-0.198334,-0.392716
2.42716,-0.109665,-0.416047
2.42649,-0.28947,-0.462094
2.42024,-0.199278,-0.483001
2.43335,-0.382967,-0.536276
2.43959,-0.292891,-0.55946
2.43461,-0.20153,-0.580683
2.44275,-0.29474,-0.658267
2.43867,-0.202852,-0.680708
2.43359,-0.110934,-0.704716
2.40739,-0.117554,0.205446
2.41508,-0.206348,0.141373
2.40958,-0.206428,0.0536566
2.41579,-0.208277,-0.0344931
2.4183,-0.121006,-0.0573576
2.43481,-0.389452,-0.0780928
2.41484,-0.209469,-0.122535
2.43012,-0.39066,-0.167235
2.42709,-0.3007,-0.189771
2.42858,-0.211515,-0.212334
2.42451,-0.123396,-0.234997
2.43921,-0.303195,-0.281094
2.43004,-0.21271,-0.302365
2.43112,-0.12437,-0.325756
2.44533,-0.396082,-0.351411
2.43415,-0.304119,-0.371211
2.43114,-0.213576,-0.393352
2.43038,-0.124758,-0.416722
2.42954,-0.304965,-0.463023
2.42484,-0.214643,-0.484172
2.43385,-0.398364,-0.536914
2.44065,-0.308221,-0.560126
2.43333,-0.216465,-0.580683
2.42579,-0.125031,-0.604089
2.44089,-0.309723,-0.658267
2.43929,-0.217983,-0.681244
2.43766,-0.126113,-0.706105
2.40762,-0.132378,0.205531
2.41079,-0.220889,0.141198
2.42239,-0.134208,0.118571
2.41026,-0.221392,0.053701
2.42841,-0.224384,-0.0346922
2.4205,-0.13601,-0.0574286
2.43435,-0.404712,-0.0781562
2.41848,-0.224744,-0.122788
2.42867,-0.405728,-0.167303
2.43014,-0.31623,-0.190158
2.42624,-0.22632,-0.212247
2.42471,-0.138327,-0.235093
2.43927,-0.318413,-0.281322
2.43165,-0.227895,-0.302734
2.43328,-0.139455,-0.326154
2.44578,-0.411571,-0.351832
2.4342,-0.319307,-0.371511
2.4347,-0.228952,-0.394148
2.42661,-0.139498,-0.416216
2.43542,-0.320894,-0.46451
2.4264,-0.229795,-0.484757
2.43232,-0.413454,-0.537127
2.43968,-0.323319,-0.560348
2.43195,-0.231391,-0.580683
2.4211,-0.13969,-0.603124
2.43895,-0.324694,-0.658267
2.44079,-0.233221,-0.682048
2.43684,-0.141067,-0.706105
2.40776,-0.147209,0.205616
2.41435,-0.236163,0.14149
2.42252,-0.14913,0.11862
2.41681,-0.236957,0.0538784
2.41019,-0.149343,0.030052
2.42898,-0.239477,-0.0347207
2.41763,-0.150735,-0.0573813
2.43084,-0.419471,-0.0781245
2.425,-0.240367,-0.123192
2.41192,-0.150506,-0.145774
2.4281,-0.420963,-0.167439
2.43112,-0.331539,-0.19039
2.42976,-0.241696,-0.212681
2.42679,-0.15339,-0.235382
2.43924,-0.333644,-0.281549
2.43712,-0.243501,-0.303595
2.43219,-0.334236,-0.371511
2.43816,-0.244379,-0.394943
2.43063,-0.154698,-0.41706
2.44794,-0.429598,-0.445708
2.43535,-0.3361,-0.464881
2.42787,-0.244974,-0.485342
2.44032,-0.430237,-0.539467
2.44345,-0.339086,-0.56168
2.43629,-0.246898,-0.58207
2.42601,-0.154914,-0.604572
2.435,-0.339386,-0.657751
2.43881,-0.156201,-0.706939
2.4088,-0.162114,0.205785
2.42056,-0.163924,0.118571
2.4183,-0.252093,0.053945
2.41322,-0.1644,0.0301017
2.42846,-0.25448,-0.0347349
2.42463,-0.166113,-0.0575707
2.43215,-0.435083,-0.0782511
2.41868,-0.343465,-0.100212
2.42746,-0.255661,-0.123394
2.41294,-0.165439,-0.145894
2.4294,-0.436559,-0.16771
2.432,-0.346872,-0.190622
2.43517,-0.257333,-0.213289
2.42878,-0.168485,-0.235671
2.43459,-0.258346,-0.303472
2.43107,-0.349294,-0.37166
2.4376,-0.259439,-0.395103
2.43455,-0.169952,-0.417904
2.44429,-0.444434,-0.445531
2.4381,-0.351738,-0.46581
2.4273,-0.259971,-0.485537
2.41858,-0.16871,-0.507468
2.44052,-0.445729,-0.540105
2.44518,-0.354632,-0.562568
2.4357,-0.261946,-0.582301
2.42792,-0.17,-0.605296
2.43876,-0.17123,-0.707217
2.41372,-0.177329,0.206295
2.41671,-0.266927,0.053945
2.41217,-0.179205,0.0301017
2.43082,-0.269818,-0.0347918
2.42656,-0.181211,-0.0576418
2.43337,-0.450726,-0.0783777
2.42684,-0.270661,-0.123444
2.41686,-0.180613,-0.146196
2.42667,-0.451458,-0.16771
2.43279,-0.362229,-0.190854
2.43652,-0.272602,-0.213549
2.43267,-0.183759,-0.236153
2.43693,-0.363845,-0.281776
2.43395,-0.27339,-0.303595
2.43182,-0.364645,-0.372109
2.43346,-0.184887,-0.417904
2.44345,-0.459788,-0.445884
2.43784,-0.366984,-0.466182
2.42761,-0.275081,-0.485927
2.41945,-0.183695,-0.507877
2.44585,-0.370067,-0.563234
2.43598,-0.277106,-0.582764
2.4278,-0.184968,-0.605537
2.43671,-0.186117,-0.706939
2.42534,-0.194174,0.118913
2.41401,-0.194243,0.0301391
2.43309,-0.285193,-0.0348487
2.42441,-0.196016,-0.0576181
2.42957,-0.465461,-0.0783461
2.42021,-0.374035,-0.100457
2.41968,-0.195762,-0.146436
2.4268,-0.466904,-0.167913
2.42855,-0.376844,-0.1907
2.44246,-0.470669,-0.260514
2.43563,-0.378944,-0.28189
2.43814,-0.289021,-0.304333
2.43149,-0.379864,-0.372408
2.44011,-0.290032,-0.396057
2.43621,-0.200138,-0.418579
2.44155,-0.47496,-0.446061
2.43943,-0.382544,-0.466925
2.42782,-0.290204,-0.486318
2.42316,-0.198938,-0.508902
2.44546,-0.385371,-0.563678
2.4352,-0.292164,-0.582995
2.42758,-0.199941,-0.605779
2.43839,-0.201302,-0.707772
2.42509,-0.209138,0.118962
2.41622,-0.296929,0.0540115
2.41875,-0.209569,0.0302137
2.42515,-0.211062,-0.0576654
2.42083,-0.389355,-0.10058
2.42838,-0.211471,-0.147039
2.4278,-0.482564,-0.168184
2.43406,-0.393009,-0.191318
2.44245,-0.48623,-0.260827
2.43915,-0.394834,-0.282571
2.43106,-0.395094,-0.372708
2.4357,-0.48935,-0.445531
2.43704,-0.397505,-0.466925
2.42989,-0.305585,-0.487098
2.42774,-0.214319,-0.510131
2.44401,-0.400526,-0.5639
2.43722,-0.307588,-0.58392
2.43308,-0.215432,-0.607468
2.44682,-0.309797,-0.686068
2.43998,-0.216515,-0.708606
2.42774,-0.224382,0.119157
2.42538,-0.225146,0.0303133
2.43338,-0.315544,-0.0349056
2.43002,-0.226645,-0.147219
2.42772,-0.498053,-0.168388
2.42472,-0.406782,-0.190777
2.44332,-0.502008,-0.261243
2.43668,-0.409793,-0.282571
2.43054,-0.410332,-0.373007
2.43735,-0.320082,-0.396216
2.43458,-0.504686,-0.445884
2.43843,-0.413107,-0.467668
2.42894,-0.320617,-0.487293
2.42443,-0.229027,-0.509721
2.43959,-0.415188,-0.563456
2.43915,-0.323047,-0.584845
2.43751,-0.230906,-0.608916
2.44201,-0.324424,-0.685264
2.44147,-0.231755,-0.70944
2.42234,-0.238882,0.118962
2.416,-0.239235,0.0302137
2.42644,-0.329796,-0.0348345
2.42659,-0.241354,-0.147099
2.42853,-0.513766,-0.168659
2.4363,-0.516166,-0.260827
2.43607,-0.425078,-0.282799
2.44813,-0.520949,-0.355063
2.4309,-0.42575,-0.373456
2.44316,-0.336108,-0.397489
2.438,-0.245539,-0.419592
2.43294,-0.427551,-0.467111
2.43179,-0.336186,-0.488268
2.42493,-0.244095,-0.510131
2.43891,-0.430488,-0.5639
2.43712,-0.338007,-0.584845
2.43797,-0.246053,-0.609399
2.43234,-0.33834,-0.68312
2.44383,-0.247117,-0.710551
2.42878,-0.254573,0.119352
2.42343,-0.254996,0.0303257
2.42536,-0.344819,-0.0348487
2.43519,-0.347516,-0.124353
2.42805,-0.256553,-0.147279
2.42923,-0.529507,-0.16893
2.42936,-0.438277,-0.19155
2.43406,-0.531317,-0.260931
2.43049,-0.439487,-0.282458
2.44014,-0.350178,-0.305563
2.44295,-0.535536,-0.354782
2.43408,-0.441717,-0.374353
2.44398,-0.351514,-0.397967
2.43317,-0.442999,-0.467668
2.43453,-0.351803,-0.489244
2.42533,-0.259177,-0.510541
2.43431,-0.445094,-0.563456
2.43981,-0.353653,-0.586002
2.44317,-0.261731,-0.611088
2.44609,-0.262518,-0.711663
2.41129,-0.267708,0.118571
2.42679,-0.270415,0.0303879
2.43012,-0.360722,-0.0349483
2.42708,-0.361569,-0.12405
2.43436,-0.272334,-0.147761
2.43055,-0.453907,-0.19186
2.43463,-0.547114,-0.261347
2.43165,-0.455123,-0.282912
2.43303,-0.364409,-0.304948
2.44252,-0.55117,-0.355203
2.43132,-0.456644,-0.374353
2.4369,-0.365771,-0.397171
2.43427,-0.367026,-0.489634
2.42953,-0.274714,-0.51177
2.43567,-0.368326,-0.585539
2.44056,-0.276607,-0.610847
2.44538,-0.27763,-0.711941
2.42547,-0.284359,0.119352
2.42608,-0.285417,0.0304004
2.4249,-0.375167,-0.0349056
2.42877,-0.377067,-0.124252
2.43265,-0.287266,-0.147761
2.43065,-0.469379,-0.192092
2.43511,-0.562939,-0.261764
2.43174,-0.470601,-0.283253
2.43369,-0.37979,-0.305317
2.44102,-0.566594,-0.355484
2.43139,-0.472119,-0.374802
2.43656,-0.381022,-0.397489
2.43487,-0.382412,-0.490219
2.42586,-0.289384,-0.51136
2.43337,-0.383264,-0.585539
2.43978,-0.291692,-0.611088
2.42924,-0.300913,0.0304626
2.43144,-0.391469,-0.0350336
2.42641,-0.391963,-0.124252
2.42773,-0.484284,-0.192092
2.43451,-0.57856,-0.262076
2.43075,-0.485903,-0.28348
2.4372,-0.39567,-0.306055
2.43846,-0.581791,-0.355624
2.43135,-0.487612,-0.375251
2.43905,-0.396757,-0.398285
2.43926,-0.398452,-0.491585
2.43278,-0.30536,-0.513204
2.43385,-0.398659,-0.586233
2.44372,-0.307384,-0.612536
2.44751,-0.308338,-0.713608
2.42834,-0.315942,0.0304751
2.42998,-0.406546,-0.0350478
2.42494,-0.407009,-0.124302
2.43478,-0.59443,-0.262493
2.42967,-0.50121,-0.283708
2.44059,-0.411607,-0.306793
2.43869,-0.597685,-0.356186
2.43122,-0.503122,-0.3757
2.43852,-0.412045,-0.398603
2.44203,-0.321884,-0.421786
2.4329,-0.412755,-0.490804
2.43136,-0.413585,-0.586233
2.44179,-0.322372,-0.612536
2.42438,-0.330566,0.0304502
2.4283,-0.422908,-0.124605
2.42843,-0.515489,-0.192634
2.43975,-0.42578,-0.215718
2.43591,-0.610567,-0.263014
2.43313,-0.425719,-0.306178
2.43497,-0.426829,-0.398444
2.44391,-0.337401,-0.422461
2.43688,-0.33695,-0.611812
2.43652,-0.348418,-0.0583049
2.42566,-0.4378,-0.124605
2.43905,-0.441096,-0.215892
2.43145,-0.440818,-0.306301
2.43522,-0.442291,-0.398922
2.42965,-0.350507,-0.513819
2.43861,-0.352451,-0.612778
2.43236,-0.363066,-0.0582575
2.43947,-0.364258,-0.148785
2.4363,-0.456054,-0.215892
2.4326,-0.456461,-0.306793
2.43537,-0.457772,-0.399399
2.42939,-0.3657,-0.514229
2.4364,-0.367408,-0.612778
2.43305,-0.378445,-0.0583285
2.43818,-0.379373,-0.148845
2.43345,-0.470994,-0.215892
2.42976,-0.471378,-0.306793
2.43252,-0.472706,-0.399399
2.43026,-0.381748,-0.611812
2.43167,-0.393526,-0.0583522
2.42989,-0.393369,-0.148484
2.43052,-0.485916,-0.215892
2.42974,-0.486863,-0.307162
2.43316,-0.409103,-0.0584469
2.42743,-0.408271,-0.148484
2.43042,-0.501425,-0.216152
2.43156,-0.502767,-0.307778
2.42863,-0.423681,-0.0583996
2.42881,-0.423844,-0.148724
2.43217,-0.517364,-0.216586
2.43037,-0.518091,-0.308024
2.44828,-0.430368,-0.425668
2.42911,-0.439272,-0.148905
2.44242,-0.443704,-0.240296
2.44559,-0.445382,-0.425668
2.42735,-0.454352,-0.148965
2.44161,-0.459049,-0.240488
2.43991,-0.459832,-0.425161
2.4304,-0.470375,-0.149327
2.44363,-0.474972,-0.24097
2.43994,-0.47536,-0.425668
2.43872,-0.489565,-0.240778
2.43567,-0.504519,-0.240778
2.43253,-0.519455,-0.240778
2.44446,-0.522673,-0.33451
2.43367,-0.520809,-0.426174
2.44411,-0.538301,-0.334908
2.44463,-0.554164,-0.335439
2.44312,-0.569604,-0.335704
2.43957,-0.584584,-0.335704
