2.57809,0.915484,-0.03185
2.58882,0.90913,-0.0319431
2.57671,0.89529,-0.0317569
2.58345,0.88804,-0.0318034
2.58668,0.878566,-0.0318034
2.58958,0.869983,-0.0318034
2.5926,0.860937,-0.0318034
2.59976,0.863315,-0.159533
2.58434,0.84769,-0.0316637
2.57674,0.845196,0.0315706
2.60671,0.855025,-0.159766
2.58728,0.838663,-0.0316637
2.57967,0.836196,0.0315706
2.60208,0.843458,-0.159301
2.59752,0.832974,-0.0317569
2.58229,0.828088,0.0315706
2.60091,0.83406,-0.159068
2.59308,0.820581,-0.0316637
2.58545,0.818168,0.0315706
2.61171,0.826477,-0.159533
2.58419,0.808847,0.0315241
2.60667,0.815883,-0.159068
2.57399,0.935841,-0.0797081
2.59082,0.801002,-0.0315706
2.57936,0.797458,0.0314309
2.61332,0.807958,-0.159301
2.57725,0.926849,-0.0797081
2.5936,0.791953,-0.0315706
2.58977,0.790785,0.0315241
2.58455,0.918286,-0.0798244
2.59279,0.780836,0.0315241
2.61152,0.786477,-0.158836
2.5802,0.906608,-0.0795917
2.60317,0.774061,-0.0316172
2.59167,0.770641,0.0314775
2.57957,0.896283,-0.0794753
2.60202,0.763842,-0.0315706
2.58667,0.759336,0.0313844
2.61312,0.767101,-0.158603
2.58994,0.890776,-0.0797081
2.60056,0.75455,-0.0315241
2.59288,0.752321,0.0314309
2.61551,0.758888,-0.158603
2.58924,0.880442,-0.0795917
2.60318,0.745467,-0.0315241
2.59165,0.742163,0.0313844
2.58866,0.869672,-0.0794753
2.6059,0.73592,-0.0315241
2.58592,0.868752,-0.0158549
2.5905,0.731572,0.0313378
2.58774,0.859823,-0.079359
2.60447,0.726201,-0.0314775
2.59259,0.861434,-0.0158782
2.61563,0.729312,-0.158138
2.58693,0.849538,-0.0792426
2.59156,0.712862,0.0312912
2.61431,0.719118,-0.157906
2.59368,0.841736,-0.079359
2.60175,0.705906,-0.0313844
2.59093,0.840844,-0.0158317
2.59017,0.702764,0.0312447
2.59675,0.832225,-0.079359
2.60819,0.697399,-0.0314309
2.60046,0.695333,0.0313378
2.62324,0.701424,-0.158138
2.6033,0.824817,-0.0794753
2.60662,0.687726,-0.0313844
2.59292,0.821528,-0.0158084
2.59888,0.685686,0.0312912
2.58876,0.820209,0.0474007
2.61783,0.690684,-0.157673
2.59104,0.810496,-0.0790099
2.60525,0.677162,-0.0313378
2.60138,0.676156,0.0312912
2.58253,0.948653,-0.0640202
2.59768,0.802626,-0.0791263
2.6076,0.668063,-0.0313378
2.59873,0.802953,-0.0158084
2.59985,0.666078,0.0312447
2.62657,0.672925,-0.157906
2.58583,0.939632,-0.0640202
2.59254,0.792124,-0.0788935
2.60193,0.657906,-0.0312447
2.59417,0.655945,0.0311515
2.58877,0.931503,-0.0640202
2.59529,0.78307,-0.0788935
2.60809,0.649787,-0.0312912
2.60033,0.647854,0.0311981
2.59216,0.782127,0.0472611
2.58823,0.92112,-0.0639271
2.60581,0.775834,-0.0791263
2.61046,0.640223,-0.0312912
2.60269,0.638318,0.0311981
2.62561,0.643939,-0.15744
2.57793,0.767536,0.109584
2.58405,0.908973,-0.063741
2.59686,0.763804,-0.0787772
2.60868,0.630624,-0.0312447
2.64014,0.638231,-0.253551
2.60868,0.630624,0.0312447
2.62385,0.634291,-0.157208
2.58047,0.758983,0.109584
2.58705,0.9004,-0.063741
2.60335,0.755849,-0.0788935
2.57197,0.885096,0
2.61475,0.62244,-0.0312912
2.60308,0.619661,0.0311515
2.57542,0.747742,0.109258
2.59563,0.893239,-0.127868
2.58639,0.890062,-0.0636479
2.60226,0.745202,-0.0787772
2.57898,0.876952,0
2.60533,0.610116,-0.0311515
2.60533,0.610116,0.0311515
2.62832,0.615499,-0.157208
2.58199,0.739398,0.109421
2.59343,0.881864,-0.063741
2.60869,0.737201,-0.0788935
2.58202,0.867944,0
2.60745,0.601018,-0.0311515
2.60745,0.601018,0.0311515
2.59785,0.734138,0.0471215
2.58455,0.73038,0.109421
2.59817,0.873369,-0.127681
2.5927,0.871531,-0.0636479
2.61112,0.728548,-0.0788935
2.58109,0.858116,0
2.61333,0.593255,-0.0311981
2.60447,0.726694,-0.0157154
2.60943,0.59237,0.0311515
2.59642,0.724446,0.0470517
2.63245,0.597596,-0.157208
2.58311,0.720733,0.109258
2.60484,0.866011,-0.127868
2.59557,0.86293,-0.0636479
2.60208,0.716245,-0.0785444
2.58787,0.850349,0
2.61538,0.584128,-0.0311981
2.60757,0.582385,0.031105
2.60431,0.855752,-0.191691
2.59893,0.715377,0.0470517
2.63062,0.587532,-0.156975
2.58176,0.710651,0.109096
2.60025,0.854418,-0.127495
2.59857,0.853864,-0.0636479
2.60855,0.70775,-0.0786608
2.57956,0.837155,0
2.6175,0.574539,-0.0311981
2.60578,0.571967,0.0310584
2.58435,0.701184,0.109096
2.60714,0.697606,-0.0785444
2.59008,0.830588,0
2.61168,0.563711,-0.031105
2.61168,0.563711,0.031105
2.60657,0.835875,-0.191412
2.60012,0.695728,0.0469819
2.58292,0.691125,0.108933
2.6063,0.835789,-0.127495
2.597,0.832805,-0.0634618
2.6133,0.689977,-0.0786608
2.61353,0.555046,-0.031105
2.61353,0.555046,0.031105
2.61313,0.828432,-0.191691
2.59468,0.685059,0.0468423
2.58519,0.682555,0.108933
2.5672,0.677803,0.216755
2.61183,0.679844,-0.0785444
2.59568,0.812938,0
2.61937,0.546738,-0.0311515
2.64578,0.688681,-0.347995
2.60902,0.679113,-0.0156689
2.61545,0.54592,0.031105
2.6122,0.818114,-0.191412
2.63075,0.549113,-0.15651
2.58756,0.673527,0.108933
2.59497,0.812718,-0.0632757
2.57453,0.936544,-0.0478196
2.60644,0.668736,-0.0783117
2.59468,0.802691,0
2.61734,0.536788,-0.031105
2.61137,0.670002,-0.0156689
2.59015,0.801292,0.0630896
2.61734,0.536788,0.031105
2.60742,0.806632,-0.190854
2.60327,0.667923,0.0469121
2.63265,0.539928,-0.15651
2.58602,0.663498,0.10877
2.60713,0.806545,-0.127123
2.57654,0.937277,-0.111701
2.60161,0.804838,-0.0633688
2.57762,0.928001,-0.0478196
2.60477,0.659108,-0.0781954
2.58967,0.791743,0
2.61911,0.528105,-0.031105
2.6097,0.660357,-0.0156457
2.61519,0.527314,0.0310584
2.60244,0.795647,-0.190296
2.60159,0.658305,0.0468423
2.63443,0.531194,-0.15651
2.58434,0.653938,0.108607
2.60215,0.795558,-0.126751
2.62553,0.664362,-0.141935
2.59662,0.793867,-0.0631827
2.581,0.918548,-0.0478196
2.6188,0.652456,-0.0785444
2.5849,0.779936,0
2.6171,0.517726,-0.0310584
2.60925,0.516174,0.0309653
2.60916,0.787257,-0.190575
2.63444,0.656351,-0.221637
2.60399,0.648766,0.0468423
2.63636,0.521535,-0.15651
2.59059,0.645428,0.10877
2.58302,0.919266,-0.111701
2.5842,0.909532,-0.0478196
2.61718,0.642358,-0.0784281
2.58761,0.770907,0
2.61497,0.507824,-0.0310118
2.64743,0.649782,-0.346985
2.61436,0.641665,-0.0156457
2.61497,0.507824,0.0310118
2.61954,0.780422,-0.191133
2.59459,0.636812,0.0466328
2.63816,0.512329,-0.15651
2.58895,0.635428,0.108607
2.61161,0.778058,-0.126937
2.58622,0.910244,-0.111701
2.60607,0.776407,-0.0632757
2.57587,0.897011,-0.0476102
2.59399,0.763451,0
2.61664,0.499149,-0.0310118
2.61259,0.632051,-0.0156224
2.62056,0.499899,0.0310584
2.61829,0.770604,-0.190854
2.60057,0.629144,0.0467026
2.63592,0.502828,-0.156278
2.59104,0.626839,0.108607
2.61417,0.769393,-0.126937
2.58545,0.900347,-0.111538
2.58654,0.89062,-0.0477498
2.61371,0.622676,-0.0781954
2.59663,0.754393,0
2.61836,0.490014,-0.0310118
2.65179,0.631747,-0.346985
2.61478,0.622929,-0.0156224
2.59209,0.753073,0.0628105
2.62229,0.49075,0.0310584
2.62096,0.761461,-0.190854
2.63718,0.628265,-0.221311
2.60664,0.620991,0.0467725
2.64159,0.494361,-0.15651
2.5769,0.748661,0.156278
2.58933,0.616866,0.108444
2.61301,0.75915,-0.126751
2.59235,0.89262,-0.111701
2.60745,0.757536,-0.0631827
2.58585,0.880296,-0.04768
2.59541,0.744221,0
2.62006,0.480871,-0.0310118
2.57484,0.876548,0.0158084
2.61694,0.613797,-0.0156224
2.6559,0.487449,-0.252064
2.62006,0.480871,0.0310118
2.61593,0.750108,-0.190296
2.6049,0.610974,0.0467026
2.6433,0.485136,-0.15651
2.59146,0.607823,0.108444
2.6118,0.748922,-0.126565
2.58789,0.880989,-0.111375
2.58133,0.868713,-0.0475404
2.61021,0.602614,-0.0779626
2.59799,0.735157,0
2.61778,0.471013,-0.0309653
2.5741,0.866279,0.0157852
2.59344,0.733869,0.0627174
2.61385,0.470305,0.0309187
2.61854,0.740971,-0.190296
2.63761,0.608941,-0.220986
2.59922,0.600078,0.046563
2.63711,0.474491,-0.156045
2.57822,0.729564,0.156045
2.59357,0.598773,0.108444
2.59095,0.871949,-0.111375
2.58814,0.86096,-0.0476102
2.61229,0.593499,-0.0779626
2.59669,0.725008,0
2.62335,0.462568,-0.0310118
2.64665,0.601305,-0.34547
2.61726,0.594626,-0.0155992
2.62772,0.733672,-0.293874
2.59598,0.724812,0.0627174
2.62335,0.462568,0.0310118
2.62111,0.731827,-0.190296
2.63972,0.599731,-0.220986
2.6013,0.591002,0.046563
2.64269,0.465977,-0.156278
2.5846,0.721634,0.156278
2.59954,0.590602,0.108607
2.59397,0.8629,-0.111375
2.58353,0.849421,-0.0474705
2.61435,0.584376,-0.0779626
2.60306,0.717001,0
2.62495,0.453407,-0.0310118
2.65261,0.592928,-0.345975
2.57248,0.845788,0.0157387
2.61541,0.584614,-0.0155759
2.62259,0.722382,-0.293018
2.59464,0.714683,0.0626244
2.62495,0.453407,0.0310118
2.6198,0.721613,-0.190017
2.60335,0.581917,0.046563
2.59759,0.854045,-0.175244
2.6443,0.456749,-0.156278
2.57556,0.709426,0.15558
2.60549,0.582395,0.10877
2.58558,0.850095,-0.110887
2.60235,0.716807,-0.0628105
2.59028,0.841634,-0.0475404
2.61637,0.575247,-0.0779626
2.60168,0.706862,0
2.61863,0.442908,-0.0309187
2.61353,0.574622,-0.0155527
2.62126,0.712181,-0.292589
2.59326,0.704574,0.0625313
2.62652,0.444242,0.0310118
2.6223,0.712464,-0.190017
2.60537,0.572827,0.046563
2.60056,0.844973,-0.175244
2.63406,0.445519,-0.15558
2.57802,0.700432,0.15558
2.5958,0.570723,0.108281
2.61429,0.710287,-0.126192
2.58853,0.841065,-0.110887
2.6087,0.708768,-0.0629035
2.58559,0.830143,-0.0474007
2.61446,0.565267,-0.0778463
2.59641,0.695706,0
2.62805,0.435072,-0.0310118
2.58213,0.829032,0.0157619
2.62757,0.704057,-0.293018
2.59184,0.694483,0.0624383
2.61621,0.433112,0.0308722
2.61706,0.701241,-0.189459
2.60735,0.56373,0.046563
2.60729,0.837111,-0.1755
2.64348,0.437626,-0.156045
2.58044,0.691429,0.15558
2.59386,0.560814,0.108119
2.61675,0.701158,-0.126192
2.59145,0.832025,-0.110887
2.61116,0.699658,-0.0629035
2.58466,0.819902,-0.0473309
2.61642,0.556136,-0.0778463
2.59495,0.685616,0
2.62166,0.424616,-0.0309187
2.65867,0.565118,-0.345975
2.5812,0.818804,0.0157387
2.61357,0.555531,-0.0155294
2.63002,0.69488,-0.293018
2.59812,0.686453,0.0625313
2.62166,0.424616,0.0309187
2.62335,0.69312,-0.189738
2.63614,0.560329,-0.22001
2.6093,0.554624,0.046563
2.6102,0.828004,-0.1755
2.64105,0.427757,-0.155813
2.58284,0.682417,0.15558
2.59972,0.552587,0.108281
2.59132,0.812072,-0.0474007
2.60507,0.678571,0
2.62707,0.416088,-0.0309653
2.65675,0.555024,-0.34547
2.57641,0.807397,0.0156922
2.62332,0.548041,-0.0155759
2.63242,0.685696,-0.293018
2.59663,0.676372,0.0624383
2.62707,0.416088,0.0309653
2.62576,0.683959,-0.189738
2.60731,0.544695,0.0464932
2.60546,0.816501,-0.174988
2.64647,0.419161,-0.156045
2.58135,0.672391,0.155347
2.60554,0.544327,0.108444
2.58957,0.811522,-0.110561
2.59004,0.802743,-0.0473309
2.62396,0.539578,-0.0779626
2.62046,0.406607,-0.0308722
2.58275,0.800484,0.0157154
2.62111,0.538992,-0.0155527
2.62686,0.675442,-0.292161
2.62837,0.407833,0.0309653
2.62403,0.674714,-0.189459
2.57024,0.796608,0.0783117
2.60509,0.535696,0.0464234
2.60801,0.808312,-0.174988
2.63594,0.409008,-0.155347
2.60332,0.535334,0.108281
2.5921,0.803383,-0.110561
2.60649,0.670203,-0.0626244
2.58518,0.791356,-0.0471913
2.61407,0.52804,-0.0776135
2.60176,0.659314,0
2.62977,0.398655,-0.0309653
2.65648,0.536606,-0.344965
2.57788,0.789121,0.0156689
2.63306,0.667245,-0.292589
2.60106,0.659135,0.0624383
2.62977,0.398655,0.0309653
2.62637,0.665549,-0.189459
2.57301,0.78763,0.0783117
2.61086,0.527391,0.0464932
2.61081,0.799203,-0.174988
2.64919,0.401599,-0.156045
2.57801,0.653294,0.154882
2.59734,0.52466,0.107956
2.59489,0.79433,-0.110561
2.61269,0.662082,-0.0627174
2.59558,0.784641,-0.0473309
2.6159,0.518911,-0.0776135
2.60793,0.651196,0
2.62719,0.388887,-0.0309187
2.66223,0.528101,-0.34547
2.58445,0.781275,0.0156922
2.62481,0.520678,-0.0155527
2.63151,0.657086,-0.292161
2.59946,0.649082,0.0623452
2.62719,0.388887,0.0309187
2.6248,0.65541,-0.18918
2.57191,0.777486,0.0781954
2.61269,0.518273,0.0464932
2.60595,0.787774,-0.174476
2.64663,0.391764,-0.155813
2.58415,0.645258,0.155115
2.60308,0.516367,0.108119
2.59765,0.785266,-0.110561
2.61498,0.652958,-0.0627174
2.60214,0.77672,-0.0474007
2.6177,0.509777,-0.0776135
2.60242,0.640178,0
2.62458,0.379143,-0.0308722
2.58716,0.772249,0.0156922
2.62269,0.510749,-0.0155294
2.63379,0.647896,-0.292161
2.66464,0.38493,-0.251321
2.60171,0.640005,0.0623452
2.62458,0.379143,0.0308722
2.6232,0.645291,-0.188901
2.64925,0.515923,-0.220335
2.61448,0.509151,0.0464932
2.6125,0.779815,-0.174732
2.64798,0.382524,-0.155813
2.59026,0.637188,0.155347
2.60879,0.508042,0.108281
2.60038,0.776195,-0.110561
2.61724,0.643826,-0.0627174
2.59716,0.76537,-0.0472611
2.61946,0.500636,-0.0776135
2.60464,0.63109,0
2.66195,0.508757,-0.344965
2.58216,0.760951,0.0156457
2.62052,0.500839,-0.0155062
2.63604,0.638698,-0.292161
2.66596,0.375625,-0.251321
2.59616,0.629036,0.0621591
2.62588,0.369978,0.0308722
2.62544,0.63613,-0.188901
2.61231,0.49927,0.0464234
2.61138,0.769562,-0.174476
2.59247,0.628142,0.155347
2.60269,0.497431,0.107956
2.59924,0.765982,-0.110398
2.61948,0.634686,-0.0627174
2.59598,0.755185,-0.0471913
2.62512,0.492228,-0.0777299
2.60682,0.621996,0
2.63112,0.361356,-0.0309187
2.58096,0.750818,0.0156224
2.62619,0.492428,-0.0155294
2.63051,0.627649,-0.291304
2.60223,0.620899,0.0622522
2.62716,0.360812,0.0308722
2.62764,0.626963,-0.188901
2.61404,0.49015,0.0464234
2.61405,0.760443,-0.174476
2.64663,0.363486,-0.15558
2.58299,0.61631,0.15465
2.60834,0.489082,0.108119
2.56808,0.612752,0.324172
2.59806,0.75579,-0.110235
2.61779,0.624612,-0.0626244
2.59475,0.745014,-0.0471215
2.61287,0.613807,0
2.63237,0.352169,-0.0309187
2.65107,0.62278,-0.423673
2.66544,0.490162,-0.344965
2.58357,0.741803,0.0156224
2.62396,0.482534,-0.0155062
2.63269,0.618462,-0.291304
2.66063,0.355949,-0.250577
2.60049,0.610897,0.0621591
2.6284,0.351638,0.0308722
2.62981,0.617787,-0.188901
2.57483,0.739295,0.0779626
2.6118,0.480298,0.0463536
2.61669,0.751313,-0.174476
2.65184,0.354774,-0.155813
2.58124,0.606376,0.154417
2.61003,0.479973,0.108119
2.60452,0.747819,-0.110398
2.61995,0.61547,-0.0626244
2.60503,0.738132,-0.0472611
2.62062,0.472469,-0.0774972
2.60331,0.601978,0
2.63755,0.343494,-0.0309653
2.64938,0.612631,-0.423058
2.66323,0.48015,-0.34446
2.58999,0.73387,0.0156457
2.63871,0.610164,-0.291732
2.6658,0.347173,-0.250949
2.59871,0.600914,0.0620661
2.62565,0.341944,0.0308256
2.62418,0.606804,-0.188342
2.65227,0.478175,-0.22001
2.6174,0.471887,0.0464234
2.6193,0.742174,-0.174476
2.6491,0.344999,-0.15558
2.58334,0.597361,0.154417
2.60776,0.47015,0.107956
2.6378,0.475565,-0.14047
2.61481,0.740901,-0.110724
2.61819,0.605419,-0.0625313
2.59604,0.725804,-0.0470517
2.62226,0.463319,-0.0774972
2.60539,0.592888,0
2.63476,0.333783,-0.0309187
2.64765,0.602503,-0.422443
2.66489,0.470852,-0.34446
2.59254,0.724826,0.0156457
2.62726,0.464203,-0.0155062
2.64082,0.60095,-0.291732
2.60469,0.592727,0.0621591
2.62683,0.332777,0.0308256
2.62628,0.597641,-0.188342
2.65393,0.468915,-0.22001
2.61903,0.462749,0.0464234
2.61034,0.729803,-0.173709
2.65425,0.336252,-0.155813
2.5893,0.589227,0.15465
2.60545,0.460349,0.107793
2.60583,0.728541,-0.110235
2.62418,0.597164,-0.0626244
2.60241,0.717801,-0.0471215
2.6278,0.454844,-0.0776135
2.60745,0.583789,0
2.63194,0.324094,-0.0308722
2.64588,0.592393,-0.421828
2.66261,0.460869,-0.343955
2.63281,0.455711,-0.0155294
2.6429,0.591727,-0.291732
2.60284,0.582757,0.0620661
2.624,0.323117,0.030779
2.62835,0.588469,-0.188342
2.57858,0.711227,0.0778463
2.61275,0.452239,0.0462838
2.61672,0.721747,-0.173965
2.65541,0.326984,-0.155813
2.58745,0.579311,0.154417
2.61098,0.451933,0.107956
2.63192,0.589267,-0.125634
2.64105,0.457138,-0.14047
2.60836,0.71944,-0.110235
2.61845,0.586252,-0.0624383
2.60104,0.707663,-0.0470517
2.62148,0.444333,-0.0773808
2.60947,0.574684,0
2.63703,0.315381,-0.0309187
2.64793,0.583154,-0.421828
2.66029,0.450909,-0.34345
2.58981,0.704608,0.0155992
2.63044,0.44585,-0.0155062
2.64107,0.581643,-0.291304
2.60876,0.574529,0.0621591
2.63429,0.58015,-0.188622
2.61825,0.443785,0.0463536
2.61922,0.712609,-0.173965
2.65257,0.317239,-0.15558
2.58556,0.569418,0.154185
2.61254,0.442817,0.107956
2.64263,0.447917,-0.14047
2.60699,0.709282,-0.110073
2.62438,0.577969,-0.0625313
2.60337,0.699034,-0.0470517
2.61136,0.566028,0
2.63806,0.306635,-0.0309187
2.6696,0.443386,-0.34446
2.59214,0.696017,0.0155992
2.6319,0.437125,-0.0155062
2.63909,0.57204,-0.290876
2.67033,0.310386,-0.250949
2.60284,0.564181,0.061973
2.63409,0.306173,0.0308722
2.6323,0.570566,-0.188342
2.61971,0.4351,0.0463536
2.61772,0.702885,-0.173709
2.66154,0.309364,-0.156045
2.59133,0.561687,0.154417
2.61005,0.433496,0.107793
2.6441,0.439152,-0.14047
2.60547,0.699597,-0.10991
2.62629,0.569263,-0.0625313
2.59807,0.687894,-0.0469121
2.60549,0.555241,0
2.64309,0.297871,-0.0309653
2.65957,0.566765,-0.423058
2.59455,0.686964,0.0155992
2.63341,0.427935,-0.0155062
2.64496,0.563652,-0.291304
2.60088,0.554258,0.06188
2.62719,0.29608,0.030779
2.63037,0.560542,-0.188063
2.5819,0.683614,0.0777299
2.62121,0.425952,0.0463536
2.62015,0.693742,-0.173709
2.6507,0.298729,-0.155347
2.59328,0.552638,0.154417
2.6076,0.423741,0.10763
2.64168,0.429278,-0.14026
2.61176,0.691521,-0.110073
2.62435,0.559258,-0.0624383
2.60045,0.67882,-0.0469121
2.62592,0.417314,-0.0773808
2.60742,0.546142,0
2.63616,0.287775,-0.0308722
2.66871,0.424114,-0.343955
2.59693,0.677902,0.0155992
2.63094,0.418112,-0.0154829
2.64302,0.5536,-0.290876
2.6028,0.545175,0.06188
2.63218,0.287341,0.0308256
2.63231,0.551356,-0.188063
2.6577,0.422364,-0.219684
2.61873,0.416172,0.0462838
2.6187,0.683583,-0.173453
2.66364,0.290774,-0.156045
2.59519,0.543581,0.154417
2.60907,0.414636,0.10763
2.64316,0.420053,-0.14026
2.57244,0.538816,0.32271
2.60256,0.679371,-0.109584
2.62237,0.549274,-0.0623452
2.60668,0.670736,-0.0469819
2.60931,0.537038,0
2.65185,0.545793,-0.421213
2.59928,0.668833,0.0155992
2.62843,0.408312,-0.0154597
2.64494,0.544372,-0.290876
2.60468,0.536086,0.06188
2.63317,0.278151,0.0308256
2.63422,0.542165,-0.188063
2.65521,0.412473,-0.219359
2.61227,0.405801,0.0461442
2.62107,0.674439,-0.173453
2.66066,0.281056,-0.155813
2.59316,0.533715,0.154185
2.6105,0.405526,0.10763
2.64856,0.411438,-0.14047
2.57819,0.530634,0.323198
2.60878,0.671278,-0.109747
2.62035,0.539311,-0.0622522
2.60125,0.659666,-0.0468423
2.62877,0.398972,-0.0773808
2.61117,0.527926,0
2.64208,0.26977,-0.0309187
2.65374,0.536532,-0.421213
2.66376,0.404281,-0.342945
2.59385,0.657789,0.0155527
2.62984,0.399134,-0.0154597
2.64293,0.534347,-0.290447
2.60654,0.526991,0.06188
2.63413,0.268958,0.0308256
2.62827,0.531384,-0.187505
2.66058,0.403799,-0.219684
2.62157,0.397879,0.0462838
2.61567,0.663322,-0.172941
2.65368,0.270955,-0.155347
2.60795,0.395811,0.107467
2.63575,0.532897,-0.125262
2.64998,0.40219,-0.14047
2.60724,0.661185,-0.109584
2.62222,0.53016,-0.0622522
2.59977,0.649159,-0.0467725
2.62093,0.519909,0
2.64305,0.260085,-0.0309187
2.65568,0.526803,-0.421213
2.67307,0.395678,-0.343955
2.63128,0.389493,-0.0154597
2.64487,0.524657,-0.290447
2.60453,0.516656,0.0617869
2.63509,0.259302,0.0308256
2.63803,0.523301,-0.188063
2.6151,0.387098,0.0461442
2.61421,0.652764,-0.172685
2.65863,0.261618,-0.15558
2.593,0.514368,0.153952
2.61333,0.386836,0.10763
2.63769,0.523233,-0.125262
2.64748,0.39189,-0.14026
2.57024,0.509854,0.321735
2.6163,0.51899,-0.0620661
2.60191,0.640535,-0.0467725
2.60694,0.508154,0
2.63594,0.250563,-0.0308256
2.67437,0.386812,-0.343955
2.60226,0.640622,0.0155759
2.63652,0.381338,-0.0154829
2.64269,0.515123,-0.290019
2.60623,0.508017,0.0617869
2.63196,0.250184,0.030779
2.628,0.51226,-0.187226
2.65939,0.384646,-0.219359
2.62033,0.378996,0.046214
2.62023,0.645046,-0.172941
2.65154,0.252045,-0.155115
2.59469,0.505767,0.153952
2.61065,0.377596,0.107467
2.65272,0.383681,-0.14047
2.62978,0.512607,-0.0623452
2.60802,0.632391,-0.0468423
2.62885,0.370864,-0.0772645
2.61655,0.500554,0
2.60448,0.631534,0.0155759
2.64838,0.506642,-0.290447
2.61192,0.499667,0.06188
2.62883,0.24063,0.0307325
2.63369,0.503833,-0.187505
2.66071,0.37536,-0.219359
2.6256,0.370405,0.0462838
2.62247,0.635896,-0.172941
2.66433,0.243879,-0.155813
2.59251,0.495955,0.15372
2.61591,0.369038,0.10763
2.65009,0.37386,-0.14026
2.61013,0.632905,-0.109421
2.62763,0.502672,-0.0622522
2.61032,0.622828,-0.0468423
2.63019,0.361226,-0.0772645
2.61444,0.490224,0
2.63766,0.231694,-0.0308256
2.599,0.620128,0.0155294
2.63918,0.362462,-0.0154829
2.64631,0.496199,-0.290019
2.6098,0.489354,0.0617869
2.63368,0.231344,0.030779
2.63944,0.494913,-0.187784
2.65812,0.365063,-0.219033
2.62298,0.360236,0.046214
2.6209,0.625353,-0.172685
2.65725,0.233414,-0.155347
2.60217,0.487923,0.154185
2.61328,0.358905,0.107467
2.65144,0.364145,-0.14026
2.60855,0.622407,-0.109258
2.62945,0.493039,-0.0622522
2.63137,0.352502,-0.0772645
2.61605,0.48155,0
2.63842,0.222945,-0.0308256
2.60104,0.611505,0.0155294
2.6364,0.353176,-0.0154597
2.64012,0.485981,-0.289162
2.61141,0.480696,0.0617869
2.63842,0.222945,0.0308256
2.63715,0.485434,-0.187505
2.62416,0.351535,0.046214
2.62296,0.616658,-0.172685
2.65801,0.2246,-0.155347
2.59199,0.477121,0.153487
2.61446,0.350236,0.107467
2.64072,0.486092,-0.125076
2.6106,0.613752,-0.109258
2.62321,0.482868,-0.0620661
2.6067,0.603243,-0.0467026
2.61378,0.471706,0
2.64317,0.214057,-0.0308722
2.59926,0.601521,0.0155062
2.63365,0.343455,-0.0154364
2.6418,0.476762,-0.289162
2.60913,0.470868,0.0616939
2.63882,0.476226,-0.187505
2.62537,0.342374,0.046214
2.62121,0.606599,-0.17243
2.65878,0.215321,-0.155347
2.59364,0.468071,0.153487
2.6117,0.340592,0.107304
2.63454,0.475453,-0.124703
2.58257,0.466075,0.322223
2.61273,0.604636,-0.109258
2.62488,0.473709,-0.0620661
2.60489,0.593252,-0.0466328
2.61147,0.461883,0
2.60134,0.592444,0.0155062
2.63881,0.334763,-0.0154597
2.64344,0.467538,-0.289162
2.61076,0.461758,0.0616939
2.63654,0.466318,-0.187226
2.62258,0.332705,0.0461442
2.61942,0.59656,-0.172174
2.66349,0.206348,-0.15558
2.59525,0.459015,0.153487
2.61287,0.331473,0.107304
2.63618,0.466254,-0.124703
2.65505,0.336824,-0.14026
2.61872,0.596401,-0.109421
2.62651,0.464544,-0.0620661
2.60695,0.584155,-0.0466328
2.61307,0.452764,0
2.66379,0.461553,-0.420598
2.6112,0.585109,0.0155527
2.64393,0.326039,-0.0154829
2.64898,0.458987,-0.28959
2.61236,0.452641,0.0616939
2.63422,0.45643,-0.186947
2.65895,0.327891,-0.218708
2.63166,0.324526,0.0462838
2.62538,0.588285,-0.17243
2.66021,0.196754,-0.155347
2.59684,0.449953,0.153487
2.61401,0.32235,0.107304
2.63779,0.457049,-0.124703
2.65224,0.327064,-0.140051
2.61298,0.585508,-0.109096
2.63206,0.456055,-0.0621591
2.60907,0.574597,-0.0466328
2.63609,0.315269,-0.0772645
2.61865,0.443853,0
2.60942,0.574675,0.0155294
2.64113,0.315872,-0.0154597
2.64672,0.44861,-0.289162
2.614,0.443064,0.0616939
2.63588,0.446772,-0.186947
2.66409,0.318617,-0.219033
2.59274,0.571001,0.0772645
2.62489,0.313929,0.0461442
2.62752,0.578659,-0.17243
2.59847,0.440432,0.153487
2.61518,0.312768,0.107304
2.63945,0.447378,-0.124703
2.65739,0.317816,-0.14026
2.63371,0.446406,-0.0621591
2.60695,0.565549,-0.046563
2.62003,0.435623,0
2.60731,0.565625,0.0155062
2.63814,0.30711,-0.0154364
2.64812,0.440293,-0.289162
2.61932,0.435505,0.0617869
2.6412,0.439143,-0.187226
2.66508,0.310245,-0.219033
2.62189,0.305218,0.0460744
2.62542,0.569555,-0.172174
2.62012,0.305012,0.107467
2.64084,0.439083,-0.124703
2.65838,0.309465,-0.14026
2.58484,0.429771,0.321735
2.613,0.566861,-0.108933
2.63116,0.437473,-0.0620661
2.61282,0.55728,-0.0466328
2.62548,0.427117,0
2.60927,0.556521,0.0155062
2.6392,0.297899,-0.0154364
2.64964,0.431047,-0.289162
2.61688,0.425718,0.0616939
2.64272,0.429921,-0.187226
2.67011,0.301388,-0.219359
2.62294,0.296065,0.0460744
2.63447,0.42858,-0.124331
2.65944,0.300184,-0.14026
2.61887,0.55857,-0.109096
2.62872,0.427644,-0.061973
2.66301,0.160079,-0.0310584
2.61119,0.54741,0.0155062
2.6442,0.28912,-0.0154597
2.65505,0.422421,-0.28959
2.61835,0.416581,0.0616939
2.64026,0.420067,-0.186947
2.66718,0.291633,-0.219033
2.62793,0.287343,0.0461442
2.62933,0.551213,-0.172174
2.59885,0.413479,0.153254
2.6399,0.420009,-0.124517
2.6565,0.290466,-0.140051
2.6169,0.548606,-0.108933
2.63415,0.419094,-0.0620661
2.61273,0.538219,-0.046563
2.6205,0.407548,0
2.61701,0.539099,0.0155294
2.64519,0.279888,-0.0154597
2.65651,0.413149,-0.28959
2.61979,0.407438,0.0616939
2.63777,0.410235,-0.186668
2.66422,0.281901,-0.218708
2.62892,0.278167,0.0461442
2.63124,0.542031,-0.172174
2.60423,0.405018,0.153487
2.64135,0.410791,-0.124517
2.6575,0.28119,-0.140051
2.63559,0.409896,-0.0620661
2.6146,0.529096,-0.046563
2.6219,0.398399,0
2.61495,0.529167,0.0155062
2.64615,0.270653,-0.0154597
2.65401,0.403277,-0.289162
2.6212,0.398291,0.0616939
2.63919,0.401025,-0.186668
2.66915,0.273006,-0.219033
2.6259,0.268582,0.0460744
2.63312,0.532843,-0.172174
2.60563,0.395926,0.153487
2.64277,0.401569,-0.124517
2.65846,0.271913,-0.140051
2.61674,0.52953,-0.10877
2.63701,0.400694,-0.0620661
2.6125,0.519186,-0.0464932
2.62328,0.389244,0
2.61286,0.519256,0.0154829
2.63912,0.260628,-0.0154132
2.6554,0.39401,-0.289162
2.62257,0.389138,0.0616939
2.64057,0.39181,-0.186668
2.66612,0.263295,-0.218708
2.62682,0.259414,0.0460744
2.62713,0.522092,-0.171662
2.6481,0.392927,-0.124703
2.6594,0.262631,-0.140051
2.61858,0.520392,-0.10877
2.63444,0.390899,-0.061973
2.6143,0.510062,-0.0464932
2.62858,0.380657,0
2.61466,0.510132,0.0154829
2.64399,0.251793,-0.0154364
2.65676,0.384738,-0.289162
2.61204,0.378262,0.0614147
2.62771,0.250242,0.0460744
2.63285,0.513682,-0.171918
2.64155,0.382535,-0.124331
2.62038,0.511248,-0.10877
2.63578,0.3817,-0.061973
2.61607,0.500935,-0.0464932
2.62035,0.501756,0.0155062
2.64486,0.242564,-0.0154364
2.65808,0.375463,-0.289162
2.62126,0.370262,0.0616008
2.64324,0.373367,-0.186668
2.62857,0.24107,0.0460744
2.63463,0.50449,-0.171918
2.60567,0.36806,0.153254
2.64287,0.373314,-0.124331
2.65719,0.243695,-0.139842
2.62215,0.5021,-0.10877
2.64106,0.373058,-0.0620661
2.62173,0.492538,-0.046563
2.63117,0.362298,0
2.61815,0.491867,0.0154829
2.64569,0.233329,-0.0154364
2.66332,0.366724,-0.28959
2.62254,0.361109,0.0616008
2.64453,0.364137,-0.186668
2.6403,0.496027,-0.172174
2.64812,0.364631,-0.124517
2.65802,0.234417,-0.139842
2.63839,0.363291,-0.061973
2.62737,0.484109,-0.0466328
2.64541,0.224002,-0.0772645
2.61592,0.482,0.0154597
2.65047,0.224431,-0.0154597
2.66064,0.356897,-0.289162
2.62775,0.352485,0.0616939
2.64578,0.354904,-0.186668
2.63416,0.485362,-0.171662
2.60818,0.34986,0.153254
2.65333,0.355917,-0.124703
2.66678,0.225812,-0.14026
2.62166,0.483057,-0.108607
2.6436,0.354611,-0.0620661
2.62967,0.343402,0
2.61759,0.472865,0.0154597
2.64326,0.21453,-0.0154132
2.66187,0.347607,-0.289162
2.62103,0.342274,0.0615077
2.64701,0.345666,-0.186668
2.60543,0.340236,0.153022
2.6506,0.346135,-0.124517
2.66756,0.216501,-0.14026
2.62333,0.473902,-0.108607
2.64482,0.345381,-0.0620661
2.63482,0.334724,0
2.62316,0.464422,0.0154829
2.64001,0.204991,-0.0153899
2.66307,0.338312,-0.289162
2.62618,0.333626,0.0616008
2.65611,0.337429,-0.187226
2.63749,0.466959,-0.171662
2.64386,0.335872,-0.124145
2.6683,0.207188,-0.14026
2.64204,0.335642,-0.061973
2.62047,0.454518,-0.0464234
2.62477,0.455263,0.0154829
2.65268,0.196663,-0.0154597
2.62336,0.323967,0.0615077
2.6454,0.326689,-0.186389
2.604,0.451662,0.0769154
2.64303,0.458432,-0.171918
2.64898,0.327132,-0.124331
2.66502,0.197578,-0.140051
2.63051,0.45626,-0.10877
2.6432,0.326418,-0.061973
2.61802,0.445156,-0.0463536
2.62232,0.445887,0.0154597
2.64932,0.187583,-0.0154364
2.62839,0.315744,0.0616008
2.65439,0.318867,-0.186947
2.64454,0.449665,-0.171918
2.64609,0.31787,-0.124145
2.66167,0.188457,-0.139842
2.62807,0.446865,-0.108607
2.64824,0.318128,-0.0620661
2.62621,0.306186,0
2.62386,0.43673,0.0154597
2.62947,0.306566,0.0616008
2.63428,0.438465,-0.17115
2.65512,0.309556,-0.124517
2.67029,0.179701,-0.14026
2.62961,0.437688,-0.108607
2.64933,0.308882,-0.0620661
2.62106,0.426868,-0.0463536
2.62726,0.297017,0
2.61747,0.426283,0.0154132
2.63053,0.297386,0.0616008
2.65258,0.29988,-0.186668
2.64367,0.43055,-0.171662
2.6709,0.170379,-0.14026
2.62718,0.427864,-0.108444
2.64642,0.299183,-0.061973
2.62656,0.417886,-0.0464234
2.62834,0.287385,0
2.63087,0.418571,0.0154829
2.62762,0.287307,0.0615077
2.65763,0.290589,-0.186947
2.64129,0.42023,-0.171406
2.64932,0.28968,-0.124145
2.64057,0.420115,-0.108933
2.64353,0.289046,-0.06188
2.63188,0.409788,-0.0464932
2.62829,0.409228,0.0154597
2.62459,0.27817,0.0614147
2.65461,0.281353,-0.186668
2.60747,0.405987,0.076799
2.64267,0.411468,-0.171406
2.65424,0.281313,-0.124331
2.63405,0.410126,-0.108607
2.64845,0.280699,-0.061973
2.62934,0.399999,-0.0464234
2.62179,0.39885,0.0154132
2.6335,0.269824,0.0616008
2.65558,0.272086,-0.186668
2.64409,0.402243,-0.171406
2.65918,0.272455,-0.124517
2.63152,0.40033,-0.108444
2.64941,0.271454,-0.061973
2.63468,0.391406,-0.0464932
2.63514,0.2607,0
2.62317,0.389695,0.0154132
2.63442,0.260629,0.0616008
2.66048,0.263207,-0.186947
2.61024,0.387774,0.076799
2.64153,0.392424,-0.17115
2.66012,0.263171,-0.124517
2.6329,0.391141,-0.108444
2.62811,0.381059,-0.0463536
2.63205,0.25112,0
2.62055,0.379963,0.0153899
2.66536,0.254298,-0.187226
2.61157,0.378661,0.076799
2.64684,0.383774,-0.171406
2.66102,0.253884,-0.124517
2.6382,0.382522,-0.108607
2.64726,0.252572,-0.06188
2.62547,0.371322,-0.0462838
2.62978,0.371933,0.0154364
2.66623,0.244992,-0.187226
2.61288,0.369542,0.076799
2.64816,0.374532,-0.171406
2.64995,0.243496,-0.123959
2.63952,0.37331,-0.108607
2.65211,0.243695,-0.061973
2.63071,0.362701,-0.0463536
2.6271,0.362204,0.0154132
2.66309,0.235332,-0.186947
2.64945,0.365285,-0.171406
2.65875,0.234948,-0.124331
2.63685,0.363547,-0.108444
2.64497,0.233731,-0.0617869
2.63196,0.353516,-0.0463536
2.63453,0.223543,0
2.63628,0.354097,0.0154597
2.6639,0.226035,-0.186947
2.65071,0.356035,-0.171406
2.66353,0.226004,-0.124517
2.6381,0.354341,-0.108444
2.65374,0.225173,-0.061973
2.63714,0.344846,-0.0464234
2.6353,0.214346,0
2.62957,0.343856,0.0154132
2.64798,0.346263,-0.17115
2.6643,0.216706,-0.124517
2.63536,0.344613,-0.108281
2.65451,0.215909,-0.061973
2.6304,0.33463,-0.0462838
2.64002,0.205457,0
2.63075,0.334675,0.0154132
2.65709,0.338026,-0.171662
2.66504,0.207405,-0.124517
2.63655,0.335412,-0.108281
2.65525,0.206643,-0.061973
2.63143,0.326364,-0.0462838
2.64065,0.197161,0
2.63179,0.326408,0.0154132
2.61882,0.324799,0.076799
2.65418,0.329184,-0.171406
2.6617,0.198733,-0.124331
2.64155,0.327619,-0.108444
2.65987,0.198597,-0.0620661
2.63653,0.317655,-0.0463536
2.63291,0.31722,0.0154132
2.65531,0.319918,-0.171406
2.65839,0.189158,-0.124145
2.63871,0.317918,-0.108281
2.65656,0.189028,-0.061973
2.6337,0.307527,-0.0462838
2.63406,0.307568,0.0154132
2.6525,0.309721,-0.17115
2.66704,0.179951,-0.124517
2.65724,0.17929,-0.061973
2.64266,0.299692,-0.0464234
2.63109,0.29838,0.0153899
2.6181,0.296907,0.0766826
2.64955,0.300473,-0.170895
2.65964,0.170594,-0.124145
2.64087,0.299489,-0.108281
2.65782,0.170477,-0.061973
2.64012,0.289606,0.0154364
2.6546,0.291195,-0.17115
2.66823,0.161326,-0.124517
2.64195,0.289807,-0.108281
2.65443,0.160492,-0.06188
2.63678,0.279929,-0.0462838
2.63714,0.279967,0.0154132
2.6556,0.281927,-0.17115
2.64692,0.281006,-0.108444
2.66296,0.151681,-0.0620661
2.63769,0.271184,-0.0462838
2.63805,0.271221,0.0154132
2.66446,0.273936,-0.171662
2.64783,0.272227,-0.108444
2.65946,0.142636,-0.061973
2.6426,0.26237,-0.0463536
2.64296,0.262405,0.0154364
2.65746,0.263845,-0.17115
2.64753,0.253064,-0.0464234
2.63594,0.251956,0.0153899
2.65443,0.253724,-0.170895
2.64075,0.24358,0.0154132
2.65923,0.245286,-0.17115
2.64122,0.234329,-0.0462838
2.64158,0.23436,0.0154132
2.66007,0.236001,-0.17115
2.65138,0.23523,-0.108444
2.64206,0.224647,-0.0462838
2.64641,0.225016,0.0154364
2.6649,0.226589,-0.171406
2.65222,0.225511,-0.108444
2.64283,0.215424,-0.0462838
2.66567,0.217285,-0.171406
2.64901,0.215927,-0.108281
2.64349,0.207119,-0.0462838
2.65038,0.198354,-0.108281
2.65575,0.179189,-0.108444
2.65012,0.170447,-0.0463536
2.6563,0.170844,-0.108444
2.6507,0.161195,-0.0463536
2.66087,0.161814,-0.108607
2.65349,0.151141,-0.108281
