1.73461,0.437636,-0.104185
1.73515,0.431013,-0.0208143
1.74045,0.426209,-0.0208608
1.74186,0.420434,-0.0208608
1.74679,0.421626,-0.10465
1.7472,0.415276,-0.0209074
1.75214,0.416449,-0.104883
1.7604,0.411602,-0.0210471
1.75754,0.410933,-0.105115
1.75403,0.40366,-0.020954
1.76286,0.405691,-0.105348
1.75933,0.398419,-0.0210005
1.76323,0.399303,0.0210471
1.76816,0.400418,-0.10558
1.76845,0.394323,-0.0210936
1.76454,0.393453,0.0210471
1.76558,0.393683,-0.105348
1.76988,0.387839,-0.0210936
1.76988,0.387839,0.0210936
1.77091,0.388064,-0.10558
1.77122,0.381659,-0.0210936
1.77122,0.381659,0.0210936
1.77616,0.382721,-0.105813
1.77255,0.375473,-0.0210936
1.77279,0.375524,-0.169158
1.77646,0.376302,0.0211402
1.78139,0.377346,-0.106046
1.71504,0.451853,-0.0929487
1.77763,0.37072,-0.0211402
1.77396,0.369953,-0.169158
1.78155,0.371536,0.0211868
1.78256,0.371748,-0.106046
1.78296,0.364693,-0.0211868
1.77146,0.362341,-0.168786
1.7908,0.366296,0.0212799
1.78398,0.364901,-0.106046
1.78802,0.359879,-0.0212333
1.7804,0.358345,-0.16953
1.79978,0.362246,0.021373
1.78903,0.360082,-0.106278
1.73502,0.438383,-0.093786
1.78926,0.353635,-0.0212333
1.78555,0.3529,-0.169902
1.80104,0.355961,0.021373
1.79028,0.353835,-0.106278
1.73654,0.432324,-0.093786
1.79846,0.348283,-0.0213265
1.79862,0.348313,-0.171017
1.79946,0.348477,-0.106743
1.73431,0.424703,-0.0935767
1.79955,0.342632,-0.0213265
1.80362,0.343406,-0.171389
1.80741,0.344128,0.0214196
1.80055,0.342822,-0.106743
1.74728,0.422066,-0.0942047
1.73873,0.413583,-0.0520139
1.80466,0.337082,-0.021373
1.74333,0.414677,-0.0104149
1.80872,0.337839,-0.171761
1.81253,0.338551,0.0214662
1.80173,0.336535,-0.106743
1.75263,0.416889,-0.0944141
1.80976,0.331501,-0.0214196
1.75256,0.410413,-0.0104614
1.80597,0.330806,-0.171389
1.8137,0.332222,0.0214662
1.81075,0.331683,-0.107208
1.75796,0.411679,-0.0946234
1.8149,0.325572,-0.0214662
1.76184,0.405782,-0.0105079
1.80717,0.324185,-0.171389
1.81097,0.324866,0.0214196
1.76161,0.405727,0.031554
1.81589,0.325748,-0.107441
1.75167,0.40344,-0.0942047
1.81203,0.318858,-0.0214196
1.76708,0.400822,-0.0105312
1.82,0.32026,-0.172504
1.81991,0.320244,0.0215127
1.76079,0.399396,-0.0946234
1.81319,0.312215,-0.0214196
1.76854,0.394343,-0.0105312
1.82116,0.313588,-0.172504
1.82502,0.314251,0.0215593
1.75881,0.392174,-0.147107
1.82599,0.314418,-0.107906
1.76614,0.393809,-0.0948328
1.82599,0.308516,-0.0215593
1.76977,0.388785,-0.0105312
1.82214,0.307865,-0.172504
1.82994,0.309183,0.0216059
1.76393,0.387503,-0.147432
1.77734,0.390449,0.0317634
1.82303,0.308015,-0.107673
1.76737,0.388259,-0.0948328
1.82706,0.30214,-0.0215593
1.78284,0.385138,-0.0106009
1.82713,0.302152,-0.172876
1.8389,0.304098,0.021699
1.76917,0.382184,-0.147758
1.7826,0.385086,0.0318332
1.83591,0.303604,-0.108371
1.77653,0.383774,-0.0952514
1.71896,0.460273,-0.0414084
1.83205,0.2964,-0.0216059
1.78418,0.378913,-0.0106009
1.82818,0.295773,-0.172876
1.836,0.297039,0.0216524
1.77829,0.377663,-0.148409
1.78394,0.378862,0.0318332
1.83696,0.297194,-0.108371
1.77395,0.376741,-0.0950421
1.79345,0.373692,-0.0106474
1.84503,0.291234,0.0217455
1.77583,0.37002,-0.148083
1.79321,0.373641,0.0319728
1.7832,0.371556,-0.0954608
1.7743,0.36389,-0.052712
1.84198,0.284826,-0.021699
1.78678,0.366449,-0.0106009
1.84594,0.285438,-0.174363
1.84989,0.286048,0.0217921
1.77307,0.363638,-0.147758
1.79045,0.367203,0.031903
1.78436,0.365953,-0.0954608
1.72756,0.443242,-0.0415014
1.84697,0.278669,-0.0217455
1.78419,0.359108,-0.0105777
1.84697,0.278669,0.0217455
1.78221,0.35871,-0.148409
1.79571,0.361427,0.0319728
1.7239,0.435573,-0.0828254
1.78961,0.360198,-0.0956701
1.73305,0.437886,-0.0415945
1.84788,0.272542,-0.0217455
1.79322,0.354741,-0.0106242
1.85183,0.273124,-0.174735
1.85184,0.273126,0.0217921
1.7873,0.353571,-0.148734
1.80082,0.356246,0.0320426
1.85673,0.273847,-0.109301
1.79568,0.355229,0.0745757
1.72533,0.429853,-0.0828254
1.79863,0.355812,-0.0960888
1.73449,0.432136,-0.0415945
1.85674,0.26723,-0.0218387
1.79445,0.34848,-0.0106242
1.85277,0.266659,-0.174735
1.79244,0.348091,-0.14906
1.80598,0.35072,0.0321124
1.86163,0.267934,-0.109534
1.80476,0.350483,0.0749014
1.79202,0.348008,-0.0956701
1.75153,0.429893,-0.0419667
1.85375,0.259867,-0.0217921
1.78137,0.339169,-0.230818
1.8075,0.344145,-0.0106939
1.86162,0.260971,-0.175478
1.85771,0.260422,0.0218387
1.7937,0.341518,-0.14906
1.81118,0.344846,0.0321822
1.81388,0.34536,0.0752271
1.80505,0.343679,-0.0962982
1.7492,0.422531,-0.0418737
1.86653,0.255019,-0.0219318
1.80476,0.337099,-0.0106707
1.87049,0.255561,0.0219784
1.74688,0.415521,-0.125562
1.80272,0.336719,-0.149711
1.81238,0.338522,0.0321822
1.82293,0.340495,0.0755527
1.73758,0.41331,-0.0831977
1.81017,0.33811,-0.0965075
1.75456,0.417348,-0.0419667
1.8012,0.330257,-0.0532939
1.8634,0.248301,-0.0218852
1.80586,0.331113,-0.0106707
1.87133,0.249357,0.0219784
1.74047,0.407905,-0.125004
1.80775,0.331459,-0.150036
1.81742,0.333232,0.032252
1.87225,0.24948,-0.109999
1.82405,0.334448,0.0755527
1.74673,0.40937,-0.0835699
1.81521,0.332826,-0.0967169
1.74815,0.409703,-0.0417806
1.75004,0.403707,0
1.87616,0.243337,-0.0220249
1.80039,0.323616,-0.232839
1.81488,0.326222,-0.0107172
1.87211,0.242813,-0.176222
1.87616,0.243337,0.0220249
1.74578,0.402723,-0.125283
1.80497,0.324441,-0.149711
1.81857,0.326885,0.032252
1.88103,0.243969,-0.110464
1.81734,0.326664,0.0752271
1.74425,0.402371,-0.0833838
1.81243,0.32578,-0.0965075
1.75346,0.404496,-0.0418737
1.88493,0.237788,-0.0221181
1.81323,0.319395,-0.234354
1.81995,0.320579,-0.0107404
1.8769,0.236775,-0.176594
1.87303,0.236287,0.0219784
1.74717,0.396627,-0.125283
1.81787,0.320213,-0.150687
1.83152,0.322617,0.0324615
1.88187,0.237402,-0.110464
1.82241,0.321012,0.0753899
1.75344,0.39805,-0.083756
1.82142,0.320838,-0.0969262
1.77046,0.401915,-0.0422459
1.88174,0.231049,-0.0220715
1.81428,0.313381,-0.234354
1.82494,0.315223,-0.0107637
1.77179,0.396042,0.0422459
1.88174,0.231049,0.0220715
1.81892,0.314184,-0.150687
1.82864,0.315862,0.0323917
1.82346,0.314968,0.0753899
1.75475,0.392233,-0.083756
1.81854,0.314117,-0.0967169
1.76788,0.395169,-0.0421528
1.82135,0.308059,-0.0537593
1.88651,0.224953,-0.0221181
1.81536,0.307046,-0.234354
1.83392,0.310185,-0.0108102
1.89048,0.225426,0.0221646
1.75763,0.386439,-0.125841
1.82394,0.308497,-0.151012
1.82973,0.309476,0.0323917
1.83637,0.3106,0.0758784
1.76001,0.386963,-0.0839422
1.8275,0.309099,-0.0971355
1.77706,0.390713,-0.0423389
1.89129,0.218495,-0.0221646
1.81647,0.30039,-0.234354
1.8311,0.302808,-0.0107869
1.88732,0.218036,0.0221181
1.82113,0.301159,-0.150687
1.8348,0.30342,0.0324615
1.84144,0.304518,0.0760412
1.76142,0.380509,-0.0839422
1.83256,0.30305,-0.0973449
1.71028,0.457949,-0.0721333
1.77457,0.383352,-0.0422459
1.89999,0.212783,-0.0222578
1.82535,0.295315,-0.235364
1.84004,0.297693,-0.0108334
1.89585,0.212319,-0.178081
1.78764,0.379648,0.042525
1.89999,0.212783,0.0222578
1.76425,0.374681,-0.12612
1.83791,0.297347,-0.151989
1.84374,0.298291,0.0326011
1.83855,0.297451,0.0758784
1.8415,0.297928,-0.0977636
1.71187,0.451976,-0.0721333
1.77981,0.377986,-0.0423389
1.90466,0.206912,-0.0223043
1.83023,0.28988,-0.235869
1.84497,0.292214,-0.0108567
1.90051,0.206461,-0.178453
1.7928,0.374535,0.0426181
1.84282,0.291874,-0.152314
1.84867,0.2928,0.0326709
1.84347,0.291977,0.0760412
1.77179,0.370145,-0.0843144
1.84247,0.291819,-0.0977636
1.71336,0.446296,-0.0721333
1.78889,0.373717,-0.042525
1.83338,0.283822,-0.053992
1.90537,0.200263,-0.0223043
1.83516,0.284097,-0.236374
1.84598,0.285773,-0.0108567
1.7941,0.368275,0.0426181
1.9014,0.199845,0.0222578
1.77067,0.363466,-0.126399
1.83595,0.28422,-0.151663
1.85759,0.28757,0.0328105
1.84843,0.286152,0.076204
1.7809,0.365566,-0.0846866
1.84743,0.285997,-0.0979729
1.79018,0.367471,-0.042525
1.90208,0.193206,-0.0222578
1.82829,0.276503,-0.235364
1.85092,0.279925,-0.0108799
1.90983,0.193993,-0.179196
1.80321,0.363591,0.0428042
1.90208,0.193206,0.0222578
1.84482,0.279002,-0.152314
1.85462,0.280485,0.0327407
1.85337,0.280295,0.0763669
1.78216,0.359346,-0.0846866
1.85237,0.280143,-0.0981823
1.79537,0.36201,-0.0426181
1.84718,0.272769,-0.0543411
1.91867,0.188128,-0.022444
1.8371,0.27128,-0.236374
1.85189,0.273464,-0.0108799
1.91049,0.187326,-0.179196
1.80447,0.357295,0.0428042
1.91071,0.187347,0.0223509
1.78099,0.352646,-0.126957
1.85559,0.274011,0.0327407
1.85829,0.274409,0.0765297
1.79124,0.354677,-0.0850589
1.85728,0.274261,-0.0983916
1.73345,0.432199,-0.0727846
1.79662,0.355742,-0.0426181
1.79049,0.348036,0
1.9233,0.181805,-0.0224906
1.84196,0.265431,-0.236879
1.85679,0.267568,-0.0109032
1.7919,0.348311,-0.19663
1.9151,0.181031,-0.179568
1.80178,0.350231,0.0427111
1.91931,0.181429,0.022444
1.79004,0.34795,-0.127515
1.85856,0.267822,-0.153291
1.8605,0.268102,0.0328105
1.72896,0.424673,-0.1141
1.85924,0.267921,0.0765297
1.78855,0.347659,-0.0848728
1.73107,0.425191,-0.0726218
1.79393,0.348705,-0.042525
1.84904,0.259865,-0.0543411
1.92392,0.17509,-0.0224906
1.8468,0.259551,-0.237384
1.75339,0.424189,0.0104847
1.86167,0.261641,-0.0109264
1.7892,0.341308,-0.196202
1.92365,0.175066,-0.180312
1.80692,0.344688,0.0428042
1.78733,0.340951,-0.127236
1.86343,0.261888,-0.153616
1.86934,0.262719,0.0329501
1.73431,0.419573,-0.114356
1.86016,0.261428,0.0765297
1.79368,0.342162,-0.0850589
1.86311,0.261843,-0.0986009
1.73643,0.420086,-0.0727846
1.79906,0.34319,-0.0426181
1.73906,0.414302,-0.0312049
1.85786,0.254495,-0.0545738
1.92452,0.168374,-0.0224906
1.85556,0.25418,-0.238394
1.86257,0.255141,-0.0109264
1.7982,0.336524,-0.197059
1.92425,0.168351,-0.180312
1.81597,0.33985,0.0429903
1.92053,0.168025,0.022444
1.79243,0.335444,-0.127515
1.86433,0.255382,-0.153616
1.87421,0.256735,0.03302
1.81732,0.340102,0.107673
1.86502,0.255477,0.0766925
1.79879,0.336634,-0.085245
1.86797,0.25588,-0.0988103
1.74177,0.414948,-0.0729474
1.81597,0.33985,-0.0429903
1.74439,0.409142,-0.0312747
1.85873,0.248008,-0.0545738
1.8019,0.330711,0
1.94104,0.162993,-0.0226768
1.8525,0.247176,-0.237889
1.75241,0.411024,0.0104614
1.87535,0.250225,-0.0109961
1.79936,0.330245,-0.197059
1.92483,0.161632,-0.180312
1.82108,0.334231,0.0430833
1.92509,0.161654,0.0224906
1.80144,0.330626,-0.128073
1.87311,0.249927,-0.154267
1.87509,0.250191,0.03302
1.74108,0.408367,-0.114612
1.81849,0.333756,0.107673
1.87383,0.250021,0.0770182
1.81567,0.333238,-0.0859895
1.74321,0.408865,-0.0729474
1.81322,0.332787,-0.0428972
1.87148,0.243063,-0.0549229
1.80698,0.325128,0
1.94558,0.156538,-0.0227234
1.86516,0.242242,-0.239405
1.75773,0.405805,0.0104847
1.86828,0.242647,-0.0109496
1.8005,0.323962,-0.197059
1.93332,0.155551,-0.181055
1.93761,0.155896,0.0226303
1.80651,0.325042,-0.128352
1.87992,0.244159,0.0330898
1.7425,0.402287,-0.114612
1.81572,0.326699,0.107441
1.87469,0.243479,0.0770182
1.81682,0.326898,-0.0859895
1.74462,0.402778,-0.0729474
1.81437,0.326456,-0.0428972
1.81205,0.319513,0
1.94612,0.149746,-0.0227234
1.86599,0.23573,-0.239405
1.76304,0.400553,0.0105079
1.88102,0.237628,-0.0110194
1.93385,0.148802,-0.181055
1.82337,0.32151,0.0430833
1.94612,0.149746,0.0227234
1.80763,0.318735,-0.128352
1.75168,0.397971,-0.115124
1.94694,0.149809,-0.11372
1.82078,0.321053,0.107673
1.87553,0.236935,0.0770182
1.81402,0.319861,-0.0858034
1.74992,0.397572,-0.0731103
1.82731,0.322204,-0.0431764
1.87305,0.230646,-0.0549229
1.95455,0.144219,-0.0228165
1.87854,0.231321,-0.24092
1.76819,0.395886,0.0105312
1.88176,0.231717,-0.0110194
1.81045,0.31337,-0.197915
1.94225,0.143312,-0.181799
1.83619,0.317826,0.0433625
1.94658,0.143631,0.0227234
1.89738,0.233641,0.033369
1.82965,0.316693,0.108139
1.88023,0.231529,0.077181
1.82289,0.315523,-0.0861756
1.88317,0.231892,-0.0994383
1.75896,0.393818,-0.0734359
1.82437,0.31578,-0.0430833
1.88584,0.224873,-0.055272
1.94711,0.136156,-0.0227234
1.87153,0.223167,-0.23991
1.77361,0.389953,0.0105544
1.89455,0.225911,-0.0110891
1.81948,0.307743,-0.198772
1.93882,0.135576,-0.181427
1.83346,0.310106,0.0432694
1.94312,0.135877,0.0226768
1.81375,0.306773,-0.128631
1.8883,0.225166,-0.155243
1.89826,0.226354,0.033369
1.75441,0.385733,-0.115124
1.83479,0.310332,0.108371
1.82803,0.309188,-0.0863618
1.75655,0.386204,-0.0732731
1.82951,0.30944,-0.0431764
1.76299,0.381172,-0.0314841
1.88661,0.218288,-0.055272
1.83108,0.303133,0
1.96354,0.130418,-0.0229097
1.8723,0.216633,-0.23991
1.77105,0.382914,0.0105312
1.89532,0.219296,-0.0110891
1.81662,0.30074,-0.198344
1.9512,0.129599,-0.182542
1.84636,0.305663,0.0435486
1.95955,0.130153,0.0228631
1.81874,0.301091,-0.12891
1.89303,0.219031,-0.155569
1.90301,0.220186,0.0334388
1.83586,0.303925,0.108371
1.89378,0.219118,0.0776695
1.83698,0.30411,-0.086734
1.7657,0.381759,-0.0735988
1.83847,0.304357,-0.0433625
1.76809,0.376465,-0.031554
1.89921,0.213702,-0.0556211
1.8865,0.212272,-0.379683
1.83597,0.29802,0
1.8848,0.212081,-0.241425
1.78007,0.379015,0.0105777
1.90395,0.214236,-0.0111356
1.82148,0.295669,-0.198772
1.95557,0.12372,-0.182914
1.84731,0.299862,0.0435486
1.96793,0.124502,0.0229562
1.82756,0.296655,-0.129468
1.77543,0.378028,0.0528284
1.90767,0.214654,0.0335086
1.76474,0.375751,-0.115635
1.84075,0.298796,0.108604
1.89446,0.213168,0.0776695
1.83398,0.297697,-0.0865479
1.76689,0.37621,-0.0735988
1.83942,0.29858,-0.0433625
1.89203,0.205875,-0.0553884
1.88726,0.205357,-0.379683
1.83705,0.291289,0
1.97636,0.117764,-0.0230493
1.8974,0.20646,-0.24294
1.78927,0.374125,0.0106242
1.89677,0.206391,-0.0110891
1.82648,0.289614,-0.199201
1.95999,0.116789,-0.183286
1.85235,0.293716,0.0436417
1.96838,0.117289,0.0229562
1.83257,0.29058,-0.129747
1.78072,0.372337,0.0529448
1.91242,0.208094,0.0335784
1.77001,0.370098,-0.115891
1.84577,0.292673,0.108836
1.90318,0.207088,0.0779952
1.8469,0.292851,-0.0871063
1.77608,0.371368,-0.0739244
1.83655,0.291211,-0.0432694
1.8927,0.199599,-0.0553884
1.88793,0.199096,-0.379683
1.84196,0.285809,0
1.97275,0.110985,-0.0230028
1.82397,0.283018,-0.287163
1.89808,0.200166,-0.24294
1.7905,0.368189,0.0106242
1.9054,0.200939,-0.0111356
1.82743,0.283555,-0.199201
1.96036,0.110288,-0.183286
1.85331,0.287571,0.0436417
1.97275,0.110985,0.0230028
1.83353,0.284501,-0.129747
1.78978,0.36804,0.0531775
1.77514,0.36503,-0.116147
1.84279,0.285938,0.108604
1.90385,0.200775,0.0779952
1.83996,0.285499,-0.086734
1.78514,0.367086,-0.0742501
1.84541,0.286345,-0.0434555
1.90532,0.194207,-0.0557375
1.89252,0.192902,-0.380468
1.84294,0.279377,0
1.98111,0.104519,-0.0230959
1.83276,0.277833,-0.288393
1.7957,0.362729,0.0106474
1.91803,0.195502,-0.0112054
1.83235,0.27777,-0.199629
1.96869,0.103864,-0.184029
1.86221,0.282298,0.0438278
1.97312,0.104097,0.0230028
1.83846,0.278696,-0.130026
1.9117,0.194858,-0.156871
1.78321,0.360206,0.0529448
1.78032,0.359621,-0.116403
1.85562,0.281298,0.109301
1.90852,0.194533,0.078158
1.84885,0.280272,-0.0871063
1.85035,0.2805,-0.0435486
1.78494,0.354077,-0.0317634
1.91394,0.188339,-0.0559702
1.90099,0.187065,-0.382037
1.84787,0.273529,0
1.98146,0.0976041,-0.0230959
1.84154,0.272593,-0.289623
1.90732,0.187688,-0.24395
1.79303,0.355681,0.0106242
1.9187,0.188807,-0.0112054
1.84117,0.272538,-0.200486
1.97302,0.0971882,-0.184401
1.86714,0.276383,0.0439208
1.98146,0.0976041,0.0230959
1.84336,0.272863,-0.130305
1.78838,0.354759,0.0530611
1.9264,0.189565,0.0337879
1.78548,0.354182,-0.116659
1.86449,0.27599,0.109766
1.91714,0.188654,0.0784836
1.85377,0.274403,-0.0872924
1.78374,0.353837,-0.0740873
1.85528,0.274626,-0.0436417
1.91462,0.181322,-0.0559702
1.90947,0.180834,-0.383605
1.85281,0.267324,0
1.98181,0.0903396,-0.0230959
1.84253,0.26584,-0.289623
1.908,0.180695,-0.24395
1.80218,0.350634,0.0106707
1.91938,0.181772,-0.0112054
1.84216,0.265787,-0.200486
1.9853,0.0904987,-0.185516
1.8721,0.270107,0.0440139
1.9898,0.0907039,0.023189
1.85225,0.267243,-0.130863
1.80144,0.350491,0.0534102
1.78676,0.347635,-0.116659
1.86549,0.269153,0.109766
1.91782,0.181625,0.0784836
1.85476,0.267605,-0.0872924
1.79287,0.348822,-0.0744129
1.85627,0.267823,-0.0436417
1.92317,0.175699,-0.0562029
1.91397,0.174858,-0.38439
1.85765,0.261737,0
1.99408,0.0842742,-0.0232356
1.85123,0.260832,-0.290852
1.91649,0.175089,-0.24496
1.80726,0.345407,0.0106939
1.93192,0.176499,-0.0112751
1.85091,0.260787,-0.201342
1.97365,0.0834106,-0.184401
1.86903,0.26334,0.0439208
1.99808,0.0844431,0.0232822
1.85708,0.261656,-0.131142
1.8026,0.344516,0.0534102
1.79183,0.342457,-0.116914
1.85846,0.261852,0.109301
1.92239,0.175628,0.0786465
1.8596,0.262011,-0.0874785
1.80186,0.344376,-0.0747386
1.86507,0.262782,-0.0438278
1.91979,0.168636,-0.0560866
1.91066,0.167833,-0.383605
1.85855,0.255252,0
1.99836,0.0774684,-0.0232822
1.85996,0.255444,-0.292082
1.91314,0.168051,-0.244455
1.80845,0.339096,0.0106939
1.9405,0.170454,-0.0113216
1.85574,0.254866,-0.201771
1.98189,0.0768298,-0.185145
1.8739,0.257359,0.0440139
1.99037,0.0771586,0.023189
1.85007,0.254087,-0.130584
1.81165,0.339696,0.0536429
1.94023,0.170431,0.0339973
1.79301,0.336201,-0.116914
1.87915,0.25808,0.110464
1.92698,0.169267,0.0788093
1.86446,0.256062,-0.0876646
1.80698,0.338821,-0.0749014
1.86994,0.256815,-0.0439208
1.92834,0.162605,-0.0563193
1.91514,0.161492,-0.38439
1.86736,0.249823,0
1.99862,0.0704918,-0.0232822
1.853,0.247901,-0.290852
1.92953,0.162705,-0.246476
1.81749,0.334228,0.0107404
1.86056,0.248913,-0.202199
1.99011,0.0701915,-0.185888
1.87875,0.251346,0.0441069
2.00262,0.0706328,0.0233287
1.85886,0.248685,-0.131142
1.80889,0.332646,0.0535266
1.7981,0.330662,-0.11717
1.88004,0.251518,0.110464
1.93552,0.16321,0.079135
1.86534,0.249552,-0.0876646
1.80422,0.331788,-0.0747386
1.87082,0.250285,-0.0439208
1.80654,0.326024,-0.0320426
1.93684,0.156855,-0.056552
1.91958,0.155457,-0.385174
1.86818,0.243629,0
2.00284,0.0639919,-0.0233287
1.85381,0.241756,-0.290852
1.91819,0.155345,-0.24496
1.81465,0.327489,0.0107172
1.94958,0.157888,-0.0113681
1.86532,0.243257,-0.202628
1.99431,0.0637192,-0.18626
1.87957,0.245115,0.0441069
2.00284,0.0639919,0.0233287
1.86363,0.243036,-0.131421
1.80998,0.326646,0.0535266
1.94932,0.157866,0.0341369
1.80311,0.325406,-0.117426
2.00757,0.064143,-0.116976
1.88086,0.245283,0.110464
1.94402,0.157437,0.0794606
1.87804,0.244916,-0.088223
1.80531,0.325804,-0.0747386
1.87957,0.245115,-0.0441069
1.80766,0.319717,-0.0320426
1.93737,0.150094,-0.056552
1.92402,0.149059,-0.385959
1.87299,0.237611,0
2.01105,0.0572283,-0.0234219
1.86249,0.236278,-0.292082
1.93455,0.149875,-0.246981
1.81973,0.32185,0.0107404
1.94614,0.150773,-0.0113449
1.85827,0.235743,-0.201771
2.00646,0.0570977,-0.187375
1.88835,0.239559,0.044293
2.01505,0.057342,0.0234684
1.87238,0.237534,-0.131979
1.94369,0.150583,-0.159149
1.81505,0.321023,0.0536429
1.95385,0.15137,0.0342067
1.80817,0.319806,-0.117682
2.01178,0.0572489,-0.117208
1.87774,0.238214,0.110232
1.94854,0.150959,0.0796234
1.87889,0.238359,-0.088223
1.81431,0.320893,-0.0750642
1.96169,0.151977,0.358738
1.87645,0.23805,-0.0440139
1.93791,0.142991,-0.056552
1.93237,0.142583,-0.387528
1.88576,0.23221,0
2.01924,0.0500547,-0.023515
1.86334,0.22945,-0.292082
1.93508,0.142783,-0.246981
1.82483,0.31586,0.0107637
1.95864,0.144521,-0.0114146
1.86702,0.229903,-0.202628
1.99869,0.0495454,-0.186632
1.89318,0.233125,0.0443861
2.01924,0.0500547,0.023515
1.8772,0.231157,-0.132258
1.82015,0.31505,0.0537593
1.80933,0.313176,-0.117682
2.01596,0.0499735,-0.117441
1.94908,0.143816,0.0796234
1.87975,0.23147,-0.088223
1.81941,0.314922,-0.0752271
1.9583,0.144496,0.35802
1.89318,0.233125,-0.0443861
1.94635,0.137126,-0.0567847
1.93675,0.136449,-0.388312
1.88254,0.225479,0
2.0274,0.0435296,-0.0236081
1.87194,0.224209,-0.293312
1.94346,0.136922,-0.247991
1.82982,0.310475,0.0107869
1.95911,0.138025,-0.0114146
1.87172,0.224183,-0.203056
2.01079,0.0431731,-0.187747
1.90189,0.227796,0.0445722
2.0194,0.0433578,0.023515
1.87796,0.22493,-0.132258
1.82907,0.310349,0.053992
1.8261,0.309845,-0.118705
2.0241,0.0434589,-0.117906
1.89522,0.226998,0.111162
1.95353,0.137632,0.0797863
1.88844,0.226185,-0.0885953
1.82439,0.309555,-0.0753899
1.97055,0.138831,0.360173
1.89395,0.226845,-0.0443861
1.9548,0.130865,-0.0570174
1.93721,0.129688,-0.388312
1.89127,0.219831,0
2.02354,0.0363809,-0.0235616
1.86879,0.217218,-0.292697
1.83089,0.304087,0.0107869
1.96357,0.131453,-0.0114378
1.88039,0.218566,-0.203913
2.01491,0.0362259,-0.188119
1.90267,0.221156,0.0445722
2.02754,0.0364528,0.0236081
1.88666,0.219295,-0.132816
1.83014,0.303963,0.053992
1.82717,0.303469,-0.118705
2.02424,0.0363936,-0.117906
1.89997,0.220842,0.111394
1.96198,0.131346,0.0801119
1.89319,0.220054,-0.0887814
1.82152,0.30253,-0.0752271
1.97495,0.132215,0.36089
1.95125,0.123788,-0.0569011
1.93765,0.122925,-0.388312
1.89202,0.213227,0
2.01965,0.0292587,-0.023515
1.86953,0.210693,-0.292697
1.94437,0.123351,-0.247991
1.83194,0.297693,0.0107869
1.88509,0.212446,-0.204341
2.02697,0.0293648,-0.189234
1.91138,0.215409,0.0447583
2.03565,0.0294905,0.0237012
1.89138,0.213155,-0.133095
1.96152,0.124439,-0.160451
1.97573,0.12534,0.0345558
1.82034,0.295808,-0.118194
1.90469,0.214655,0.111627
1.96641,0.124749,0.0802748
1.89791,0.213891,-0.0889675
1.90159,0.214305,0.234964
1.82651,0.296811,-0.0753899
1.90343,0.214513,-0.0445722
1.96368,0.117008,-0.0572502
1.94986,0.116184,-0.390666
1.90078,0.206827,0
2.03175,0.0216318,-0.0236547
1.87819,0.204368,-0.293927
1.95671,0.116593,-0.249506
1.84097,0.29191,0.0108334
1.97247,0.117532,-0.0114843
1.88985,0.205637,-0.20477
2.02707,0.0215821,-0.189234
1.91219,0.208068,0.0447583
2.03175,0.0216318,0.0236547
1.89218,0.205891,-0.133095
1.83627,0.291166,0.0541084
1.98019,0.117992,0.0346256
1.83329,0.290692,-0.118961
2.03244,0.0216392,-0.118371
1.90947,0.207773,0.111859
1.97087,0.117436,0.0804376
1.89872,0.206603,-0.0889675
1.91029,0.207862,0.235939
1.83947,0.291673,-0.0758784
1.90424,0.207203,-0.0445722
1.95021,0.110059,-0.390666
1.9054,0.201275,0
2.0398,0.0153093,-0.0237478
1.87882,0.198467,-0.293927
1.96499,0.110893,-0.250516
1.83792,0.285512,0.0108102
1.98081,0.111786,-0.0115308
1.89049,0.199699,-0.20477
2.03111,0.015244,-0.189606
1.90886,0.20164,0.0446652
2.0398,0.0153093,0.0237478
1.89679,0.200365,-0.133374
1.84508,0.286623,0.0543411
1.98454,0.111996,0.0346954
1.83419,0.284932,-0.118961
2.03649,0.0152844,-0.118604
1.91806,0.202612,0.112325
1.97123,0.111244,0.0804376
1.89936,0.200637,-0.0889675
1.91094,0.20186,0.235939
1.84433,0.286507,-0.0760412
1.90488,0.20122,-0.0445722
1.83866,0.279057,-0.0324615
1.96442,0.103983,-0.0572502
1.9545,0.103458,-0.39145
1.90609,0.194623,0
2.03985,0.00818933,-0.0237478
1.8913,0.193112,-0.295772
1.96537,0.104033,-0.250516
1.84682,0.280295,0.0108567
1.89117,0.193099,-0.20477
2.02717,0.00813844,-0.189234
2.04385,0.00820539,0.0237944
1.90542,0.194554,-0.133932
1.85002,0.280781,0.0544575
1.84702,0.280325,-0.119729
2.04851,0.00822412,-0.119301
1.92273,0.196322,0.112557
1.98358,0.104997,0.0809261
1.908,0.194818,-0.0893398
1.91558,0.195592,0.236427
1.84927,0.280667,-0.076204
1.90955,0.194976,-0.0446652
1.84754,0.273809,-0.0326011
1.96876,0.0973221,-0.0573665
1.9666,0.0972155,-0.393804
1.91074,0.18836,0
2.04386,0.00107043,-0.0237944
1.88803,0.186121,-0.295157
1.97365,0.0975636,-0.251526
1.85174,0.274433,0.0108799
1.89975,0.187277,-0.205626
2.04312,0.00107004,-0.190721
2.05186,0.00107462,0.0238875
1.91006,0.188293,-0.134211
1.97899,0.0978278,-0.161753
1.84798,0.273875,-0.119729
2.05252,0.00107497,-0.119534
1.9234,0.189608,0.112557
1.98792,0.0982693,0.0810889
1.91662,0.18894,-0.089712
1.9281,0.190072,0.237889
1.85024,0.27421,-0.076204
1.9142,0.188701,-0.0447583
1.97708,0.0908157,-0.0575993
1.96301,0.0901696,-0.393019
1.91537,0.182067,0
2.04785,-0.00607639,-0.0238409
1.89653,0.180277,-0.296387
1.97001,0.0904911,-0.251021
1.85269,0.267967,0.0108799
2.05107,-0.00608595,-0.191465
2.05585,-0.00610012,0.0239341
1.91467,0.182001,-0.13449
1.9833,0.0911017,-0.162078
1.85194,0.267858,0.0544575
1.99759,0.0917578,0.0349048
1.84893,0.267423,-0.119729
2.0605,-0.00611391,-0.119999
1.93598,0.184026,0.113255
1.98825,0.091329,0.0810889
1.91329,0.18187,-0.0895259
1.92876,0.18334,0.237889
1.85514,0.268321,-0.0763669
1.92679,0.183153,-0.0450374
1.97738,0.0839142,-0.0575993
1.97115,0.0836499,-0.394588
1.92396,0.17611,0
2.05182,-0.0132501,-0.0238875
1.89715,0.173656,-0.296387
1.98221,0.084119,-0.252536
1.85757,0.262057,0.0109032
1.99817,0.0847963,-0.0116238
2.05104,-0.0132451,-0.191465
2.05982,-0.0133017,0.0239806
1.9153,0.175317,-0.13449
1.98759,0.0843476,-0.162403
1.86078,0.262509,0.0546902
1.9939,0.0846153,0.034835
1.8459,0.26041,-0.119473
2.05647,-0.0132801,-0.119766
1.93263,0.176904,0.113022
1.99255,0.084558,0.0812517
1.91789,0.175555,-0.089712
1.93334,0.176968,0.238376
1.86002,0.262403,-0.0765297
1.92344,0.176062,-0.0449444
1.97143,0.0767692,-0.394588
1.92456,0.169393,0
2.05976,-0.0204913,-0.0239806
1.90168,0.16738,-0.297001
1.98249,0.0771997,-0.252536
1.8664,0.256662,0.0109496
2.00645,0.0781326,-0.0116703
2.06293,-0.0205228,-0.19258
2.06776,-0.0205709,0.0240738
1.92385,0.16933,-0.135049
1.99186,0.0775646,-0.162729
1.86564,0.256557,0.0548066
1.85866,0.255597,-0.12024
2.06041,-0.0204978,-0.119999
1.94119,0.170857,0.113487
1.99284,0.0776026,0.0812517
1.91849,0.168859,-0.089712
1.94581,0.171263,0.239839
1.86489,0.256453,-0.0766925
1.92802,0.169698,-0.0450374
1.9859,0.0707373,-0.057832
1.97952,0.07051,-0.396157
1.92511,0.16301,0
2.06368,-0.0273752,-0.0240272
1.91404,0.162072,-0.298846
1.99463,0.0710483,-0.254052
1.87121,0.251002,0.0109729
2.00669,0.071478,-0.0116703
1.91404,0.162072,-0.206912
2.07081,-0.0274699,-0.193324
2.06768,-0.0274283,0.0240738
1.92837,0.163286,-0.135328
1.99609,0.0711003,-0.163054
1.86649,0.250369,0.0548066
2.01042,0.0716107,0.0351142
1.86741,0.250493,-0.120752
2.06831,-0.0274367,-0.120464
1.93777,0.164082,0.113255
1.92303,0.162833,-0.0898981
2.00398,0.0713812,-0.105091
1.93845,0.164139,0.238864
1.86969,0.250798,-0.0768554
1.93654,0.163978,-0.0452235
1.8679,0.243592,-0.0328803
1.98368,0.0633799,-0.396941
1.92968,0.156276,0
2.07156,-0.0350738,-0.0241203
1.91068,0.154737,-0.298231
1.99884,0.0638643,-0.254557
1.87212,0.244143,0.0109729
2.01094,0.0642508,-0.0116936
1.92255,0.155698,-0.207768
2.0707,-0.0350592,-0.193324
2.07156,-0.0350738,0.0241203
1.92498,0.155895,-0.135049
2.00032,0.0639115,-0.16338
1.86739,0.243526,0.0548066
2.01466,0.0643698,0.0351841
1.87227,0.244163,-0.121008
2.08018,-0.0352196,-0.121162
1.95428,0.158268,0.114185
2.00132,0.0639434,0.0815774
1.92759,0.156107,-0.0900843
2.00822,0.0641638,-0.1053
1.943,0.157354,0.239351
1.8706,0.243944,-0.0768554
1.9451,0.157525,-0.0454097
1.98781,0.0565662,-0.397726
1.9342,0.149848,0
2.07143,-0.0423052,-0.0241203
1.91515,0.148372,-0.298846
1.99509,0.0567733,-0.254052
1.87296,0.237606,0.0109729
2.01515,0.0573442,-0.0117168
1.93101,0.1496,-0.208625
2.08251,-0.0425316,-0.194439
2.07543,-0.0423869,0.0241669
1.93347,0.149791,-0.135607
2.00452,0.0570416,-0.163705
1.8722,0.237509,0.0549229
2.01488,0.0573364,0.0351841
1.86915,0.237123,-0.120752
1.95482,0.151445,0.114185
2.01751,0.0574113,0.0822287
1.93609,0.149994,-0.0904565
2.01242,0.0572665,-0.105509
1.95541,0.151491,0.240814
1.88333,0.238922,-0.0773438
1.98799,0.0499745,-0.397726
1.94666,0.14432,0
2.07527,-0.0492686,-0.0241669
1.92746,0.142897,-0.300691
2.0032,0.0503568,-0.255062
1.8777,0.231884,0.0109961
2.02333,0.0508628,-0.0117633
1.9315,0.143196,-0.208625
2.08634,-0.0495313,-0.194811
2.07927,-0.0493635,0.0242135
1.94192,0.143969,-0.136165
2.00868,0.0504946,-0.164031
1.88091,0.23228,0.0551557
2.02305,0.0508559,0.0353237
1.87389,0.231413,-0.121008
2.08388,-0.0494729,-0.121394
1.95929,0.145257,0.114418
2.01769,0.0507211,0.0822287
1.93658,0.143573,-0.0904565
2.01659,0.0506936,-0.105719
1.95194,0.144712,0.240326
1.88808,0.233165,-0.0775067
1.95012,0.144577,-0.0455027
1.87825,0.225298,-0.03302
1.98815,0.0430352,-0.397726
1.94715,0.137525,0
2.08309,-0.0567297,-0.02426
1.92795,0.136169,-0.300691
2.00733,0.0434504,-0.255567
1.8785,0.225329,0.0109961
2.03149,0.0439733,-0.0118098
1.93595,0.136734,-0.209053
2.08615,-0.0568132,-0.194811
1.96258,0.138615,0.0457819
2.09108,-0.0569475,0.0243531
1.94639,0.137471,-0.136444
2.01682,0.0436557,-0.164682
1.88965,0.226666,0.0553884
2.02722,0.0438808,0.0353935
1.88261,0.225822,-0.121519
2.08769,-0.056855,-0.121627
1.95979,0.138418,0.114418
2.01785,0.0436781,0.0822287
1.93707,0.136813,-0.0904565
1.96036,0.138458,0.241301
1.88888,0.226574,-0.0775067
1.95061,0.137769,-0.0455027
1.99221,0.0361657,-0.39851
1.94762,0.130727,0
2.08687,-0.0641241,-0.0243066
1.94024,0.130231,-0.302536
2.0154,0.0365867,-0.256577
1.8912,0.220157,0.0110659
2.03163,0.0368813,-0.0118098
2.0939,-0.0643401,-0.195554
1.97103,0.132298,0.045968
2.09087,-0.0642469,0.0243531
1.94287,0.130408,-0.136165
2.02094,0.0366873,-0.165007
1.89043,0.220068,0.0553884
2.03136,0.0368763,0.0354633
1.88339,0.219249,-0.121519
2.09945,-0.0645105,-0.122325
1.97221,0.132378,0.115115
2.02199,0.0367063,0.0823915
1.94152,0.130317,-0.0906426
2.02489,0.0367589,-0.106137
1.96083,0.131613,0.241301
2.02493,0.0367596,0.165333
2.00017,0.0293268,-0.400079
1.95205,0.124182,0
2.09063,-0.0715446,-0.0243531
2.01552,0.0295518,-0.256577
1.8999,0.214452,0.0111124
2.03575,0.0298484,-0.0118331
1.97547,0.125671,0.046061
1.9473,0.123879,-0.136444
2.02106,0.0296331,-0.165007
1.89516,0.213916,0.0555047
2.04347,0.0299616,0.0356727
1.89208,0.213569,-0.122031
2.1032,-0.0719747,-0.122557
1.96868,0.125239,0.114883
2.0301,0.0297656,0.0827172
1.94994,0.124047,-0.0910149
2.029,0.0297495,-0.106347
1.97316,0.125525,0.242764
1.89439,0.21383,-0.0776695
1.89243,0.206921,-0.0332294
2.00418,0.022388,-0.400864
1.96046,0.117847,0
1.9411,0.116683,-0.302536
2.01561,0.0225156,-0.256577
1.89269,0.206949,0.0110659
2.03984,0.0227863,-0.0118563
1.94919,0.117169,-0.210339
2.10534,-0.0794071,-0.19667
2.09837,-0.0791439,0.0244463
1.95569,0.117559,-0.137002
2.02514,0.0226221,-0.165333
1.89589,0.207299,0.0555047
2.03956,0.0227832,0.0356029
1.89281,0.206962,-0.122031
2.10693,-0.0794669,-0.12279
1.98106,0.119085,0.11558
2.03419,0.0227231,0.08288
1.95435,0.117479,-0.091201
2.03308,0.0227108,-0.106556
1.97359,0.118636,0.242764
1.90307,0.208084,-0.0779952
1.97191,0.118534,-0.045968
1.89712,0.200734,-0.0332992
2.10607,-0.086798,-0.0245394
1.9415,0.109906,-0.302536
2.02361,0.0155401,-0.257587
1.89738,0.200761,0.0110891
2.04391,0.015696,-0.0118796
1.95355,0.110588,-0.210767
2.10903,-0.0869202,-0.197041
1.9763,0.111876,0.046061
1.96405,0.111183,-0.13756
2.03318,0.0156136,-0.165984
1.90456,0.201521,0.0557375
2.03963,0.0156631,0.0356029
1.90146,0.201194,-0.122543
2.10265,-0.0866571,-0.122557
1.97748,0.111943,0.115348
2.04225,0.0156832,0.0832057
1.95874,0.110882,-0.0913871
2.04114,0.0156747,-0.106975
1.98192,0.112194,0.243739
1.90378,0.201439,-0.0779952
1.98029,0.112102,-0.0461541
2.10975,-0.0943263,-0.024586
2.03159,0.00851094,-0.258597
1.90602,0.194952,0.0111356
2.05195,0.00859622,-0.011926
2.11667,-0.0946359,-0.197785
1.98866,0.105614,0.0463402
1.96044,0.104116,-0.137281
2.03721,0.00853446,-0.166309
1.90923,0.19528,0.0558538
2.04767,0.0085783,0.0357425
1.9101,0.195369,-0.123054
2.11829,-0.0947082,-0.123487
1.98982,0.105676,0.116045
1.95911,0.104045,-0.0913871
2.04518,0.00856785,-0.107184
1.9823,0.105277,0.243739
1.91243,0.195607,-0.0783208
1.98467,0.105402,-0.0462471
2.1134,-0.101883,-0.0246325
1.95406,0.0969375,-0.30438
2.03161,0.00141877,-0.258597
1.91067,0.18869,0.0111589
2.05596,0.00143578,-0.0119493
1.95825,0.0971453,-0.211195
2.11633,-0.102024,-0.197785
1.96478,0.0974692,-0.13756
2.0452,0.00142826,-0.16696
1.91785,0.1894,0.0560866
2.05169,0.0014328,0.0358123
1.90679,0.188307,-0.122798
2.12592,-0.102487,-0.123952
1.99018,0.0987291,0.116045
2.0543,0.00143462,0.0836942
1.97144,0.0977994,-0.0919455
2.04519,0.00142826,-0.107184
1.98662,0.0985526,0.244226
1.91708,0.189323,-0.0784836
1.98502,0.0984733,-0.0462471
1.9739,0.0910162,0
2.12102,-0.109672,-0.0247257
1.96228,0.0904805,-0.30561
2.03954,-0.0056946,-0.259607
1.9153,0.182399,0.0111821
2.05596,-0.00574045,-0.0119493
1.96255,0.0904927,-0.211624
2.11994,-0.109616,-0.198157
2.04519,-0.00571038,-0.16696
2.05968,-0.00575084,0.035952
1.91141,0.182029,-0.123054
2.12954,-0.110113,-0.124185
1.99849,0.0921497,0.116511
2.05828,-0.00574695,0.083857
1.97975,0.0912857,-0.0923178
2.04519,-0.00571038,-0.107184
1.99488,0.0919836,0.245201
1.91375,0.182251,-0.0783208
1.98935,0.0917283,-0.0463402
1.91165,0.175657,-0.0335086
2.05109,-0.0125293,-0.0596938
2.12863,-0.117146,-0.0248188
1.96257,0.0839722,-0.30561
2.04347,-0.0124827,-0.260113
2.06393,-0.0126077,-0.0119958
1.96681,0.0841536,-0.212052
2.13547,-0.117522,-0.199644
1.98134,0.0847754,-0.138676
2.05712,-0.0125661,-0.167936
1.9191,0.176341,0.0560866
2.05565,-0.0125571,0.0358821
1.91201,0.175689,-0.123054
2.13714,-0.117614,-0.12465
1.99878,0.0855215,0.116511
2.06625,-0.0126218,0.0841827
1.98403,0.0848904,-0.0925039
2.05314,-0.0125418,-0.107603
1.91832,0.176269,-0.0784836
1.99364,0.0853013,-0.0464332
1.91624,0.169334,-0.0335784
2.1362,-0.125043,-0.0249119
1.9747,0.0775861,-0.307455
2.04342,-0.0196162,-0.260113
1.92048,0.169709,0.0112054
2.06787,-0.019851,-0.012019
1.97107,0.0774433,-0.212481
2.13107,-0.124743,-0.199272
2.0099,0.0789691,0.0468054
2.13221,-0.124809,0.0248654
1.98163,0.0778582,-0.138676
2.05308,-0.019709,-0.167611
1.92767,0.170344,0.0563193
2.06359,-0.0198099,0.0360218
1.92454,0.170067,-0.123822
2.14469,-0.12554,-0.125115
2.00705,0.0788569,0.116976
2.06619,-0.0198349,0.0841827
1.9923,0.0782775,-0.0928761
2.06507,-0.0198241,-0.108231
2.0034,0.0787135,0.246176
1.93087,0.170627,-0.0789721
1.99792,0.0784982,-0.0465263
1.92482,0.162985,-0.033718
2.13573,-0.132871,-0.0249119
1.97102,0.0702076,-0.30684
2.05524,-0.0272631,-0.261628
1.93305,0.163682,0.0112751
2.06778,-0.0274295,-0.012019
1.97929,0.070502,-0.213337
2.13457,-0.1328,-0.199644
2.01018,0.0716024,0.0468054
2.13972,-0.13312,0.0249585
1.98589,0.0707371,-0.138955
2.06495,-0.0273919,-0.168587
1.93625,0.163953,0.056552
2.0755,-0.0275319,0.0362312
1.92515,0.163013,-0.123822
2.1482,-0.133647,-0.125348
2.00732,0.0715006,0.116976
2.0701,-0.0274602,0.0843455
1.99257,0.0709753,-0.0928761
2.07297,-0.0274983,-0.108649
2.01161,0.0716532,0.247151
1.93546,0.163886,-0.079135
2.00618,0.07146,-0.0467124
1.92537,0.156265,-0.033718
2.14722,-0.141113,-0.0250516
1.98706,0.0638342,-0.3093
2.0591,-0.034504,-0.262133
1.94158,0.15758,0.0113216
2.06767,-0.0346478,-0.012019
1.9835,0.0637197,-0.213766
2.14602,-0.141034,-0.200759
2.01442,0.064713,0.0468985
1.99011,0.0639322,-0.139234
2.06883,-0.0346671,-0.168913
1.93681,0.157193,0.056552
2.07539,-0.0347771,0.0362312
1.92968,0.156614,-0.124078
2.14772,-0.141146,-0.125348
2.00756,0.0644928,0.116976
2.07399,-0.0347536,0.0845083
1.9968,0.0641472,-0.0930622
2.07686,-0.0348017,-0.108859
1.93602,0.157129,-0.079135
2.01042,0.0645846,-0.0468054
1.92987,0.15019,-0.0337879
2.07071,-0.0415672,-0.0602756
1.98331,0.0571311,-0.308685
2.0669,-0.0414909,-0.263143
1.94608,0.151451,0.0113449
2.07555,-0.0416644,-0.0120655
1.99165,0.0573713,-0.214623
2.01862,0.0581481,0.0469915
1.9943,0.0574477,-0.139513
2.07269,-0.041607,-0.169238
2.08326,-0.0418193,0.0363708
1.94611,0.151454,-0.125101
2.15919,-0.149092,-0.126045
2.01575,0.0580655,0.117441
2.08185,-0.041791,0.084834
2.00899,0.0578708,-0.0936206
2.08072,-0.0417684,-0.109068
1.93653,0.150708,-0.079135
1.93437,0.143749,-0.0338577
2.15419,-0.156303,-0.0251447
1.9914,0.0504081,-0.309915
2.06675,-0.0487051,-0.263143
1.93862,0.144065,0.0112984
2.07539,-0.0489087,-0.0120655
1.99581,0.0505198,-0.215051
2.0268,0.0513043,0.0471777
1.99449,0.0504864,-0.139513
2.08449,-0.0491231,-0.170214
1.94581,0.144599,0.0567847
2.0831,-0.0490906,0.0363708
1.94265,0.144364,-0.124845
2.15866,-0.156628,-0.126045
2.01993,0.0511303,0.117673
2.08569,-0.0491515,0.0849968
2.00918,0.0508582,-0.0936206
2.09255,-0.0493131,-0.109696
1.94502,0.14454,-0.0794606
1.93885,0.137278,-0.0339275
2.16161,-0.164429,-0.0252379
1.99947,0.0436285,-0.311144
2.0745,-0.0561342,-0.264153
1.95108,0.138144,0.0113681
2.0872,-0.056478,-0.0121353
2.03496,0.0444031,0.0473638
2.00662,0.0437846,-0.14035
2.09227,-0.0566152,-0.170865
1.95428,0.13837,0.0570174
2.08692,-0.0564703,0.0364406
1.94314,0.137582,-0.124845
2.16208,-0.164465,-0.126278
2.0201,0.0440786,0.117673
2.0935,-0.0566484,0.0853225
2.02133,0.0441055,-0.094179
2.09635,-0.0567257,-0.109906
1.95349,0.138314,-0.0797863
2.02297,0.0441414,-0.0470846
1.9473,0.131046,-0.0340671
2.00356,0.0367212,-0.311759
2.07825,-0.0634964,-0.264658
1.95554,0.131601,0.0113914
2.09099,-0.0638855,-0.0121585
2.03111,0.0372262,0.0472707
2.01474,0.0369262,-0.140908
1.96273,0.132085,0.0572502
2.09071,-0.0638768,0.0365104
1.95157,0.131334,-0.125357
2.16945,-0.172645,-0.126743
2.02822,0.0371733,0.118138
2.02147,0.0370495,-0.094179
1.95794,0.131763,-0.0799491
2.03111,0.0372262,-0.0472707
1.95575,0.124416,-0.0342067
2.17632,-0.181221,-0.0254241
2.01158,0.0294935,-0.312989
2.09387,-0.071656,-0.266678
1.964,0.124941,0.0114378
2.09874,-0.0718225,-0.012205
2.01214,0.0295017,-0.216764
2.03523,0.0298402,0.0473638
2.01486,0.0295416,-0.140908
2.09978,-0.0718583,-0.171516
1.9632,0.12489,0.0572502
2.10245,-0.0719496,0.0367199
1.96001,0.124687,-0.125868
2.17279,-0.180926,-0.126976
2.03234,0.0297978,0.118371
2.09703,-0.0717642,0.0854853
2.02159,0.0296402,-0.094179
2.10787,-0.0721352,-0.110534
1.95442,0.124332,-0.0797863
2.03123,0.0297816,-0.0472707
2.09364,-0.0785998,-0.0609738
2.17571,-0.188437,-0.0254241
2.01167,0.0228226,-0.312989
2.09759,-0.078748,-0.267184
1.97239,0.118909,0.0114843
2.11048,-0.079232,-0.0122748
2.01621,0.0228741,-0.217193
2.03932,0.0231363,0.0474568
2.01894,0.0229051,-0.141187
2.10352,-0.0789706,-0.171842
1.96759,0.11862,0.0573665
2.11019,-0.0792212,0.0368595
1.96041,0.118187,-0.125868
2.18013,-0.18882,-0.127441
2.03243,0.0230581,0.118371
2.02967,0.0230268,-0.0945512
2.11161,-0.0792746,-0.110743
1.95483,0.11785,-0.0797863
2.03932,0.0231363,-0.0474568
1.96054,0.111328,-0.0342765
2.183,-0.196748,-0.0255173
2.01569,0.0158315,-0.313604
1.9648,0.11157,0.0114378
2.11019,-0.0865984,-0.0122748
2.02025,0.0158673,-0.217621
2.04738,0.0160804,0.0476429
2.03098,0.0159516,-0.142024
2.10721,-0.0864763,-0.172167
1.97199,0.111978,0.0574829
2.1139,-0.0867507,0.0369293
1.96081,0.111343,-0.125868
2.04447,0.0160576,0.119069
2.04172,0.016036,-0.0951096
2.11531,-0.0868088,-0.110952
1.9672,0.111706,-0.0802748
2.03939,0.0160176,-0.0474568
1.96491,0.104696,-0.0343463
2.03598,0.00888369,0
2.01968,0.00881259,-0.314219
1.97317,0.105136,0.0114843
2.10987,-0.0939639,-0.0122748
2.02029,0.00881525,-0.217621
2.05143,0.00895108,0.047736
2.03501,0.00887947,-0.142303
2.11884,-0.0943634,-0.173144
1.97636,0.105306,0.0575993
2.12157,-0.0944849,0.0370689
1.96916,0.104923,-0.12638
2.04452,0.00892094,0.119069
2.11615,-0.0942432,0.0862994
2.04177,0.00890894,-0.0951096
2.12298,-0.0945475,-0.111371
1.97157,0.105051,-0.0804376
2.04743,0.00893364,-0.0476429
1.96926,0.0980356,-0.0344161
2.02366,0.00176597,-0.314834
1.98151,0.0986455,0.0115308
2.11353,-0.10152,-0.012298
2.02827,0.00177,-0.218478
2.05144,0.00179022,0.047736
2.03902,0.00177938,-0.142582
2.12647,-0.102142,-0.173795
1.98869,0.0990031,0.0579483
2.12123,-0.10189,0.0370689
1.9735,0.0982468,-0.126636
2.04853,0.00178768,0.119301
2.04578,0.00178528,-0.0952957
2.13062,-0.102341,-0.11179
1.9799,0.0985654,-0.0807633
2.05144,0.00179022,-0.047736
1.97758,0.0915308,-0.0345558
2.03946,-0.0053393,-0.317293
1.98184,0.0917282,0.0115308
2.12514,-0.109515,-0.0123678
2.03224,-0.0053204,-0.218906
2.05944,-0.0053916,0.0479221
2.03502,-0.00532769,-0.142303
2.13008,-0.109769,-0.17412
1.98903,0.0920606,0.0579483
2.13684,-0.110117,0.0373482
1.97782,0.0915419,-0.126892
2.05252,-0.00537348,0.119534
2.04977,-0.0053663,-0.0954819
2.13424,-0.109983,-0.111999
1.97624,0.0914689,-0.0806004
2.05144,-0.00537066,-0.047736
2.11989,-0.116665,-0.0617883
1.99015,0.0851517,0.0115773
2.13274,-0.117372,-0.0124142
2.04414,-0.0124871,-0.220192
2.0634,-0.0126048,0.0480151
2.13366,-0.117423,-0.174445
1.98534,0.0849461,0.057832
2.14443,-0.118015,0.0374878
1.9861,0.0849787,-0.127403
2.05648,-0.0125625,0.119766
2.05773,-0.0125701,-0.0958541
2.14182,-0.117871,-0.112418
1.98054,0.0847408,-0.0807633
2.0594,-0.0125803,-0.0479221
1.98217,0.0778796,-0.0346256
2.05991,-0.0197743,0
2.04728,-0.019653,-0.318523
1.98643,0.0780472,0.0115541
2.13631,-0.125049,-0.0124375
2.04408,-0.0196224,-0.220192
2.07134,-0.0198841,0.0482012
2.05489,-0.0197261,-0.143698
2.13722,-0.125103,-0.174771
1.99362,0.0783294,0.0580647
2.14001,-0.125266,0.037418
1.98639,0.0780454,-0.127403
2.06441,-0.0198175,0.120232
2.06966,-0.0198679,-0.0964125
1.98881,0.0781407,-0.0810889
2.06335,-0.0198073,-0.0480151
2.13499,-0.132452,-0.0622537
2.05982,-0.0269646,0
2.05115,-0.026851,-0.319138
1.99869,0.071542,0.0116238
2.13985,-0.132753,-0.0124607
2.04798,-0.0268095,-0.22062
2.07526,-0.0271666,0.0482943
2.0588,-0.0269511,-0.143977
2.14473,-0.133056,-0.175422
2.00187,0.071656,0.0582974
2.15154,-0.133478,0.0376274
1.99064,0.071254,-0.127659
2.07757,-0.0271969,-0.0967847
2.00106,0.0716269,-0.0815774
2.06326,-0.0270096,-0.0480151
1.99064,0.0649928,-0.0347652
2.07173,-0.0336303,0
2.06291,-0.0334872,-0.320983
1.9989,0.0652626,0.0116238
2.14741,-0.139996,-0.0125072
2.05186,-0.0333078,-0.221048
2.07916,-0.033751,0.0483873
2.06269,-0.0334836,-0.144256
2.1443,-0.139793,-0.175422
2.00608,0.0654971,0.0584138
2.1551,-0.140497,0.0376972
1.99484,0.0651301,-0.127915
2.07222,-0.0336382,0.120697
2.07348,-0.0336587,-0.0965986
1.99728,0.0652096,-0.0814146
2.06717,-0.0335563,-0.0481082
2.01111,0.0586345,0.0116936
2.15887,-0.148313,-0.012577
2.06366,-0.0407052,-0.222334
2.08303,-0.0410873,0.0484804
2.06655,-0.0407623,-0.144535
2.15175,-0.147824,-0.176073
2.01829,0.0588437,0.0587629
2.00304,0.0583991,-0.128427
2.08406,-0.0411077,0.121394
2.08134,-0.0410539,-0.0969709
2.15994,-0.148386,-0.113464
2.00548,0.0584704,-0.0817402
2.08303,-0.0410873,-0.0484804
2.00304,0.0514018,-0.0349746
2.07944,-0.0482785,0
2.0193,0.0518192,0.0117401
2.16233,-0.156136,-0.0126002
2.07543,-0.0481854,-0.223619
2.08687,-0.048451,0.0485734
2.07437,-0.0481609,-0.145093
2.1552,-0.155621,-0.176398
2.00649,0.0514905,0.0584138
2.00323,0.0514068,-0.128427
2.09189,-0.0485675,0.121859
2.08118,-0.0483189,-0.0969709
2.16738,-0.1565,-0.113883
2.00168,0.0513671,-0.0815774
2.08288,-0.0483582,-0.0484804
2.08325,-0.0560071,0
2.01948,0.0444178,0.0117401
2.17371,-0.164968,-0.01267
2.07524,-0.0557919,-0.223619
2.08668,-0.0560995,0.0485734
2.08216,-0.055978,-0.145652
2.01866,0.0443997,0.0587629
2.0074,0.0441521,-0.128683
2.0917,-0.0562344,0.121859
2.17077,-0.164745,-0.114092
2.00985,0.044206,-0.0819031
2.08668,-0.0560995,-0.0485734
2.09503,-0.0636431,0
2.02362,0.0374422,0.0117633
2.17711,-0.172872,-0.0126932
2.08298,-0.063277,-0.224475
2.10646,-0.0639901,0.0490387
2.08993,-0.063488,-0.14621
2.02679,0.037501,0.0589956
2.01951,0.0373662,-0.12945
2.09548,-0.0636567,0.122092
2.09676,-0.0636955,-0.0977154
2.17416,-0.172638,-0.114302
2.01798,0.0373379,-0.0822287
2.08647,-0.063383,-0.0485734
2.09881,-0.0707248,0
2.03173,0.0308529,0.0118098
2.1845,-0.18075,-0.0127397
2.08674,-0.0703181,-0.224904
2.10623,-0.070975,0.0490387
2.09768,-0.0706869,-0.146768
2.03091,0.0308404,0.059112
2.02361,0.0307297,-0.129706
2.09925,-0.0707397,0.122325
2.10053,-0.0707828,-0.0979015
2.18154,-0.180505,-0.11472
2.02609,0.0307672,-0.0825544
2.09424,-0.070571,-0.0487595
2.09855,-0.0780506,0
2.03983,0.0238542,0.0118563
2.09045,-0.0777495,-0.225332
2.11397,-0.078624,0.0492248
2.09344,-0.0778605,-0.146489
2.035,0.0237978,0.0592283
2.0277,0.0237124,-0.129962
2.10426,-0.0782631,-0.0980876
2.1809,-0.188119,-0.11472
2.03018,0.0237414,-0.0827172
2.09798,-0.0780295,-0.0488526
2.10626,-0.0857007,0
2.0479,0.0167994,0.0119028
2.09414,-0.0852078,-0.225761
2.12567,-0.0864904,0.049504
2.10511,-0.0856541,-0.147326
2.03176,0.016667,-0.130218
2.11196,-0.0859327,-0.0984599
2.18421,-0.196088,-0.11493
2.03025,0.0166546,-0.0827172
2.10968,-0.0858401,-0.0491318
2.10993,-0.0935972,0
2.04394,0.0092752,0.0118796
2.10176,-0.0932351,-0.226617
2.13332,-0.0946352,0.0496901
2.10877,-0.093546,-0.147605
2.03912,0.00925328,0.0593447
2.02782,0.00920202,-0.129962
2.11962,-0.094027,-0.0988321
2.03829,0.00924953,-0.0830429
2.11335,-0.0937491,-0.0492248
2.11759,-0.100974,0
2.05196,0.00250694,0.011926
2.10144,-0.100204,-0.226617
2.133,-0.101709,0.0496901
2.12041,-0.101109,-0.148442
2.03981,0.00249209,-0.130729
2.12328,-0.101246,-0.0990182
2.0463,0.00250002,-0.0833685
2.12102,-0.101138,-0.0494109
2.12919,-0.109351,0
2.05196,-0.00501389,0.011926
2.13261,-0.109526,0.0496901
2.12799,-0.109289,-0.149
2.05113,-0.00501185,0.0596938
2.04779,-0.0050037,-0.131241
2.1229,-0.109027,-0.0990182
2.05029,-0.00500981,-0.0835313
2.12462,-0.109116,-0.049504
2.12882,-0.116411,0
2.06393,-0.0118875,0.0119958
2.14022,-0.117034,0.0498762
2.11965,-0.115909,-0.148442
2.0551,-0.0118366,0.0598101
2.05176,-0.0118174,-0.131497
2.1305,-0.116503,-0.0993905
2.05426,-0.0118318,-0.0836942
2.13623,-0.116816,-0.0497831
2.13639,-0.124306,0
2.06788,-0.0191289,0.012019
2.15178,-0.125201,0.0501553
2.1272,-0.123771,-0.149
2.05904,-0.0190472,0.0599265
2.05969,-0.0190531,-0.132008
2.13806,-0.124403,-0.0997627
2.0582,-0.0190394,-0.083857
2.14379,-0.124737,-0.0499692
2.05951,-0.026601,-0.035952
2.14731,-0.13284,0.0500623
2.13071,-0.131813,-0.149279
2.06295,-0.0266454,0.0600429
2.0596,-0.0266022,-0.132008
2.14158,-0.132485,-0.0999489
2.06212,-0.0266346,-0.0840198
2.14332,-0.132593,-0.0499692
2.14742,-0.140373,0
2.06769,-0.0339257,0.012019
2.14219,-0.140031,-0.150116
2.07084,-0.0339775,0.0602756
2.06349,-0.0338568,-0.132264
2.14908,-0.140481,-0.100321
2.074,-0.0340293,-0.0845083
2.14684,-0.140335,-0.0500623
2.14697,-0.147118,0
2.07557,-0.0405777,0.0120655
2.14572,-0.147033,-0.150395
2.07135,-0.0404953,-0.132776
2.1566,-0.147778,-0.100693
2.08587,-0.0407791,-0.0849968
2.15436,-0.147625,-0.0502484
2.0834,-0.0487341,0.012112
2.14912,-0.155559,-0.150674
2.08255,-0.0487143,0.0606247
2.08316,-0.0487285,-0.133543
2.15602,-0.156058,-0.100693
2.08969,-0.0488815,-0.0851596
2.16176,-0.156474,-0.0504345
2.07895,-0.0551654,-0.036301
2.09123,-0.0554912,0.0121585
2.14862,-0.16231,-0.150674
2.08698,-0.0553785,-0.133799
2.1595,-0.163132,-0.100879
2.09353,-0.0555522,-0.0853225
2.17322,-0.164168,-0.0507136
2.09074,-0.0627821,-0.0365104
2.15997,-0.170752,-0.151511
2.08678,-0.0626631,-0.133799
2.17087,-0.171613,-0.101438
2.09731,-0.0629796,-0.0854853
2.17263,-0.171753,-0.0507136
2.09478,-0.0705889,0.0121818
2.09052,-0.0704456,-0.134055
2.17022,-0.179569,-0.101438
2.10506,-0.0709354,-0.085811
2.17996,-0.180374,-0.0508998
2.10252,-0.077831,0.0122283
2.10224,-0.0778206,-0.134823
2.10481,-0.0779156,-0.085811
2.18732,-0.188288,-0.0510859
2.10196,-0.0851582,-0.0367199
2.10624,-0.0853316,0.0122515
2.10938,-0.0854588,0.0614392
2.10595,-0.0853199,-0.135078
2.11251,-0.0855859,-0.0861366
2.18665,-0.195922,-0.0510859
2.11362,-0.0933913,-0.0369293
2.10991,-0.0932274,0.0122748
2.1136,-0.0933905,-0.13559
2.18812,-0.204141,-0.102368
2.11618,-0.0935045,-0.0862994
2.19786,-0.20505,-0.051365
2.11329,-0.1004,-0.0369293
2.11358,-0.100413,0.012298
2.12071,-0.100752,0.0617883
2.11726,-0.100588,-0.135846
2.11985,-0.100711,-0.0864623
2.1252,-0.108402,0.0123678
2.12089,-0.108182,-0.136102
2.12747,-0.108517,-0.0867879
2.12481,-0.115819,0.0123678
2.12448,-0.115802,-0.136357
2.12708,-0.115943,-0.0867879
2.13207,-0.124054,-0.0372783
2.12803,-0.123819,-0.136613
2.13861,-0.124435,-0.0872764
2.13167,-0.130752,-0.0372783
2.14793,-0.131749,0.0125072
2.14357,-0.131482,-0.137637
2.13422,-0.130908,-0.0871136
2.13918,-0.13871,-0.037418
2.14346,-0.138987,0.012484
2.14708,-0.139222,-0.137892
2.15369,-0.13965,-0.0879277
2.15092,-0.147389,0.0125305
2.15053,-0.147363,-0.138148
2.15316,-0.147543,-0.0879277
2.15013,-0.1545,-0.0376274
2.15441,-0.154808,0.0125537
2.158,-0.155066,-0.13866
2.16063,-0.155255,-0.0882534
2.15755,-0.162606,-0.037767
2.1654,-0.163198,-0.139172
2.16805,-0.163397,-0.0885791
2.16093,-0.170828,-0.0378368
2.16081,-0.170819,-0.138916
2.16743,-0.171342,-0.0885791
2.16832,-0.178649,-0.0379764
2.17615,-0.179294,-0.139939
2.17084,-0.178857,-0.0887419
2.17816,-0.187117,-0.0890675
2.18543,-0.195813,-0.0893932
2.19269,-0.204181,-0.0897188
