2.72497,0.907004,-0.0166918
2.72724,0.761973,-0.264333
2.72736,0.762005,0.0329675
2.71976,0.905271,-0.234004
2.7246,0.906882,0.0501233
2.71908,0.759693,-0.164417
2.72655,0.90753,0.117074
2.72886,0.9083,-0.150728
2.7115,0.893071,-0.0830826
2.72588,0.75237,-0.032921
2.7278,0.89844,-0.0166918
2.72962,0.753402,-0.264333
2.72588,0.75237,0.032921
2.72259,0.896723,-0.234004
2.73123,0.899569,0.0501931
2.71761,0.750085,-0.164185
2.72559,0.89771,0.116911
2.72791,0.898473,-0.150518
2.72849,0.742849,-0.032921
2.7284,0.742822,-0.263961
2.73235,0.7439,0.0329675
2.72192,0.885979,-0.233679
2.72295,0.886315,0.0499837
2.72021,0.740594,-0.164185
2.73251,0.889427,0.117074
2.72723,0.887708,-0.150309
2.73107,0.733321,-0.032921
2.72639,0.876925,-0.0166453
2.72712,0.732262,-0.263589
2.73493,0.734358,0.0329675
2.7174,0.874032,-0.233028
2.72222,0.875581,0.0499139
2.72798,0.877436,0.116748
2.73031,0.878184,-0.150309
2.73361,0.723783,-0.032921
2.72944,0.867401,-0.0166453
2.72196,0.720698,-0.262846
2.72588,0.721735,0.0328279
2.72423,0.865748,-0.233353
2.72907,0.867284,0.0499837
2.72722,0.866697,0.116586
2.73225,0.713228,-0.0328744
2.73245,0.857871,-0.0166453
2.72832,0.7122,-0.263218
2.72064,0.710197,0.0327347
2.71963,0.853846,-0.232702
2.73208,0.857754,0.0499837
2.73023,0.857174,0.116586
2.72459,0.993286,0
2.7231,0.700695,-0.0327347
2.72779,0.845957,-0.0165988
2.72693,0.701679,-0.262846
2.72761,0.994387,0.0675562
2.7231,0.700695,0.0327347
2.71879,0.843166,-0.232377
2.72742,0.845842,0.0498441
2.72255,0.700552,-0.16372
2.72939,0.846454,0.116423
2.72164,0.99221,-0.13494
2.73172,0.847178,-0.14989
2.72009,0.991647,-0.0673701
2.71432,0.831406,-0.0826171
2.72428,0.982412,0
2.72941,0.692168,-0.0327813
2.72936,0.692155,-0.262846
2.7273,0.983502,0.0674631
2.72553,0.691185,0.0327347
2.71409,0.831335,-0.231726
2.72653,0.835145,0.0497743
2.72111,0.690062,-0.163487
2.73233,0.836921,0.116423
2.71757,0.979992,-0.134568
2.71978,0.980789,-0.067277
2.72781,0.682143,-0.0327347
2.73348,0.82737,-0.0165988
2.73164,0.683101,-0.262846
2.73169,0.683114,0.0327813
2.7321,0.82695,-0.233028
2.72928,0.826099,0.0497743
2.73126,0.826698,0.11626
2.72457,0.972318,-0.134754
2.71925,0.970421,-0.067184
2.72713,0.962514,0
2.73018,0.672617,-0.0327347
2.7183,0.812427,-0.361127
2.73014,0.672608,-0.262474
2.71885,0.959592,0.0670909
2.73018,0.672617,0.0327347
2.72733,0.815125,-0.232377
2.73215,0.816566,0.0497743
2.72574,0.671524,-0.163487
2.72647,0.814869,0.115934
2.71287,0.957482,-0.13401
2.72262,0.960923,-0.067184
2.73651,0.663549,-0.0327813
2.71745,0.801336,-0.360622
2.7355,0.806657,-0.0165756
2.72485,0.660721,-0.261731
2.72612,0.950938,0.067184
2.72485,0.660721,0.0326416
2.70892,0.944935,-0.20062
2.72647,0.803996,-0.232052
2.73129,0.805417,0.0497045
2.72042,0.659648,-0.163022
2.73327,0.806002,0.116097
2.72013,0.948849,-0.134196
2.73179,0.805565,-0.149262
2.71882,0.801741,0.231401
2.72235,0.949621,-0.0670909
2.73091,0.652612,-0.0326882
2.71628,0.791212,-0.360117
2.72702,0.651682,-0.261731
2.72548,0.940588,0.0670909
2.72702,0.651682,0.0326416
2.71203,0.935948,-0.20062
2.72529,0.793836,-0.231726
2.73394,0.796355,0.0497045
2.73209,0.795817,0.115934
2.71571,0.937217,-0.133824
2.73445,0.796502,-0.149262
2.7217,0.939284,-0.0669978
2.72192,0.928737,0
2.73318,0.643074,-0.0326882
2.73316,0.643071,-0.262102
2.72875,0.931068,0.0670909
2.73707,0.64399,0.0327347
2.71906,0.927763,-0.200899
2.72039,0.782114,-0.231075
2.72902,0.784597,0.0495648
2.72485,0.641115,-0.163022
2.73101,0.78517,0.115772
2.72275,0.929021,-0.13401
2.72496,0.929777,-0.0669978
2.72514,0.919231,0
2.73151,0.632628,-0.0326416
2.71411,0.770063,-0.359107
2.73211,0.775171,-0.0165058
2.73151,0.632628,-0.261731
2.7244,0.918982,0.0669048
2.72371,0.630823,0.0325485
2.72694,0.773702,-0.231401
2.73559,0.776158,0.0496346
2.72318,0.6307,-0.162789
2.71675,0.916399,0.166975
2.73374,0.775633,0.115772
2.7184,0.916958,-0.133637
2.7244,0.918982,-0.0669048
2.72833,0.909712,0
2.7337,0.623089,-0.0326416
2.7348,0.765629,-0.0165058
2.72982,0.622204,-0.261359
2.71621,0.905671,0.0666256
2.7337,0.623089,0.0326416
2.72578,0.763103,-0.231075
2.73443,0.765525,0.0495648
2.72537,0.621189,-0.162789
2.71614,0.905647,0.166743
2.73258,0.765007,0.115609
2.72759,0.909466,-0.0669048
2.7201,0.896426,0
2.73586,0.613542,-0.0326416
2.71559,0.750038,-0.358602
2.72809,0.611799,-0.260987
2.72316,0.897435,0.0667187
2.72458,0.752522,-0.23075
2.73323,0.75491,0.049495
2.72752,0.611672,-0.162789
2.71549,0.89491,0.16651
2.73524,0.755463,0.115609
2.72094,0.896705,-0.133451
2.72074,0.75146,0.230424
2.73075,0.899938,-0.0669048
2.72701,0.888166,0
2.72626,0.601405,-0.0325019
2.71819,0.740556,-0.358602
2.7302,0.602274,-0.260987
2.72247,0.886687,0.0666256
2.73017,0.602267,0.0325485
2.72719,0.743009,-0.23075
2.73199,0.744315,0.0494252
2.72574,0.601289,-0.162557
2.7224,0.886664,0.166743
2.734,0.744862,0.115446
2.71266,0.883492,-0.132893
2.72629,0.877415,0
2.73226,0.592732,-0.0325485
2.71693,0.730033,-0.358097
2.73229,0.59274,-0.260987
2.72555,0.877178,0.0666256
2.72835,0.591884,0.0325019
2.71205,0.872833,-0.199224
2.72977,0.733484,-0.23075
2.73071,0.733736,0.0493554
2.73172,0.592616,-0.162789
2.73308,0.879601,0.167208
2.73658,0.735314,0.115446
2.72333,0.876465,-0.133265
2.72933,0.867894,0
2.73431,0.583192,-0.0325485
2.71946,0.720546,-0.358097
2.73363,0.724298,-0.0164361
2.73434,0.583199,-0.260987
2.72478,0.866447,0.0665326
2.72649,0.581523,0.0324553
2.71508,0.863362,-0.199224
2.72461,0.721909,-0.230099
2.73326,0.7242,0.0493554
2.72596,0.581412,-0.162324
2.72091,0.865216,0.166278
2.72754,0.722686,0.114957
2.7324,0.868871,-0.0667187
2.70943,0.998488,-0.0504026
2.72868,0.856686,0
2.73251,0.572345,-0.0325019
2.72209,0.710573,-0.358097
2.72477,0.570723,-0.259872
2.72031,0.854058,0.0663465
2.73109,0.712924,-0.230424
2.73202,0.713166,0.0492856
2.72808,0.571416,-0.162324
2.72406,0.855237,0.166278
2.73017,0.712684,0.114957
2.72004,0.844075,0
2.7344,0.56328,-0.0325019
2.72058,0.700552,-0.357592
2.73862,0.705195,-0.0164361
2.72339,0.845114,-0.307154
2.73055,0.562487,-0.260243
2.71931,0.843847,0.0662534
2.72958,0.702869,-0.230099
2.73437,0.704102,0.0492856
2.72996,0.562365,-0.162324
2.72688,0.846198,0.166278
2.73252,0.703626,0.114957
2.7171,0.843161,-0.132521
2.72572,0.701874,0.229773
2.71915,0.833404,0
2.73243,0.552939,-0.0324553
2.72301,0.691052,-0.357592
2.73718,0.694648,-0.0164128
2.71492,0.832107,-0.305869
2.72859,0.552163,-0.259872
2.72224,0.83435,0.0662534
2.72429,0.691376,-0.229448
2.73681,0.694554,0.0492856
2.7319,0.552833,-0.162324
2.726,0.835505,0.166045
2.72721,0.692117,0.114632
2.72587,0.825066,0
2.73042,0.542619,-0.0324088
2.71771,0.679617,-0.356581
2.73571,0.684119,-0.0163896
2.71781,0.822625,-0.305869
2.73831,0.544188,-0.260615
2.72131,0.823685,0.0661604
2.73442,0.683797,-0.230099
2.73922,0.684997,0.0492856
2.72598,0.541738,-0.161859
2.73273,0.827141,0.166278
2.73737,0.684533,0.114957
2.71527,0.821858,-0.132148
2.7249,0.814402,0
2.73622,0.533851,-0.0324553
2.72007,0.670127,-0.356581
2.71199,0.957174,0.0167151
2.7342,0.673609,-0.0163664
2.71304,0.810856,-0.305012
2.73629,0.533864,-0.260243
2.728,0.815326,0.0662534
2.73229,0.533085,0.0324088
2.72905,0.672341,-0.229448
2.73383,0.673518,0.049146
2.72412,0.814167,0.16558
2.73198,0.673062,0.114632
2.73156,0.806016,0
2.73807,0.524296,-0.0324553
2.72239,0.660628,-0.356581
2.71154,0.946383,0.0166918
2.71967,0.802506,-0.305441
2.73031,0.522811,-0.2595
2.72315,0.803535,0.0660673
2.73021,0.522792,0.0323622
2.73913,0.66469,-0.230099
2.71422,0.947316,0.0836644
2.73228,0.663027,0.0490762
2.7297,0.522694,-0.161859
2.72694,0.804653,0.16558
2.73431,0.663521,0.114632
2.7227,0.793595,0
2.73586,0.514473,-0.0324088
2.72456,0.651596,-0.356581
2.71845,0.938691,0.0167151
2.73872,0.654981,-0.0163664
2.72231,0.793482,-0.305441
2.73203,0.513753,-0.2595
2.72196,0.79338,0.0659743
2.73744,0.654675,-0.229773
2.73446,0.653962,0.0490762
2.73534,0.514376,-0.162092
2.7296,0.795605,0.16558
2.72872,0.65259,0.114306
2.71592,0.791617,-0.131776
2.72546,0.784085,0
2.72682,0.64208,-0.356581
2.72171,0.929195,0.0167151
2.7332,0.643583,-0.0163199
2.71742,0.781775,-0.304584
2.73772,0.504935,-0.259872
2.72472,0.783873,0.0659743
2.72977,0.503469,0.0323156
2.73583,0.644201,-0.229448
2.73673,0.644412,0.0490762
2.73319,0.5041,-0.161859
2.7362,0.787175,0.165813
2.72709,0.642144,0.114143
2.72634,0.784341,-0.132148
2.72057,0.630595,-0.558542
2.72433,0.773476,0
2.72132,0.630768,-0.355571
2.71356,0.915853,0.0166453
2.71631,0.7712,-0.304156
2.73555,0.494669,-0.2595
2.72744,0.774359,0.0659743
2.73151,0.493939,0.0323156
2.73418,0.633749,-0.229122
2.73506,0.633954,0.0490064
2.73886,0.495268,-0.162092
2.73124,0.77544,0.165347
2.7371,0.634428,0.114469
2.72906,0.774821,-0.132148
2.73951,0.634986,-0.147378
2.72329,0.762408,0
2.74118,0.485319,-0.0324088
2.72748,0.621672,-0.356076
2.7207,0.907167,0.0166686
2.73774,0.624011,-0.0163199
2.72295,0.762312,-0.304584
2.73734,0.48464,-0.2595
2.73026,0.764358,0.0659743
2.74037,0.62461,-0.229448
2.7158,0.905534,0.0833153
2.74127,0.624815,0.0490762
2.72886,0.483139,-0.161394
2.73022,0.764348,0.165115
2.73551,0.623504,0.114306
2.72804,0.763737,-0.131962
2.72195,0.752307,0
2.73883,0.475541,-0.0323622
2.72565,0.611754,-0.355571
2.71609,0.895634,0.0166221
2.72163,0.752218,-0.304156
2.73501,0.474878,-0.259128
2.72507,0.753169,0.0657882
2.73464,0.613773,-0.228797
2.73162,0.613093,0.0488667
2.73439,0.474769,-0.161626
2.73274,0.75529,0.165115
2.72977,0.612678,0.11398
2.719,0.751492,-0.131404
2.74048,0.465978,-0.0323622
2.7239,0.60138,-0.355066
2.7192,0.886147,0.0166221
2.73802,0.604497,-0.0162966
2.7204,0.741666,-0.303727
2.73665,0.465327,-0.259128
2.72382,0.742599,0.0656951
2.73677,0.604222,-0.228797
2.7143,0.884548,0.0830826
2.73765,0.604416,0.0489365
2.72766,0.743644,0.16465
2.73579,0.604007,0.114143
2.72546,0.743047,-0.13159
2.73821,0.60454,-0.146959
2.72327,0.732246,0
2.7342,0.455094,-0.0322691
2.72598,0.591868,-0.355066
2.72228,0.876649,0.0166221
2.72297,0.732165,-0.303727
2.73826,0.455771,-0.259128
2.7264,0.733086,0.0656951
2.73497,0.593819,-0.228471
2.71737,0.875067,0.0830826
2.73974,0.594855,0.0489365
2.73764,0.455667,-0.161626
2.73409,0.735155,0.164882
2.73398,0.593604,0.11398
2.72418,0.73249,-0.131404
2.72581,0.722737,0
2.73182,0.444906,-0.0322225
2.7177,0.864718,0.0165756
2.74217,0.585369,-0.0162966
2.72936,0.723677,-0.304156
2.73983,0.446212,-0.259128
2.72894,0.723567,0.0656951
2.73182,0.444906,0.0322225
2.73312,0.583438,-0.228146
2.7166,0.864366,0.0829662
2.73398,0.58362,0.0487969
2.73527,0.445468,-0.161394
2.73278,0.724585,0.16465
2.73603,0.584059,0.11398
2.72672,0.722979,-0.131404
2.74003,0.726508,0.348059
2.72445,0.712206,0
2.72452,0.856425,0.0165988
2.73637,0.57415,-0.0162501
2.74138,0.436644,-0.259128
2.73145,0.714036,0.0656951
2.73336,0.435367,0.0322225
2.7196,0.854878,0.0829662
2.736,0.574072,0.0487969
2.73286,0.435288,-0.161161
2.73529,0.715041,0.16465
2.73415,0.573684,0.113818
2.7215,0.711434,-0.131032
2.73103,0.713926,0.346596
2.72364,0.561561,-0.556189
2.72304,0.701694,0
2.73881,0.426439,-0.0322691
2.72367,0.845723,0.0165756
2.74227,0.565403,-0.0162734
2.72279,0.701627,-0.30287
2.73501,0.425848,-0.258385
2.72618,0.702502,0.065509
2.74104,0.565148,-0.228471
2.72256,0.84538,0.0829662
2.73407,0.563711,0.0487271
2.73436,0.425747,-0.161161
2.73777,0.705489,0.16465
2.73222,0.56333,0.113655
2.72009,0.700934,-0.130846
2.7335,0.704389,0.346596
2.73238,0.415673,-0.032176
2.7262,0.552175,-0.354056
2.72661,0.83621,0.0165756
2.74423,0.555827,-0.0162734
2.73648,0.416297,-0.258385
2.72862,0.692981,0.065509
2.73908,0.554784,-0.228146
2.72168,0.834698,0.0828498
2.74386,0.555751,0.0488667
2.73583,0.416199,-0.161161
2.74022,0.695927,0.16465
2.73417,0.553788,0.113655
2.74051,0.555074,-0.146541
2.72825,0.692888,0.345621
2.74605,0.556195,0.510843
2.72422,0.54188,-0.353551
2.72185,0.824368,0.0165291
2.74615,0.546243,-0.0162734
2.73792,0.406742,-0.258385
2.73102,0.683451,0.065509
2.73709,0.544441,-0.227821
2.71692,0.822874,0.0826171
2.74578,0.546169,0.0488667
2.73727,0.406646,-0.161161
2.72824,0.542681,0.113329
2.72105,0.680955,-0.130659
2.73065,0.683359,0.345621
2.74412,0.545838,0.510125
2.72712,0.533557,-0.0808717
2.73507,0.397542,-0.032176
2.7206,0.814666,0.0165058
2.74393,0.536846,-0.0162501
2.73918,0.398139,-0.258385
2.72927,0.67391,0.0654159
2.73488,0.535075,-0.227495
2.72332,0.815482,0.0827335
2.73963,0.536005,0.0487271
2.73853,0.398045,-0.161161
2.7417,0.53641,0.113818
2.72705,0.673362,-0.130846
2.72893,0.673826,0.345134
2.74582,0.537215,0.510125
2.72333,0.522952,-0.55462
2.74832,0.389677,-0.0323156
2.72775,0.523802,-0.353551
2.72726,0.806299,0.0165291
2.74186,0.526511,-0.0162269
2.73661,0.388017,-0.258013
2.73938,0.666269,0.0656021
2.72181,0.661997,-0.195876
2.74064,0.526278,-0.227821
2.71848,0.803704,0.0825008
2.74149,0.526439,0.0487271
2.732,0.387363,-0.160696
2.73548,0.665322,0.163952
2.73571,0.52533,0.113492
2.72938,0.663839,-0.130846
2.74599,0.527305,-0.146541
2.73127,0.664297,0.345134
2.73995,0.526144,0.50869
2.72522,0.512966,-0.55462
2.72309,0.651746,0
2.73785,0.37796,-0.032176
2.72575,0.513066,-0.353046
2.72252,0.794057,0.0164826
2.73984,0.515717,-0.0162036
2.73802,0.377983,-0.258013
2.72624,0.652501,0.0652298
2.73785,0.37796,0.032176
2.73864,0.515491,-0.227495
2.72141,0.793734,0.0825008
2.73947,0.515647,0.0486573
2.73736,0.377892,-0.160929
2.7379,0.655291,0.163952
2.72976,0.51382,0.113166
2.72403,0.65197,-0.130473
2.73754,0.655205,0.345621
2.74186,0.516097,0.50869
2.73143,0.504269,-0.353551
2.72143,0.783443,0.0164593
2.74556,0.506877,-0.0162269
2.74327,0.368955,-0.258385
2.7285,0.642981,0.0652298
2.74042,0.505929,-0.227495
2.72032,0.783124,0.0823844
2.74518,0.506808,0.0487271
2.7159,0.781852,-0.181128
2.73866,0.368335,-0.160929
2.74017,0.645731,0.163952
2.73547,0.505014,0.113329
2.7224,0.641542,-0.130287
2.74577,0.506916,-0.146331
2.73209,0.643825,0.344647
2.74751,0.507238,0.509408
2.73639,0.358796,-0.0321294
2.72918,0.494502,-0.353046
2.72401,0.774414,0.0164593
2.74329,0.497057,-0.0162036
2.73658,0.358821,-0.257641
2.73841,0.635738,0.0654159
2.73424,0.495417,-0.226844
2.74685,0.497703,0.0487271
2.74382,0.359771,-0.161161
2.7423,0.636641,0.163952
2.73713,0.495941,0.113329
2.72451,0.632511,-0.130287
2.73421,0.634762,0.344647
2.74531,0.497423,0.50869
2.71913,0.762265,0.0164128
2.74509,0.486998,-0.0162036
2.74182,0.349291,-0.258013
2.73293,0.623917,0.0652298
2.72312,0.621677,-0.195318
2.73603,0.485392,-0.226844
2.72187,0.763035,0.082268
2.74472,0.486932,0.0486573
2.74116,0.349207,-0.160929
2.73683,0.624807,0.163487
2.73892,0.485905,0.113329
2.73071,0.62341,-0.130473
2.73651,0.624736,0.344647
2.74711,0.487357,0.50869
2.72826,0.474196,-0.553835
2.72563,0.753836,0.0164361
2.73889,0.476044,-0.0161571
2.74698,0.340208,-0.258385
2.73119,0.613497,0.0651368
2.73771,0.475839,-0.226844
2.72452,0.753529,0.082268
2.74246,0.476664,0.0485875
2.73444,0.338655,-0.160464
2.73899,0.615251,0.163487
2.73667,0.475657,0.113166
2.72897,0.612999,-0.130287
2.74699,0.477452,-0.146122
2.7348,0.61431,0.344159
2.74104,0.476418,0.507255
2.7299,0.464669,-0.553835
2.74006,0.329643,-0.0321294
2.72438,0.743263,0.0164128
2.74448,0.467151,-0.0161804
2.74024,0.329665,-0.257641
2.73331,0.603959,0.0651368
2.74329,0.466948,-0.22717
2.72328,0.742961,0.0821517
2.74016,0.466417,0.0485177
2.71885,0.741754,-0.180616
2.73561,0.329107,-0.160464
2.74502,0.606547,0.16372
2.73437,0.46543,0.113003
2.72719,0.602606,-0.130101
2.74081,0.605616,0.344647
2.74657,0.467506,0.507973
2.71874,0.732045,-0.049146
2.74113,0.320554,-0.0321294
2.72799,0.455041,-0.352036
2.72297,0.733184,0.0163896
2.74601,0.458047,-0.0161804
2.73736,0.320113,-0.257269
2.73921,0.595741,0.0652298
2.74089,0.457192,-0.226844
2.72573,0.733926,0.0821517
2.7417,0.457327,0.0485177
2.71744,0.731695,-0.18036
2.74065,0.320497,-0.160696
2.7359,0.456359,0.113003
2.72917,0.593558,-0.130101
2.74624,0.458084,-0.145913
2.73504,0.594835,0.343672
2.7481,0.458395,0.507973
2.72141,0.722076,-0.049146
2.73077,0.445224,-0.0805226
2.72964,0.44504,-0.352036
2.72951,0.724225,0.0164128
2.74643,0.310975,-0.258013
2.73746,0.584862,0.0651368
2.72373,0.581928,-0.19476
2.73861,0.446502,-0.226519
2.7473,0.447919,0.0485875
2.72396,0.722755,-0.180616
2.73784,0.310001,-0.160464
2.74529,0.586534,0.163487
2.73755,0.446329,0.113003
2.73133,0.583552,-0.130101
2.7479,0.448016,-0.145913
2.73721,0.584808,0.343672
2.74588,0.447687,0.507255
2.72391,0.712573,-0.049146
2.73231,0.43569,-0.0805226
2.72686,0.434821,-0.552266
2.72848,0.572993,0
2.72041,0.711657,0.0163431
2.74527,0.437756,-0.0161571
2.7475,0.301387,-0.258013
2.73949,0.575304,0.0651368
2.72574,0.572418,-0.19476
2.74015,0.43694,-0.226519
2.72317,0.71238,0.0819189
2.74095,0.437067,0.0484479
2.72261,0.712232,-0.18036
2.74287,0.300878,-0.160696
2.74304,0.437401,0.113166
2.73335,0.574015,-0.130101
2.74944,0.438422,-0.145913
2.73923,0.57525,0.343672
2.75131,0.43872,0.507973
2.73217,0.426382,-0.553051
2.72645,0.563134,0
2.72869,0.425839,-0.351531
2.72275,0.702632,0.0163431
2.7388,0.427417,-0.0161106
2.75245,0.292695,-0.258385
2.73746,0.565408,0.0650437
2.72763,0.563376,-0.19476
2.73765,0.427237,-0.226193
2.72552,0.703346,0.0819189
2.73843,0.427359,0.0483781
2.74139,0.56622,0.163022
2.74053,0.427686,0.113003
2.73132,0.56414,-0.129915
2.74112,0.566164,0.343672
2.74109,0.427774,0.50582
2.74138,0.566217,-0.0651368
2.72494,0.692553,-0.0490762
2.72983,0.415772,-0.552266
2.7285,0.553135,0
2.73023,0.415833,-0.351531
2.72143,0.691661,0.0163199
2.74431,0.417976,-0.0161339
2.73765,0.280977,-0.256897
2.73168,0.55378,0.0648576
2.72576,0.55258,-0.194481
2.74314,0.417798,-0.226519
2.7242,0.692365,0.0818026
2.74393,0.41792,0.0484479
2.72365,0.692223,-0.180104
2.73954,0.555373,0.162789
2.73417,0.416433,0.112678
2.72946,0.55333,-0.129729
2.74318,0.556111,0.343672
2.74653,0.418315,0.506538
2.72322,0.683016,-0.0490064
2.73113,0.407195,-0.552266
2.74626,0.273145,-0.0321294
2.73545,0.407839,-0.352036
2.73135,0.685055,0.0163664
2.74165,0.408764,-0.0161106
2.74249,0.27277,-0.257269
2.73733,0.545978,0.0649507
2.74049,0.408591,-0.226193
2.73024,0.684776,0.0819189
2.74919,0.409888,0.0485177
2.72581,0.683664,-0.180104
2.7418,0.272702,-0.160464
2.74127,0.546764,0.162789
2.73942,0.408432,0.112841
2.73118,0.544753,-0.129729
2.74979,0.409977,-0.145703
2.74102,0.546714,0.343184
2.72138,0.682554,-0.114306
2.75172,0.410265,0.507255
2.72559,0.673505,-0.0490064
2.73641,0.398223,-0.553051
2.72818,0.534258,0
2.73686,0.398288,-0.352036
2.72984,0.674556,0.0163431
2.74342,0.263194,-0.257269
2.74314,0.537187,0.0650437
2.73924,0.262793,0.0320363
2.73796,0.398448,-0.225868
2.72485,0.673323,0.0816862
2.74665,0.399712,0.0484479
2.7243,0.673186,-0.179849
2.73876,0.262747,-0.160231
2.74708,0.537959,0.163022
2.74083,0.398866,0.112841
2.73307,0.535215,-0.129729
2.7512,0.400376,-0.145703
2.73901,0.536379,0.342697
2.74535,0.399523,0.50582
2.72816,0.663037,-0.0490064
2.73015,0.386615,-0.551482
2.74023,0.252275,-0.0320363
2.73051,0.386665,-0.351026
2.72464,0.662182,0.0162966
2.74853,0.389217,-0.0161339
2.74838,0.253025,-0.257641
2.74518,0.526653,0.0650437
2.7314,0.524008,-0.194481
2.73946,0.387934,-0.225868
2.72742,0.662857,0.0816862
2.7442,0.388604,0.0483781
2.72687,0.662723,-0.179849
2.73975,0.252231,-0.160231
2.7351,0.524719,-0.129729
2.74495,0.526608,0.343184
2.74686,0.388981,0.50582
2.73136,0.378035,-0.551482
2.73184,0.5152,0
2.74974,0.38058,-0.0161339
2.75313,0.244742,-0.258013
2.74067,0.379325,-0.225868
2.7256,0.653353,0.0815699
2.74145,0.379432,0.0483083
2.72505,0.653221,-0.179593
2.73899,0.516549,0.162324
2.73959,0.379175,0.112678
2.73674,0.516123,-0.129729
2.74659,0.517982,0.343184
2.74027,0.37927,0.504385
2.73266,0.368499,-0.551482
2.72969,0.504934,0
2.73301,0.368547,-0.351026
2.72508,0.643178,0.0162734
2.74312,0.369911,-0.0160874
2.74206,0.234114,-0.256897
2.74075,0.506979,0.0648576
2.74593,0.370289,-0.226193
2.72397,0.642917,0.0814535
2.74672,0.370395,0.0483781
2.72732,0.643706,-0.179593
2.74078,0.506985,0.162324
2.73066,0.505114,-0.129357
2.75129,0.371012,-0.145494
2.74448,0.507669,0.342697
2.72676,0.643574,-0.114143
2.74548,0.370228,0.505103
2.72705,0.633099,-0.0488667
2.7301,0.357971,-0.550697
2.73434,0.358527,-0.351026
2.72742,0.633185,0.0162734
2.74843,0.360374,-0.0161106
2.74687,0.224386,-0.257269
2.74259,0.49693,0.0648576
2.73936,0.359185,-0.225542
2.72631,0.632928,0.0814535
2.75202,0.360845,0.0484479
2.72966,0.633705,-0.179593
2.74223,0.359561,0.112678
2.7325,0.495101,-0.129357
2.75263,0.360924,-0.145494
2.74242,0.496898,0.342209
2.7252,0.632671,-0.11398
2.74682,0.360163,0.505103
2.72924,0.623577,-0.0488667
2.73522,0.348935,-0.551482
2.73952,0.349483,-0.351531
2.72961,0.623661,0.0162734
2.74967,0.350778,-0.0161106
2.74764,0.214797,-0.257269
2.74825,0.488053,0.0649507
2.7406,0.349621,-0.225542
2.74533,0.350224,0.0483083
2.73185,0.624173,-0.179593
2.74297,0.214432,-0.160231
2.74434,0.487359,0.162324
2.73951,0.349482,0.112515
2.73814,0.486259,-0.129543
2.74413,0.487323,0.342209
2.7235,0.622265,-0.113818
2.75196,0.351071,0.50582
2.7353,0.614923,-0.0489365
2.73253,0.338902,-0.550697
2.73097,0.475158,0
2.75088,0.341177,-0.0161106
2.7444,0.204907,-0.256897
2.74599,0.477771,0.0648576
2.74576,0.340542,-0.225868
2.73066,0.613879,0.0814535
2.74257,0.340146,0.0482385
2.72623,0.612882,-0.179081
2.74996,0.478461,0.162557
2.74071,0.339916,0.112515
2.73982,0.476698,-0.129543
2.75112,0.341207,-0.145285
2.74582,0.477741,0.342209
2.74536,0.340493,0.504385
2.72962,0.603644,-0.0487969
2.73759,0.329832,-0.551482
2.72609,0.602862,0.0162269
2.73617,0.329659,-0.0160176
2.74907,0.195609,-0.257269
2.74764,0.468183,0.0648576
2.73382,0.465829,-0.193923
2.74297,0.33048,-0.225542
2.73977,0.330093,0.0481686
2.72445,0.6025,-0.178825
2.74374,0.467518,0.162092
2.74188,0.330348,0.112515
2.74147,0.467132,-0.129543
2.75229,0.331602,-0.145285
2.74356,0.467487,0.341722
2.72387,0.602373,-0.113655
2.74263,0.330438,0.503668
2.73161,0.59459,-0.0487969
2.73478,0.320296,-0.550697
2.74519,0.321515,-0.0160641
2.74175,0.185954,-0.256526
2.74129,0.457752,0.0646715
2.73142,0.456104,-0.193644
2.74405,0.321382,-0.225542
2.72696,0.593578,0.0812208
2.74482,0.321472,0.0482385
2.73033,0.594312,-0.179081
2.74527,0.458417,0.162092
2.73906,0.45738,-0.129357
2.74941,0.322009,-0.145075
2.74509,0.458387,0.341722
2.72586,0.593337,-0.113655
2.74371,0.321342,0.503668
2.74918,0.45907,-0.0648576
2.72986,0.583737,-0.0487271
2.73983,0.310711,-0.551482
2.75016,0.176399,-0.0320828
2.73624,0.310305,-0.350521
2.72632,0.58298,0.0162036
2.74238,0.311,-0.0160409
2.74639,0.176158,-0.256897
2.74295,0.447701,0.0646715
2.74125,0.310873,-0.225217
2.73303,0.584415,0.0813371
2.74995,0.311859,0.0483083
2.72859,0.583465,-0.178825
2.74171,0.175857,-0.159999
2.74693,0.448352,0.162092
2.73678,0.446694,-0.12917
2.75057,0.311929,-0.145075
2.74283,0.447682,0.341234
2.72801,0.583342,-0.113655
2.75269,0.312169,0.505103
2.73178,0.574681,-0.0487271
2.73305,0.300765,-0.549913
2.73331,0.436827,0
2.75472,0.167521,-0.0321294
2.7412,0.301662,-0.351026
2.73215,0.574758,0.0162269
2.74737,0.302341,-0.0160641
2.7333,0.436825,-0.298158
2.75094,0.16729,-0.257269
2.74442,0.438602,0.0646715
2.75019,0.302652,-0.225868
2.747,0.3023,0.0482385
2.73442,0.575235,-0.179081
2.74626,0.167006,-0.160231
2.74116,0.301658,0.112352
2.74219,0.438246,-0.129357
2.7443,0.438583,0.341234
2.72993,0.574292,-0.113655
2.74588,0.302178,0.503668
2.73377,0.565142,-0.0487271
2.72492,0.425736,-0.772064
2.74188,0.292055,-0.551482
2.74443,0.292326,-0.0160409
2.73088,0.426668,-0.29773
2.74753,0.157459,-0.256897
2.74989,0.429637,0.0647646
2.7321,0.426859,-0.193365
2.74727,0.292629,-0.225542
2.74803,0.29271,0.0482385
2.7325,0.564879,-0.178825
2.74683,0.157419,-0.160231
2.74992,0.429643,0.162092
2.75015,0.292935,0.112678
2.7437,0.428671,-0.129357
2.74974,0.429615,0.341722
2.75083,0.293008,0.504385
2.7319,0.554324,-0.0486573
2.73407,0.416908,-0.77422
2.74293,0.282004,-0.551482
2.73637,0.417258,0
2.74387,0.147163,-0.0319897
2.73539,0.281229,-0.350016
2.7415,0.281857,-0.0160176
2.75206,0.147602,-0.257269
2.75144,0.419556,0.0647646
2.74436,0.28215,-0.225217
2.73116,0.554173,0.0811044
2.74113,0.281819,0.0480988
2.73064,0.554067,-0.178569
2.74753,0.41896,0.161859
2.74723,0.282445,0.112515
2.74526,0.418613,-0.129357
2.7513,0.419534,0.341722
2.72614,0.553154,-0.113329
2.74406,0.28212,0.50295
2.75144,0.419556,-0.0647646
2.72789,0.406226,-0.772064
2.74,0.272039,-0.550697
2.73385,0.407114,0
2.74437,0.137583,-0.0319897
2.73636,0.271678,-0.350016
2.74247,0.272285,-0.0160176
2.74461,0.137595,-0.256526
2.74498,0.408771,0.0645785
2.73509,0.407298,-0.193365
2.74929,0.272962,-0.225542
2.74608,0.272643,0.0481686
2.73647,0.545311,-0.178825
2.7439,0.13756,-0.159999
2.74503,0.408778,0.161626
2.74024,0.272064,0.112189
2.7388,0.40785,-0.128984
2.75466,0.273495,-0.145075
2.74882,0.409342,0.341234
2.73197,0.544415,-0.113492
2.74503,0.272539,0.50295
2.74893,0.40936,-0.0646715
2.72767,0.534654,-0.0485177
2.73694,0.263055,-0.549913
2.74878,0.129149,-0.0320363
2.7372,0.263081,-0.350016
2.73197,0.535496,0.0161804
2.74331,0.263668,-0.0160176
2.75298,0.129346,-0.257269
2.75021,0.400722,0.0646715
2.75014,0.264324,-0.225542
2.73478,0.536047,0.0811044
2.7509,0.264398,0.0482385
2.73425,0.535944,-0.178569
2.74831,0.129127,-0.160231
2.7463,0.400153,0.161626
2.74108,0.263454,0.112189
2.74402,0.39982,-0.12917
2.7555,0.26484,-0.145075
2.75009,0.400705,0.341234
2.73367,0.53583,-0.113492
2.74587,0.263914,0.50295
2.73738,0.52664,-0.0486573
2.74174,0.253861,-0.550697
2.746,0.254256,-0.351026
2.72989,0.5252,0.0161571
2.75218,0.254827,-0.0160641
2.73257,0.388415,-0.297301
2.74944,0.119562,-0.256897
2.74367,0.389994,0.0644854
2.74707,0.254354,-0.225217
2.72878,0.524986,0.0808717
2.74384,0.254056,0.0480988
2.73219,0.525642,-0.178314
2.75273,0.119705,-0.160464
2.74597,0.254252,0.112352
2.7454,0.390239,-0.12917
2.75243,0.254851,-0.144866
2.75147,0.391102,0.341234
2.74678,0.254327,0.50295
2.73527,0.51634,-0.0485875
2.7387,0.243942,-0.549913
2.73387,0.37887,0
2.74907,0.244865,-0.0160409
2.74984,0.109965,-0.256897
2.75294,0.381512,0.0646715
2.73512,0.379043,-0.193086
2.74397,0.244411,-0.224891
2.74471,0.244477,0.0480988
2.73008,0.515362,-0.178058
2.75712,0.110256,-0.160696
2.74684,0.244666,0.112352
2.74278,0.380105,-0.128984
2.75728,0.245596,-0.145075
2.74889,0.380951,0.340747
2.75294,0.381512,-0.0646715
2.72919,0.505333,-0.0484479
2.74345,0.234715,-0.550697
2.73518,0.369325,0
2.74194,0.234586,-0.0159944
2.75418,0.100511,-0.257269
2.75029,0.371366,0.0645785
2.73642,0.369494,-0.193086
2.75275,0.235511,-0.225542
2.74157,0.234554,0.048029
2.72794,0.505102,-0.177802
2.7535,0.100486,-0.160464
2.74638,0.370838,0.161394
2.74369,0.234736,0.112189
2.74805,0.371064,-0.12917
2.75813,0.235971,-0.145075
2.7502,0.371354,0.340747
2.75029,0.371366,-0.0645785
2.73496,0.49604,-0.0485177
2.74429,0.224658,-0.550697
2.73651,0.359297,0
2.74065,0.224359,-0.350016
2.73139,0.495393,0.0161339
2.74278,0.224534,-0.0159944
2.75055,0.0902844,-0.256897
2.74767,0.360762,0.0644854
2.7338,0.358942,-0.192807
2.74565,0.224769,-0.224891
2.73028,0.495192,0.0807553
2.74639,0.22483,0.0480988
2.7337,0.495812,-0.178058
2.75385,0.0903925,-0.160464
2.74772,0.360769,0.161394
2.74543,0.360469,-0.128984
2.75499,0.225534,-0.144866
2.75154,0.361271,0.340747
2.72917,0.494991,-0.113003
2.75325,0.225391,0.503668
2.74767,0.360762,-0.0644854
2.73742,0.21496,-0.34951
2.7475,0.215751,-0.0160176
2.74686,0.0810458,-0.256526
2.74092,0.350634,0.0642993
2.75036,0.215976,-0.225217
2.73191,0.486136,0.0807553
2.75111,0.216035,0.0481686
2.7314,0.486045,-0.177802
2.75413,0.0812605,-0.160464
2.7489,0.351656,0.161394
2.74526,0.215576,0.112189
2.73869,0.350349,-0.128612
2.75572,0.216397,-0.144866
2.74879,0.351641,0.340259
2.73867,0.487339,-0.113329
2.74885,0.351649,-0.0644854
2.73441,0.476248,-0.0484479
2.74579,0.205493,-0.550697
2.73819,0.204924,-0.34951
2.73084,0.475626,0.0161106
2.75625,0.206276,-0.0160641
2.73504,0.339698,-0.296873
2.75908,0.0712854,-0.257641
2.75012,0.341571,0.0644854
2.73624,0.339847,-0.192807
2.74715,0.205595,-0.224891
2.74391,0.205352,0.048029
2.73316,0.47603,-0.177802
2.75441,0.0711648,-0.160464
2.74621,0.341085,0.161161
2.74788,0.341293,-0.128984
2.7565,0.206295,-0.144866
2.754,0.342053,0.340747
2.75409,0.342064,-0.0645785
2.73212,0.466028,-0.0483781
2.74258,0.195629,-0.549913
2.73615,0.330143,0
2.75296,0.196369,-0.0160409
2.75533,0.0615656,-0.257269
2.75129,0.33197,0.0644854
2.74137,0.330773,-0.193086
2.74785,0.196005,-0.224891
2.75864,0.0616395,-0.160696
2.75135,0.331976,0.161394
2.74275,0.195641,0.112026
2.74906,0.3317,-0.128984
2.75322,0.196388,-0.144657
2.75123,0.331962,0.340259
2.73365,0.456965,-0.0483781
2.74713,0.186799,-0.550697
2.73723,0.321067,0
2.73952,0.186281,-0.34951
2.7536,0.187238,-0.0160409
2.75154,0.0523518,-0.256897
2.75238,0.322843,0.0644854
2.73849,0.321214,-0.192807
2.74849,0.186891,-0.224891
2.74923,0.186942,0.0480988
2.7324,0.456757,-0.177546
2.75084,0.0523385,-0.160231
2.7445,0.321919,0.160929
2.74618,0.322115,-0.128798
2.75232,0.322836,0.340259
2.73574,0.457315,-0.113003
2.75238,0.322843,-0.0644854
2.7353,0.446943,-0.0483781
2.74388,0.176477,-0.549913
2.73839,0.311033,0
2.74018,0.17624,-0.34951
2.74628,0.176632,-0.0159944
2.75569,0.0423283,-0.257269
2.74957,0.312303,0.0643924
2.73569,0.310725,-0.192528
2.74916,0.176817,-0.224891
2.73456,0.446822,0.080639
2.74591,0.176608,0.048029
2.73406,0.44674,-0.177546
2.74702,0.0421951,-0.159999
2.74963,0.312309,0.161161
2.7394,0.311147,-0.128426
2.75851,0.177418,-0.144866
2.75348,0.312747,0.340259
2.74134,0.44793,-0.113166
2.75355,0.312754,-0.0644854
2.7329,0.436761,-0.0483083
2.74056,0.16666,-0.549128
2.75162,0.0326582,-0.0320363
2.74078,0.166673,-0.34951
2.75486,0.167529,-0.0160409
2.73557,0.301043,-0.296445
2.74786,0.0326136,-0.256526
2.75065,0.302702,0.0643924
2.73676,0.301173,-0.192528
2.75771,0.167703,-0.225542
2.74651,0.167021,0.048029
2.7356,0.437193,-0.177546
2.75514,0.0327,-0.160464
2.75467,0.303145,0.161394
2.74444,0.302019,-0.128612
2.75114,0.167303,-0.144447
2.74667,0.302264,0.339284
2.73894,0.437727,-0.113003
2.75065,0.302702,-0.0643924
2.73828,0.428314,-0.0483781
2.74924,0.158039,-0.350521
2.73655,0.29197,-0.296445
2.7599,0.0236039,-0.257641
2.75163,0.293579,0.0643924
2.7503,0.1581,-0.224891
2.74705,0.157913,0.048029
2.74098,0.428736,-0.177802
2.75523,0.023564,-0.160464
2.75566,0.29401,0.161394
2.7494,0.293341,-0.128798
2.75168,0.158179,-0.144447
2.7516,0.293576,0.339772
2.73248,0.427407,-0.112678
2.75163,0.293579,-0.0643924
2.73581,0.41815,-0.0483083
2.74185,0.148014,-0.34951
2.75195,0.148559,-0.0160176
2.73755,0.282416,-0.296445
2.75598,0.0139503,-0.257269
2.75662,0.284384,0.0644854
2.74271,0.282949,-0.192807
2.75083,0.148499,-0.224891
2.74758,0.148324,0.048029
2.73457,0.41796,-0.17729
2.75929,0.0139671,-0.160696
2.74643,0.283332,-0.128612
2.74822,0.148358,-0.144238
2.75261,0.28397,0.339772
2.73791,0.418471,-0.112841
2.75662,0.284384,-0.0644854
2.73329,0.408006,-0.0482385
2.74242,0.273247,0
2.76044,0.139355,-0.0160641
2.75602,0.00432935,-0.257269
2.75362,0.274362,0.0643924
2.73971,0.272977,-0.192528
2.75133,0.138895,-0.224891
2.76406,0.139538,0.0483083
2.75133,0.004322,-0.160231
2.74573,0.273576,0.160696
2.74622,0.138637,0.112026
2.75138,0.274139,-0.128798
2.75753,0.274753,0.340259
2.75362,0.274362,-0.0643924
2.73463,0.398941,-0.0482385
2.74331,0.264152,0
2.75181,-0.00480204,-0.0320363
2.75072,0.129722,-0.350521
2.75289,0.129824,-0.0160176
2.75203,-0.00480243,-0.256897
2.74655,0.264463,0.0642063
2.7406,0.263891,-0.192528
2.75576,0.129959,-0.225217
2.73389,0.398832,0.0804062
2.75252,0.129806,0.0480988
2.7413,0.399913,-0.177546
2.75533,-0.00480818,-0.160464
2.75457,0.265236,0.161161
2.74432,0.264249,-0.128426
2.76114,0.130213,-0.144866
2.75843,0.265607,0.340259
2.74069,0.399824,-0.112841
2.75053,0.264847,-0.0642993
2.73601,0.389392,-0.0482385
2.7472,0.119945,-0.350016
2.74534,0.119864,-0.0159711
2.75598,-0.0144304,-0.257269
2.75144,0.255243,0.0642993
2.73753,0.253953,-0.192249
2.7562,0.120338,-0.225217
2.75695,0.120371,0.0481686
2.73873,0.389779,-0.17729
2.76328,-0.0144686,-0.160929
2.7515,0.255249,0.160929
2.7492,0.255036,-0.128612
2.7496,0.12005,-0.144238
2.74748,0.254876,0.338797
2.75542,0.255613,-0.0643924
2.73346,0.378813,-0.0481686
2.74762,0.109876,-0.350016
2.74976,0.109962,-0.0159944
2.74123,0.244166,-0.296445
2.75591,-0.0245308,-0.257269
2.75236,0.245158,0.0642993
2.73844,0.243919,-0.192249
2.75264,0.110077,-0.224891
2.73223,0.378643,-0.176779
2.76321,-0.0245958,-0.160929
2.75242,0.245163,0.160929
2.74614,0.244604,-0.128426
2.75801,0.110292,-0.144657
2.75235,0.245157,0.339284
2.75236,0.245158,-0.0642993
2.74269,0.37034,-0.0483083
2.74198,0.23459,0
2.74402,0.10014,-0.34951
2.75012,0.100363,-0.0159944
2.7381,0.234258,-0.296016
2.75979,-0.0341994,-0.257641
2.75319,0.235549,0.0642993
2.73928,0.234359,-0.192249
2.753,0.100468,-0.224891
2.76311,-0.0342405,-0.160929
2.74928,0.235214,0.160696
2.74789,0.100282,0.112026
2.75096,0.235358,-0.128612
2.75838,0.100664,-0.144657
2.75319,0.235549,0.339284
2.73687,0.369554,-0.112515
2.75718,0.23589,-0.0643924
2.73597,0.360198,-0.0481686
2.74275,0.225495,0
2.7483,0.091171,-0.350016
2.74283,0.225502,-0.296445
2.76364,-0.0434143,-0.258013
2.75396,0.226417,0.0642993
2.74402,0.2256,-0.192528
2.75731,0.0914697,-0.225217
2.7387,0.360557,-0.177034
2.75898,-0.0433411,-0.160696
2.75005,0.226095,0.160696
2.74774,0.225906,-0.128426
2.75791,0.226742,0.339772
2.74204,0.360997,-0.112678
2.75795,0.226745,-0.0643924
2.73721,0.350645,-0.0481686
2.74464,0.0814587,-0.34951
2.74674,0.0815212,-0.0159711
2.73963,0.215613,-0.296016
2.75153,-0.0528323,-0.256897
2.75075,0.216488,0.0642063
2.74479,0.216019,-0.192528
2.75761,0.0818436,-0.225217
2.75037,0.0816288,0.048029
2.73598,0.350487,-0.176779
2.75882,-0.0529722,-0.160696
2.7548,0.216807,0.160929
2.74055,0.215685,-0.128054
2.759,0.0818849,-0.144657
2.75473,0.216802,0.339284
2.73932,0.350915,-0.112515
2.75473,0.216802,-0.0642993
2.74245,0.341104,-0.0482385
2.75285,0.0716055,-0.350521
2.75102,0.0715579,-0.0159944
2.7404,0.205571,-0.296016
2.75928,-0.0630983,-0.257641
2.74753,0.206106,0.0641132
2.74992,0.0715292,-0.224566
2.74121,0.34095,-0.177034
2.7586,-0.0630829,-0.160696
2.75159,0.206411,0.160696
2.7453,0.205939,-0.12824
2.75529,0.0716688,-0.144447
2.75551,0.206704,0.339284
2.75551,0.206705,-0.0642993
2.73959,0.331528,-0.0481686
2.74911,0.0623868,-0.350016
2.73599,0.331092,0.0160176
2.74725,0.0623446,-0.0159711
2.74504,0.196768,-0.296445
2.75906,-0.0722475,-0.257641
2.7482,0.196995,0.0641132
2.75811,0.0625912,-0.225217
2.75487,0.0625177,0.0480988
2.73836,0.331379,-0.176779
2.76237,-0.0723343,-0.160929
2.75625,0.197571,0.160929
2.74198,0.196549,-0.128054
2.7595,0.0626227,-0.144657
2.75222,0.197282,0.338797
2.73676,0.321496,-0.0480988
2.74534,0.0527134,-0.34951
2.75145,0.0528306,-0.0159944
2.76675,-0.082115,-0.258385
2.75685,0.187944,0.0642993
2.7469,0.187265,-0.192528
2.75433,0.052886,-0.224891
2.7621,-0.0819771,-0.160929
2.75293,0.187676,0.160696
2.74664,0.187247,-0.12824
2.7597,0.0529892,-0.144657
2.75289,0.187673,0.338797
2.73787,0.311941,-0.0480988
2.74551,0.0431306,-0.34951
2.76644,-0.0917717,-0.258385
2.7535,0.178062,0.0642063
2.75152,0.177934,-0.192807
2.7545,0.0432718,-0.224891
2.75124,0.0432207,0.048029
2.75781,-0.0914852,-0.160696
2.74959,0.177809,0.160464
2.74329,0.177401,-0.128054
2.75588,0.0432935,-0.144447
2.75353,0.178063,0.338797
2.75749,0.17832,-0.0642993
2.73894,0.302382,-0.0480988
2.74287,0.167761,0
2.74564,0.033546,-0.34951
2.75417,-0.100991,-0.257269
2.75012,0.168204,0.0641132
2.74416,0.16784,-0.192249
2.7626,0.0337532,-0.225542
2.75138,0.0336161,0.048029
2.73772,0.302247,-0.176523
2.76545,-0.101405,-0.161161
2.75816,0.168697,0.160929
2.74389,0.167824,-0.128054
2.764,0.0337703,-0.144866
2.76206,0.168935,0.339772
2.73709,0.302177,-0.112189
2.7581,0.168693,-0.0642993
2.73998,0.292818,-0.0480988
2.74971,0.0239956,-0.350016
2.76176,-0.110924,-0.258013
2.75468,0.158833,0.0642063
2.74473,0.158259,-0.192249
2.7627,0.024109,-0.225542
2.76347,0.0241157,0.0482385
2.74272,0.293112,-0.176779
2.76508,-0.111058,-0.161161
2.75475,0.158837,0.160696
2.74845,0.158474,-0.12824
2.76011,0.0240864,-0.144657
2.75074,0.158606,0.338309
2.7421,0.293045,-0.112352
2.75867,0.159063,-0.0642993
2.74894,0.284076,-0.0482385
2.75374,0.0144199,-0.350521
2.75192,0.0144103,-0.0159944
2.76135,-0.120562,-0.258013
2.7632,0.149651,0.0643924
2.74526,0.148679,-0.192249
2.75878,0.0144463,-0.225217
2.75154,0.0144083,0.048029
2.73976,0.283128,-0.176523
2.76069,-0.120533,-0.160929
2.75529,0.149222,0.160696
2.745,0.148665,-0.128054
2.76417,0.0144745,-0.144866
2.75524,0.14922,0.338797
2.74191,0.274163,-0.0480988
2.74446,0.139509,0
2.75195,0.00528376,-0.0159944
2.74456,0.139514,-0.296016
2.76094,-0.129719,-0.258013
2.7557,0.14008,0.0642063
2.74574,0.139574,-0.192249
2.75483,0.00528929,-0.224891
2.74068,0.27404,-0.176523
2.76426,-0.129875,-0.161161
2.75577,0.140084,0.160696
2.74547,0.139561,-0.128054
2.75969,0.140283,0.339284
2.7557,0.14008,-0.0642063
2.75633,-0.138664,-0.0321294
2.74981,-0.00383852,-0.350016
2.76014,0.131131,0.0642993
2.74619,0.130469,-0.192249
2.76679,-0.00386223,-0.225868
2.75558,-0.00384657,0.0480988
2.74158,0.264951,-0.176523
2.75584,-0.138639,-0.160696
2.75223,0.130756,0.160464
2.74991,0.130646,-0.12824
2.7682,-0.00386419,-0.145075
2.75617,0.130943,0.338797
2.74095,0.26489,-0.112189
2.75614,0.130942,-0.0642063
2.73977,0.254644,-0.048029
2.74944,0.120524,-0.296445
2.75261,0.120663,0.0641132
2.75064,0.120577,-0.192528
2.76277,-0.0139835,-0.225542
2.75555,-0.0139469,0.0480988
2.74253,0.2549,-0.176523
2.76329,-0.14917,-0.161161
2.75668,0.120841,0.160696
2.76817,-0.0140108,-0.145075
2.7606,0.121013,0.339284
2.7419,0.254841,-0.112189
2.75661,0.120838,-0.0642063
2.74463,0.245435,-0.0480988
2.75368,-0.0235495,-0.350521
2.75185,-0.0235339,-0.0159944
2.74587,0.110766,-0.296016
2.75701,0.111216,0.0642063
2.7667,-0.0236608,-0.225868
2.75548,-0.0235649,0.0480988
2.74738,0.245681,-0.176779
2.75876,-0.158585,-0.160929
2.75708,0.111219,0.160696
2.76411,-0.0236387,-0.144866
2.75307,0.111057,0.338309
2.73879,0.244913,-0.112026
2.75701,0.111216,-0.0642063
2.74148,0.235511,-0.048029
2.74961,-0.0331132,-0.350016
2.75975,-0.0332353,-0.0160409
2.74624,0.101181,-0.296016
2.75738,0.101592,0.0642063
2.74742,0.101225,-0.192249
2.75862,-0.0332217,-0.225217
2.75538,-0.0331826,0.0480988
2.74424,0.235748,-0.176523
2.77015,-0.168943,-0.161626
2.76144,0.101742,0.160929
2.75352,-0.0331602,0.112189
2.75115,0.101362,-0.12824
2.76401,-0.0332865,-0.144866
2.75344,0.101447,0.338309
2.73963,0.235352,-0.112026
2.76138,0.101739,-0.0642993
2.74225,0.226418,-0.048029
2.76536,-0.0424756,-0.352036
2.75563,-0.0423261,-0.0160176
2.74656,0.0920732,-0.296016
2.75173,0.0922466,-0.192528
2.76248,-0.0424314,-0.225542
2.74103,0.226318,-0.176267
2.76559,-0.177873,-0.161394
2.75378,0.0923154,0.160464
2.74748,0.0921039,-0.128054
2.7617,0.0925807,0.339284
2.7617,0.0925808,-0.0642993
2.75745,-0.1875,-0.032176
2.7663,-0.0526327,-0.225868
2.75508,-0.0524193,0.0480988
2.74582,0.216583,-0.176523
2.76492,-0.188009,-0.161394
2.7581,0.0823401,0.160696
2.75179,0.0821518,-0.12824
2.7677,-0.0526594,-0.145075
2.75805,0.0823387,0.338797
2.7412,0.216219,-0.112026
2.75003,0.0820993,-0.0640202
2.74705,0.0724142,0
2.76076,-0.197409,-0.0322225
2.75112,0.0725217,-0.296445
2.7583,0.0727108,0.0642063
2.74833,0.0724481,-0.192249
2.77008,-0.0623777,-0.226193
2.74258,0.206697,-0.176267
2.77221,-0.198228,-0.161859
2.75437,0.0726074,0.160464
2.75832,0.0727114,0.338797
2.74194,0.206649,-0.112026
2.76229,0.0728161,-0.0642993
2.74738,0.0628266,-0.296016
2.76253,0.063173,0.0642993
2.76586,-0.0719436,-0.225868
2.75465,-0.0716519,0.0480988
2.74727,0.197408,-0.176523
2.76354,-0.207307,-0.161394
2.7626,0.0631745,0.160929
2.7523,0.0629389,-0.12824
2.77126,-0.072084,-0.145285
2.74663,0.197363,-0.112189
2.75853,0.0630816,-0.0642063
2.75475,-0.081278,-0.0160176
2.75156,0.0533131,-0.296445
2.76273,0.0535296,0.0642993
2.76161,-0.0814802,-0.225542
2.75438,-0.081267,0.0480988
2.74396,0.187545,-0.176267
2.7628,-0.216952,-0.161394
2.75881,0.0534535,0.160696
2.7525,0.0533312,-0.12824
2.767,-0.0816392,-0.145075
2.74332,0.187502,-0.112026
2.75874,0.0534521,-0.0642063
2.74977,0.178784,-0.0480988
2.7629,0.0443677,0.0642993
2.75292,0.0442076,-0.192528
2.75734,-0.0905068,-0.225217
2.74058,0.178186,-0.176011
2.76604,-0.226438,-0.161626
2.76296,0.0443688,0.160929
2.75666,0.0442675,-0.128426
2.7707,-0.0909455,-0.145285
2.74393,0.178404,-0.112026
2.7589,0.0443035,-0.0642063
2.74243,0.168214,-0.0479592
2.75179,0.0341015,0
2.74789,0.0340532,-0.296016
2.76304,0.0342409,0.0642993
2.75307,0.0341173,-0.192528
2.76496,-0.100903,-0.225868
2.7452,0.168384,-0.176267
2.75113,0.0340933,0.160231
2.7568,0.0341636,-0.128426
2.74456,0.168345,-0.112026
2.75904,0.0341913,-0.0642063
2.74699,0.158872,-0.048029
2.76487,-0.246271,-0.0323156
2.74799,0.024461,-0.296016
2.75914,0.0245603,0.0642063
2.75317,0.0245071,-0.192528
2.76857,-0.110713,-0.226193
2.75738,-0.110266,0.0481686
2.74577,0.158801,-0.176267
2.75522,0.0245254,0.160464
2.75291,0.0245048,-0.12824
2.74912,0.158995,-0.112189
2.75914,0.0245603,-0.0642063
2.74753,0.149282,-0.048029
2.74806,0.0148686,-0.296016
2.76321,0.0149506,0.0642993
2.76817,-0.120377,-0.226193
2.75697,-0.11989,0.0481686
2.74631,0.149215,-0.176267
2.76727,0.0149725,0.161161
2.75297,0.0148952,-0.12824
2.76958,-0.120438,-0.145285
2.74567,0.149181,-0.112026
2.75921,0.0149289,-0.0642063
2.74798,0.140649,-0.048029
2.75696,-0.128568,-0.0160409
2.75605,0.00625329,-0.296873
2.76325,0.00626962,0.0642993
2.74928,0.00623793,-0.192249
2.76379,-0.128887,-0.225868
2.74676,0.140587,-0.176267
2.75932,0.00626071,0.160696
2.757,0.00625546,-0.128426
2.77318,-0.129324,-0.145494
2.74612,0.140554,-0.112026
2.76325,0.00626962,-0.0642993
2.74451,0.129908,-0.0479592
2.75208,-0.00432295,-0.296445
2.76325,-0.0043405,0.0642993
2.74928,-0.00431857,-0.192249
2.7593,-0.139297,-0.225542
2.74728,0.130039,-0.176267
2.76731,-0.00434688,0.161161
2.761,-0.00433697,-0.128612
2.74664,0.130009,-0.112026
2.75925,-0.00433422,-0.0642063
2.74495,0.120327,-0.0479592
2.74807,-0.0139093,-0.296016
2.76722,-0.0140063,0.0643924
2.75324,-0.0139355,-0.192528
2.76277,-0.149143,-0.225868
2.74772,0.120448,-0.176267
2.75929,-0.0139661,0.160696
2.75698,-0.0139544,-0.128426
2.75522,-0.0139455,-0.0641132
2.7519,-0.0235351,0
2.75198,-0.0235358,-0.296445
2.75915,-0.0235972,0.0642063
2.75717,-0.0235802,-0.192807
2.7702,-0.159243,-0.226519
2.75902,-0.158601,0.0482385
2.74812,0.110856,-0.176267
2.76322,-0.0236319,0.160929
2.74748,0.110831,-0.112026
2.75515,-0.023563,-0.0641132
2.74609,0.101175,0.0159711
2.76282,-0.168497,-0.0160874
2.75188,-0.0331419,-0.296445
2.75905,-0.0332283,0.0642063
2.76245,-0.168474,0.0483083
2.75248,0.10141,-0.176523
2.75912,-0.0332291,0.160696
2.75681,-0.0332013,-0.128426
2.75185,0.101387,-0.112189
2.75505,-0.0331801,-0.0641132
2.75002,0.0926691,-0.048029
2.75829,-0.17692,-0.0160641
2.75176,-0.041787,-0.296445
2.76293,-0.0419566,0.0642993
2.75296,-0.0418052,-0.192528
2.75791,-0.176896,0.0482385
2.7488,0.0926279,-0.176267
2.763,-0.0419576,0.160929
2.75669,-0.0418618,-0.128426
2.77448,-0.177959,-0.145703
2.74816,0.0926064,-0.112026
2.76693,-0.0420173,-0.0643924
2.75034,0.0825891,-0.048029
2.75557,-0.0519474,-0.296873
2.76276,-0.052083,0.0642993
2.75279,-0.051895,-0.192528
2.74912,0.0825524,-0.176267
2.76283,-0.0520842,0.160929
2.75652,-0.0519654,-0.128426
2.74848,0.0825332,-0.112026
2.76676,-0.0521584,-0.0643924
2.75061,0.0729882,-0.048029
2.75139,-0.0614769,-0.296445
2.76256,-0.0617265,0.0642993
2.75259,-0.0615037,-0.192528
2.74939,0.0729557,-0.176267
2.75864,-0.0616388,0.160696
2.76032,-0.0616763,-0.128612
2.77314,-0.197808,-0.145703
2.74875,0.0729388,-0.112026
2.76256,-0.0617265,-0.0642993
2.74685,0.0632941,-0.0479592
2.75508,-0.071182,0
2.75116,-0.0710807,-0.296445
2.75833,-0.071266,0.0642063
2.75236,-0.0711116,-0.192528
2.74963,0.0633581,-0.176267
2.7584,-0.0712678,0.160696
2.76009,-0.0713113,-0.128612
2.74899,0.0633434,-0.112026
2.76633,-0.0714726,-0.0643924
2.75106,0.0537836,-0.048029
2.7509,-0.0806836,-0.296445
2.76206,-0.0810112,0.0642993
2.75608,-0.0808357,-0.192807
2.74983,0.0537597,-0.176267
2.76213,-0.0810131,0.160929
2.75583,-0.0808282,-0.128426
2.77567,-0.217475,-0.145913
2.74919,0.0537472,-0.112026
2.76606,-0.0811284,-0.0643924
2.75922,0.0447903,-0.0481686
2.76254,-0.0901948,-0.29773
2.76178,-0.0901701,0.0642993
2.7558,-0.0899748,-0.192807
2.75399,0.0447054,-0.176523
2.76185,-0.0901722,0.160929
2.75954,-0.0900968,-0.128612
2.74936,0.0446303,-0.112026
2.75136,0.0350567,-0.048029
2.76145,-0.0998099,0.0642993
2.75547,-0.0995938,-0.192807
2.75013,0.0350411,-0.176267
2.7592,-0.0997288,-0.128612
2.77811,-0.236703,-0.146122
2.75349,0.0350839,-0.112189
2.76944,-0.100099,-0.0644854
2.75547,0.0250085,-0.0480988
2.76506,-0.11009,0.0643924
2.75508,-0.109692,-0.192807
2.75024,0.0249611,-0.176267
2.76681,-0.110159,-0.128984
2.76506,-0.11009,-0.0643924
2.75154,0.0153676,-0.048029
2.76066,-0.119568,0.0642993
2.75468,-0.119309,-0.192807
2.75031,0.0153608,-0.176267
2.75443,-0.119298,-0.128426
2.75367,0.0153796,-0.112189
2.76865,-0.119914,-0.0644854
2.75557,0.00673316,-0.0480988
2.75628,-0.128054,0.0642063
2.75833,0.0067399,-0.176779
2.75803,-0.128136,-0.128612
2.75371,0.0067286,-0.112189
2.76826,-0.128611,-0.0644854
2.75958,-0.00337144,-0.0481686
2.75979,-0.138356,0.0642993
2.75779,-0.138256,-0.193086
2.75435,-0.00336505,-0.176523
2.76552,-0.138644,-0.128984
2.74972,-0.0033594,-0.112026
2.75955,-0.0134858,-0.0481686
2.7642,-0.284677,-0.0808717
2.76725,-0.1489,0.0644854
2.76125,-0.148577,-0.193365
2.75432,-0.0134603,-0.176523
2.765,-0.148779,-0.128984
2.75368,-0.0134572,-0.112189
2.77124,-0.149115,-0.0645785
2.7633,-0.29336,-0.0808717
2.77076,-0.15782,0.0645785
2.76077,-0.157251,-0.193365
2.75426,-0.0221131,-0.176523
2.76452,-0.157465,-0.128984
2.75762,-0.0221401,-0.112352
2.77076,-0.15782,-0.0645785
2.75939,-0.032269,-0.0481686
2.75893,-0.167294,0
2.76218,-0.16749,0.0643924
2.7562,-0.167128,-0.193086
2.75815,-0.0322545,-0.176779
2.76392,-0.167596,-0.128984
2.76152,-0.0322939,-0.112515
2.76218,-0.16749,-0.0643924
2.75126,-0.0417794,-0.048029
2.76557,-0.177387,0.0644854
2.75559,-0.176748,-0.193086
2.75802,-0.041882,-0.176779
2.75933,-0.176987,-0.128798
2.75739,-0.0418725,-0.112352
2.76557,-0.177387,-0.0644854
2.75911,-0.0510506,-0.0481686
2.77294,-0.187096,0.0646715
2.75897,-0.186153,-0.193365
2.76186,-0.0511016,-0.177034
2.75873,-0.186136,-0.128798
2.75324,-0.0509422,-0.112189
2.77294,-0.187096,-0.0646715
2.7629,-0.0612516,-0.0482385
2.75827,-0.196264,-0.193365
2.75766,-0.0611355,-0.176779
2.766,-0.196814,-0.12917
2.76103,-0.0612101,-0.112515
2.77224,-0.197258,-0.0646715
2.75867,-0.070793,-0.0481686
2.75743,-0.0707612,-0.176779
2.7653,-0.206468,-0.12917
2.7608,-0.0708476,-0.112515
2.76755,-0.206636,-0.0645785
2.75442,-0.0798248,-0.0480988
2.75718,-0.0799048,-0.176779
2.7646,-0.215637,-0.12917
2.76454,-0.0801181,-0.112678
2.77083,-0.216123,-0.0646715
2.75413,-0.089439,-0.0480988
2.76487,-0.0897878,-0.17729
2.76383,-0.225285,-0.12917
2.76425,-0.0897677,-0.112678
2.77405,-0.226118,-0.0647646
2.7578,-0.0991959,-0.0481686
2.76454,-0.0994384,-0.17729
2.76302,-0.234932,-0.12917
2.76392,-0.0994162,-0.112678
2.77722,-0.236139,-0.0648576
2.75745,-0.108341,-0.0481686
2.76124,-0.244005,0
2.76621,-0.244445,-0.129357
2.76357,-0.108581,-0.112678
2.77643,-0.245347,-0.0648576
2.75704,-0.118446,-0.0481686
2.75979,-0.118565,-0.177034
2.76927,-0.254948,-0.129543
2.76316,-0.118709,-0.112678
2.76754,-0.254789,-0.0646715
2.75698,-0.128087,0.0160409
2.75537,-0.128012,-0.176779
2.76439,-0.264233,-0.129357
2.76273,-0.128354,-0.112678
2.76014,-0.137891,-0.0482385
2.75652,-0.13771,0.0160409
2.75889,-0.137828,-0.177034
2.77024,-0.138396,-0.113003
2.77366,-0.274892,-0.0648576
2.76366,-0.147256,-0.0483083
2.76004,-0.147063,0.0160641
2.76241,-0.147189,-0.17729
2.76578,-0.147369,-0.112841
2.78069,-0.284904,-0.0650437
2.75911,-0.157157,-0.0482385
2.76185,-0.157313,-0.17729
2.76522,-0.157505,-0.112841
2.77565,-0.294671,-0.0649507
2.75854,-0.166787,-0.0482385
2.76527,-0.167193,-0.177546
2.76864,-0.167397,-0.113003
2.75797,-0.175933,-0.0482385
2.7647,-0.176362,-0.177546
