2.85886,0.840323,-0.0346904
2.86945,0.832568,-0.0347836
2.86494,0.819344,-0.0346904
2.86008,0.807166,-0.0345973
2.8626,0.798176,-0.0345973
2.85766,0.786058,-0.0345042
2.84995,0.783936,0.034411
2.86838,0.777172,-0.0345973
2.86452,0.776126,0.0345507
2.86694,0.767121,-0.0345507
2.85921,0.765054,0.0344576
2.858,0.75405,-0.034411
2.858,0.75405,0.034411
2.86074,0.74357,-0.034411
2.85687,0.742564,0.0343645
2.86383,0.744372,-0.172324
2.85932,0.733086,-0.0343645
2.85545,0.732092,0.0343179
2.85854,0.732887,-0.171859
2.86574,0.724079,0.034411
2.86496,0.723882,-0.172092
2.86049,0.712138,0.0343179
2.86359,0.712911,-0.171859
2.85919,0.700698,-0.0342714
2.86308,0.70165,0.0343179
2.86619,0.702412,-0.171859
2.86138,0.691713,-0.0342714
2.8645,0.692466,-0.171626
2.86,0.680296,0.0342248
2.86313,0.681039,-0.171394
2.85609,0.817353,-0.0864571
2.86637,0.670719,-0.0342714
2.8611,0.818785,-0.0172963
2.86248,0.669808,0.0342248
2.86172,0.66963,-0.171161
2.86457,0.660811,-0.0342248
2.8675,0.810881,-0.0173195
2.86067,0.659912,0.0341782
2.8677,0.661533,-0.171394
2.8576,0.797319,-0.0863407
2.85906,0.649039,-0.0341317
2.86646,0.799793,-0.0172963
2.85516,0.648153,0.0340851
2.86999,0.651521,-0.171394
2.85651,0.786278,-0.0862243
2.8535,0.63731,-0.0340385
2.87243,0.64154,-0.274743
2.8574,0.638182,0.0340851
2.86445,0.639757,-0.170929
2.85937,0.775803,-0.0862243
2.85581,0.626848,-0.0340385
2.86825,0.778213,-0.017273
2.87477,0.631008,-0.274743
2.85972,0.627706,0.0340851
2.86288,0.628399,-0.170696
2.86179,0.618218,-0.0340851
2.86309,0.766628,-0.0172265
2.87295,0.62063,-0.274371
2.86179,0.618218,0.0340851
2.86495,0.618901,-0.170696
2.85685,0.754279,-0.0859916
2.86002,0.607393,-0.0340385
2.86731,0.608942,-0.273627
2.85219,0.605732,0.0339454
2.86318,0.608066,-0.170464
2.86959,0.757643,-0.155542
2.85037,0.594955,-0.0338988
2.86552,0.598116,-0.273256
2.8582,0.59659,0.033992
2.86411,0.745512,0.0516591
2.86138,0.597253,-0.170231
2.8583,0.732824,-0.0858753
2.85645,0.585306,-0.0339454
2.86769,0.587609,-0.273256
2.84862,0.5837,0.0338523
2.86355,0.586761,-0.170231
2.8672,0.735106,-0.155124
2.86072,0.723342,-0.0858753
2.85446,0.575041,-0.0338988
2.86576,0.724617,-0.01718
2.86962,0.578097,-0.273256
2.85054,0.574251,0.0338523
2.86157,0.576473,-0.169998
2.85547,0.711419,-0.0856425
2.85252,0.564298,-0.0338523
2.86439,0.713642,-0.0171568
2.8599,0.565758,-0.27214
2.85645,0.565075,0.0338988
2.864,0.713546,0.0515195
2.86356,0.566482,-0.169998
2.85043,0.710164,0.119679
2.86826,0.714608,-0.154914
2.85793,0.701447,-0.0856425
2.85448,0.554337,-0.0338523
2.86686,0.703639,-0.0171568
2.86186,0.555771,-0.27214
2.85055,0.553574,0.0338057
2.87289,0.705119,-0.24149
2.85768,0.554959,-0.169533
2.87051,0.85519,-0.0696964
2.85636,0.691025,-0.0855262
2.84844,0.543368,-0.0337591
2.87151,0.547769,-0.272884
2.84844,0.543368,0.0337591
2.8595,0.545479,-0.169533
2.85131,0.689804,0.119517
2.87306,0.695066,-0.154914
2.87333,0.845666,-0.0696964
2.85498,0.679626,-0.0854098
2.85041,0.532925,-0.0337591
2.86567,0.535778,-0.27214
2.85434,0.53366,0.0338057
2.86999,0.683199,-0.240839
2.86148,0.534995,-0.169533
2.85382,0.67935,0.119517
2.85344,0.668743,-0.0852934
2.85619,0.523693,-0.0338057
2.86629,0.671753,-0.0171103
2.85619,0.523693,0.0338057
2.86847,0.672266,-0.240513
2.85548,0.523563,-0.169068
2.85228,0.668471,0.119354
2.86777,0.821778,-0.0694172
2.85586,0.808128,0
2.85791,0.514219,-0.0338057
2.86141,0.514849,-0.271397
2.85397,0.513511,0.0337591
2.8668,0.661854,-0.240188
2.8572,0.514091,-0.169068
2.8428,0.656312,0.118865
2.85793,0.649306,-0.0852934
2.85096,0.796003,0
2.85575,0.503546,-0.0337591
2.86711,0.50555,-0.271768
2.84787,0.502157,0.033666
2.8626,0.650368,0.0512403
2.85898,0.504115,-0.169068
2.84508,0.646386,0.118865
2.86691,0.651345,-0.154077
2.86029,0.638827,-0.0852934
2.85772,0.786611,0
2.84969,0.491716,-0.033666
2.86536,0.639959,-0.0170638
2.86895,0.495039,-0.271768
2.84969,0.491716,0.033666
2.87147,0.641324,-0.240188
2.85687,0.492955,-0.168836
2.84743,0.635954,0.118865
2.85847,0.786819,-0.138104
2.86851,0.789582,-0.0692311
2.85849,0.628479,-0.0851771
2.85645,0.77608,0
2.84736,0.481596,-0.0336195
2.86665,0.484857,-0.271397
2.85131,0.482263,0.033666
2.87358,0.631797,-0.240188
2.85926,0.62865,0.0511006
2.85849,0.483478,-0.168836
2.84952,0.626508,0.118865
2.86107,0.777335,-0.138104
2.87138,0.631315,-0.154077
2.86725,0.779016,-0.0691381
2.86066,0.618498,-0.0851771
2.85914,0.766105,0
2.84903,0.471654,-0.0336195
2.86183,0.618749,-0.0170173
2.87225,0.475499,-0.271768
2.86223,0.766933,0.0689519
2.85297,0.472308,0.033666
2.86797,0.620078,-0.239537
2.86144,0.618666,0.0511006
2.86016,0.473497,-0.168836
2.84778,0.615713,0.118702
2.86762,0.768378,-0.13829
2.86609,0.767968,-0.069045
2.85107,0.606014,-0.084828
2.85406,0.754076,0
2.84671,0.461066,-0.0335729
2.85614,0.607092,-0.0169708
2.85817,0.462922,-0.270281
2.8546,0.462345,0.033666
2.87012,0.610063,-0.239537
2.85785,0.462871,-0.168603
2.85483,0.75428,-0.137546
2.85317,0.596059,-0.084828
2.85668,0.744109,0
2.8562,0.452379,-0.033666
2.85824,0.597119,-0.0169708
2.86763,0.454189,-0.271025
2.8483,0.451127,0.0335729
2.86833,0.599226,-0.239212
2.85551,0.452269,-0.168371
2.84027,0.593365,0.118214
2.85745,0.744311,-0.137546
2.86611,0.598761,-0.153449
2.86751,0.746932,-0.0689519
2.85523,0.586095,-0.084828
2.86313,0.735127,0
2.8459,0.440569,-0.0335263
2.86526,0.443566,-0.270653
2.84986,0.441181,0.0335729
2.8704,0.589209,-0.239212
2.85707,0.442298,-0.168371
2.84624,0.58425,0.118377
2.86003,0.734331,-0.137546
2.86818,0.588752,-0.153449
2.86623,0.735923,-0.0688589
2.85726,0.576125,-0.084828
2.85792,0.723167,0
2.85138,0.431231,-0.0335729
2.87073,0.434158,-0.271025
2.84743,0.430633,0.0335263
2.86853,0.578398,-0.238886
2.85804,0.576282,0.0508912
2.86254,0.43292,-0.168603
2.84435,0.573522,0.118214
2.86258,0.724344,-0.137546
2.85847,0.576369,-0.152821
2.83336,0.571306,0.235957
2.85121,0.565589,-0.0845953
2.8563,0.713215,0
2.84876,0.421685,-0.0335263
2.86814,0.424553,-0.270653
2.85668,0.422856,0.0336195
2.86643,0.568607,-0.238561
2.85983,0.567299,0.0508912
2.84614,0.564582,0.118214
2.86096,0.714378,-0.13736
2.8681,0.56894,-0.15324
2.83514,0.562401,0.235957
2.86717,0.715928,-0.0687658
2.85336,0.554638,-0.0845953
2.85513,0.701289,0
2.8464,0.410173,-0.0334798
2.85845,0.555627,-0.0169243
2.86187,0.412402,-0.26991
2.85036,0.410744,0.0335263
2.86368,0.703388,-0.2062
2.86859,0.557597,-0.238561
2.85414,0.554788,0.0507516
2.85364,0.411216,-0.167906
2.84044,0.552125,0.117888
2.86368,0.703388,-0.13736
2.83337,0.550751,0.235632
2.86601,0.703961,-0.0686728
2.85135,0.543926,-0.0844789
2.85368,0.690378,0
2.85178,0.400792,-0.0335263
2.86091,0.545749,-0.370724
2.85644,0.544897,-0.016901
2.86329,0.40241,-0.26991
2.84782,0.400236,0.0334798
2.87052,0.547581,-0.238561
2.85606,0.544823,0.0507516
2.85506,0.401253,-0.167906
2.84235,0.542208,0.117888
2.86224,0.692449,-0.137174
2.86435,0.546405,-0.152821
2.83527,0.540858,0.235632
2.85679,0.691132,-0.0683936
2.85194,0.680482,0
2.8451,0.390743,-0.0334332
2.87041,0.538222,-0.371734
2.85814,0.535921,-0.016901
2.86454,0.393414,-0.26991
2.84906,0.391288,0.0334798
2.85664,0.681603,-0.205363
2.8683,0.537827,-0.238235
2.8563,0.392282,-0.167906
2.84796,0.534012,0.118051
2.86051,0.682527,-0.136988
2.86212,0.536668,-0.152612
2.83304,0.531214,0.235306
2.85895,0.682154,-0.0683936
2.85615,0.820067,-0.0518686
2.85097,0.52428,-0.0843626
2.8543,0.670522,0
2.84645,0.380809,-0.0334332
2.86447,0.526763,-0.370724
2.85999,0.52594,-0.016901
2.86195,0.382883,-0.269538
2.85041,0.381339,0.0334798
2.859,0.671626,-0.205363
2.87016,0.52781,-0.238235
2.85765,0.382309,-0.167906
2.84195,0.522622,0.117725
2.86677,0.673451,-0.137174
2.86791,0.527395,-0.152821
2.86521,0.673084,-0.0684867
2.84885,0.513615,-0.0842462
2.85273,0.659653,0
2.84379,0.370353,-0.0333866
2.85788,0.515243,-0.0168778
2.86722,0.373404,-0.26991
2.84776,0.37087,0.0334332
2.86133,0.661642,-0.205363
2.86414,0.516373,-0.237584
2.84962,0.513754,0.0505422
2.85501,0.371815,-0.167673
2.85162,0.514116,0.118051
2.86521,0.662539,-0.136988
2.85706,0.809543,-0.120982
2.86364,0.662177,-0.0683936
2.84668,0.502972,-0.0841298
2.85891,0.650579,0
2.84507,0.360425,-0.0333866
2.86026,0.505371,-0.369713
2.85449,0.798062,0.0172265
2.85178,0.503873,-0.0168313
2.85665,0.361892,-0.268794
2.85814,0.650403,0.0682075
2.853,0.36143,0.0334798
2.86362,0.65165,-0.205363
2.86985,0.507066,-0.23791
2.85533,0.5045,0.050612
2.84837,0.360844,-0.167208
2.84553,0.502768,0.117725
2.85971,0.650761,-0.136615
2.86759,0.506666,-0.152612
2.83452,0.500823,0.234981
2.85987,0.799566,-0.120982
2.86204,0.65129,-0.0683006
2.85301,0.786922,-0.0516591
2.85236,0.493714,-0.0842462
2.85336,0.638847,0
2.84631,0.350491,-0.0333866
2.86201,0.495383,-0.369713
2.84954,0.785965,0.01718
2.85746,0.494597,-0.0168546
2.8579,0.351918,-0.268794
2.86039,0.640421,0.0682075
2.84631,0.350491,0.0333866
2.85809,0.639906,-0.204805
2.87161,0.497045,-0.23791
2.84919,0.493165,0.0504724
2.84961,0.350898,-0.167208
2.84853,0.637766,0.169998
2.84333,0.49215,0.117563
2.86196,0.640774,-0.136615
2.86147,0.49529,-0.152193
2.85879,0.788515,-0.120819
2.85649,0.639548,-0.0681145
2.85202,0.775411,-0.0515893
2.84627,0.481922,-0.0840135
2.85177,0.627525,0
2.8436,0.339583,-0.0333401
2.85989,0.484228,-0.369208
2.84855,0.774467,0.0171568
2.85926,0.484121,-0.0168546
2.86312,0.341914,-0.269166
2.85652,0.628569,-0.204526
2.86162,0.48452,-0.236933
2.85088,0.340452,-0.167208
2.84117,0.481059,0.1174
2.86039,0.629422,-0.136429
2.86326,0.484799,-0.152193
2.85881,0.629074,-0.0681145
2.8623,0.768023,-0.0517289
2.84785,0.472481,-0.0840135
2.85775,0.618912,0
2.84471,0.330152,-0.0333401
2.85757,0.474093,-0.368703
2.85295,0.473328,-0.0168081
2.86028,0.331959,-0.268794
2.85266,0.331074,0.0334332
2.85859,0.619094,-0.204526
2.86321,0.475029,-0.236933
2.84862,0.472609,0.0504026
2.84803,0.330536,-0.166975
2.85291,0.617865,0.169998
2.84669,0.472289,0.117563
2.86246,0.619933,-0.136429
2.86485,0.475302,-0.152193
2.86088,0.619591,-0.0681145
2.85336,0.754957,-0.0515195
2.85343,0.463177,-0.0841298
2.85598,0.608099,0
2.84585,0.320219,-0.0333401
2.85921,0.464115,-0.368703
2.85375,0.75506,0.0171568
2.85854,0.464006,-0.0168313
2.86142,0.321972,-0.268794
2.8538,0.321114,0.0334332
2.86073,0.609111,-0.204526
2.86091,0.464392,-0.236608
2.85025,0.462662,0.0504026
2.84519,0.320146,-0.166743
2.84724,0.606239,0.169533
2.84833,0.462349,0.117563
2.83337,0.45992,0.23433
2.8553,0.755469,-0.120331
2.85912,0.608768,-0.0680214
2.85985,0.746003,-0.0515893
2.84713,0.451961,-0.0838971
2.85808,0.598127,0
2.85092,0.310717,-0.0333866
2.86081,0.454132,-0.368703
2.85637,0.745094,0.0171568
2.85619,0.453399,-0.0168081
2.86253,0.311982,-0.268794
2.85092,0.310717,0.0333866
2.86284,0.599122,-0.204526
2.87039,0.455653,-0.237259
2.8479,0.452083,0.0503327
2.85026,0.310645,-0.166975
2.84543,0.595479,0.169301
2.84597,0.451777,0.1174
2.86281,0.599116,-0.136243
2.83102,0.449403,0.234004
2.85405,0.744489,-0.120168
2.86514,0.599604,-0.0681145
2.85456,0.734521,-0.0514497
2.84861,0.442516,-0.0838971
2.8483,0.586226,0
2.84796,0.300841,-0.0333401
2.85495,0.73462,0.0171335
2.85372,0.44331,-0.0167848
2.85167,0.301232,-0.267679
2.85928,0.588486,0.0679284
2.85194,0.301261,0.0333866
2.85699,0.588016,-0.203968
2.86401,0.444908,-0.236608
2.84605,0.732329,0.0855262
2.84939,0.442636,0.0503327
2.86075,0.736113,-0.189314
2.85525,0.30161,-0.167208
2.85521,0.587649,0.169766
2.83956,0.44111,0.117074
2.86478,0.589619,-0.136243
2.8617,0.444549,-0.151774
2.85928,0.588486,-0.0679284
2.85711,0.724551,-0.0514497
2.85425,0.577072,0
2.84104,0.290084,-0.0332469
2.85991,0.434052,-0.368198
2.85362,0.723666,0.0171103
2.8513,0.432745,-0.0167616
2.86063,0.292084,-0.268423
2.84501,0.29049,0.0332935
2.85512,0.577248,-0.203689
2.8616,0.434309,-0.236282
2.84471,0.721407,0.0854098
2.85091,0.432686,0.0503327
2.8633,0.726122,-0.189314
2.84834,0.29083,-0.166743
2.85333,0.576887,0.169533
2.84108,0.431194,0.117074
2.85899,0.578031,-0.135871
2.85929,0.433957,-0.151565
2.85518,0.724061,-0.120005
2.8574,0.577708,-0.0678353
2.86375,0.714544,-0.0515195
2.85178,0.421623,-0.0838971
2.85644,0.566109,0
2.84213,0.279174,-0.0332469
2.85763,0.422488,-0.367693
2.84862,0.710768,0.0170638
2.85952,0.566719,-0.314009
2.8538,0.28032,-0.267679
2.85567,0.565956,0.0677423
2.84611,0.279565,0.0332935
2.8534,0.565506,-0.20341
2.86719,0.423901,-0.236608
2.84746,0.710479,0.0854098
2.8486,0.421152,0.0502629
2.85341,0.280282,-0.166975
2.84667,0.420867,0.117237
2.86119,0.567049,-0.135871
2.86093,0.422976,-0.151565
2.85794,0.713093,-0.120005
2.86352,0.567511,-0.0679284
2.85433,0.702677,-0.0513101
2.85309,0.412662,-0.0838971
2.85428,0.556368,0
2.84299,0.270244,-0.0332469
2.85472,0.702772,0.017087
2.85029,0.412257,-0.0167383
2.85863,0.271731,-0.268051
2.84299,0.270244,0.0332469
2.85908,0.557303,-0.203689
2.86456,0.414322,-0.236282
2.85356,0.702486,0.0855262
2.84595,0.411629,0.0501931
2.86055,0.704207,-0.188803
2.8503,0.270939,-0.166743
2.84945,0.555427,0.169068
2.84798,0.411923,0.117237
2.86225,0.413987,-0.151565
2.833,0.409756,0.233679
2.86016,0.704112,-0.120005
2.85351,0.556217,-0.0676492
2.85288,0.691766,-0.0512403
2.83595,0.259589,-0.0331538
2.85644,0.402972,-0.367188
2.84938,0.690917,0.0170405
2.85567,0.402864,-0.0167616
2.8556,0.261387,-0.267679
2.85936,0.547004,0.0677423
2.8479,0.260683,0.0332935
2.85709,0.546569,-0.20341
2.86599,0.404319,-0.236282
2.84822,0.690636,0.0852934
2.84737,0.401692,0.0501931
2.86299,0.694217,-0.188803
2.84725,0.260623,-0.16651
2.85137,0.545476,0.169068
2.83753,0.400303,0.116748
2.86489,0.548061,-0.135871
2.86368,0.403992,-0.151565
2.83046,0.399307,0.233353
2.86649,0.695065,-0.120168
2.86329,0.547755,-0.0678353
2.86306,0.683662,-0.0513799
2.85023,0.534952,0
2.84481,0.25039,-0.0332469
2.84788,0.680038,0.0170173
2.8531,0.392349,-0.0167383
2.85729,0.536277,-0.313152
2.85649,0.251418,-0.267679
2.85339,0.535545,0.0675562
2.84481,0.25039,0.0332469
2.85949,0.393227,-0.235632
2.85062,0.68069,0.0852934
2.84875,0.391751,0.0501931
2.86151,0.683293,-0.188547
2.84814,0.250683,-0.16651
2.84149,0.53331,0.168371
2.84287,0.390941,0.116911
2.86678,0.538058,-0.135871
2.83579,0.389968,0.233679
2.86501,0.684127,-0.120005
2.85732,0.536282,-0.0676492
2.85764,0.671832,-0.0512403
2.8414,0.380638,-0.0834316
2.85208,0.524999,0
2.85024,0.670092,0.0170173
2.85049,0.381855,-0.0167151
2.84941,0.240774,-0.266935
2.85524,0.52558,0.0675562
2.84567,0.240457,0.0332469
2.85298,0.525164,-0.202852
2.86084,0.383242,-0.235632
2.84519,0.668905,0.0850607
2.84614,0.381272,0.0501233
2.86777,0.674213,-0.188803
2.849,0.240739,-0.16651
2.85119,0.524833,0.168836
2.84421,0.381014,0.116911
2.85455,0.382399,-0.150937
2.85571,0.671377,-0.119517
2.85131,0.524857,-0.0674631
2.85997,0.661853,-0.0512403
2.84996,0.51433,0
2.8425,0.2302,-0.0332004
2.84866,0.659238,0.016994
2.8518,0.371903,-0.0167151
2.85421,0.231148,-0.267307
2.8425,0.2302,0.0332004
2.8548,0.515203,-0.202852
2.86216,0.373254,-0.235632
2.84751,0.65897,0.0850607
2.84745,0.371336,0.0501233
2.85455,0.660599,-0.187779
2.84983,0.230794,-0.16651
2.84907,0.514169,0.168603
2.84553,0.371085,0.116911
2.8626,0.516611,-0.135499
2.85983,0.37295,-0.151146
2.83449,0.369645,0.233353
2.85803,0.661406,-0.119517
2.861,0.516321,-0.0676492
2.85056,0.649203,-0.0510308
2.84399,0.360794,-0.0834316
2.85174,0.504379,0
2.8393,0.219968,-0.0331538
2.85392,0.362052,-0.366178
2.84705,0.648402,0.0169708
2.85308,0.361947,-0.0167151
2.85897,0.221492,-0.267679
2.85491,0.504939,0.0674631
2.84727,0.220586,0.0332469
2.85658,0.505235,-0.202852
2.85949,0.36276,-0.235306
2.84979,0.649027,0.0850607
2.8408,0.360388,0.0499837
2.85684,0.650631,-0.187779
2.84663,0.220537,-0.166278
2.84692,0.503526,0.168371
2.84284,0.360647,0.116748
2.86439,0.506616,-0.135499
2.86111,0.362965,-0.151146
2.82785,0.358746,0.232702
2.86032,0.651426,-0.119517
2.85491,0.504939,-0.0674631
2.85281,0.639248,-0.0510308
2.85742,0.495104,0
2.84803,0.210645,-0.0332469
2.85516,0.352087,-0.366178
2.84929,0.63846,0.0169708
2.85036,0.351495,-0.0166918
2.85271,0.494287,0.0673701
2.84404,0.21035,0.0332004
2.85833,0.49526,-0.202852
2.8647,0.353263,-0.235632
2.84814,0.6382,0.0849444
2.84601,0.350958,0.0500535
2.86299,0.641527,-0.188035
2.85137,0.210892,-0.16651
2.84866,0.493585,0.168371
2.84011,0.350232,0.116586
2.86614,0.496614,-0.135499
2.86236,0.352975,-0.151146
2.82909,0.348872,0.232702
2.86648,0.642311,-0.119679
2.85271,0.494287,-0.0673701
2.85514,0.628788,-0.0510308
2.84739,0.482623,0
2.84479,0.199926,-0.0332004
2.84771,0.627152,0.0169475
2.8556,0.341522,-0.0167151
2.8545,0.483829,0.0673701
2.8408,0.199645,0.0331538
2.86597,0.342762,-0.235632
2.85046,0.627758,0.0849444
2.85124,0.341,0.0501233
2.86532,0.63103,-0.188035
2.84017,0.199601,-0.165813
2.84651,0.482474,0.168138
2.84138,0.33982,0.116586
2.864,0.485439,-0.135313
2.85174,0.341059,-0.150518
2.83399,0.480352,0.352934
2.83035,0.338501,0.232702
2.86101,0.630082,-0.119354
2.8545,0.483829,-0.0673701
2.8572,0.619316,-0.0510308
2.84897,0.473177,0
2.83746,0.189956,-0.0331072
2.85755,0.332146,-0.366178
2.85368,0.618552,0.0169708
2.85275,0.331588,-0.0166918
2.85215,0.473704,0.067277
2.84145,0.190223,0.0331538
2.84991,0.473332,-0.202015
2.85125,0.331414,-0.23433
2.84839,0.331081,0.0500535
2.8448,0.190448,-0.166045
2.84809,0.473031,0.168138
2.83455,0.329473,0.11626
2.86165,0.475283,-0.135126
2.84888,0.331139,-0.150309
2.82749,0.328653,0.232377
2.85137,0.61805,-0.118865
2.85609,0.474359,-0.0673701
2.85544,0.608505,-0.050961
2.85456,0.463872,0
2.8381,0.180051,-0.0331072
2.85475,0.321726,-0.365673
2.84409,0.606087,0.016901
2.84991,0.32118,-0.0166686
2.85008,0.18081,0.0332469
2.85548,0.464022,-0.202294
2.85636,0.321907,-0.234655
2.84684,0.606674,0.0847116
2.84555,0.320689,0.0499837
2.84146,0.180264,-0.165813
2.84184,0.461806,0.167673
2.83965,0.320024,0.116423
2.85935,0.464651,-0.13494
2.86193,0.322535,-0.150937
2.83328,0.460414,0.352446
2.85773,0.464388,-0.0673701
2.84961,0.597392,-0.0508214
2.84583,0.311167,-0.0833153
2.85608,0.454404,0
2.83868,0.170639,-0.0331072
2.84698,0.311294,-0.0166453
2.85136,0.453652,0.067184
2.84667,0.171119,0.0332004
2.84912,0.453297,-0.201736
2.86137,0.312867,-0.234981
2.84101,0.59559,0.0844789
2.84262,0.310817,0.0499139
2.84205,0.170841,-0.165813
2.84336,0.45238,0.167673
2.8407,0.310606,0.116423
2.86088,0.455167,-0.13494
2.85107,0.311741,-0.150309
2.83087,0.450393,0.351959
2.82967,0.3094,0.232377
2.85551,0.598628,-0.118865
2.85136,0.453652,-0.067184
2.8557,0.587748,-0.0508912
2.85772,0.44393,0
2.83929,0.160231,-0.0331072
2.85217,0.587021,0.0169243
2.85208,0.301275,-0.0166686
2.8451,0.441969,0.0669978
2.84328,0.160457,0.0331538
2.85076,0.442849,-0.201736
2.8625,0.302375,-0.234981
2.84318,0.585171,0.0844789
2.84772,0.300814,0.0499837
2.8542,0.587439,-0.186756
2.84265,0.160421,-0.165813
2.845,0.441954,0.167673
2.84182,0.300191,0.116423
2.86253,0.444676,-0.13494
2.86014,0.302126,-0.150728
2.84035,0.441231,0.352934
2.82682,0.298606,0.232052
2.85768,0.588156,-0.118865
2.853,0.443196,-0.067184
2.86165,0.578571,-0.050961
2.84344,0.431553,0
2.83983,0.150321,-0.0331072
2.84636,0.575479,0.0168778
2.84516,0.290507,-0.0166221
2.85058,0.432637,0.0670909
2.84383,0.150533,0.0331538
2.84835,0.432298,-0.201457
2.85957,0.291978,-0.234655
2.8452,0.575245,0.0844789
2.84875,0.290874,0.0499837
2.86014,0.578265,-0.187012
2.8432,0.150499,-0.165813
2.84652,0.432022,0.167673
2.8349,0.289459,0.116097
2.86406,0.434683,-0.13494
2.84926,0.290925,-0.1501
2.82617,0.428932,0.350984
2.8558,0.577387,-0.118702
2.85453,0.433237,-0.067184
2.85983,0.567301,-0.0508912
2.85291,0.422301,0
2.83237,0.139519,-0.0330141
2.85237,0.565821,0.016901
2.8462,0.280077,-0.0166221
2.84819,0.421601,0.0669978
2.84036,0.139912,0.0331072
2.84991,0.421857,-0.201457
2.85269,0.280715,-0.234004
2.84184,0.279648,0.0498441
2.85441,0.566226,-0.1865
2.83974,0.139882,-0.16558
2.84019,0.420417,0.167208
2.83196,0.278676,0.115934
2.85773,0.423014,-0.134568
2.8503,0.280481,-0.1501
2.82772,0.418572,0.350984
2.85006,0.565362,-0.118377
2.85214,0.422187,-0.0670909
2.84982,0.556014,-0.0506818
2.83679,0.130802,-0.0330607
2.85105,0.271512,-0.0166453
2.8495,0.412649,0.0669978
2.84079,0.130986,0.0331072
2.85122,0.412899,-0.201457
2.84562,0.270994,-0.233353
2.8412,0.554332,0.0842462
2.84669,0.271096,0.0499139
2.85226,0.556489,-0.186244
2.84415,0.131141,-0.165813
2.84545,0.412062,0.16744
2.83282,0.269775,0.115934
2.85912,0.27228,-0.150518
2.85966,0.557934,-0.118702
2.85345,0.413222,-0.0670909
2.85175,0.546065,-0.0506818
2.85169,0.402811,0
2.83324,0.120731,-0.0330141
2.84003,0.260464,-0.0165756
2.85092,0.402702,0.0669978
2.84522,0.121241,0.0331538
2.8566,0.403504,-0.201736
2.85449,0.261789,-0.234004
2.83919,0.543661,0.0841298
2.83965,0.260429,0.0497743
2.8581,0.547282,-0.1865
2.83896,0.401012,0.166975
2.83773,0.260252,0.116097
2.86443,0.40461,-0.134754
2.8521,0.261571,-0.1501
2.85374,0.546447,-0.118377
2.85092,0.402702,-0.0669978
2.85364,0.536106,-0.0506818
2.84912,0.392308,0
2.84163,0.111152,-0.0331072
2.84616,0.534702,0.0168313
2.84491,0.250899,-0.0165988
2.85637,0.393306,-0.310581
2.84439,0.391656,0.0668117
2.85008,0.392441,-0.201178
2.85538,0.251823,-0.234004
2.845,0.534485,0.0842462
2.84054,0.250514,0.0497743
2.85607,0.536564,-0.186244
2.83639,0.390555,0.166743
2.83066,0.249642,0.115772
2.85395,0.392973,-0.134196
2.853,0.251612,-0.1501
2.85563,0.536481,-0.118377
2.85231,0.392747,-0.0669978
2.85549,0.526143,-0.0506818
2.84254,0.381297,0
2.83801,0.10109,-0.0330607
2.84801,0.524764,0.0168313
2.84577,0.240968,-0.0165988
2.85378,0.382805,-0.310153
2.85366,0.382789,0.0669978
2.84201,0.101233,0.0331072
2.85624,0.241855,-0.234004
2.84292,0.523826,0.0841298
2.84538,0.240935,0.0498441
2.854,0.525869,-0.185989
2.84169,0.381183,0.166975
2.83549,0.240098,0.115934
2.85784,0.24199,-0.150309
2.85749,0.526511,-0.118377
2.8497,0.382257,-0.0669048
2.85731,0.516171,-0.0506818
2.84782,0.37189,0
2.83435,0.0910541,-0.0330141
2.85376,0.51553,0.0168546
2.85058,0.231356,-0.0166221
2.8551,0.372841,-0.310153
2.85102,0.372307,0.0669048
2.83834,0.0911825,0.0330607
2.84912,0.231237,-0.233353
2.84222,0.230677,0.0497743
2.85582,0.515902,-0.185989
2.843,0.371261,0.166975
2.83233,0.229875,0.115772
2.8507,0.231366,-0.14989
2.84751,0.514401,-0.117888
2.85498,0.372825,-0.0669978
2.85516,0.505496,-0.050612
2.84513,0.361442,0
2.83065,0.0810446,-0.0329675
2.84766,0.50417,0.0168081
2.84738,0.221093,-0.0165988
2.85639,0.362871,-0.310153
2.8404,0.36084,0.0666256
2.84594,0.220981,-0.233028
2.83863,0.502571,0.0838971
2.83503,0.220135,0.0496346
2.84974,0.504538,-0.185477
2.84428,0.361334,0.166975
2.8371,0.220295,0.115934
2.85394,0.362561,-0.13401
2.85149,0.221413,-0.14989
2.85716,0.505851,-0.118214
2.84833,0.361848,-0.0668117
2.84902,0.49416,-0.0504724
2.84638,0.351509,0
2.83091,0.0711639,-0.0329675
2.84153,0.49286,0.0167616
2.84415,0.210858,-0.0165756
2.84561,0.351414,0.0667187
2.85132,0.35212,-0.200899
2.85067,0.211341,-0.233353
2.84037,0.49266,0.0838971
2.83977,0.210533,0.0497045
2.85149,0.494588,-0.185477
2.8376,0.350425,0.16651
2.84184,0.210687,0.116097
2.84826,0.211163,-0.149681
2.85891,0.495875,-0.118214
2.84958,0.351904,-0.0668117
2.84759,0.34157,0
2.83514,0.0613675,-0.0330141
2.84323,0.482938,0.0167616
2.84487,0.200928,-0.0165756
2.8549,0.342448,-0.309725
2.84285,0.341001,0.0666256
2.85254,0.342164,-0.200899
2.85139,0.201388,-0.233353
2.84601,0.483411,0.0840135
2.84049,0.200619,0.0497045
2.85713,0.485299,-0.185733
2.83881,0.340517,0.16651
2.8306,0.19992,0.115609
2.85641,0.342628,-0.13401
2.8488,0.483884,-0.117725
2.84682,0.341478,-0.0667187
2.84846,0.473604,-0.0504026
2.84876,0.33163,0
2.83534,0.0514726,-0.0330141
2.84884,0.473668,0.0167848
2.84156,0.19073,-0.0165523
2.84402,0.331078,0.0666256
2.84768,0.473475,0.0840135
2.83718,0.190436,0.0496346
2.85487,0.47467,-0.185477
2.83601,0.330146,0.166278
2.83526,0.190308,0.115772
2.85361,0.332195,-0.133824
2.85764,0.19181,-0.1501
2.85441,0.474594,-0.117888
2.84799,0.33154,-0.0667187
2.84614,0.463015,-0.0503327
2.84593,0.321235,0
2.85048,0.46372,0.0167848
2.8462,0.181063,-0.0165756
2.85327,0.322064,-0.309296
2.84118,0.320699,0.0665326
2.84693,0.321347,-0.200341
2.84143,0.462247,0.0837807
2.84182,0.180785,0.0497045
2.85651,0.464701,-0.185477
2.84508,0.321139,0.166743
2.85476,0.322231,-0.133824
2.85829,0.181833,-0.1501
2.85211,0.463985,-0.117725
2.85708,0.322493,-0.0669048
2.84782,0.452581,-0.0503327
2.83913,0.309934,0
2.83164,0.031138,-0.0329675
2.84821,0.452642,0.0167616
2.84684,0.170631,-0.0165756
2.85443,0.311604,-0.309296
2.84632,0.310718,0.0666256
2.85205,0.311344,-0.20062
2.83915,0.451203,0.0836644
2.83049,0.169651,0.049495
2.85031,0.452976,-0.184965
2.8383,0.309843,0.166278
2.85592,0.311766,-0.133824
2.85495,0.171117,-0.14989
2.84984,0.452902,-0.117563
2.84632,0.310718,-0.0666256
2.84931,0.443134,-0.0503327
2.8481,0.301358,0
2.84574,0.442579,0.0167383
2.85139,0.161415,-0.0165988
2.8515,0.301718,-0.308868
2.84733,0.301277,0.0666256
2.84513,0.301044,-0.200062
2.83668,0.44117,0.083548
2.83104,0.160263,0.049495
2.8518,0.443521,-0.184965
2.83534,0.300008,0.166045
2.85152,0.161422,-0.149681
2.85133,0.443448,-0.117563
2.84733,0.301277,-0.0666256
2.84293,0.431983,-0.0501931
2.84118,0.2906,0
2.84727,0.432642,0.0167383
2.84394,0.151036,-0.0165523
2.83643,0.290115,0.0663465
2.84616,0.29111,-0.200062
2.83821,0.431265,0.083548
2.83557,0.150591,0.0495648
2.83637,0.290109,0.166045
2.854,0.291912,-0.133637
2.85605,0.151678,-0.14989
2.85681,0.434092,-0.117725
2.84439,0.290928,-0.0665326
2.84435,0.422554,-0.0501931
2.83815,0.280784,0
2.84473,0.422611,0.0167151
2.84443,0.141604,-0.0165523
2.84136,0.281101,0.0664395
2.83962,0.421851,0.083548
2.83606,0.141188,0.0495648
2.8508,0.423512,-0.184709
2.83732,0.280702,0.166045
2.85495,0.282446,-0.133637
2.84058,0.141413,-0.149053
2.85428,0.424029,-0.117563
2.85329,0.282282,-0.0667187
2.84976,0.413197,-0.0502629
2.83911,0.270876,0
2.85015,0.413253,0.0167383
2.8489,0.13186,-0.0165756
2.85049,0.271962,-0.30844
2.85028,0.271942,0.0666256
2.84411,0.271353,-0.199783
2.83653,0.131288,0.0495648
2.85621,0.414132,-0.184965
2.83431,0.270417,0.165813
2.85592,0.27248,-0.133637
2.84505,0.131682,-0.149262
2.84783,0.412917,-0.117237
2.85426,0.272321,-0.0667187
2.84327,0.402126,-0.0501233
2.84365,0.40218,0.0166918
2.84935,0.121914,-0.0165756
2.85934,0.262737,-0.309296
2.84723,0.261624,0.0665326
2.84504,0.261422,-0.199783
2.83854,0.401457,0.0834316
2.83298,0.121214,0.049495
2.84974,0.403041,-0.184454
2.83126,0.260156,0.16558
2.85685,0.262508,-0.133637
2.8415,0.121578,-0.149053
2.84926,0.402973,-0.117237
2.8552,0.262356,-0.0667187
2.84069,0.391652,-0.0500535
2.84093,0.251047,0
2.84504,0.392251,0.0166918
2.84176,0.111652,-0.0165291
2.84414,0.251331,0.0664395
2.83215,0.250271,0.16558
2.85775,0.252534,-0.133637
2.8459,0.111815,-0.149262
2.84669,0.392478,-0.117074
2.84414,0.251331,-0.0664395
2.84204,0.381734,-0.0500535
2.84179,0.241129,0
2.84243,0.381786,0.0166686
2.84213,0.101733,-0.0165291
2.83703,0.240726,0.0662534
2.84679,0.241554,-0.199783
2.84852,0.382605,-0.184198
2.82902,0.240046,0.165347
2.84269,0.241206,-0.132893
2.84804,0.38254,-0.117074
2.845,0.241402,-0.0664395
2.84374,0.371862,0.0166686
2.84647,0.091941,-0.0165523
2.83786,0.230822,0.0662534
2.84364,0.231292,-0.199504
2.83466,0.370674,0.0831989
2.84588,0.372142,-0.183942
2.82586,0.229846,0.165115
2.8475,0.231606,-0.133079
2.8454,0.372078,-0.116911
2.84583,0.23147,-0.0664395
2.84464,0.361885,-0.0500535
2.8434,0.221285,0
2.84899,0.362439,0.0166918
2.84677,0.082005,-0.0165523
2.83865,0.220915,0.0662534
2.85508,0.363214,-0.184454
2.84829,0.221666,-0.133079
2.84271,0.36164,-0.116748
2.84263,0.221225,-0.0663465
2.84191,0.351461,-0.0499837
2.84627,0.352,0.0166686
2.84704,0.0720667,-0.0165523
2.83541,0.210708,0.0661604
2.83321,0.350385,0.0830826
2.84905,0.211721,-0.133079
2.84396,0.351714,-0.116748
2.84738,0.211597,-0.0664395
2.83915,0.341061,-0.0499139
2.83291,0.20058,0
2.84351,0.341585,0.0166453
2.84328,0.0620402,-0.0165291
2.84012,0.201091,0.0662534
2.84591,0.201501,-0.199504
2.83441,0.340492,0.0830826
2.84566,0.341843,-0.183686
2.85375,0.202056,-0.133265
2.84517,0.341784,-0.116748
2.8481,0.201656,-0.0664395
2.8443,0.331612,-0.0499837
2.83758,0.19096,0
2.84071,0.331194,0.0166221
2.83948,0.0520422,-0.0165058
2.84261,0.191298,-0.199224
2.83558,0.330597,0.0830826
2.84248,0.191289,-0.132707
2.84634,0.331851,-0.116748
2.8408,0.191176,-0.0662534
2.84146,0.321232,-0.0499139
2.84185,0.321275,0.0166221
2.83746,0.181004,0.0661604
2.83275,0.320247,0.0829662
2.84313,0.181365,-0.132707
2.84351,0.321463,-0.116586
2.84544,0.181513,-0.0663465
2.84693,0.311791,0.0166453
2.83409,0.170859,0.0660673
2.84388,0.17145,-0.199224
2.84512,0.311592,-0.18343
2.84375,0.171442,-0.132707
2.84207,0.171341,-0.0662534
2.83966,0.300967,-0.0498441
2.84402,0.301429,0.0166221
2.83067,0.160738,0.0659743
2.84048,0.161295,-0.198945
2.84433,0.161513,-0.132707
2.84171,0.301184,-0.116423
2.84664,0.161645,-0.0663465
2.83516,0.152059,0.0660673
2.83187,0.291148,0.0828498
2.84482,0.152578,-0.132707
2.84662,0.292665,-0.116586
2.83915,0.152273,-0.0661604
2.83761,0.281732,-0.0497743
2.84198,0.282165,0.0165988
2.83287,0.28126,0.0828498
2.8521,0.28317,-0.183686
2.84135,0.142445,-0.132521
2.83966,0.142361,-0.0661604
2.84261,0.27171,-0.0498441
2.84299,0.271747,0.0165988
2.83218,0.131582,0.0659743
2.83388,0.270876,0.0828498
2.84914,0.272335,-0.18343
2.84584,0.132216,-0.132707
2.84069,0.271527,-0.11626
2.83617,0.131767,-0.0660673
2.83951,0.261914,-0.0497743
2.84388,0.262317,0.0165988
2.85003,0.262885,-0.18343
2.83828,0.122433,-0.132335
2.84555,0.262471,-0.116423
2.84059,0.122533,-0.0661604
2.84041,0.252,-0.0497743
2.82978,0.112171,0
2.83681,0.251681,0.0165523
2.84298,0.252228,-0.182919
2.84268,0.112683,-0.132521
2.84247,0.252183,-0.11626
2.841,0.112616,-0.0661604
2.83417,0.101943,0
2.83373,0.240944,0.0165291
2.83258,0.240846,0.0827335
2.83908,0.10212,-0.132335
2.83939,0.241425,-0.116097
2.8374,0.102059,-0.0660673
2.83051,0.0919203,0
2.84252,0.231701,0.0165756
2.8334,0.230957,0.0827335
2.84022,0.231513,-0.116097
2.84173,0.0922848,-0.0661604
2.83929,0.221963,0.0165523
2.83016,0.221249,0.0826171
2.84148,0.222134,-0.182663
2.84495,0.222405,-0.11626
2.83803,0.0827448,-0.0660673
2.83966,0.212021,-0.0497045
2.84404,0.212347,0.0165756
2.84224,0.212213,-0.182663
2.84229,0.0729395,-0.0661604
2.84437,0.20239,-0.0497743
2.83678,0.20185,0.0165291
2.84253,0.063017,-0.0661604
2.8375,0.191451,0.0165291
2.84369,0.191869,-0.182663
2.83918,0.191565,-0.115934
2.83475,0.0524502,-0.0659743
2.84211,0.182297,0.0165523
2.84431,0.182438,-0.182663
2.83491,0.0430496,-0.0659743
2.83436,0.171867,-0.0495648
2.83874,0.172133,0.0165291
2.83359,0.171821,0.0826171
2.84094,0.172266,-0.182407
2.84042,0.172235,-0.115934
2.83904,0.0332004,-0.0660673
2.83497,0.161478,-0.0495648
2.83536,0.1615,0.0165058
2.84554,0.16208,-0.182663
2.83552,0.151581,-0.0495648
2.83191,0.151388,0.0164826
2.83637,0.142691,0.0165058
2.83805,0.142776,-0.115772
2.84084,0.132977,0.0165291
2.83733,0.121896,0.0165058
2.83902,0.121969,-0.115772
2.8417,0.113141,0.0165291
2.8337,0.102917,-0.049495
2.83408,0.102931,0.0164826
2.83443,0.0930371,0.0164826
2.83612,0.0930927,-0.115609
