3.38596,0.990126,-0.0410697
3.37403,0.973864,-0.0408835
3.36955,0.960477,-0.0407904
3.37724,0.962669,0.0408835
3.38328,0.96439,-0.204882
3.37673,0.949791,-0.0408369
3.37673,0.949791,0.0408369
3.37893,0.950411,-0.204417
3.37248,0.935271,-0.0407438
3.36862,0.934202,0.0406972
3.3747,0.935887,-0.203952
3.37186,0.922437,-0.0406972
3.36801,0.921382,0.0406507
3.37409,0.923047,-0.203719
3.36348,0.907538,-0.0405575
3.36734,0.90858,0.0406041
3.36958,0.909185,-0.203254
3.36647,0.896378,-0.0405575
3.3626,0.895349,0.040511
3.36872,0.896978,-0.203021
3.36169,0.883178,-0.0404644
3.38203,0.888522,-0.32642
3.36395,0.883773,-0.202556
3.3649,0.87085,-0.0404644
3.36103,0.869848,0.0404178
3.35944,0.869436,-0.202091
3.36017,0.857122,-0.0403713
3.35629,0.856134,0.0403247
3.36245,0.857704,-0.202091
3.35926,0.844412,-0.0403247
3.37198,0.84761,-0.324561
3.35538,0.843437,0.0402782
3.36155,0.844988,-0.201859
3.35428,0.831342,-0.0402316
3.37478,0.836423,-0.324561
3.36046,0.832874,-0.201626
3.35342,0.818095,-0.040185
3.37008,0.822161,-0.323817
3.35573,0.81866,-0.201161
3.37691,0.988119,-0.102399
3.35625,0.806386,-0.040185
3.38212,0.989644,-0.0204812
3.36519,0.808532,-0.323074
3.35236,0.805451,0.0401385
3.35469,0.806009,-0.200928
3.38905,0.99167,-0.18506
3.37232,0.975283,-0.102166
3.35488,0.794914,-0.0401385
3.38137,0.977902,-0.0204579
3.35996,0.796118,-0.32233
3.35099,0.793992,0.0400919
3.35332,0.794544,-0.200696
3.38831,0.979907,-0.184851
3.35011,0.780211,-0.0400453
3.38126,0.963814,-0.0204347
3.35523,0.781404,-0.321587
3.35011,0.780211,0.0400453
3.35634,0.781662,-0.200696
3.38436,0.964699,-0.184432
3.37168,0.948373,-0.101933
3.36182,0.770579,-0.321958
3.37259,0.94863,0.0611532
3.35905,0.769943,-0.200696
3.38386,0.9518,-0.184223
3.36341,0.933389,-0.101584
3.34768,0.755046,-0.0399522
3.35672,0.757086,-0.321215
3.35003,0.755577,-0.199998
3.38332,0.938913,-0.184013
3.34742,0.743945,-0.320099
3.3711,0.924126,0.0610136
3.34849,0.744183,-0.199766
3.37469,0.925112,-0.183385
3.34636,0.730237,-0.319728
3.34114,0.729098,0.0398125
3.37076,0.910132,0.0609438
3.34352,0.729617,-0.199301
3.37051,0.910064,-0.182967
3.35755,0.894001,-0.101119
3.34367,0.71743,-0.0398125
3.34889,0.71855,-0.319728
3.33193,0.714913,0.0396728
3.37095,0.897569,-0.284776
3.36619,0.896301,0.0608042
3.34214,0.717103,-0.199068
3.37366,0.898292,-0.182967
3.34748,0.706037,-0.319356
3.33832,0.704105,0.0397194
3.3702,0.884786,-0.28445
3.36156,0.882517,0.0606646
3.34853,0.706258,-0.199301
3.37292,0.885499,-0.182757
3.35596,0.868537,-0.100886
3.36507,0.870894,-0.0202022
3.34602,0.693538,-0.318984
3.36941,0.872017,-0.284125
3.33534,0.691323,-0.19837
3.37212,0.872718,-0.182548
3.3405,0.680847,-0.318241
3.33128,0.678968,0.0395797
3.36842,0.859852,-0.283799
3.34152,0.681055,-0.198603
3.37112,0.860542,-0.182338
3.35017,0.842747,-0.100537
3.33895,0.668401,-0.317869
3.32971,0.666551,0.0395331
3.36754,0.847117,-0.283474
3.33996,0.668604,-0.19837
3.35861,0.844872,-0.181501
3.34506,0.658095,-0.318241
3.32405,0.653962,0.03944
3.36259,0.834026,-0.282823
3.33824,0.656754,-0.198138
3.35364,0.831807,-0.181082
3.3482,0.817442,-0.100304
3.33572,0.643566,-0.317125
3.35788,0.819804,-0.282172
3.35299,0.818612,0.0602457
3.33671,0.643757,-0.197905
3.35667,0.819509,-0.181082
3.34714,0.804815,-0.100188
3.34185,0.632659,-0.317497
3.36072,0.808079,-0.282172
3.33501,0.631364,-0.197673
3.35951,0.807788,-0.181082
3.38877,0.992231,-0.0821654
3.35519,0.79437,-0.0200395
3.3323,0.618808,-0.316382
3.32296,0.617075,0.0393469
3.35576,0.794505,-0.281521
3.32934,0.61826,-0.197208
3.35453,0.794215,-0.180664
3.33433,0.607753,-0.316382
3.31712,0.604616,0.0392537
3.35837,0.783371,-0.281521
3.38884,0.967255,-0.164162
3.34937,0.78127,-0.180245
3.3359,0.765249,-0.099606
3.31144,0.59105,0.0391606
3.34957,0.768384,-0.280545
3.32965,0.5943,-0.196975
3.3561,0.769883,-0.180454
3.33855,0.753599,-0.099606
3.32136,0.580864,-0.0392537
3.33075,0.582506,-0.315638
3.30954,0.578797,0.039114
3.35223,0.756686,-0.280545
3.38028,0.938704,-0.163417
3.35487,0.757283,-0.180245
3.33323,0.74079,-0.0993733
3.31933,0.569172,-0.0392072
3.36218,0.747224,-0.438403
3.3707,0.924015,0.0813279
3.31538,0.568496,0.0391606
3.38264,0.927289,-0.245264
3.35083,0.744701,-0.280219
3.34194,0.742726,0.059757
3.32574,0.570272,-0.19651
3.35347,0.745288,-0.180036
3.3707,0.924015,-0.0813279
3.33579,0.729151,-0.0993733
3.35314,0.732942,-0.436888
3.32678,0.558503,-0.314895
3.37004,0.911201,0.0812349
3.3534,0.733001,-0.280219
3.31984,0.557338,-0.196045
3.34824,0.731872,-0.179617
3.32225,0.72619,0.277616
3.3739,0.912245,-0.0813279
3.3305,0.715821,-0.0991405
3.3518,0.720398,-0.436383
3.32085,0.545595,-0.314151
3.36161,0.89634,0.0809557
3.29954,0.542094,0.0389278
3.36975,0.898511,-0.243869
3.34815,0.719614,-0.279568
3.34687,0.71934,-0.179408
3.32086,0.71375,0.27729
3.3732,0.899431,-0.0812349
3.33298,0.704192,-0.0991405
3.3695,0.885857,0
3.30931,0.531843,-0.0390209
3.34653,0.707054,-0.435373
3.32273,0.534001,-0.314151
3.36472,0.884601,0.0809557
3.29746,0.529939,0.0388812
3.37287,0.886743,-0.243869
3.34284,0.706275,-0.278917
3.31971,0.533514,-0.195812
3.34545,0.706828,-0.179198
3.31163,0.699682,0.276314
3.3315,0.691741,-0.0990242
3.36483,0.872084,0
3.34897,0.695369,-0.435373
3.36391,0.871848,0.0808627
3.29534,0.517805,0.0388347
3.37208,0.873964,-0.24359
3.34528,0.694603,-0.278917
3.31406,0.688119,0.276314
3.32998,0.679308,-0.0989078
3.30899,0.50812,-0.0389743
3.34749,0.682881,-0.434868
3.35531,0.85713,0.0805835
3.29317,0.505691,0.0387881
3.37511,0.862187,-0.24359
3.34769,0.682921,-0.278917
3.31151,0.508507,-0.195115
3.34248,0.681858,-0.17878
3.30862,0.674952,0.275663
3.36694,0.860099,-0.0808627
3.32437,0.66669,-0.0986751
3.35517,0.845251,0
3.3067,0.496551,-0.0389278
3.34196,0.670216,-0.433858
3.33357,0.668534,-0.0197605
3.32018,0.498575,-0.313407
3.35038,0.844046,0.0803974
3.29483,0.494769,0.0387881
3.37021,0.849041,-0.243032
3.34602,0.671032,-0.278592
3.31318,0.497523,-0.195115
3.32302,0.666419,0.138079
3.35928,0.846288,-0.16137
3.30303,0.662409,0.275012
3.32276,0.654308,-0.0985587
3.35422,0.83257,0
3.34428,0.658546,-0.433858
3.31402,0.485826,-0.312664
3.34943,0.831381,0.0803044
3.28863,0.482103,0.038695
3.35766,0.833426,-0.241915
3.34443,0.658577,-0.278267
3.32141,0.654043,0.137916
3.36222,0.834556,-0.16137
3.30923,0.651645,0.275337
3.32895,0.643464,-0.0986751
3.35322,0.819906,0
3.29821,0.471753,-0.0387881
3.34266,0.646114,-0.433353
3.35231,0.819684,0.0803044
3.28633,0.470054,0.0386484
3.35668,0.820752,-0.241636
3.33889,0.645385,-0.277616
3.32367,0.642444,0.137916
3.36511,0.822814,-0.16137
3.29974,0.637819,0.274361
3.38498,0.992406,-0.0615721
3.32331,0.630352,-0.0984424
3.34439,0.805388,0
3.29983,0.460239,-0.0387881
3.34099,0.633705,-0.432847
3.31338,0.462129,-0.312292
3.35126,0.807043,0.0802113
3.29191,0.459134,0.038695
3.35564,0.808098,-0.241357
3.3372,0.632985,-0.27729
3.32197,0.630096,0.137753
3.36019,0.809193,-0.160998
3.29803,0.625556,0.274036
3.37502,0.989486,-0.14329
3.3769,0.977248,-0.0613627
3.32156,0.618015,-0.098326
3.35107,0.794631,0
3.29746,0.448178,-0.0387415
3.33148,0.61986,-0.431332
3.32291,0.618266,-0.0196443
3.34628,0.793494,0.0800252
3.28953,0.447101,0.0386484
3.36232,0.797299,-0.241636
3.33547,0.620602,-0.276965
3.30397,0.449064,-0.194184
3.35911,0.796537,-0.160812
3.37078,0.975476,-0.142964
3.37645,0.964357,-0.0612928
3.31977,0.6057,-0.0982096
3.34214,0.780202,0
3.29107,0.435616,-0.0386484
3.33753,0.608941,-0.431837
3.36537,0.961192,0.0203417
3.32505,0.606664,-0.0196443
3.36939,0.786564,-0.372698
3.30863,0.437941,-0.311549
3.34513,0.7809,0.0799322
3.28711,0.435092,0.0386018
3.35731,0.783744,-0.241078
3.30156,0.437005,-0.193952
3.34038,0.77979,0.199766
3.31449,0.604737,0.137265
3.35019,0.782082,-0.160253
3.37578,0.95207,-0.061223
3.31782,0.593984,-0.0980933
3.33302,0.766426,0
3.28853,0.424189,-0.0386018
3.33562,0.597171,-0.431332
3.36469,0.948942,0.0203185
3.36423,0.773604,-0.371841
3.30612,0.426458,-0.311177
3.34381,0.768907,0.0798391
3.28456,0.423678,0.0385553
3.34823,0.769925,-0.240241
3.38091,0.953516,-0.225131
3.30299,0.426055,-0.193952
3.31254,0.593038,0.137102
3.34888,0.770073,-0.160067
3.29645,0.590157,0.273385
3.36965,0.950341,-0.142638
3.37138,0.938135,-0.0610834
3.31594,0.581707,-0.0979769
3.33567,0.754786,0
3.27808,0.411213,-0.0384621
3.33378,0.584837,-0.430827
3.36027,0.935045,0.020272
3.33867,0.755465,0.079653
3.28205,0.411711,0.0385087
3.34311,0.75647,-0.239683
3.3299,0.584157,-0.275988
3.37652,0.939568,-0.224619
3.3005,0.414025,-0.193719
3.34765,0.757496,-0.159881
3.36524,0.936429,-0.142313
3.36322,0.922597,-0.060874
3.31017,0.568196,-0.0977442
3.33841,0.742554,0
3.27957,0.399195,-0.0384621
3.33199,0.571942,-0.430322
3.36368,0.922722,0.020272
3.33751,0.742353,0.0795599
3.2756,0.398712,0.0384156
3.33807,0.742478,-0.239125
3.32809,0.571273,-0.275663
3.3684,0.924017,-0.223851
3.29803,0.401442,-0.193487
3.30488,0.567289,0.136614
3.3465,0.744353,-0.159695
3.36256,0.909808,-0.0608042
3.31213,0.556638,-0.0977442
3.33708,0.730042,0
3.28094,0.387745,-0.0384621
3.32223,0.558336,-0.428807
3.35915,0.908887,0.0202255
3.31348,0.556865,-0.019528
3.36062,0.735193,-0.370556
3.34008,0.7307,0.0795599
3.28094,0.387745,0.0384621
3.34454,0.731675,-0.239404
3.35779,0.908517,0.101235
3.29148,0.38899,-0.193022
3.33534,0.729661,0.198835
3.34127,0.73096,-0.159323
3.35783,0.896588,-0.0606646
3.30212,0.543702,-0.0973951
3.33166,0.717288,0
3.27824,0.376406,-0.0384156
3.32798,0.54796,-0.429312
3.36215,0.897741,0.0202255
3.31136,0.545223,-0.0195048
3.34749,0.720696,-0.368842
3.29988,0.378891,-0.310061
3.33467,0.717935,0.0793738
3.27029,0.375494,0.0383224
3.33915,0.7189,-0.238846
3.36689,0.899008,-0.22334
3.28878,0.377617,-0.192789
3.30078,0.543482,0.136288
3.33586,0.718193,-0.15895
3.2847,0.540834,0.271757
3.36094,0.884862,-0.0606646
3.2961,0.530901,-0.0971624
3.3264,0.535782,-0.673859
3.32632,0.703998,0
3.27556,0.364519,-0.038369
3.32595,0.535709,-0.428807
3.36139,0.884982,0.0202022
3.35388,0.70983,-0.369271
3.29722,0.36693,-0.30969
3.33324,0.705463,0.0792808
3.26363,0.363192,0.0382293
3.33383,0.705588,-0.238288
3.34843,0.881568,0.10077
3.36229,0.885218,-0.222828
3.28611,0.365694,-0.192556
3.30266,0.531957,0.136288
3.33444,0.705717,-0.158764
3.35867,0.884263,-0.141499
3.36014,0.872119,-0.0605948
3.30189,0.520014,-0.0972787
3.32438,0.523556,-0.673075
3.32875,0.692382,0
3.28079,0.353511,-0.0384156
3.3278,0.524095,-0.428807
3.36059,0.872237,0.020179
3.31113,0.52147,-0.0194815
3.34855,0.696498,-0.368414
3.29452,0.354991,-0.309318
3.32785,0.692194,0.0790947
3.26886,0.352225,0.0382759
3.32846,0.69232,-0.23773
3.35149,0.869874,0.10077
3.36536,0.873475,-0.222828
3.28737,0.35422,-0.192556
3.2966,0.519181,0.135962
3.32906,0.692445,-0.158392
3.35929,0.859394,-0.0605249
3.30763,0.509094,-0.0973951
3.33394,0.513142,-0.674644
3.32723,0.679958,0
3.27404,0.341228,-0.0383224
3.31785,0.510666,-0.427292
3.35587,0.858519,0.0201325
3.34706,0.68401,-0.367985
3.27404,0.341228,0.0383224
3.33477,0.681497,-0.238009
3.34676,0.856189,0.100537
3.30458,0.508624,0.0583608
3.28859,0.342743,-0.192556
3.29444,0.507063,0.135799
3.33537,0.681621,-0.158578
3.34675,0.843753,-0.0602457
3.30544,0.496951,-0.0972787
3.33183,0.500919,-0.673859
3.32174,0.666766,0
3.27123,0.329397,-0.0382759
3.31961,0.499082,-0.427292
3.35496,0.845823,0.0201092
3.30678,0.497153,-0.019435
3.33773,0.669975,-0.3667
3.32868,0.668159,0.0790016
3.27123,0.329397,0.0382759
3.3293,0.668283,-0.237451
3.34197,0.842547,0.100304
3.28182,0.330462,-0.192091
3.29619,0.495561,0.135799
3.3299,0.668403,-0.158206
3.26877,0.491439,0.602679
3.33261,0.668946,-0.0790947
3.34968,0.832065,-0.0602457
3.29133,0.483087,-0.0968133
3.33356,0.489285,-0.673859
3.32405,0.655166,0
3.2644,0.317202,-0.0381828
3.33883,0.658078,-0.529437
3.3174,0.486914,-0.426787
3.35013,0.832177,0.0200627
3.34005,0.658319,-0.3667
3.29013,0.319702,-0.308574
3.32315,0.654988,0.0788155
3.26042,0.316815,0.0381362
3.33161,0.656656,-0.237451
3.34101,0.829911,0.100188
3.35108,0.832412,-0.221293
3.28295,0.319004,-0.192091
3.28999,0.482891,0.135474
3.32437,0.655229,-0.157834
3.27392,0.480531,0.27013
3.25879,0.47831,0.600527
3.33492,0.657308,-0.0790947
3.34479,0.818466,-0.0601061
3.28904,0.471029,-0.0966969
3.31972,0.475422,-0.670721
3.31846,0.64204,0
3.26947,0.306179,-0.0382293
3.33334,0.644919,-0.528207
3.31516,0.474769,-0.426282
3.34913,0.819528,0.0200395
3.30225,0.472921,-0.0193885
3.33061,0.644391,-0.365415
3.32542,0.643385,0.0788155
3.26151,0.305433,0.0381362
3.32605,0.643508,-0.236893
3.34389,0.818245,0.100188
3.35396,0.82071,-0.221293
3.29166,0.471404,0.135474
3.32271,0.642862,-0.157647
3.27163,0.468536,0.269805
3.26433,0.467491,0.601244
3.33327,0.644904,-0.0790016
3.34374,0.805848,-0.0600363
3.29462,0.460097,-0.0968133
3.31747,0.463288,-0.669937
3.31282,0.628959,0
3.26654,0.294404,-0.0381828
3.33169,0.632541,-0.527593
3.31286,0.462645,-0.425776
3.35197,0.807832,0.0200395
3.33675,0.633502,-0.365844
3.25857,0.293686,0.0380896
3.32827,0.631893,-0.236893
3.33895,0.804693,0.0999551
3.28112,0.295718,-0.191859
3.28932,0.459358,0.135311
3.32494,0.631259,-0.157647
3.33157,0.632518,-0.0789086
3.34264,0.793247,-0.0599665
3.29621,0.448593,-0.0968133
3.32295,0.452233,-0.670721
3.31893,0.618123,0
3.25559,0.281964,-0.0380431
3.31053,0.450542,-0.425271
3.34699,0.794278,0.019993
3.29755,0.448776,-0.019342
3.33112,0.620393,-0.364987
3.32196,0.618688,0.0786294
3.25958,0.282309,0.0380896
3.32654,0.619539,-0.236614
3.33785,0.792109,0.0998387
3.27417,0.283573,-0.191394
3.28695,0.447333,0.135148
3.31926,0.618185,-0.157275
3.34136,0.78125,-0.0598967
3.28975,0.43661,-0.0965806
3.31666,0.440182,-0.669152
3.31703,0.606396,0
3.26049,0.2715,-0.0380896
3.32814,0.608428,-0.526363
3.3002,0.437997,-0.423756
3.34571,0.782266,0.0199697
3.29109,0.436788,-0.0192956
3.32533,0.607915,-0.36413
3.25651,0.271169,0.0380431
3.32465,0.60779,-0.236335
3.34045,0.781038,0.0998387
3.2751,0.272716,-0.191394
3.32523,0.607895,-0.157461
3.24947,0.431264,0.597657
3.32793,0.60839,-0.0787225
3.33627,0.767787,-0.059757
3.27936,0.423587,-0.0962315
3.32206,0.429103,-0.669937
3.31519,0.594108,0
3.25743,0.259799,-0.0380431
3.32636,0.596109,-0.525748
3.30564,0.426982,-0.424261
3.33672,0.767891,0.0199
3.28466,0.424271,-0.0192491
3.32352,0.595601,-0.363702
3.31429,0.593947,0.0783503
3.26142,0.260117,0.0380896
3.31889,0.594772,-0.235777
3.33926,0.768475,0.0997224
3.34551,0.769912,-0.220014
3.26807,0.260647,-0.190929
3.31351,0.593807,0.196045
3.27803,0.423415,0.13466
3.31946,0.594874,-0.157089
3.3022,0.59178,0.411918
3.33503,0.755252,-0.0596872
3.27685,0.411638,-0.0961151
3.30408,0.415059,-0.666014
3.30542,0.580455,0
3.25433,0.248122,-0.0379965
3.30712,0.41544,-0.424261
3.33548,0.755354,0.0198767
3.29009,0.413301,-0.0192723
3.3295,0.584683,-0.36413
3.30847,0.58099,0.0781642
3.25433,0.248122,0.0379965
3.31702,0.582492,-0.235498
3.33803,0.75593,0.099606
3.28964,0.413245,0.0578722
3.34818,0.758229,-0.220014
3.27552,0.411471,0.134497
3.31758,0.582591,-0.156903
3.2485,0.408076,0.59694
3.33752,0.744189,-0.0596872
3.31323,0.405053,-0.667583
3.30733,0.569492,0
3.25115,0.237038,-0.0379499
3.29666,0.403027,-0.422746
3.33797,0.74429,0.0198767
3.29144,0.402389,-0.0192723
3.3275,0.572965,-0.363702
3.27702,0.238924,-0.306715
3.31431,0.570695,0.0782572
3.25115,0.237038,0.0379499
3.31893,0.57149,-0.235498
3.33661,0.743987,0.0994896
3.33898,0.744516,-0.219246
3.26578,0.238105,-0.190696
3.27686,0.400607,0.134497
3.31162,0.570231,-0.156531
3.33619,0.731678,-0.0596174
3.2756,0.388854,-0.0959988
3.31073,0.393023,-0.666799
3.3093,0.557944,0
3.25196,0.225689,-0.0379499
3.29805,0.391518,-0.422746
3.32883,0.730064,0.019807
3.28091,0.389483,-0.0192026
3.32556,0.560686,-0.363273
3.31234,0.558458,0.0781642
3.25595,0.225966,0.0379965
3.32091,0.559902,-0.235498
3.29384,0.391018,-0.270781
3.33138,0.730624,0.0992569
3.28046,0.389431,0.0576628
3.33766,0.732002,-0.218991
3.26261,0.226428,-0.190463
3.27824,0.389167,0.134497
3.32147,0.559997,-0.156903
3.33494,0.718604,-0.0595476
3.27701,0.376846,-0.0959988
3.31604,0.381335,-0.667583
3.30737,0.545161,0
3.24478,0.213245,-0.0378568
3.29552,0.378975,-0.422241
3.33148,0.717859,0.019807
3.27436,0.376542,-0.0191561
3.31974,0.547201,-0.362416
3.31042,0.545664,0.0780711
3.25675,0.214031,0.0379965
3.32294,0.547727,-0.235498
3.33013,0.717567,0.0991405
3.27789,0.376948,0.0575929
3.34423,0.720605,-0.219246
3.26342,0.214469,-0.190463
3.27568,0.376693,0.134334
3.31167,0.545871,-0.156345
3.25259,0.374038,0.59694
3.31042,0.545664,-0.0780711
3.33339,0.706711,-0.0594778
3.27029,0.365089,-0.095766
3.31339,0.3699,-0.666799
3.30916,0.53419,0
3.24946,0.202731,-0.0379034
3.29675,0.368043,-0.422241
3.32602,0.705147,0.0197605
3.27957,0.366125,-0.0191793
3.31761,0.535554,-0.361988
3.27139,0.2041,-0.305972
3.29642,0.532134,0.0776989
3.25345,0.202981,0.0379499
3.3208,0.536068,-0.235219
3.33249,0.706519,0.0991405
3.27515,0.365632,0.0575231
3.33879,0.707855,-0.218735
3.26013,0.203397,-0.190231
3.30356,0.533286,0.194882
3.26896,0.364941,0.134008
3.31347,0.534885,-0.156345
3.2529,0.363148,0.267201
3.2499,0.362813,0.596222
3.30827,0.534045,-0.0779781
3.33584,0.69507,-0.0594778
3.30686,0.357488,-0.66523
3.3031,0.521387,0
3.25015,0.191387,-0.0379034
3.31459,0.523201,-0.522058
3.29802,0.356532,-0.422241
3.32846,0.693532,0.0197605
3.28083,0.354674,-0.0191793
3.31946,0.523969,-0.361988
3.26811,0.192444,-0.3056
3.30221,0.521246,0.0777919
3.24216,0.190916,0.0378102
3.31082,0.522606,-0.234382
3.28982,0.355646,-0.27013
3.3271,0.69325,0.0989078
3.28039,0.354626,0.0575929
3.34124,0.696195,-0.218735
3.2648,0.19225,-0.190463
3.27022,0.353527,0.134008
3.30742,0.522069,-0.155972
3.2824,0.51812,0.408019
3.23941,0.350197,0.59407
3.30616,0.52187,-0.077885
3.33052,0.681236,-0.0593382
3.26884,0.341263,-0.0956497
3.30815,0.345366,-0.66523
3.29709,0.50806,0
3.24284,0.179033,-0.0378102
3.28746,0.343207,-0.420726
3.31922,0.678924,0.0196908
3.27017,0.341401,-0.0191096
3.31743,0.511194,-0.36156
3.3041,0.50914,0.0777919
3.24284,0.179033,0.0378102
3.31272,0.510468,-0.234382
3.29111,0.343587,-0.27013
3.32179,0.679449,0.0986751
3.27371,0.341771,0.0574533
3.33594,0.682345,-0.218223
3.25751,0.179843,-0.189998
3.27149,0.341539,0.134008
3.30931,0.509944,-0.155972
3.2882,0.506691,0.408506
3.3041,0.50914,-0.0777919
3.32884,0.669401,-0.0592684
3.29875,0.497124,0
3.23942,0.168071,-0.0377637
3.28858,0.332304,-0.420726
3.31361,0.666337,0.0196443
3.27527,0.330958,-0.0191328
3.31517,0.499599,-0.361131
3.26539,0.169419,-0.305228
3.30181,0.497585,0.0776989
3.24741,0.168486,0.0378568
3.31045,0.498886,-0.234103
3.3201,0.667643,0.0985587
3.26686,0.330109,0.0573137
3.33428,0.670493,-0.217967
3.25809,0.16904,-0.189998
3.29712,0.496878,0.194184
3.26465,0.329886,0.133683
3.30703,0.498372,-0.155786
3.24569,0.32797,0.594787
3.30577,0.498181,-0.0777919
3.32331,0.656226,-0.0591288
3.27109,0.319005,-0.0956497
3.30262,0.322079,-0.663661
3.29255,0.484441,0
3.24399,0.156955,-0.0378102
3.30816,0.486737,-0.520214
3.28183,0.320051,-0.419716
3.31592,0.654765,0.0196443
3.26844,0.318746,-0.0190863
3.30903,0.486865,-0.360274
3.29957,0.485474,0.0776058
3.24798,0.157148,0.0378568
3.31217,0.487327,-0.234103
3.32241,0.656048,0.0985587
3.268,0.318703,0.0573137
3.32876,0.657302,-0.217456
3.25068,0.157279,-0.189533
3.29093,0.484203,0.193719
3.26976,0.318875,0.133846
3.27979,0.482564,0.407044
3.29957,0.485474,-0.0776058
3.32166,0.643861,-0.0590589
3.30372,0.310549,-0.663661
3.29422,0.472945,0
3.24052,0.145452,-0.0377637
3.28292,0.308594,-0.419716
3.31818,0.643187,0.0196443
3.26953,0.307336,-0.0190863
3.31071,0.475312,-0.360274
3.29333,0.472817,0.0774197
3.24052,0.145452,0.0377637
3.30595,0.474629,-0.233545
3.28256,0.308561,-0.269154
3.31291,0.642165,0.0982096
3.26511,0.30692,0.0572439
3.33104,0.645679,-0.217456
3.24722,0.145753,-0.189301
3.28865,0.472145,0.193487
3.26688,0.307086,0.133683
3.30252,0.474137,-0.155414
3.31941,0.643426,-0.137753
3.28937,0.472249,-0.0773267
3.32007,0.630935,-0.0589891
3.30093,0.298085,-0.662876
3.28801,0.45976,0
3.23703,0.133408,-0.0377171
3.28403,0.296559,-0.419716
3.31266,0.629527,0.0195978
3.27064,0.295349,-0.0190863
3.31243,0.463173,-0.360274
3.25905,0.134316,-0.304485
3.28712,0.459635,0.0772336
3.23304,0.133244,0.0376705
3.30371,0.461955,-0.233266
3.31131,0.629271,0.0980933
3.26621,0.29495,0.0572439
3.33338,0.633465,-0.217456
3.24774,0.133849,-0.189301
3.29036,0.460088,0.193487
3.25604,0.294031,0.133194
3.30028,0.461475,-0.155228
3.2753,0.457982,0.406069
3.24397,0.292941,0.265899
3.31389,0.629762,-0.137428
3.29108,0.460189,-0.0773267
3.31439,0.617877,-0.0588495
3.29414,0.285883,-0.661308
3.2896,0.44828,0
3.23748,0.122109,-0.0377171
3.28109,0.284751,-0.419211
3.31877,0.618693,0.019621
3.31008,0.451072,-0.359846
3.25552,0.122789,-0.304113
3.28871,0.448159,0.0772336
3.23348,0.121958,0.0376705
3.30135,0.449882,-0.232987
3.27277,0.284029,-0.268177
3.30563,0.616244,0.0978606
3.26324,0.283202,0.0571741
3.33165,0.621095,-0.2172
3.24818,0.122513,-0.189301
3.25705,0.282664,0.133194
3.27688,0.446547,0.406069
3.31214,0.617459,-0.137265
3.29267,0.448699,-0.0773267
3.32024,0.608181,-0.0589193
3.29893,0.275859,-0.662092
3.29099,0.437943,0
3.23385,0.111798,-0.0376705
3.28197,0.274441,-0.419211
3.31676,0.607543,0.0195978
3.26854,0.273318,-0.0190631
3.29966,0.439096,-0.358561
3.25589,0.11256,-0.304113
3.28613,0.437296,0.0771406
3.22985,0.11166,0.037624
3.30275,0.439507,-0.232987
3.27365,0.273745,-0.268177
3.29968,0.604414,0.0976278
3.25614,0.272281,0.0570345
3.3218,0.608467,-0.216432
3.24456,0.112169,-0.189068
3.2619,0.272763,0.133357
3.29931,0.439049,-0.155042
3.27433,0.435726,0.405581
3.31407,0.607049,-0.137265
3.2901,0.437824,-0.0772336
3.31447,0.595174,-0.0587797
3.29596,0.264029,-0.661308
3.28853,0.425939,0
3.23022,0.100386,-0.037624
3.27104,0.262033,-0.417695
3.30311,0.593134,0.0195048
3.30906,0.428598,-0.359418
3.23822,0.100634,0.0377171
3.29635,0.426952,-0.232429
3.27856,0.262635,-0.268503
3.30177,0.592893,0.0976278
3.26105,0.261233,0.0571043
3.32391,0.596868,-0.216432
3.24094,0.100719,-0.188836
3.28297,0.425219,0.192789
3.25885,0.261057,0.133194
3.29686,0.427017,-0.154856
3.31223,0.594772,-0.137102
3.27971,0.424796,-0.0769545
3.31673,0.582443,-0.0587797
3.28617,0.412809,0
3.23058,0.0879811,-0.037624
3.27598,0.249773,-0.4182
3.30143,0.579754,0.0194815
3.2545,0.248135,-0.0189701
3.30279,0.414896,-0.358561
3.24867,0.0884736,-0.303369
3.27735,0.411701,0.0768614
3.22658,0.0878723,0.0375774
3.294,0.413793,-0.23215
3.27557,0.249741,-0.268177
3.3119,0.581593,0.0978606
3.25406,0.248101,0.0569647
3.32617,0.5841,-0.216432
3.2413,0.0882731,-0.188836
3.27665,0.411613,0.192324
3.25584,0.248237,0.133031
3.26956,0.410722,0.404606
3.23581,0.24671,0.264923
3.31449,0.582048,-0.137102
3.28132,0.412199,-0.0769545
3.31461,0.571341,-0.0587099
3.28599,0.240155,-0.658954
3.27951,0.401512,0
3.23084,0.0778322,-0.037624
3.26884,0.238902,-0.41719
3.29929,0.568701,0.0194583
3.26324,0.238493,-0.0190166
3.30407,0.404519,-0.358561
3.24893,0.0782678,-0.303369
3.27863,0.401403,0.0768614
3.21885,0.0775432,0.0374843
3.29133,0.402959,-0.231871
3.30189,0.569149,0.0975115
3.25881,0.238169,0.0570345
3.32799,0.573649,-0.216432
3.24556,0.0781866,-0.189068
3.28189,0.401803,0.192556
3.25262,0.237716,0.132869
3.29579,0.403505,-0.154669
3.26295,0.399484,0.403631
3.2326,0.236253,0.264597
3.30449,0.569597,-0.136614
3.27863,0.401403,-0.0768614
3.30869,0.558435,-0.0585703
3.27898,0.228138,-0.657385
3.27692,0.389589,0
3.2231,0.0663884,-0.0375309
3.27361,0.227764,-0.417695
3.29731,0.556514,0.019435
3.26006,0.226822,-0.0189933
3.27206,0.389011,0.0766753
3.2191,0.066306,0.0374843
3.29271,0.391466,-0.231871
3.27317,0.227734,-0.267852
3.29597,0.556288,0.0972787
3.25563,0.226514,0.0569647
3.32604,0.561363,-0.216176
3.24546,0.225806,0.132543
3.28924,0.391054,-0.154297
3.26432,0.388091,0.403631
3.30251,0.557392,-0.136451
3.28001,0.389956,-0.0768614
3.30677,0.545654,-0.0585005
3.27435,0.377119,0
3.22732,0.0546431,-0.0375774
3.26254,0.214983,-0.41618
3.25688,0.214609,-0.0189701
3.24542,0.0549496,-0.302998
3.2695,0.376559,0.0765823
3.22332,0.0545754,0.0375309
3.28223,0.378026,-0.231033
3.26603,0.215212,-0.267201
3.2901,0.542903,0.097046
3.25245,0.214317,0.0568948
3.31232,0.54657,-0.215153
3.23805,0.0548248,-0.188603
3.26485,0.376024,0.191394
3.24626,0.21391,0.132543
3.29066,0.378996,-0.154297
3.25784,0.375216,0.402656
3.28141,0.377932,-0.0768614
3.30067,0.53341,-0.0583608
3.27161,0.365815,0
3.22748,0.0439412,-0.0375774
3.25928,0.203915,-0.415675
3.25358,0.203559,-0.0189468
3.29627,0.368572,-0.357276
3.27868,0.366605,0.0767684
3.21548,0.0437779,0.0374377
3.28744,0.367584,-0.231312
3.25877,0.203883,-0.26655
3.29188,0.53199,0.097046
3.24516,0.203032,0.0567552
3.31411,0.535583,-0.215153
3.23422,0.044033,-0.18837
3.25814,0.364309,0.190929
3.25094,0.203394,0.132706
3.29189,0.368083,-0.154297
3.26301,0.364853,0.403144
3.27868,0.366605,-0.0767684
3.29856,0.52126,-0.058291
3.26889,0.353961,0
3.21962,0.0325931,-0.0374843
3.26789,0.193004,-0.416685
3.25427,0.1922,-0.0189468
3.29754,0.357063,-0.357276
3.23776,0.0327768,-0.302254
3.21962,0.0325931,0.0374843
3.2887,0.356106,-0.231312
3.26742,0.192976,-0.267201
3.28977,0.519871,0.0969297
3.24585,0.191702,0.0567552
3.31596,0.524011,-0.215153
3.23435,0.0327423,-0.18837
3.25939,0.352932,0.190929
3.24764,0.191808,0.132543
3.28919,0.356158,-0.154111
3.26031,0.353032,0.402656
3.30422,0.522155,-0.136288
3.27198,0.354296,-0.0765823
3.30036,0.509744,-0.058291
3.26613,0.342132,0
3.22371,0.0213816,-0.0375309
3.26062,0.181156,-0.415675
3.28895,0.507981,0.019342
3.24694,0.180396,-0.0189003
3.23387,0.021449,-0.301882
3.26127,0.341623,0.0763031
3.28198,0.343793,-0.230754
3.26409,0.181349,-0.266876
3.28761,0.507775,0.0968133
3.2465,0.180371,0.0567552
3.31383,0.511824,-0.214897
3.23445,0.0214528,-0.18837
3.26458,0.34197,0.191161
3.23632,0.179806,0.132054
3.24573,0.339996,0.400706
3.29418,0.508789,-0.135799
3.27718,0.343289,-0.0766753
3.2943,0.496451,-0.0581514
3.26338,0.329756,0
3.22377,0.00956513,-0.0375309
3.2573,0.168998,-0.41517
3.28683,0.495326,0.0193188
3.24758,0.168493,-0.0189003
3.2921,0.332657,-0.356419
3.23791,0.00960709,-0.302254
3.25852,0.329265,0.0762101
3.21177,0.00952953,0.0373912
3.28322,0.331761,-0.230754
3.24881,0.168557,-0.265574
3.24714,0.16847,0.0567552
3.31173,0.499079,-0.214642
3.23051,0.00958514,-0.188138
3.25389,0.328797,0.190463
3.24095,0.168149,0.132217
3.24696,0.328096,0.400706
3.29207,0.496115,-0.135637
3.27444,0.330873,-0.0765823
3.29592,0.485525,-0.0581514
3.23482,0.157078,-0.0942533
3.26446,0.318933,0
3.21978,-0.00112327,-0.0374843
3.24992,0.157811,-0.41416
3.23613,0.157142,-0.0188306
3.28526,0.320966,-0.355562
3.23394,-0.00112821,-0.301882
3.25959,0.318458,0.0762101
3.21178,-0.00112048,0.0373912
3.28033,0.320484,-0.230475
3.25333,0.157977,-0.265899
3.23969,0.157314,0.0566156
3.30152,0.48635,-0.213874
3.25099,0.317617,0.190231
3.24408,0.316942,0.400219
3.29369,0.485196,-0.135637
3.27153,0.319624,-0.0764892
3.2858,0.471735,-0.057942
3.2656,0.306965,0
3.22376,-0.0129412,-0.0375309
3.23669,0.145279,-0.0188306
3.28642,0.308922,-0.355562
3.23391,-0.012982,-0.301882
3.25676,0.306134,0.076117
3.21176,-0.0128931,0.0373912
3.28149,0.308458,-0.230475
3.25787,0.14623,-0.266225
3.24024,0.145438,0.0566156
3.30724,0.474812,-0.21413
3.22651,-0.0129523,-0.187905
3.25213,0.305699,0.190231
3.23805,0.14534,0.132054
3.24522,0.305049,0.400219
3.29545,0.47312,-0.135637
3.26472,0.306882,-0.0763031
3.29139,0.460818,-0.0580118
3.25869,0.294844,0
3.21969,-0.0241635,-0.0374843
3.25493,0.134715,-0.414665
3.22918,0.13365,-0.0187841
3.28352,0.29709,-0.355134
3.22588,-0.02421,-0.301139
3.25382,0.294404,0.0760239
3.20369,-0.0240434,0.037298
3.2746,0.296283,-0.229917
3.2504,0.134528,-0.265574
3.28258,0.459584,0.0964642
3.24073,0.134128,0.0566156
3.29701,0.461605,-0.213362
3.22245,-0.0241842,-0.187673
3.2492,0.293986,0.189998
3.23055,0.133706,0.131729
3.27904,0.296685,-0.153367
3.23835,0.293004,0.399244
3.29708,0.461615,-0.135637
3.26577,0.295485,-0.0763031
3.28886,0.449933,-0.057942
3.2196,-0.0342792,-0.0374843
3.25137,0.124336,-0.41416
3.27742,0.448367,0.0192258
3.23358,0.123656,-0.0188074
3.22579,-0.0343452,-0.301139
3.1996,-0.0340663,0.0372515
3.26756,0.285299,-0.229359
3.25479,0.124467,-0.265899
3.23314,0.123639,0.056476
3.3024,0.451785,-0.213618
3.22236,-0.0343086,-0.187673
3.23096,0.123556,0.131729
3.27597,0.286034,-0.15318
3.29059,0.45017,-0.135311
3.27067,0.285571,-0.0763962
3.28248,0.437394,-0.0578024
3.21146,-0.0454038,-0.0373912
3.25179,0.112987,-0.41416
3.24199,0.112646,-0.0188539
3.28541,0.275307,-0.355134
3.22964,-0.0456607,-0.301511
3.25172,0.272483,0.0759309
3.26854,0.273892,-0.229359
3.24723,0.112829,-0.265248
3.23356,0.112353,0.056476
3.29605,0.439201,-0.213107
3.22222,-0.0455558,-0.187673
3.2471,0.272096,0.189766
3.22737,0.112139,0.131566
3.28422,0.437626,-0.134985
3.26368,0.273485,-0.0762101
3.2801,0.424847,-0.0577326
3.25358,0.260635,0
3.21127,-0.0571733,-0.0373912
3.24425,0.100822,-0.41315
3.23838,0.10064,-0.0188306
3.24871,0.260245,0.0758378
3.19928,-0.0569597,0.0372515
3.26952,0.261911,-0.229359
3.24364,0.100803,-0.264923
3.22995,0.100378,0.0564062
3.28972,0.426093,-0.212595
3.24011,0.259556,0.189301
3.23575,0.100558,0.131892
3.27395,0.262267,-0.152994
3.28184,0.425073,-0.134823
3.26864,0.261841,-0.0763031
3.25442,0.249845,0
3.20707,-0.0677369,-0.0373446
3.24853,0.0901738,-0.413655
3.2267,0.089568,-0.0187609
3.27139,0.251147,-0.35342
3.22526,-0.068121,-0.301139
3.24557,0.249165,0.0757448
3.19507,-0.0674835,0.0372049
3.27037,0.251069,-0.229359
3.24395,0.0900469,-0.264923
3.23026,0.0896668,0.0564062
3.28715,0.414682,-0.212339
3.21384,-0.0678799,-0.187208
3.24494,0.249116,0.189533
3.22808,0.0896061,0.131566
3.23017,0.247982,0.397782
3.27927,0.413688,-0.13466
3.26152,0.250389,-0.076117
3.20281,-0.0788337,-0.037298
3.24882,0.0788329,-0.413655
3.23099,0.0784003,-0.0187841
3.22102,-0.0792817,-0.300767
3.19482,-0.0786368,0.0372049
3.27122,0.23965,-0.229359
3.24026,0.0786252,-0.264597
3.22656,0.0782927,0.0563364
3.28858,0.403205,-0.212339
3.21757,-0.0791969,-0.18744
3.23782,0.237203,0.189068
3.22438,0.0782397,0.131403
3.26769,0.239392,-0.152622
3.23101,0.236704,0.397782
3.28069,0.402238,-0.13466
3.26237,0.239002,-0.076117
3.27245,0.389059,-0.0575231
3.2065,-0.0906844,-0.0373446
3.24116,0.0667621,-0.412645
3.26892,0.38864,0.0191328
3.22726,0.0664759,-0.0187609
3.27708,0.228007,-0.353849
3.23929,0.225378,0.0755587
3.19051,-0.0902321,0.0371583
3.26412,0.227106,-0.228801
3.22682,0.0664669,0.0563364
3.28607,0.390678,-0.212083
3.21726,-0.0909887,-0.18744
3.24265,0.225612,0.189301
3.22464,0.0664219,0.131403
3.26855,0.227414,-0.152622
3.27817,0.38974,-0.134497
3.26323,0.227044,-0.076117
3.2777,0.378663,-0.0575929
3.19819,-0.101065,-0.0372515
3.24136,0.0560128,-0.412645
3.26622,0.377337,0.0191096
3.22038,-0.101767,-0.300767
3.24401,0.214899,0.0756517
3.19419,-0.100939,0.0372049
3.26087,0.216016,-0.228522
3.23675,0.0559331,-0.264272
3.23103,0.0558342,0.0564062
3.28338,0.37932,-0.211827
3.2394,0.214593,0.189068
3.21285,0.0555202,0.130915
3.2653,0.216309,-0.152436
3.27548,0.378407,-0.134334
3.27105,0.366329,-0.0574533
3.19781,-0.112229,-0.0372515
3.26226,0.204672,-0.50853
3.2336,0.0445877,-0.411634
3.22764,0.0445055,-0.0187609
3.26664,0.204947,-0.352564
3.21603,-0.112869,-0.300395
3.24474,0.203573,0.0756517
3.18982,-0.111949,0.0371583
3.25762,0.204381,-0.228243
3.23294,0.0445786,-0.263946
3.2272,0.0444995,0.0563364
3.28072,0.367411,-0.211572
3.21258,-0.112747,-0.187208
3.23216,0.202783,0.188603
3.22102,0.0444143,0.13124
3.22143,0.20211,0.396319
3.2607,0.204574,-0.0760239
3.23836,0.19126,0
3.19738,-0.123948,-0.0372515
3.26299,0.192715,-0.50853
3.23374,0.0327364,-0.411634
3.21978,0.0325951,-0.0187144
3.26737,0.192974,-0.352564
3.23748,0.191208,0.0754656
3.18939,-0.123639,0.0371583
3.25039,0.19197,-0.227685
3.23707,0.0327701,-0.264272
3.25956,0.352951,0.095417
3.22334,0.0326312,0.0562666
3.27807,0.354955,-0.211316
3.20416,-0.124211,-0.186743
3.22889,0.190701,0.18837
3.21717,0.0325686,0.131077
3.26277,0.192702,-0.15225
3.27016,0.354098,-0.134008
3.23897,0.180521,0
3.19695,-0.13455,-0.0372515
3.23383,0.0220134,-0.411634
3.26204,0.342279,0.0190631
3.21987,0.0219184,-0.0187144
3.26402,0.181917,-0.352135
3.20721,-0.134981,-0.299652
3.2381,0.180472,0.0754656
3.18896,-0.134214,0.0371583
3.25897,0.181635,-0.228243
3.23716,0.022036,-0.264272
3.22343,0.0219426,0.0562666
3.27923,0.344084,-0.211316
3.20772,-0.135003,-0.186975
3.22951,0.179993,0.18837
3.20926,0.0218461,0.130752
3.2594,0.181659,-0.152064
3.27529,0.34367,-0.134171
3.25806,0.181585,-0.0759309
3.19646,-0.145709,-0.0372515
3.25634,0.170088,-0.507301
3.22992,0.0107111,-0.411129
3.21993,0.0106779,-0.0187144
3.23072,0.16875,0.0752795
3.24763,0.169633,-0.227406
3.23721,0.0107352,-0.264272
3.22349,0.0106897,0.0562666
3.28041,0.332634,-0.211316
3.20723,-0.1462,-0.186975
3.23012,0.168718,0.18837
3.20932,0.0106427,0.130752
3.25603,0.170071,-0.151878
3.25468,0.170001,-0.0758378
3.25992,0.319065,-0.0571741
3.18395,-0.156277,-0.0371118
3.23391,-0.000563546,-0.411634
3.26037,0.319108,0.0190398
3.22395,-0.00056181,-0.0187376
3.26521,0.159125,-0.352135
3.23528,0.157667,0.0753726
3.25219,0.158491,-0.227685
3.22527,-0.000562041,-0.263295
3.21951,-0.000561037,0.0561968
3.27758,0.320793,-0.21106
3.20271,-0.157198,-0.186743
3.23069,0.157443,0.18837
3.21333,-0.000559961,0.130915
3.25261,0.158511,-0.151691
3.17939,-0.167181,-0.0370652
3.22595,-0.0118238,-0.410624
3.21992,-0.0118017,-0.0187144
3.23182,0.146191,0.0752795
3.17939,-0.167181,0.0370652
3.24475,0.146776,-0.227127
3.22525,-0.0118212,-0.263295
3.21549,-0.0117854,0.0561269
3.27073,0.308599,-0.210548
3.19816,-0.168168,-0.18651
3.23122,0.146164,0.18837
3.20532,-0.0117482,0.130589
3.26279,0.30785,-0.13352
3.18681,-0.17817,-0.0371583
3.25002,0.136217,-0.506071
3.22193,-0.022493,-0.410119
3.2545,0.296183,0.0189933
3.21187,-0.0224228,-0.0186679
3.25033,0.13623,-0.350422
3.23628,0.135641,0.0753726
3.17483,-0.1775,0.0370186
3.24522,0.136016,-0.227127
3.22519,-0.0225158,-0.263295
3.21143,-0.0224197,0.0560571
3.26379,0.297029,-0.210037
3.19359,-0.178549,-0.186277
3.2237,0.135114,0.187905
3.20127,-0.0223488,0.130426
3.25981,0.296667,-0.133357
3.18617,-0.189292,-0.0371583
3.25047,0.124872,-0.506071
3.25551,0.284822,0.0189933
3.20777,-0.0335916,-0.0186446
3.22475,0.123884,0.0750934
3.24966,0.124841,-0.227406
3.22509,-0.033773,-0.263295
3.2502,0.284357,0.0949515
3.21133,-0.0336289,0.0560571
3.26481,0.285635,-0.210037
3.19295,-0.189695,-0.186277
3.22415,0.123861,0.187905
3.24209,0.12455,-0.151133
3.24872,0.124805,-0.0756517
3.18545,-0.200969,-0.0371583
3.24696,0.112819,-0.505456
3.25653,0.272887,0.0189933
3.20363,-0.0452927,-0.0186214
3.25122,0.112967,-0.350422
3.22518,0.112063,0.0750934
3.24212,0.112651,-0.226848
3.22495,-0.0455942,-0.263295
3.20719,-0.0453431,0.0559873
3.26583,0.273666,-0.210037
3.2002,-0.2019,-0.186743
3.22459,0.112042,0.187905
3.19703,-0.0451994,0.130263
3.23853,0.112527,-0.150947
3.20216,-0.0558942,-0.0932061
3.17678,-0.211002,-0.0370652
3.24731,0.102051,-0.505456
3.25343,0.261764,0.0189701
3.20746,-0.0559868,-0.0186446
3.25158,0.102185,-0.350422
3.22953,0.101492,0.0751865
3.23849,0.101773,-0.226569
3.21681,-0.05615,-0.262645
3.20702,-0.0559792,0.0559873
3.22494,0.101347,0.187905
3.19286,-0.055732,0.1301
3.24687,0.102037,-0.151319
3.22309,-0.0562595,-0.16894
3.17603,-0.222089,-0.0370652
3.2437,0.090605,-0.504841
3.25433,0.250407,0.0189701
3.21124,-0.0672656,-0.0186679
3.22587,0.090107,0.0750934
3.23883,0.0904689,-0.226569
3.21659,-0.0673777,-0.262645
3.20281,-0.067089,0.0559175
3.22128,0.0899789,0.187673
3.19265,-0.0668762,0.1301
3.24322,0.0905916,-0.151133
3.19769,-0.0781499,-0.0930897
3.17523,-0.233175,-0.0370652
3.24795,0.0793781,-0.505456
3.2472,0.23846,0.0189236
3.19499,-0.0780839,-0.0185749
3.25221,0.0794823,-0.350422
3.23016,0.0789434,0.0751865
3.23912,0.0791624,-0.226569
3.21235,-0.0785082,-0.262319
3.20256,-0.0782688,0.0559175
3.18999,-0.234258,-0.186277
3.21359,0.0785385,0.187208
3.1884,-0.0779229,0.129938
3.24351,0.0792698,-0.151133
3.1744,-0.244257,-0.0370652
3.24801,0.227123,0.0189236
3.2067,-0.0895711,-0.0186446
3.24452,0.0679629,-0.349565
3.21842,0.0674163,0.0749073
3.2314,0.0676882,-0.226011
3.22003,-0.0899435,-0.26297
3.19827,-0.0893356,0.0558477
3.18915,-0.245392,-0.186277
3.21784,0.0674042,0.18744
3.23978,0.0678636,-0.150947
3.23841,0.0678351,-0.0753726
3.24483,0.214953,0.0189003
3.19835,-0.101071,-0.0185981
3.24474,0.0560707,-0.349565
3.22265,0.0556889,0.0750004
3.22764,0.0557751,-0.225732
3.21569,-0.101619,-0.262645
3.23953,0.214601,0.0944861
3.20191,-0.101184,0.0559175
3.21807,0.0556097,0.18744
3.23601,0.0559198,-0.150761
3.23464,0.0558962,-0.0752795
3.24154,0.20394,0.0188771
3.20599,-0.111956,-0.0186446
3.24491,0.0453105,-0.349565
3.22281,0.0450019,0.0750004
3.20737,-0.112004,-0.261994
3.19756,-0.111661,0.0558477
3.21424,0.0448822,0.187208
3.23218,0.0451327,-0.150575
3.24223,0.192624,0.0188771
3.19359,-0.122685,-0.0185749
3.24505,0.0339833,-0.349565
3.22295,0.0337519,0.0750004
3.22395,0.0337624,-0.225453
3.20696,-0.123199,-0.261994
3.18916,-0.122515,0.0557081
3.21837,0.0337039,0.18744
3.22832,0.0338082,-0.150389
3.18785,-0.133611,-0.092857
3.23889,0.181082,0.0188539
3.18915,-0.133665,-0.0185516
3.23322,0.0225725,-0.34828
3.22305,0.0225015,0.0750004
3.22006,0.0224806,-0.225174
3.20651,-0.134393,-0.261994
3.18871,-0.133647,0.0557081
3.21048,0.0224138,0.186975
3.22842,0.022539,-0.150389
3.24749,0.170194,0.0189003
3.18466,-0.144615,-0.0185284
3.23328,0.0112863,-0.34828
3.21511,0.0112229,0.0748143
3.20602,-0.145585,-0.261994
3.2302,0.169287,0.094137
3.19622,-0.145139,0.0558477
3.20655,0.011193,0.186743
3.22711,0.0112648,-0.0750934
3.24407,0.158661,0.0188771
3.18814,-0.155926,-0.0185516
3.2333,-0,-0.34828
3.21913,-0,0.0749073
3.21615,-0,-0.224895
3.20549,-0.156775,-0.261994
3.23077,0.158011,0.094137
3.18371,-0.155709,0.0556383
3.21056,-0,0.186975
3.21651,-0,-0.14983
3.2446,0.147337,0.0188771
3.18757,-0.167054,-0.0185516
3.21511,-0.0112229,0.0748143
3.19696,-0.167546,-0.261343
3.242,0.147218,-0.20799
3.21054,-0.0112069,0.186975
3.21649,-0.0112277,-0.14983
3.23267,0.135489,-0.056476
3.23311,0.135507,0.0188074
3.18298,-0.177956,-0.0185284
3.22924,-0.0225447,-0.347851
3.2278,0.135285,0.0940206
3.20649,-0.0223859,0.186743
3.21244,-0.0224274,-0.149644
3.23756,0.124374,0.0188306
3.17834,-0.188828,-0.0185051
3.22914,-0.0338167,-0.347851
3.21495,-0.0336681,0.0748143
3.21198,-0.033637,-0.224616
3.19441,-0.033453,0.186045
3.20835,-0.0335989,-0.149458
3.23393,0.114062,0.0188074
3.17374,-0.198563,-0.0184819
3.22504,-0.0439071,-0.347423
3.21083,-0.0437136,0.0747212
3.20787,-0.0436732,-0.224337
3.22463,0.113734,0.0939042
3.20822,-0.0436781,-0.149458
3.21883,-0.0438225,-0.0749073
3.23431,0.102773,0.0188074
3.185,-0.210431,-0.0185516
3.20666,-0.0548528,0.0746282
3.22101,0.10235,0.0937879
3.23174,0.102691,-0.207222
3.20406,-0.0548083,-0.149272
3.22222,0.0911304,-0.0562666
3.23065,0.0913689,0.0187841
3.17228,-0.220715,-0.0184819
3.22068,-0.066339,-0.346994
3.21735,0.0909927,0.0936715
3.20385,-0.0659922,-0.149272
3.22296,0.079893,0.0187376
3.22043,-0.0775808,-0.346994
3.20325,-0.0771669,-0.224058
3.22838,0.0800276,-0.206967
3.2036,-0.0771753,-0.149272
3.19077,-0.088569,0
3.21923,0.0679953,0.0187144
3.2019,-0.0888779,0.0745351
3.20693,-0.0890175,-0.224337
3.21392,0.0678832,0.0935552
3.22865,0.0681944,-0.206967
3.21128,-0.0891383,-0.149644
3.22343,0.0573908,0.0187376
3.20159,-0.0994953,0.0745351
3.22487,0.0574164,-0.206711
3.22082,0.0573442,-0.13124
3.20958,-0.0997437,-0.0747212
3.22362,0.0461386,0.0187376
3.19722,-0.110532,0.0744421
3.19828,-0.110568,-0.223779
3.21031,0.0459482,0.0934388
3.22505,0.0461592,-0.206711
3.18848,-0.266623,-0.167684
3.221,0.0461011,-0.13124
3.20921,-0.110947,-0.0747212
3.16666,-0.275933,-0.0925079
3.18569,-0.121268,0
3.21576,0.0347992,0.0186911
3.20081,-0.121844,0.0745351
3.20645,0.0346985,0.0933224
3.2212,0.0348581,-0.206455
3.19422,-0.121593,-0.1489
3.21542,0.0235707,-0.0561269
3.21186,0.0235446,0.0186679
3.20141,-0.133059,-0.224058
3.2213,0.0236138,-0.206455
3.19777,-0.132908,-0.149086
3.21149,0.0123313,-0.0560571
3.21192,0.012333,0.0186679
3.19296,-0.143874,-0.2235
3.20662,0.0123126,0.0933224
3.21738,0.0123539,-0.206199
3.19329,-0.14389,-0.1489
3.21331,0.0123383,-0.130915
3.20388,-0.144367,-0.0746282
3.20751,0.00111964,-0.0559873
3.18025,-0.154428,0
3.21595,0.00112258,0.0186911
3.19642,-0.155213,-0.223779
3.20264,0.00111794,0.0932061
3.2174,0.00112309,-0.206199
3.18878,-0.154842,-0.148713
3.21733,0.00112306,-0.131077
3.19537,-0.155162,-0.0744421
3.2115,-0.00952874,-0.0560571
3.21193,-0.00953003,0.0186679
3.19589,-0.165811,-0.223779
3.20663,-0.0095143,0.0933224
3.21739,-0.00954622,-0.206199
3.19224,-0.165622,-0.1489
3.21332,-0.00953416,-0.130915
3.20744,-0.0207131,-0.0559873
3.20388,-0.02069,0.0186214
3.19858,-0.0206558,0.0930897
3.21733,-0.0207769,-0.206199
3.18366,-0.176322,-0.148527
3.20735,-0.031909,-0.0559873
3.19849,-0.0318208,0.0930897
3.21325,-0.0319677,-0.205943
3.18702,-0.187669,-0.148713
3.20322,-0.0430508,-0.0559175
3.17383,-0.198012,0
3.20366,-0.0430566,0.0186214
3.18601,-0.198772,-0.223221
3.19836,-0.0429854,0.0930897
3.21312,-0.0431838,-0.205943
3.18634,-0.198793,-0.148713
3.20505,-0.0430754,-0.130589
3.20705,-0.0542996,-0.0559873
3.19549,-0.0541038,0.0185749
3.19326,-0.210417,-0.223779
3.19419,-0.0540818,0.0929733
3.21694,-0.054467,-0.206199
3.18563,-0.209914,-0.148713
3.20888,-0.0543305,-0.130752
3.20284,-0.0654123,-0.0559175
3.20328,-0.0654211,0.0186214
3.19398,-0.0652313,0.0929733
3.21274,-0.0656143,-0.205943
3.18488,-0.221033,-0.148713
3.20467,-0.0654496,-0.130589
3.1986,-0.0764963,-0.0558477
3.19503,-0.076411,0.0185749
3.18974,-0.0762844,0.092857
3.2085,-0.076733,-0.205687
3.1801,-0.231858,-0.148527
3.20043,-0.0765401,-0.130426
3.18668,-0.232337,-0.074349
3.20231,-0.0877706,-0.0559175
3.19075,-0.0874537,0.0185516
3.20821,-0.0879323,-0.205687
3.17927,-0.242957,-0.148527
3.20014,-0.0877112,-0.130426
3.18585,-0.24346,-0.074349
3.19399,-0.0987011,-0.0557779
3.18513,-0.0984274,0.0927406
3.20788,-0.0991305,-0.205687
3.17841,-0.254054,-0.148527
3.20381,-0.0990047,-0.130589
3.18498,-0.254579,-0.074349
3.19362,-0.10985,-0.0557779
3.18477,-0.109545,0.0927406
3.20353,-0.11019,-0.205432
3.1775,-0.265147,-0.148527
3.19945,-0.11005,-0.130426
3.19322,-0.120997,-0.0557779
3.18566,-0.12071,0.0185284
3.20313,-0.121372,-0.205432
3.16859,-0.275544,-0.148155
3.19905,-0.121218,-0.130426
3.17515,-0.276115,-0.0741629
3.19678,-0.132308,-0.0558477
3.18922,-0.131995,0.0185516
3.20268,-0.132552,-0.205432
3.18353,-0.288043,-0.1489
3.19461,-0.132218,-0.130263
3.1923,-0.143287,-0.0557779
3.18074,-0.142768,0.0185051
3.19821,-0.143552,-0.205176
3.19014,-0.14319,-0.1301
3.18382,-0.153487,-0.0556383
3.20171,-0.154349,-0.205432
3.19364,-0.15396,-0.130263
3.18726,-0.164806,-0.0557081
3.1797,-0.164415,0.0185051
3.19716,-0.165318,-0.205176
3.18909,-0.164901,-0.1301
3.18666,-0.17593,-0.0557081
3.1831,-0.175734,0.0185284
3.20055,-0.176697,-0.205432
3.19249,-0.176252,-0.130263
3.19002,-0.187287,-0.0557779
3.17847,-0.186609,0.0185051
3.19991,-0.187868,-0.205432
3.18786,-0.187161,-0.1301
3.18935,-0.198421,-0.0557779
3.19525,-0.198789,-0.205176
3.18719,-0.198287,-0.1301
3.17666,-0.208766,-0.0555685
3.18657,-0.209418,-0.204664
3.18648,-0.209411,-0.1301
3.17591,-0.219854,-0.0555685
3.19379,-0.221091,-0.205176
3.18573,-0.220533,-0.1301
3.17509,-0.231492,-0.0555685
3.1849,-0.232208,-0.1301
3.1743,-0.24202,-0.0555685
3.18012,-0.242464,-0.129938
3.17344,-0.253099,-0.0555685
3.17926,-0.253563,-0.129938
3.17835,-0.264659,-0.129938
3.17741,-0.275752,-0.129938
3.17643,-0.286842,-0.129938
3.17143,-0.297555,-0.129775
