3.37515,0.694663,-0.120333
3.44363,0.646327,-0.0407904
3.44194,0.633577,-0.0407438
3.44828,0.598101,-0.0407438
3.45045,0.58546,-0.0407438
3.33461,0.565805,-0.196975
3.45631,0.574669,-0.0407904
3.33647,0.554743,-0.196975
3.45435,0.561958,-0.0407438
3.34627,0.544374,-0.19744
3.45629,0.549897,-0.0407438
3.34026,0.531436,-0.196975
3.46214,0.538443,-0.0407904
3.52933,0.548892,0.041582
3.34604,0.520386,-0.197208
3.46005,0.525754,-0.0407438
3.52727,0.535969,0.0415354
3.34783,0.508704,-0.197208
3.46195,0.513068,-0.0407438
3.53317,0.523623,0.041582
3.34573,0.495844,-0.196975
3.46759,0.502159,-0.0407904
3.52301,0.510185,0.0414423
3.3513,0.485319,-0.197208
3.4614,0.488934,-0.0406972
3.53269,0.499003,0.0415354
3.35298,0.473619,-0.197208
3.46705,0.477393,-0.0407438
3.53441,0.486668,0.0415354
3.35065,0.461366,-0.196975
3.34482,0.628382,-0.178361
3.47258,0.466426,-0.0407904
3.536,0.474946,0.0415354
3.34821,0.449721,-0.196742
3.47418,0.454301,-0.0407904
3.53764,0.462599,0.0415354
3.35372,0.438548,-0.196975
3.47972,0.442677,-0.0408369
3.47381,0.615653,-0.0205044
3.2713,0.416162,-0.307831
3.5313,0.449238,0.0414423
3.35523,0.426839,-0.196975
3.35897,0.595301,-0.17878
3.46933,0.429054,-0.0406972
3.46805,0.602154,-0.0204579
3.53285,0.436908,0.0414423
3.36066,0.415614,-0.197208
3.3571,0.582888,-0.17857
3.47875,0.417896,-0.0407904
3.47408,0.590716,-0.0204812
3.53038,0.424097,0.0413957
3.36606,0.404358,-0.19744
3.35911,0.571167,-0.17857
3.48019,0.405751,-0.0407904
3.47217,0.577929,-0.0204579
3.5517,0.414088,0.0416285
3.36348,0.392144,-0.197208
3.48158,0.393599,-0.0407904
3.48206,0.56709,-0.0205044
3.28075,0.370894,-0.308203
3.5412,0.400339,0.0414888
3.36483,0.3804,-0.197208
3.49089,0.382315,-0.0408835
3.48007,0.554304,-0.0204812
3.28202,0.359441,-0.308203
3.5386,0.387541,0.0414423
3.36614,0.368653,-0.197208
3.36491,0.53596,-0.17857
3.48425,0.369284,-0.0407904
3.47803,0.541536,-0.0204579
3.54391,0.375607,0.0414888
3.36343,0.356479,-0.196975
3.36676,0.524211,-0.17857
3.48154,0.356712,-0.0407438
3.48781,0.530596,-0.0205044
3.55316,0.36405,0.041582
3.36863,0.345144,-0.197208
3.36462,0.511855,-0.178361
3.40982,0.690638,-0.0809557
3.40913,0.506456,-0.100304
3.48674,0.34495,-0.0407904
3.48173,0.517242,-0.0204579
3.55043,0.35125,0.0415354
3.36584,0.332989,-0.196975
3.47996,0.332016,-0.0406972
3.49143,0.506232,-0.0205044
3.27879,0.312823,-0.307459
3.55163,0.338854,0.0415354
3.29842,0.478247,-0.272083
3.55429,0.515346,0.062689
3.363,0.320858,-0.196742
3.40671,0.665282,-0.0807696
3.49305,0.320967,-0.0408369
3.48922,0.493484,-0.0204812
3.55279,0.326457,0.0415354
3.55606,0.502938,0.062689
3.36808,0.309484,-0.196975
3.36979,0.476594,-0.178361
3.48607,0.309286,-0.0407438
3.49075,0.482521,-0.0204812
3.28873,0.291777,-0.308203
3.54981,0.314941,0.0414888
3.37301,0.299255,-0.197208
3.40712,0.641936,-0.0806766
3.41579,0.459404,-0.100304
3.48319,0.296165,-0.0406972
3.49646,0.470254,-0.0205044
3.28978,0.279719,-0.308203
3.55493,0.302265,0.0415354
3.55941,0.47872,0.062689
3.37409,0.286888,-0.197208
3.35559,0.619499,-0.15895
3.41338,0.630167,-0.0807696
3.49218,0.284657,-0.0407904
3.49015,0.45701,-0.0204579
3.54799,0.289206,0.0414423
3.30075,0.43221,-0.271757
3.56105,0.466295,0.062689
3.37905,0.275435,-0.19744
3.3538,0.607073,-0.158764
3.41162,0.617538,-0.0806766
3.4777,0.616968,0
3.50113,0.273086,-0.0408835
3.49172,0.444823,-0.0204579
3.56094,0.277752,0.041582
3.56663,0.454366,0.0627589
3.37601,0.263327,-0.197208
3.35197,0.594663,-0.158578
3.41769,0.606324,-0.0807696
3.49807,0.260567,-0.0408369
3.49325,0.432633,-0.0204579
3.5579,0.265024,0.0415354
3.56422,0.441422,0.062689
3.37691,0.251542,-0.197208
3.3619,0.584328,-0.15895
3.41979,0.594391,-0.0807696
3.48576,0.593954,0
3.49094,0.248397,-0.0407438
3.29729,0.234618,-0.308574
3.55477,0.252939,0.0414888
3.30502,0.398197,-0.271757
3.56567,0.4296,0.062689
3.35988,0.572505,-0.158764
3.42568,0.583718,-0.0808627
3.43123,0.400648,-0.100537
3.48791,0.581173,0
3.49182,0.235599,-0.0407438
3.55567,0.239908,0.0414888
3.56722,0.416527,0.062689
3.38655,0.228496,-0.197673
3.36195,0.560185,-0.158764
3.42386,0.5705,-0.0807696
3.42459,0.388367,-0.100304
3.48587,0.56896,0
3.50057,0.224532,-0.0408369
3.5015,0.397089,-0.0204812
3.56443,0.228628,0.041582
3.30772,0.375114,-0.271757
3.56461,0.404245,0.0626192
3.38729,0.217266,-0.197673
3.62573,0.411178,0.148663
3.36774,0.549678,-0.15895
3.42573,0.559143,-0.0807696
3.42592,0.376411,-0.100304
3.49179,0.55742,0
3.49734,0.21207,-0.0407904
3.50286,0.384864,-0.0204812
3.29957,0.200077,-0.308574
3.57319,0.216669,0.0416751
3.30203,0.527127,-0.233824
3.56599,0.391801,0.0626192
3.38803,0.205441,-0.197673
3.63112,0.398956,0.148826
3.36569,0.53729,-0.158764
3.43161,0.547813,-0.0808627
3.50209,0.199478,-0.0408369
3.50425,0.372024,-0.0204812
3.30028,0.187983,-0.308574
3.55799,0.202662,0.0414888
3.30788,0.515636,-0.234103
3.57536,0.379573,0.0627589
3.38876,0.193023,-0.197673
3.63653,0.386067,0.148989
3.36369,0.524336,-0.158578
3.43754,0.535849,-0.0809557
3.42853,0.351886,-0.100304
3.49173,0.531817,0
3.49877,0.187038,-0.0407904
3.51348,0.360605,-0.0205277
3.56267,0.190454,0.0415354
3.30571,0.503485,-0.233824
3.57269,0.366682,0.062689
3.38941,0.181192,-0.197673
3.63388,0.372962,0.148826
3.3655,0.51259,-0.158578
3.35687,0.680525,-0.139545
3.43544,0.523243,-0.0808627
3.42968,0.340514,-0.100304
3.49348,0.520234,0
3.49937,0.175433,-0.0407904
3.19834,0.317546,-0.409109
3.57127,0.179038,0.0416285
3.30736,0.492519,-0.233824
3.57786,0.355226,0.0627589
3.38999,0.16995,-0.197673
3.6351,0.360909,0.148826
3.37508,0.502603,-0.15895
3.43716,0.511847,-0.0808627
3.44279,0.329683,-0.100653
3.49923,0.508611,0
3.49996,0.163216,-0.0407904
3.20733,0.307135,-0.410119
3.50391,0.335536,-0.0204579
3.57188,0.16657,0.0416285
3.31696,0.482118,-0.234382
3.5751,0.342353,0.062689
3.38657,0.157929,-0.19744
3.63634,0.348217,0.148826
3.37286,0.490243,-0.158764
3.36143,0.657658,-0.139545
3.43497,0.49927,-0.0807696
3.49702,0.495834,0
3.5045,0.151173,-0.0408369
3.20443,0.295575,-0.409614
3.50506,0.323305,-0.0204579
3.57244,0.154103,0.0416285
3.31467,0.469979,-0.234103
3.57229,0.329506,0.0626192
3.3911,0.146281,-0.197673
3.63753,0.335524,0.148826
3.36664,0.477347,-0.158392
3.35978,0.645169,-0.139382
3.43669,0.487279,-0.0807696
3.43709,0.304334,-0.100421
3.49486,0.482465,0
3.51303,0.138642,-0.0409301
3.20154,0.283478,-0.409109
3.51419,0.311161,-0.0205044
3.56498,0.140692,0.0415354
3.58144,0.317116,0.0627589
3.39161,0.13385,-0.197673
3.63475,0.321836,0.148663
3.37233,0.46555,-0.158578
3.39405,0.300523,-0.17857
3.43449,0.474132,-0.0806766
3.42558,0.632422,-0.0608042
3.44212,0.292674,-0.100537
3.50048,0.470797,0
3.5055,0.126092,-0.0408369
3.20251,0.272301,-0.409109
3.51924,0.299232,-0.0205277
3.57484,0.480797,0.0839334
3.57345,0.128536,0.0416285
3.314,0.445716,-0.233824
3.63187,0.308809,0.1485
3.37393,0.453776,-0.158578
3.36431,0.62111,-0.139382
3.44405,0.463207,-0.0808627
3.43149,0.62237,-0.060874
3.44701,0.282184,-0.100653
3.50591,0.460317,0
3.50987,0.115208,-0.0408835
3.20731,0.262562,-0.409614
3.57633,0.469563,0.0839334
3.57783,0.117439,0.0416751
3.31538,0.435301,-0.233824
3.57948,0.293029,0.062689
3.39641,0.111484,-0.197905
3.64079,0.298048,0.148826
3.38722,0.444734,-0.159136
3.45342,0.453425,-0.0810488
3.44408,0.268637,-0.100537
3.49972,0.445842,0
3.51029,0.101731,-0.0408835
3.20829,0.250246,-0.409614
3.52125,0.274656,-0.0205277
3.58207,0.456334,0.0840265
3.57426,0.103585,0.0416285
3.31703,0.422569,-0.233824
3.58058,0.279284,0.062689
3.39682,0.0984428,-0.197905
3.64589,0.284378,0.148989
3.38494,0.431221,-0.15895
3.43927,0.438141,-0.0806766
3.43693,0.257218,-0.100304
3.50507,0.435337,0
3.51459,0.0908053,-0.0409301
3.20906,0.240164,-0.409614
3.5181,0.263293,-0.0205044
3.57952,0.444584,0.0839334
3.58256,0.0925615,0.0417216
3.3223,0.412637,-0.234103
3.58144,0.268033,0.062689
3.39711,0.08777,-0.197905
3.64677,0.272922,0.148989
3.38232,0.420091,-0.158764
3.44856,0.428319,-0.0808627
3.43387,0.58573,-0.0608042
3.44578,0.245789,-0.100537
3.50657,0.4231,0
3.51888,0.0786266,-0.0409766
3.20592,0.228679,-0.409109
3.49743,0.59657,0.0206207
3.52299,0.251296,-0.0205277
3.57708,0.431608,0.0838404
3.57886,0.0799668,0.0416751
3.31976,0.40056,-0.233824
3.58634,0.255815,0.0627589
3.39739,0.075912,-0.197905
3.64371,0.259907,0.148826
3.38376,0.408283,-0.158764
3.36851,0.574581,-0.139219
3.45004,0.416279,-0.0808627
3.43215,0.571882,-0.0607344
3.44271,0.232286,-0.100421
3.51214,0.410096,0
3.51116,0.0649657,-0.0408835
3.58268,0.418333,0.0839334
3.57515,0.0661496,0.0416285
3.31731,0.387346,-0.233545
3.32535,0.224368,-0.272083
3.59129,0.242311,0.0628287
3.32327,0.55374,-0.215921
3.39766,0.0628656,-0.197905
3.64867,0.246182,0.148989
3.3853,0.395286,-0.158764
3.45955,0.403956,-0.0810488
3.44577,0.563032,-0.0609438
3.44741,0.221727,-0.100537
3.50944,0.398609,0
3.51535,0.0539968,-0.0409301
3.5015,0.572139,0.0206207
3.58795,0.407528,0.0840265
3.57933,0.0549797,0.0416751
3.32247,0.377374,-0.233824
3.58405,0.230514,0.062689
3.31711,0.54201,-0.215409
3.40583,0.0523145,-0.19837
3.65341,0.234976,0.149151
3.3905,0.385101,-0.15895
3.45683,0.392635,-0.0809557
3.45216,0.209933,-0.100653
3.51478,0.386793,0
3.51951,0.0417721,-0.0409766
3.49953,0.559281,0.0205974
3.52144,0.214146,-0.0205044
3.23761,0.356292,-0.35085
3.58935,0.395,0.0840265
3.32774,0.36621,-0.234103
3.59281,0.218487,0.0628287
3.32293,0.531057,-0.215665
3.398,0.04033,-0.197905
3.69539,0.406669,0.21651
3.65022,0.221978,0.148989
3.39182,0.373262,-0.15895
3.37434,0.539274,-0.139219
3.45023,0.37969,-0.0807696
3.44172,0.53773,-0.0608042
3.44489,0.197427,-0.100421
3.52407,0.375372,0
3.51564,0.0294554,-0.0409301
3.50146,0.547064,0.0205974
3.52615,0.202084,-0.0205277
3.24279,0.345412,-0.351278
3.58276,0.381624,0.0838404
3.33296,0.355016,-0.234382
3.59356,0.205947,0.0628287
3.32476,0.519457,-0.215665
3.39812,0.0284708,-0.197905
3.65098,0.209238,0.148989
3.38913,0.360999,-0.158764
3.37621,0.527495,-0.139219
3.45154,0.367646,-0.0807696
3.43971,0.524506,-0.0607344
3.44559,0.184797,-0.100421
3.5095,0.360814,0
3.52372,0.0166049,-0.0410232
3.50344,0.534225,0.0205974
3.53087,0.18937,-0.0205509
3.24404,0.333522,-0.351278
3.59209,0.369305,0.0840265
3.3263,0.341979,-0.233824
3.59429,0.192772,0.0628287
3.32664,0.507265,-0.215665
3.4022,0.0160322,-0.198138
3.69026,0.379398,0.216045
3.38646,0.348164,-0.158578
3.38207,0.515717,-0.139382
3.46082,0.355809,-0.0809557
3.44934,0.514277,-0.060874
3.45017,0.173571,-0.100537
3.51864,0.349967,0
3.51576,0.00490926,-0.0409301
3.51311,0.523784,0.0206439
3.52748,0.17746,-0.0205277
3.24512,0.322763,-0.351278
3.59329,0.357392,0.0840265
3.33139,0.331343,-0.234103
3.5989,0.181053,0.0628985
3.3362,0.497409,-0.216176
3.40623,0.00475631,-0.19837
3.68753,0.366764,0.215812
3.39157,0.337328,-0.158764
3.46198,0.344331,-0.0809557
3.44725,0.501057,-0.0608042
3.45478,0.161112,-0.100653
3.5199,0.337069,0
3.51575,-0.00797593,-0.0409301
3.50709,0.509755,0.0205974
3.25024,0.311246,-0.351707
3.33258,0.319131,-0.234103
3.59155,0.16749,0.0627589
3.3301,0.48403,-0.215665
3.40223,-0.00771838,-0.198138
3.39676,0.325277,-0.15895
3.38163,0.49152,-0.139219
3.46322,0.331641,-0.0809557
3.45532,0.14905,-0.100653
3.51707,0.324412,0
3.5197,-0.0202721,-0.0409766
3.51281,0.49807,0.0206207
3.52466,0.152041,-0.0205044
3.23943,0.298802,-0.350422
3.59576,0.33167,0.0840265
3.33765,0.307862,-0.234382
3.59211,0.154951,0.0627589
3.33177,0.472402,-0.215665
3.39819,-0.0195722,-0.197905
3.69403,0.340735,0.216045
3.40185,0.313784,-0.159136
3.38333,0.479712,-0.139219
3.46435,0.319549,-0.0809557
3.44653,0.477633,-0.0607344
3.52206,0.313716,0
3.51962,-0.0313288,-0.0409766
3.50643,0.485934,0.0205742
3.53312,0.141288,-0.0205509
3.24828,0.28933,-0.351278
3.5928,0.320018,0.0839334
3.3386,0.297375,-0.234382
3.60057,0.143985,0.0628985
3.33324,0.461933,-0.215665
3.39486,0.302387,-0.158764
3.38482,0.469081,-0.139219
3.46136,0.30831,-0.0808627
3.44421,0.465065,-0.0606646
3.51516,0.300739,0
3.52349,-0.0436632,-0.0410232
3.51603,0.474763,0.0206207
3.53759,0.129101,-0.0205742
3.24927,0.277991,-0.351278
3.60186,0.308157,0.0841195
3.33962,0.28572,-0.234382
3.578,0.48313,0.105075
3.60105,0.131417,0.0628985
3.33483,0.450296,-0.215665
3.39988,0.290876,-0.15895
3.41304,0.124556,-0.178989
3.39039,0.457798,-0.139382
3.4664,0.296567,-0.0809557
3.4459,0.452438,-0.0606646
3.45268,0.113331,-0.100537
3.5282,0.288831,0
3.51378,0.461351,0.0205974
3.53804,0.116133,-0.0205742
3.25026,0.266079,-0.351278
3.60297,0.294953,0.0841195
3.34859,0.274128,-0.23494
3.57578,0.469492,0.104959
3.60551,0.118348,0.0629683
3.34042,0.438589,-0.215921
3.68541,0.301701,0.215347
3.40092,0.278412,-0.15895
3.38809,0.444848,-0.139219
3.46746,0.283859,-0.0809557
3.45531,0.442022,-0.0608042
3.45703,0.101998,-0.100653
3.52116,0.276503,0
3.51133,0.449188,0.0205742
3.5384,0.104399,-0.0205742
3.25113,0.255298,-0.351278
3.60393,0.283002,0.0841195
3.34153,0.262397,-0.234382
3.57732,0.45763,0.104959
3.58989,0.105918,0.062689
3.33394,0.426495,-0.215409
3.68639,0.289477,0.215347
3.40581,0.267445,-0.159136
3.38558,0.433102,-0.139056
3.46838,0.272358,-0.0809557
3.45286,0.429465,-0.0607344
3.46136,0.0900349,-0.10077
3.53008,0.264809,0
3.52081,0.437917,0.0206207
3.53474,0.0919436,-0.0205509
3.24803,0.243651,-0.35085
3.59692,0.269823,0.0839334
3.34242,0.250732,-0.234382
3.59823,0.0935951,0.0628287
3.34333,0.415841,-0.215921
3.41071,0.255854,-0.159323
3.41815,0.0889109,-0.179198
3.39104,0.421775,-0.139219
3.46931,0.26025,-0.0809557
3.46236,0.417766,-0.060874
3.46167,0.0773485,-0.10077
3.52305,0.2513,0
3.52239,0.42501,0.0206207
3.53506,0.0789883,-0.0205509
3.24494,0.231463,-0.350422
3.59788,0.256638,0.0839334
3.34332,0.23848,-0.234382
3.5805,0.432022,0.104959
3.34483,0.403585,-0.215921
3.40365,0.242784,-0.15895
3.39256,0.409344,-0.139219
3.46625,0.247249,-0.0808627
3.45585,0.404746,-0.0607344
3.46192,0.0652636,-0.10077
3.5239,0.239,0
3.52385,0.412711,0.0206207
3.54331,0.066798,-0.0205974
3.25366,0.220672,-0.351278
3.60275,0.244347,0.0840265
3.34413,0.226808,-0.234382
3.58596,0.419985,0.105075
3.34622,0.391906,-0.215921
3.40448,0.2309,-0.15895
3.39397,0.397499,-0.139219
3.47108,0.235418,-0.0809557
3.46115,0.393737,-0.0608042
3.46212,0.0537838,-0.10077
3.53266,0.227829,0
3.52918,0.401476,0.0206439
3.25834,0.210137,-0.351707
3.59955,0.232142,0.0839334
3.34487,0.215718,-0.234382
3.3475,0.380808,-0.215921
3.70202,0.238751,0.216045
3.41719,0.220382,-0.159509
3.3913,0.385791,-0.139056
3.47584,0.224164,-0.0810488
3.46257,0.381049,-0.0608042
3.46629,0.0411424,-0.100886
3.52948,0.214637,0
3.52665,0.388102,0.0206207
3.26306,0.198436,-0.352135
3.60836,0.219434,0.0841195
3.3536,0.203942,-0.23494
3.3449,0.368101,-0.215665
3.71483,0.225909,0.216742
3.41797,0.207856,-0.159509
3.42306,0.0406293,-0.179408
3.40063,0.374234,-0.139382
3.47663,0.211424,-0.0810488
3.46381,0.369564,-0.0608042
3.4744,0.029715,-0.101119
3.53017,0.202931,0
3.52792,0.376404,0.0206207
3.54781,0.0303428,-0.0206207
3.25973,0.187385,-0.351707
3.61306,0.207696,0.0842126
3.35426,0.192819,-0.23494
3.58612,0.382613,0.104959
3.34214,0.356582,-0.215409
3.41465,0.196291,-0.159323
3.40185,0.362954,-0.139382
3.47332,0.199663,-0.0809557
3.4611,0.357059,-0.0607344
3.46649,0.0175455,-0.100886
3.53885,0.191038,0
3.52523,0.363675,0.0205974
3.5399,0.017917,-0.0205742
3.26037,0.176004,-0.351707
3.60977,0.194866,0.0841195
3.35093,0.180893,-0.234661
3.59141,0.370503,0.105075
3.3513,0.345732,-0.215921
3.41133,0.184154,-0.159136
3.4031,0.351076,-0.139382
3.46233,0.344976,-0.0607344
3.46653,0.00544578,-0.100886
3.5315,0.178281,0
3.52648,0.351368,0.0205974
3.26493,0.164824,-0.352135
3.60643,0.182063,0.0840265
3.35154,0.169196,-0.234661
3.59268,0.357965,0.105075
3.35249,0.334032,-0.215921
3.41993,0.172648,-0.159509
3.42729,0.00538414,-0.179617
3.41226,0.339988,-0.139707
3.47863,0.175612,-0.0810488
3.46749,0.333272,-0.0608042
3.46653,-0.00665397,-0.100886
3.5321,0.165953,0
3.53167,0.33944,0.0206207
3.55193,-0.00681791,-0.0206439
3.26549,0.153426,-0.352135
3.60704,0.169474,0.0840265
3.35211,0.157496,-0.234661
3.35363,0.322329,-0.215921
3.42051,0.16071,-0.159509
3.40945,0.327693,-0.139545
3.48321,0.163656,-0.0811418
3.48052,0.322879,-0.0610136
3.47448,-0.0181922,-0.101119
3.54063,0.154587,0
3.52879,0.327356,0.0205974
3.54789,-0.0185765,-0.0206207
3.61558,0.15786,0.0842126
3.35261,0.146379,-0.234661
3.35866,0.311574,-0.216176
3.41704,0.149191,-0.159323
3.42725,-0.0179449,-0.179617
3.40654,0.316015,-0.139382
3.48773,0.152278,-0.0812349
3.4657,0.309304,-0.0607344
3.4744,-0.0303212,-0.101119
3.54115,0.142226,0
3.52991,0.315035,0.0205974
3.6201,0.145398,0.0843056
3.36108,0.134994,-0.235219
3.59618,0.32095,0.105075
3.35177,0.299137,-0.215665
3.42552,0.137583,-0.159695
3.43116,-0.0299439,-0.179826
3.4116,0.304476,-0.139545
3.48025,0.139781,-0.0810488
3.46681,0.296601,-0.0607344
3.54164,0.129247,0
3.53503,0.302437,0.0206207
3.61262,0.131837,0.0841195
3.36155,0.122675,-0.235219
3.59733,0.307768,0.105075
3.35683,0.287191,-0.215921
3.41402,0.12459,-0.159136
3.43103,-0.0425187,-0.179826
3.41667,0.292312,-0.139707
3.48474,0.127171,-0.0811418
3.46782,0.284498,-0.0607344
3.53807,0.116753,0
3.54005,0.290424,0.0206439
3.62105,0.119491,0.0843056
3.35797,0.110809,-0.23494
3.36179,0.275799,-0.216176
3.42242,0.112936,-0.159509
3.43086,-0.0544943,-0.179826
3.41767,0.280384,-0.139707
3.48516,0.115007,-0.0811418
3.46874,0.272998,-0.0607344
3.53844,0.10502,0
3.54498,0.278997,0.0206672
3.61743,0.107364,0.0842126
3.36231,0.0997925,-0.235219
3.59934,0.283276,0.105075
3.36268,0.26465,-0.216176
3.42677,0.101706,-0.159695
3.41062,0.268423,-0.139382
3.48952,0.103568,-0.0812349
3.4777,0.260878,-0.060874
3.48561,-0.0797092,-0.101468
3.5428,0.0921518,0
3.538,0.265402,0.0206207
3.36265,0.0874659,-0.235219
3.35965,0.252023,-0.215921
3.42313,0.089039,-0.159509
3.41955,0.256516,-0.139707
3.48987,0.0907751,-0.0812349
3.47057,0.248773,-0.0607344
3.48133,-0.0911619,-0.101351
3.54709,0.0804947,0
3.54684,0.254241,0.0206672
3.36292,0.0763153,-0.235219
3.60123,0.258139,0.105075
3.36843,0.241452,-0.216432
3.43139,0.0778693,-0.159881
3.42038,0.245176,-0.139707
3.48616,0.079112,-0.0811418
3.47145,0.236051,-0.0607344
3.48097,-0.103921,-0.101351
3.55136,0.0675695,0
3.54376,0.240968,0.0206439
3.36717,0.064065,-0.235498
3.60614,0.24521,0.105191
3.36929,0.229104,-0.216432
3.43166,0.065292,-0.159881
3.42524,0.232909,-0.13987
3.48643,0.0663341,-0.0811418
3.47621,0.224796,-0.0608042
3.48061,-0.115464,-0.101351
3.54356,0.0556667,0
3.54054,0.228957,0.0206207
3.35938,0.0527734,-0.23494
3.36605,0.217673,-0.216176
3.43185,0.0539119,-0.159881
3.42998,0.221807,-0.140033
3.49062,0.0548351,-0.0812349
3.48496,0.213149,-0.0609438
3.48418,-0.127759,-0.101468
3.54374,0.0432971,0
3.54931,0.217085,0.0206672
3.35955,0.0410466,-0.23494
3.36679,0.205922,-0.216176
3.43202,0.0419321,-0.159881
3.42276,0.209345,-0.139707
3.49479,0.0426991,-0.0813279
3.48169,0.200753,-0.060874
3.54387,0.0309268,0
3.36765,0.029389,-0.235498
3.60848,0.208063,0.105191
3.37147,0.194398,-0.216432
3.44014,0.0300216,-0.160253
3.42347,0.197396,-0.139707
3.49892,0.0305346,-0.081421
3.48636,0.188814,-0.0609438
3.54795,0.0185772,0
3.54674,0.192085,0.0206439
3.37571,0.0176753,-0.236056
3.36814,0.182412,-0.216176
3.44022,0.0180131,-0.160253
3.42414,0.185445,-0.139707
3.49501,0.0183,-0.0813279
3.483,0.176441,-0.060874
3.55599,0.00620639,0
3.54739,0.179703,0.0206439
3.60984,0.182867,0.105191
3.36876,0.170654,-0.216176
3.43227,0.00599046,-0.159881
3.42876,0.173693,-0.13987
3.49905,0.006107,-0.081421
3.48759,0.164471,-0.0609438
3.55599,0.167696,0.0206904
3.61445,0.170453,0.105308
3.37332,0.159082,-0.216432
3.44026,-0.00600441,-0.160253
3.42934,0.161724,-0.13987
3.49905,-0.006107,-0.081421
3.48815,0.152296,-0.0609438
3.55256,0.155108,0.0206672
3.37785,0.14748,-0.216688
3.43223,-0.0179713,-0.159881
3.42988,0.149752,-0.13987
3.503,-0.0183418,-0.081514
3.48464,0.140567,-0.060874
3.55305,0.143326,0.0206672
3.37433,0.136117,-0.216432
3.44014,-0.0294212,-0.160253
3.43036,0.138377,-0.13987
3.50292,-0.0299581,-0.081514
3.48513,0.127794,-0.060874
3.55355,0.130303,0.0206672
3.3748,0.123748,-0.216432
3.44401,-0.0420786,-0.160439
3.43484,0.12595,-0.140033
3.49479,-0.0426991,-0.0813279
3.49353,0.116503,-0.0610136
3.56196,0.118785,0.0207137
3.3752,0.112556,-0.216432
3.43586,-0.053375,-0.160067
3.43524,0.114559,-0.140033
3.49863,-0.0543501,-0.081421
3.49391,0.104307,-0.0610136
3.56235,0.10635,0.0207137
3.38355,0.101012,-0.216944
3.44364,-0.0655201,-0.160439
3.44361,0.102805,-0.140359
3.50242,-0.0666384,-0.081514
3.49825,0.0922159,-0.0610834
3.5667,0.0940203,0.0207369
3.44739,-0.0776302,-0.160625
3.43596,0.0905737,-0.140033
3.50616,-0.0789537,-0.0816071
3.50254,0.080707,-0.0611532
3.559,0.0820079,0.0206904
3.38416,0.0779792,-0.216944
3.44423,0.0793634,-0.140359
3.50588,-0.0905801,-0.0816071
3.49081,0.0676365,-0.0609438
3.56327,0.0690404,0.0207137
3.38841,0.0656524,-0.2172
3.4445,0.0667391,-0.140359
3.49503,0.0555144,-0.0610136
3.56749,0.0566654,0.0207369
3.38862,0.0538243,-0.2172
3.44471,0.0547152,-0.140359
3.4992,0.0433637,-0.0610834
3.56767,0.0442122,0.0207369
3.3848,0.041946,-0.216944
3.44887,0.0427401,-0.140522
3.49933,0.031149,-0.0610834
3.38891,0.0301661,-0.2172
3.449,0.030701,-0.140522
3.51541,0.0196339,-0.0613627
3.38899,0.0189279,-0.2172
3.44908,0.0192635,-0.140522
3.38904,0.00650652,-0.2172
3.44913,0.00662188,-0.140522
3.49946,-0.00549696,-0.0610834
3.39303,-0.00532978,-0.217456
3.45313,-0.00542418,-0.140684
3.51142,-0.017773,-0.0612928
3.45309,-0.0174778,-0.140684
3.50334,-0.0299617,-0.0611532
3.45301,-0.0295313,-0.140684
3.51121,-0.0422867,-0.0612928
3.45288,-0.0415843,-0.140684
3.45274,-0.0524316,-0.140684
3.51083,-0.0667984,-0.0612928
3.45651,-0.0657648,-0.140847
3.46025,-0.0779199,-0.14101
3.46398,-0.0888927,-0.141173
