2.31535,0.259709,-0.217489
2.37039,0.503842,0.0563898
2.32923,0.261266,0.0272867
2.32585,0.376706,-0.192346
2.34903,0.38046,0.0415367
2.31355,0.259506,-0.13558
2.38264,0.506447,0.141859
2.34744,0.380202,0.0968833
2.34501,0.498448,-0.111675
2.32996,0.369029,-0.0686537
2.30117,0.36447,-0.465975
2.32616,0.252701,-0.0272401
2.31749,0.484148,-0.368331
2.31229,0.36623,-0.297993
2.36891,0.617055,0.0142276
2.33881,0.37043,-0.0137626
2.31228,0.251194,-0.217117
2.36822,0.494746,0.0562968
2.33013,0.253133,0.0272867
2.32715,0.368585,-0.192346
2.35429,0.372883,0.0416065
2.31047,0.250997,-0.135348
2.37658,0.496493,0.141394
2.3448,0.37138,0.0967205
2.34674,0.490259,-0.111675
2.33564,0.369929,-0.123932
2.36039,0.493111,-0.0561107
2.29856,0.355836,-0.46519
2.35098,0.482587,0
2.31907,0.243744,-0.027147
2.30963,0.35755,-0.297488
2.34404,0.362876,-0.0137859
2.30919,0.242705,-0.216746
2.36601,0.485673,0.0562037
2.32702,0.24458,0.0272401
2.32449,0.35985,-0.19202
2.35558,0.364663,0.0416065
2.30736,0.242513,-0.135115
2.38221,0.488997,0.141627
2.34087,0.362385,-0.124141
2.3621,0.484869,-0.0561107
2.29203,0.346636,-0.463621
2.32388,0.236051,-0.0271936
2.34529,0.354691,-0.0137859
2.31002,0.234643,-0.216746
2.36377,0.47662,0.0561107
2.32967,0.352329,-0.192346
2.35288,0.355839,0.0415367
2.37607,0.4791,0.141162
2.34339,0.354403,0.0965577
2.34619,0.473074,-0.111489
2.33422,0.353017,-0.123722
2.36377,0.47662,-0.0561107
2.32578,0.343443,-0.0684209
2.28934,0.338062,-0.462837
2.31207,0.341418,-0.297488
2.37136,0.591248,0.0142043
2.3386,0.345336,-0.0137394
2.30686,0.226191,-0.216374
2.36542,0.468368,0.0561107
2.32071,0.227549,0.027147
2.323,0.343032,-0.191695
2.3462,0.346457,0.0413971
2.35105,0.586185,-0.155289
2.31297,0.22679,-0.135348
2.37381,0.470029,0.140929
2.34856,0.346807,0.0967205
2.33998,0.46333,-0.111116
2.33148,0.344285,-0.123513
2.3615,0.467591,-0.0560176
2.32697,0.335322,-0.0684209
2.29051,0.330068,-0.462837
2.34805,0.456416,0
2.31353,0.218693,-0.0270539
2.30539,0.332213,-0.296478
2.36564,0.581058,0.0141578
2.33979,0.33717,-0.0137394
2.32674,0.452273,-0.255319
2.36312,0.459344,0.0560176
2.32149,0.219446,0.027147
2.32024,0.334351,-0.191369
2.34739,0.338265,0.0413971
2.30977,0.218338,-0.135115
2.37544,0.461739,0.140929
2.3458,0.338036,0.0965577
2.34159,0.455159,-0.111116
2.32872,0.335574,-0.123304
2.32801,0.32801,-0.0684209
2.2993,0.323966,-0.464406
2.34947,0.449037,0
2.3142,0.211425,-0.0270539
2.30643,0.324969,-0.296478
2.36746,0.573624,0.0141578
2.33688,0.32926,-0.0137161
2.30831,0.210886,-0.216374
2.36848,0.452669,0.0561107
2.32217,0.212152,0.027147
2.31733,0.326505,-0.191044
2.34448,0.330331,0.0413273
2.36903,0.452775,0.140464
2.33894,0.32955,0.096232
2.34693,0.448551,-0.111302
2.33372,0.328814,-0.123513
2.35277,0.449666,-0.0557385
2.2927,0.31447,-0.462837
2.31496,0.202942,-0.0270539
2.36565,0.564016,0.0141346
2.33411,0.320149,-0.0136929
2.3051,0.202077,-0.216002
2.35833,0.441777,0.0558315
2.32692,0.20399,0.0271936
2.33361,0.437147,-0.16602
2.31456,0.317468,-0.190718
2.34172,0.321193,0.0412575
2.30325,0.201915,-0.13465
2.37068,0.44409,0.140464
2.3407,0.438475,-0.11093
2.32699,0.319173,-0.123094
2.35207,0.560777,-0.0985116
2.35833,0.441777,-0.0558315
2.32232,0.310689,-0.0681882
2.28596,0.305825,-0.461268
2.31164,0.194927,-0.0270073
2.30864,0.308859,-0.296478
2.33119,0.311876,-0.0136696
2.31946,0.426539,-0.254034
2.29782,0.193762,-0.215258
2.35978,0.433953,0.0558315
2.31562,0.195263,0.0270539
2.3272,0.427962,-0.165462
2.31955,0.310319,-0.191044
2.36655,0.555941,0.0707482
2.34673,0.313955,0.0413273
2.29993,0.19394,-0.134417
2.37214,0.436225,0.140464
2.34118,0.313213,0.096232
2.33429,0.429265,-0.110558
2.32408,0.310924,-0.122885
2.37533,0.317781,0.436943
2.35585,0.43323,-0.0557385
2.28701,0.297843,-0.461268
2.3097,0.300798,-0.296478
2.3402,0.30477,-0.0137161
2.32094,0.41844,-0.254034
2.36128,0.425713,0.0558315
2.31629,0.187178,0.0270539
2.32868,0.419835,-0.165462
2.31667,0.301705,-0.190718
2.33988,0.304728,0.0411877
2.30059,0.18591,-0.134417
2.37365,0.427942,0.140464
2.3397,0.421822,-0.110744
2.32911,0.303325,-0.123094
2.37167,0.427585,0.295899
2.38033,0.309996,0.43766
2.35542,0.536002,-0.042165
2.32443,0.294468,-0.0681882
2.28804,0.289857,-0.461268
2.3437,0.4141,0
2.35963,0.536962,0.0140648
2.33728,0.296096,-0.0136929
2.31847,0.409643,-0.253606
2.30309,0.178021,-0.21563
2.35488,0.416076,0.0556454
2.31693,0.179091,0.0270539
2.33013,0.411703,-0.165462
2.3177,0.293616,-0.190718
2.33696,0.296055,0.0411179
2.30122,0.177877,-0.134417
2.37119,0.418958,0.140231
2.33538,0.295855,0.0959064
2.33722,0.412957,-0.110558
2.32619,0.294691,-0.122885
2.36923,0.418612,0.295411
2.37749,0.30119,0.436943
2.35488,0.416076,-0.0556454
2.32148,0.285864,-0.0680718
2.28514,0.28139,-0.460483
2.34119,0.405235,0
2.31355,0.170709,-0.0270073
2.29993,0.283211,-0.294963
2.31989,0.401548,-0.253606
2.29972,0.169688,-0.215258
2.31754,0.171003,0.0270539
2.32762,0.402887,-0.165183
2.3108,0.28455,-0.190067
2.33798,0.287897,0.0411179
2.29785,0.16955,-0.134185
2.36084,0.408636,0.139534
2.34037,0.28819,0.0960692
2.33865,0.404796,-0.110558
2.3272,0.286569,-0.122885
2.37459,0.411017,0.295899
2.34788,0.525673,-0.0980231
2.34843,0.406489,-0.0554593
2.35129,0.517825,-0.0420254
2.28611,0.273412,-0.460483
2.34259,0.397061,0
2.31015,0.162352,-0.0269608
2.29697,0.27471,-0.294457
2.35942,0.519616,0.0140416
2.33135,0.278822,-0.0136464
2.32127,0.393448,-0.253606
2.29236,0.161102,-0.214515
2.35772,0.399627,0.0556454
2.31414,0.162632,0.0270073
2.32508,0.394093,-0.164904
2.31178,0.276482,-0.190067
2.33897,0.279734,0.0411179
2.30639,0.162088,-0.13465
2.36225,0.400393,0.139534
2.33611,0.395963,-0.110372
2.32422,0.27797,-0.122675
2.37601,0.402726,0.295899
2.34579,0.516615,-0.0978603
2.37172,0.283651,0.435508
2.34984,0.39829,-0.0554593
2.28316,0.264979,-0.459699
2.34001,0.388227,0
2.30671,0.154021,-0.0269142
2.30185,0.267149,-0.294963
2.35731,0.510531,0.0140183
2.32833,0.270222,-0.0136231
2.31871,0.384692,-0.253177
2.29688,0.153365,-0.214887
2.35516,0.39074,0.0555524
2.31469,0.154554,0.0270073
2.3225,0.385322,-0.164625
2.31669,0.268871,-0.190393
2.36417,0.512016,0.0703991
2.33199,0.270646,0.0409782
2.34082,0.506959,-0.153498
2.29499,0.153239,-0.133952
2.36757,0.392799,0.139766
2.33354,0.387153,-0.110186
2.32121,0.269396,-0.122466
2.36565,0.392481,0.294436
2.37661,0.275824,0.436225
2.35122,0.390086,-0.0554593
2.32037,0.261092,-0.0679555
2.30324,0.145715,-0.0268676
2.30671,0.259555,-0.295468
2.35908,0.502298,0.0140183
2.32926,0.262092,-0.0136231
2.32004,0.376596,-0.253177
2.29342,0.145094,-0.214515
2.36046,0.383157,0.0556454
2.32384,0.377212,-0.164625
2.30969,0.25989,-0.189742
2.36203,0.502927,0.0702827
2.33689,0.262951,0.0410481
2.34257,0.498785,-0.153498
2.29551,0.145226,-0.133952
2.36499,0.383892,0.139534
2.33882,0.379644,-0.110372
2.3142,0.260398,-0.122047
2.36701,0.38422,0.294436
2.37755,0.267526,0.436225
2.34862,0.381235,-0.0553663
2.34884,0.491127,-0.0418858
2.28109,0.24821,-0.458915
2.34273,0.371472,0
2.29582,0.249812,-0.293952
2.35307,0.492012,0.0139718
2.33021,0.253554,-0.0136231
2.31747,0.367467,-0.252749
2.29394,0.136688,-0.214515
2.3579,0.373877,0.0555524
2.31174,0.137749,0.0269608
2.3252,0.368693,-0.164625
2.3027,0.250561,-0.189091
2.33387,0.253952,0.0409782
2.33657,0.488562,-0.152986
2.29603,0.136812,-0.133952
2.36243,0.374596,0.139301
2.33229,0.25378,0.0955807
2.33625,0.370444,-0.110186
2.31911,0.252346,-0.122257
2.3684,0.375543,0.294436
2.34725,0.490794,-0.0976975
2.37852,0.258811,0.436225
2.34654,0.482529,-0.041816
2.31418,0.244047,-0.0677228
2.2819,0.240643,-0.458915
2.3042,0.129632,-0.0268676
2.29269,0.24178,-0.293447
2.32308,0.244986,-0.0135766
2.31868,0.35978,-0.252749
2.29836,0.129303,-0.214887
2.35517,0.365442,0.0554593
2.31219,0.130081,0.0269608
2.32247,0.360368,-0.164346
2.31145,0.243759,-0.189742
2.35765,0.484814,0.07005
2.33072,0.245791,0.0409084
2.36366,0.366759,0.139301
2.32914,0.245625,0.0954179
2.33746,0.362694,-0.110186
2.31596,0.244235,-0.122047
2.36571,0.367077,0.293949
2.34495,0.482202,-0.0975347
2.36762,0.249683,0.434073
2.34727,0.364216,-0.0552732
2.34821,0.474334,-0.041816
2.28273,0.232676,-0.458915
2.3373,0.354317,0
2.30464,0.121587,-0.0268676
2.29352,0.233775,-0.293447
2.35637,0.475982,0.0139718
2.32392,0.236874,-0.0135766
2.31992,0.351683,-0.252749
2.28686,0.12065,-0.213771
2.34853,0.356019,0.0552732
2.30863,0.121798,0.0269142
2.32371,0.352258,-0.164346
2.30832,0.235284,-0.189416
2.35933,0.476581,0.07005
2.33156,0.237653,0.0409084
2.33593,0.471854,-0.152731
2.36098,0.357907,0.139069
2.33081,0.353334,-0.109813
2.3168,0.236149,-0.122047
2.3709,0.359412,0.294436
2.3427,0.473222,-0.0973718
2.36848,0.241416,0.434073
2.34593,0.465358,-0.0417462
2.30505,0.113543,-0.0268676
2.29037,0.225381,-0.292942
2.32473,0.228763,-0.0135766
2.3172,0.343002,-0.252321
2.29125,0.112864,-0.214143
2.34975,0.347821,0.0552732
2.30505,0.113543,0.0268676
2.32098,0.343562,-0.164067
2.3131,0.227618,-0.189742
2.36098,0.468344,0.07005
2.33238,0.229515,0.0409084
2.33365,0.462923,-0.152475
2.28934,0.11277,-0.133487
2.36221,0.349665,0.139069
2.33203,0.345198,-0.109813
2.31761,0.228062,-0.122047
2.36429,0.349973,0.293461
2.34042,0.464265,-0.097209
2.36148,0.232378,0.432638
2.34184,0.34665,-0.0550871
2.34762,0.456755,-0.0417462
2.27653,0.215596,-0.457346
2.33581,0.337012,0
2.29513,0.217357,-0.293447
2.34793,0.456817,0.0139021
2.32954,0.220616,-0.0135999
2.31451,0.333937,-0.251892
2.29165,0.104463,-0.214143
2.35497,0.339776,0.0553663
2.30598,0.218385,-0.189091
2.35875,0.458922,0.0699336
2.32524,0.220209,0.0407688
2.35953,0.340433,0.138836
2.33724,0.337217,-0.11
2.31048,0.218811,-0.121629
2.36556,0.341303,0.293461
2.37015,0.224462,0.434073
2.34904,0.449378,-0.0417462
2.31335,0.211752,-0.0676064
2.27329,0.208086,-0.456561
2.3329,0.329113,0
2.29778,0.0975106,-0.0267745
2.2879,0.209423,-0.292437
2.32225,0.212568,-0.0135534
2.31948,0.327221,-0.252321
2.29196,0.097264,-0.214143
2.34811,0.331259,0.0551802
2.30577,0.0978498,0.0268676
2.31931,0.327197,-0.163788
2.30268,0.210776,-0.188766
2.35626,0.450759,0.0698173
2.32592,0.212903,0.0407688
2.33282,0.446276,-0.152219
2.36059,0.333019,0.138836
2.32435,0.212759,0.0950922
2.33433,0.329315,-0.109813
2.31513,0.211916,-0.121838
2.36662,0.33387,0.293461
2.3396,0.447572,-0.0970462
2.363,0.216298,0.432638
2.34415,0.3307,-0.0550871
2.33403,0.320967,0
2.2981,0.0894887,-0.0267745
2.319,0.204109,-0.0135301
2.31667,0.31858,-0.251892
2.29627,0.0894173,-0.214515
2.34925,0.32306,0.0551802
2.31009,0.0899556,0.0269142
2.31649,0.318555,-0.163509
2.30737,0.203086,-0.189091
2.35389,0.441793,0.0697009
2.33063,0.205133,0.0408386
2.33044,0.437393,-0.151963
2.36173,0.324777,0.138836
2.33151,0.32062,-0.109627
2.31188,0.203482,-0.121629
2.36383,0.325065,0.292974
2.34115,0.439402,-0.0970462
2.3559,0.207357,0.431203
2.3334,0.320881,-0.054808
2.34032,0.430797,-0.0415367
2.27469,0.192211,-0.456561
2.33514,0.31282,0
2.3024,0.0816095,-0.0268211
2.28535,0.193112,-0.291932
2.3485,0.432303,0.0138789
2.31969,0.196014,-0.0135301
2.30988,0.309436,-0.251036
2.28463,0.0809796,-0.2134
2.3464,0.314328,0.0550871
2.3064,0.0817512,0.0268676
2.31759,0.310468,-0.163509
2.30807,0.195032,-0.189091
2.35148,0.432851,0.0695846
2.32336,0.196325,0.040699
2.35494,0.315472,0.138371
2.32865,0.31195,-0.109441
2.31655,0.195749,-0.121838
2.36495,0.316814,0.292974
2.33873,0.430505,-0.0968833
2.35269,0.198803,0.430485
2.33451,0.312735,-0.054808
2.34574,0.423334,-0.0416065
2.32829,0.303632,0
2.30267,0.0735715,-0.0268211
2.28997,0.185453,-0.292437
2.34606,0.423392,0.0138556
2.32435,0.188238,-0.0135534
2.31095,0.301371,-0.251036
2.27693,0.0727493,-0.212656
2.34352,0.305618,0.0549941
2.30667,0.0736993,0.0268676
2.3147,0.30186,-0.16323
2.30476,0.186652,-0.188766
2.32404,0.188213,0.040699
2.32951,0.420405,-0.151707
2.29095,0.073197,-0.133487
2.35602,0.307249,0.138371
2.32246,0.188085,0.0949294
2.32973,0.303819,-0.109441
2.30926,0.187016,-0.121419
2.36605,0.308556,0.292974
2.33629,0.421628,-0.0967205
2.36122,0.191224,0.43192
2.33559,0.304584,-0.054808
2.34721,0.415144,-0.0416065
2.26815,0.17572,-0.454992
2.32933,0.295503,0
2.34359,0.414504,0.0138324
2.32101,0.179815,-0.0135301
2.30804,0.292802,-0.250607
2.28116,0.0649146,-0.213028
2.34457,0.297436,0.0549941
2.30291,0.0655338,0.0268211
2.31574,0.293779,-0.16323
2.29745,0.17799,-0.188115
2.32468,0.1801,0.040699
2.32703,0.411576,-0.151451
2.28321,0.064973,-0.133022
2.35708,0.299024,0.138371
2.33077,0.295686,-0.109441
2.3099,0.178955,-0.121419
2.36317,0.299796,0.292486
2.33381,0.412775,-0.0965577
2.35795,0.182677,0.431203
2.33663,0.29643,-0.054808
2.3447,0.406265,-0.0415367
2.26875,0.167801,-0.454992
2.33035,0.28737,0
2.29513,0.0572944,-0.0267279
2.31763,0.171416,-0.0135069
2.30905,0.284743,-0.250607
2.28535,0.0570503,-0.2134
2.34162,0.28876,0.054901
2.29913,0.0573943,0.0267745
2.31279,0.285205,-0.162951
2.29408,0.169675,-0.187789
2.34801,0.406837,0.0693518
2.31333,0.171098,0.0404896
2.28342,0.0570021,-0.133022
2.35415,0.290305,0.138138
2.32782,0.287058,-0.109255
2.31051,0.17089,-0.121419
2.36814,0.29203,0.292974
2.33524,0.404625,-0.0965577
2.35857,0.174444,0.431203
2.27323,0.160156,-0.455777
2.33134,0.279233,0
2.29532,0.049282,-0.0267279
2.28387,0.160905,-0.291427
2.31422,0.163044,-0.0134836
2.31003,0.276681,-0.250607
2.28952,0.0491575,-0.213771
2.34262,0.280584,0.054901
2.30331,0.0494537,0.0268211
2.31377,0.277129,-0.162951
2.29864,0.161945,-0.188115
2.34941,0.398638,0.0693518
2.3179,0.163303,0.0405594
2.32592,0.394652,-0.151196
2.2836,0.0490305,-0.133022
2.35118,0.28161,0.137906
2.33278,0.279406,-0.109441
2.31109,0.162823,-0.121419
2.36521,0.283289,0.292486
2.3327,0.395802,-0.0963948
2.33071,0.279157,-0.0546219
2.33564,0.38792,-0.0413273
2.26987,0.151958,-0.454992
2.3323,0.271094,0
2.29547,0.04127,-0.0267279
2.33991,0.388628,0.0137859
2.31478,0.154965,-0.0134836
2.30308,0.267698,-0.24975
2.27375,0.0408794,-0.212284
2.33961,0.271944,0.054808
2.30747,0.0414857,0.0268676
2.31076,0.268591,-0.162672
2.30317,0.154188,-0.18844
2.35079,0.390435,0.0693518
2.31846,0.155211,0.0405594
2.33909,0.388493,-0.151963
2.28376,0.0410595,-0.133022
2.34819,0.27294,0.137673
2.3258,0.270339,-0.109069
2.30766,0.154488,-0.12121
2.36618,0.275032,0.292486
2.33801,0.388312,-0.0965577
2.35188,0.157449,0.429768
2.33167,0.27102,-0.0546219
2.33698,0.379764,-0.0413273
2.30239,0.146064,-0.067141
2.26647,0.143785,-0.454208
2.32528,0.262054,0
2.2916,0.0331985,-0.0266814
2.28493,0.144956,-0.291427
2.3452,0.381099,0.0138091
2.31531,0.146883,-0.0134836
2.304,0.259656,-0.24975
2.28184,0.0330571,-0.213028
2.33657,0.263327,0.0547149
2.2996,0.0333144,0.0267745
2.31169,0.260522,-0.162672
2.29573,0.145642,-0.187789
2.34819,0.381585,0.0692355
2.31499,0.146863,0.0404896
2.32467,0.377764,-0.15094
2.2799,0.0330289,-0.13279
2.34516,0.264294,0.137441
2.3307,0.262665,-0.109255
2.30819,0.146432,-0.12121
2.35529,0.265436,0.291024
2.32358,0.147408,0.190067
2.3354,0.379507,-0.0963948
2.34849,0.148988,0.42905
2.3326,0.262879,-0.0546219
2.3383,0.371606,-0.0413273
2.2989,0.137789,-0.0670246
2.26304,0.13564,-0.453423
2.33016,0.254372,0
2.29171,0.0252007,-0.0266814
2.28146,0.136744,-0.290922
2.3198,0.139041,-0.0135069
2.27796,0.0250495,-0.212656
2.3335,0.254737,0.0546219
2.3037,0.0253326,0.0268211
2.31258,0.252453,-0.162672
2.29225,0.13739,-0.187464
2.34161,0.372133,0.0690027
2.31948,0.139023,0.0405594
2.32598,0.369649,-0.15094
2.28,0.025072,-0.13279
2.34606,0.256108,0.137441
2.30071,0.137897,-0.120791
2.35226,0.256784,0.290537
2.32882,0.3701,-0.0960692
2.35292,0.141027,0.429768
2.32953,0.254303,-0.0545288
2.33964,0.363031,-0.0413273
2.30338,0.129585,-0.067141
2.26352,0.127343,-0.453423
2.3271,0.245408,0
2.3123,0.130087,-0.0134604
2.30976,0.24358,-0.250179
2.27803,0.0166986,-0.212656
2.34237,0.247019,0.054808
2.30378,0.0168873,0.0268211
2.30952,0.243555,-0.162393
2.28876,0.128762,-0.187138
2.308,0.129845,0.04035
2.32337,0.360507,-0.150684
2.28008,0.0167135,-0.13279
2.34699,0.247506,0.137441
2.32855,0.245562,-0.109069
2.30519,0.129687,-0.121001
2.35713,0.248576,0.291024
2.33411,0.362173,-0.096232
2.35342,0.1324,0.429768
2.33044,0.245761,-0.0545288
2.32897,0.353472,-0.0411179
2.27177,0.120252,-0.454992
2.3279,0.237692,0
2.28783,0.00918489,-0.0266348
2.2784,0.120603,-0.290417
2.29868,0.234709,-0.248894
2.2741,0.00912977,-0.212284
2.33522,0.23844,0.0546219
2.29983,0.00923307,0.0267745
2.30635,0.235491,-0.162114
2.28917,0.121173,-0.187138
2.3402,0.355176,0.0688864
2.31241,0.122403,0.0404198
2.32456,0.352802,-0.150684
2.27613,0.00913792,-0.132557
2.34382,0.239318,0.137208
2.30161,0.121832,-0.120791
2.35399,0.240356,0.290537
2.33135,0.353833,-0.0960692
2.34599,0.124181,0.428333
2.31931,0.236815,-0.0542496
2.3381,0.346512,-0.0412575
2.26434,0.111933,-0.453423
2.33269,0.229956,0
2.28784,0.00119822,-0.0266348
2.27881,0.112649,-0.290417
2.30914,0.114148,-0.0134371
2.3074,0.227463,-0.24975
2.27013,0.00118894,-0.211912
2.33206,0.229894,0.0545288
2.29984,0.0012045,0.0267745
2.31113,0.22783,-0.162393
2.29356,0.113378,-0.187464
2.34142,0.347005,0.0688864
2.31282,0.11433,0.0404198
2.32183,0.3441,-0.150428
2.3367,0.230351,0.136743
2.31126,0.114253,0.0942781
2.32221,0.228923,-0.108697
2.30203,0.113796,-0.120791
2.35482,0.232137,0.290537
2.33257,0.345692,-0.0960692
2.32012,0.228717,-0.0542496
2.33924,0.338757,-0.0412575
2.29659,0.105895,-0.0669082
2.31751,0.220703,0
2.29184,-0.00639926,-0.0266814
2.27521,0.104909,-0.289912
2.3356,0.33823,0.0137161
2.30551,0.106306,-0.0134139
2.30419,0.219434,-0.249322
2.27809,-0.00636087,-0.212656
2.33679,0.222539,0.0546219
2.29984,-0.0064216,0.0267745
2.29791,0.105956,-0.187789
2.3386,0.338666,0.06877
2.32118,0.107029,0.0405594
2.319,0.335827,-0.150172
2.27613,-0.00635542,-0.132557
2.34142,0.22298,0.136976
2.31898,0.220843,-0.108511
2.29441,0.105794,-0.120373
2.35162,0.223951,0.290049
2.3337,0.337955,-0.0960692
2.34285,0.108028,0.427615
2.32485,0.221401,-0.0543427
2.33249,0.329471,-0.0411179
2.26313,0.207555,-0.636198
2.31827,0.212611,0
2.2838,-0.0143495,-0.0265882
2.27556,0.0969658,-0.289912
2.3328,0.329515,0.0136929
2.30587,0.0982574,-0.0134139
2.30494,0.211389,-0.249322
2.27805,-0.0143134,-0.212656
2.32959,0.213649,0.0544357
2.2998,-0.0144501,0.0267745
2.30468,0.211365,-0.161835
2.2903,0.0975938,-0.187138
2.31355,0.0985846,0.0404198
2.32016,0.327729,-0.150172
2.28408,-0.0143513,-0.133022
2.33821,0.21444,0.136743
2.31198,0.0985179,0.0942781
2.32372,0.213111,-0.108697
2.30275,0.0981244,-0.120791
2.35239,0.21574,0.290049
2.32695,0.328689,-0.0957435
2.33928,0.099681,0.426898
2.32163,0.212919,-0.0542496
2.32966,0.320782,-0.0410481
2.25617,0.198977,-0.634041
2.25753,0.0883047,-0.451854
2.319,0.204518,0
2.28374,-0.0223209,-0.0265882
2.27588,0.0890225,-0.289912
2.31019,0.0903646,-0.0134371
2.29774,0.202643,-0.248465
2.274,-0.0222258,-0.212284
2.33032,0.205517,0.0544357
2.29973,-0.0224773,0.0267745
2.3054,0.203319,-0.161835
2.28266,0.0892874,-0.186487
2.30589,0.0901961,0.0402802
2.27603,-0.0222457,-0.132557
2.33894,0.206277,0.136743
2.30832,0.0902912,0.0941152
2.29509,0.0897739,-0.120373
2.35313,0.207528,0.290049
2.32412,0.320019,-0.0955807
2.34354,0.0916691,0.427615
2.32235,0.204814,-0.0542496
2.25305,0.190383,-0.632963
2.31973,0.196018,0
2.28764,-0.0307443,-0.0266348
2.27223,0.0805403,-0.289407
2.30651,0.0817556,-0.0134139
2.29847,0.194221,-0.248465
2.27391,-0.0305598,-0.212284
2.33106,0.196975,0.0544357
2.29964,-0.0309056,0.0267745
2.31011,0.195204,-0.162114
2.29094,0.0812034,-0.187138
2.3062,0.0817445,0.0402802
2.31453,0.310059,-0.149661
2.3357,0.197367,0.13651
2.30863,0.0818307,0.0941152
2.3212,0.196142,-0.108511
2.2994,0.0815034,-0.120582
2.35783,0.199237,0.290537
2.32528,0.311499,-0.0955807
2.31512,0.195628,-0.0540635
2.32391,0.303474,-0.0409084
2.26201,0.0726679,-0.452639
2.32436,0.188647,0
2.28352,-0.0382639,-0.0265882
2.27248,0.0730043,-0.289407
2.30277,0.0739774,-0.0133907
2.30306,0.186919,-0.248894
2.26583,-0.0379674,-0.211541
2.32771,0.18892,0.0543427
2.29952,-0.0385319,0.0267745
2.30279,0.186896,-0.161556
2.28721,0.0734773,-0.186813
2.33518,0.304945,0.0685373
2.30646,0.0740958,0.0402802
2.32347,0.303416,-0.150172
2.27183,-0.0380679,-0.132324
2.33237,0.189297,0.136278
2.30889,0.0741739,0.0941152
2.29966,0.0738772,-0.120582
2.35452,0.191095,0.290049
2.3263,0.303786,-0.0955807
2.33626,0.0750532,0.42618
2.31576,0.187949,-0.0540635
2.32496,0.295359,-0.0409084
2.29009,0.065568,-0.0666755
2.25833,0.0646587,-0.451854
2.32101,0.180222,0
2.28738,-0.0463162,-0.0266348
2.27766,0.176856,-0.355418
2.27272,0.0650708,-0.289407
2.32924,0.295904,0.0136464
2.30702,0.0660526,-0.0134139
2.29973,0.17857,-0.248465
2.26967,-0.0459576,-0.211912
2.32836,0.180793,0.0543427
2.29537,-0.0464782,0.0267279
2.30343,0.178857,-0.161556
2.29144,0.0656065,-0.187138
2.33226,0.296287,0.0684209
2.3107,0.0661581,0.04035
2.31659,0.294297,-0.149661
2.33301,0.181154,0.136278
2.30914,0.0661133,0.0941152
2.31452,0.179718,-0.108138
2.2999,0.0658489,-0.120582
2.34725,0.18226,0.289074
2.33131,0.296167,-0.0957435
2.33651,0.066897,0.42618
2.31241,0.179554,-0.0539705
2.32597,0.287243,-0.0409084
2.25854,0.0567757,-0.451854
2.30966,0.171233,0
2.2792,-0.05411,-0.0265417
2.27294,0.0571376,-0.289407
2.30323,0.0578992,-0.0133907
2.30034,0.170542,-0.248465
2.26551,-0.0537849,-0.211541
2.32499,0.172369,0.0542496
2.2992,-0.0545847,0.0267745
2.30006,0.17052,-0.161277
2.27969,0.0573074,-0.186162
2.31092,0.0580923,0.04035
2.32157,0.286698,-0.149916
2.26752,-0.0538326,-0.132092
2.33363,0.17301,0.136278
2.31335,0.0581535,0.0942781
2.30012,0.0578208,-0.120582
2.34788,0.174066,0.289074
2.3244,0.287048,-0.0954179
2.31701,0.171778,-0.0540635
2.32299,0.278646,-0.0408386
2.25481,0.0488072,-0.45107
2.31823,0.163733,0
2.279,-0.0620651,-0.0265417
2.27312,0.0492037,-0.289407
2.30742,0.0499461,-0.0134139
2.29696,0.162231,-0.248037
2.27327,-0.0619091,-0.212284
2.32957,0.164534,0.0543427
2.291,-0.0623918,0.0266814
2.29666,0.16221,-0.160998
2.27988,0.0493499,-0.186162
2.3303,0.279523,0.0683046
2.30711,0.0499393,0.0402802
2.31066,0.277167,-0.149149
2.27131,-0.0618556,-0.132324
2.33422,0.164863,0.136278
2.30555,0.0499055,0.0939524
2.29232,0.0496191,-0.120163
2.34847,0.16587,0.289074
2.32936,0.279409,-0.0955807
2.33692,0.0505846,0.42618
2.3176,0.163689,-0.0540635
2.29065,0.0415834,-0.0666755
2.256,0.151426,-0.632963
2.25889,0.0410068,-0.451854
2.31878,0.15564,0
2.28277,-0.0701434,-0.0265882
2.26931,0.0411961,-0.288902
2.29958,0.0417456,-0.0133674
2.28957,0.153679,-0.24718
2.26906,-0.0697222,-0.211912
2.32613,0.156133,0.0542496
2.28677,-0.0702662,0.0266348
2.29721,0.154192,-0.160998
2.28004,0.0413908,-0.186162
2.29927,0.0417399,0.0401405
2.3308,0.156446,0.136045
2.30571,0.0418567,0.0939524
2.29647,0.041689,-0.120373
2.34903,0.15767,0.289074
2.32635,0.270814,-0.0954179
2.33708,0.0424263,0.42618
2.31018,0.155062,-0.0538774
2.32091,0.261973,-0.0407688
2.24883,0.143061,-0.630806
2.25901,0.033122,-0.451854
2.31931,0.147545,0
2.27851,-0.077974,-0.0265417
2.27596,0.144788,-0.354803
2.26944,0.0332749,-0.288902
2.29971,0.0337187,-0.0133674
2.29407,0.145939,-0.247608
2.26482,-0.0775056,-0.211541
2.32667,0.148013,0.0542496
2.2945,-0.0785212,0.0267279
2.3057,0.146679,-0.161556
2.28017,0.0334322,-0.186162
2.3034,0.0337728,0.0402103
2.31651,0.261476,-0.149405
2.32734,0.148056,0.135813
2.30984,0.0338671,0.0941152
2.34957,0.14947,0.289074
2.32728,0.262692,-0.0954179
2.37138,0.150858,0.636695
2.33328,0.0342109,0.425463
2.30272,0.14649,-0.0536913
2.31783,0.253434,-0.040699
2.25519,0.025192,-0.45107
2.31183,0.138968,0
2.27823,-0.0859277,-0.0265417
2.26955,0.0253523,-0.288902
2.29982,0.0256904,-0.0133674
2.29059,0.137691,-0.24718
2.31919,0.13941,0.0540635
2.28622,-0.0862292,0.0266348
2.29823,0.13815,-0.160998
2.28027,0.0254721,-0.186162
2.3075,0.0257763,0.0402802
2.31344,0.252954,-0.149149
2.32785,0.139931,0.135813
2.30594,0.0257588,0.0939524
2.29271,0.025611,-0.120163
2.34611,0.141029,0.288587
2.30818,0.0257838,0.18844
2.32421,0.254132,-0.095255
2.37575,0.14281,0.63773
2.33732,0.0261094,0.42618
2.31519,0.13917,-0.0539705
2.3187,0.245342,-0.040699
2.28297,0.0175318,-0.0664428
2.24977,0.127357,-0.630806
2.25527,0.0173191,-0.45107
2.3123,0.130896,0
2.26962,0.0174293,-0.288902
2.29989,0.0176618,-0.0133674
2.28312,0.129245,-0.246323
2.26821,-0.0934802,-0.211912
2.31966,0.131313,0.0540635
2.2859,-0.0942096,0.0266348
2.28035,0.0175117,-0.186162
2.29558,0.0176287,0.0400707
2.31034,0.244457,-0.148893
2.27022,-0.0935633,-0.132324
2.33231,0.132029,0.136045
2.30602,0.0177088,0.0939524
2.31378,0.130981,-0.107952
2.29678,0.0176379,-0.120373
2.34659,0.132838,0.288587
2.32111,0.245596,-0.0950922
2.36466,0.133861,0.634624
2.3374,0.0179498,0.42618
2.30369,0.130409,-0.0536913
2.32352,0.237655,-0.0407688
2.25924,0.00946462,-0.451854
2.31274,0.122826,0
2.27357,-0.101651,-0.0264951
2.26967,0.00950831,-0.288902
2.29994,0.00963514,-0.0133674
2.2915,0.121698,-0.24718
2.27184,-0.101573,-0.212284
2.3201,0.123217,0.0540635
2.28556,-0.102187,0.0266348
2.30312,0.122315,-0.161277
2.27641,0.00953655,-0.185836
2.29963,0.00963384,0.0401405
2.26988,-0.101486,-0.132324
2.30607,0.0096608,0.0939524
2.29283,0.00960536,-0.120163
2.34308,0.124437,0.288099
2.314,0.236681,-0.0947666
2.33745,0.00979226,0.42618
2.30812,0.12258,-0.0537844
2.24674,0.11185,-0.629728
2.25141,0.00196519,-0.450285
2.30515,0.114757,0
2.27722,-0.109382,-0.0265417
2.2738,0.113197,-0.354188
2.26969,0.00198114,-0.288902
2.29196,0.00200059,-0.0133209
2.28394,0.113702,-0.246323
2.27149,-0.109107,-0.212284
2.32449,0.115721,0.0541566
2.2932,-0.11015,0.0267279
2.30352,0.114676,-0.161277
2.28041,0.00199051,-0.186162
2.32765,0.230279,0.0680718
2.29965,0.0020073,0.0401405
2.30797,0.228333,-0.148637
2.26156,-0.10863,-0.131859
2.32119,0.115556,0.135348
2.30609,0.00201292,0.0939524
2.34348,0.116666,0.288099
2.30433,0.00201139,0.188115
2.31477,0.229005,-0.0947666
2.32959,0.00203344,0.424745
2.30452,0.114726,-0.0536913
2.31314,0.220693,-0.0405594
2.2514,-0.00589431,-0.450285
2.31752,0.107264,0
2.28082,-0.117537,-0.0265882
2.26571,-0.00593177,-0.288397
2.29595,-0.00601094,-0.0133442
2.28433,0.105728,-0.246323
2.25519,-0.116216,-0.210797
2.3129,0.107051,0.0538774
2.28881,-0.117949,0.0266814
2.29992,0.10645,-0.160998
2.28041,-0.00597024,-0.186162
2.29964,-0.0060206,0.0401405
2.31273,0.220654,-0.148893
2.32158,0.107452,0.135348
2.30208,-0.00602699,0.0937896
2.30703,0.106779,-0.10758
2.29285,-0.00600281,-0.120163
2.34387,0.108484,0.288099
2.32351,0.221682,-0.0950922
2.32959,-0.006099,0.424745
2.30091,0.106496,-0.0535983
2.31788,0.212984,-0.0406292
2.24745,-0.0137287,-0.449501
2.30189,0.0984907,0
2.2764,-0.125278,-0.0265417
2.26663,0.096982,-0.352958
2.26568,-0.0138401,-0.288397
2.29192,-0.0140004,-0.0133209
2.28071,0.0975842,-0.245895
2.25875,-0.124306,-0.211169
2.30527,0.098635,0.0536913
2.28439,-0.125717,0.0266348
2.2923,0.0980802,-0.16044
2.28037,-0.0139298,-0.186162
2.32123,0.213292,0.0678391
2.29961,-0.0140473,0.0401405
2.31349,0.21258,-0.148893
2.26074,-0.124416,-0.131859
2.31795,0.0991776,0.135115
2.30604,-0.0140867,0.0939524
2.30738,0.0987256,-0.10758
2.28882,-0.0139814,-0.119954
2.32837,0.0996234,0.286149
2.32029,0.213205,-0.0949294
2.32955,-0.0142303,0.424745
2.29728,0.0982931,-0.0535052
2.25131,-0.0220048,-0.450285
2.30624,0.0902089,0
2.26794,-0.133152,-0.0264485
2.26958,-0.0221835,-0.288902
2.31498,0.204163,0.0135069
2.29585,-0.0224403,-0.0133442
2.289,0.0895346,-0.246752
2.26623,-0.133051,-0.211912
2.30961,0.0903408,0.0537844
2.27593,-0.133621,0.0265417
2.29663,0.0898332,-0.160719
2.27233,-0.0222104,-0.185511
2.29554,-0.0224372,0.0400707
2.30232,0.203047,-0.148126
2.3183,0.0906806,0.135115
2.30198,-0.0225002,0.0937896
2.30773,0.0902674,-0.10758
2.29274,-0.0224099,-0.120163
2.33665,0.0913986,0.287124
2.3131,0.203997,-0.0946037
2.33342,-0.0228074,0.425463
2.30561,0.0901845,-0.0536913
2.27883,-0.0302291,-0.0663264
2.25121,-0.0298628,-0.450285
2.30254,0.0820162,0
2.27545,-0.141564,-0.0265417
2.26727,0.0807599,-0.352958
2.25758,-0.0299473,-0.287386
2.29576,-0.0304536,-0.0133442
2.28532,0.0814029,-0.246323
2.2578,-0.140466,-0.211169
2.30991,0.0822787,0.0537844
2.27545,-0.141564,0.0265417
2.29294,0.0816744,-0.16044
2.27224,-0.0301417,-0.185511
2.29145,-0.0303965,0.0400009
2.30302,0.195009,-0.148126
2.26378,-0.140838,-0.132092
2.32658,0.0828725,0.13558
2.30189,-0.0305349,0.0937896
2.28866,-0.0303594,-0.119954
2.33299,0.0831008,0.286637
2.30015,-0.0305118,0.187789
2.31379,0.195922,-0.0946037
2.36695,0.0843104,0.634624
2.32939,-0.0308998,0.424745
2.30591,0.0821363,-0.0536913
2.2445,0.0724975,-0.62865
2.24718,-0.0372624,-0.449501
2.31479,0.0747681,0
2.27496,-0.149108,-0.0265417
2.26358,0.0731138,-0.352343
2.26541,-0.0375646,-0.288397
2.28765,-0.0379334,-0.0132977
2.31816,0.074877,0.0539705
2.28694,-0.149893,0.0266814
2.2932,0.0740707,-0.16044
2.26814,-0.03761,-0.185186
2.29134,-0.0379946,0.0400009
2.30365,0.187372,-0.148126
2.25533,-0.147822,-0.131627
2.31487,0.0747705,0.134883
2.30177,-0.0381677,0.0937896
2.28455,-0.0378821,-0.119745
2.33722,0.0754925,0.287124
2.31045,0.187924,-0.0944409
2.35563,0.0760872,0.631518
2.32141,-0.0384932,0.423311
2.29418,0.0741024,-0.0534122
2.30867,0.179669,-0.0404198
2.24704,-0.0451069,-0.449501
2.30304,0.0663414,0
2.27443,-0.157049,-0.0265417
2.26777,0.0653252,-0.352958
2.25733,-0.0453135,-0.287386
2.2915,-0.0459994,-0.0133209
2.28185,0.0657308,-0.245895
2.25679,-0.155831,-0.211169
2.30642,0.0664385,0.0536913
2.28241,-0.1576,0.0266348
2.29743,0.0661798,-0.160719
2.27597,-0.0456877,-0.185836
2.29519,-0.0460735,0.0400707
2.30429,0.179329,-0.148126
2.2548,-0.155694,-0.131627
2.31112,0.0665741,0.13465
2.28964,-0.0459621,0.0933011
2.30454,0.0663846,-0.107394
2.2884,-0.0459372,-0.119954
2.33747,0.067333,0.287124
2.3071,0.179547,-0.0942781
2.32126,-0.0465968,0.423311
2.29043,0.065978,-0.0533191
2.30928,0.17161,-0.0404198
2.23725,0.0566313,-0.626493
2.24295,-0.0528574,-0.448716
2.29926,0.0582011,0
2.27387,-0.164987,-0.0265417
2.26403,0.0573092,-0.352343
2.26112,-0.0532858,-0.287892
2.29532,-0.0540917,-0.0133442
2.27809,0.0576651,-0.245466
2.24829,-0.163131,-0.210425
2.30264,0.0582865,0.0535983
2.27786,-0.165276,0.0265882
2.28568,0.0578574,-0.159882
2.27181,-0.0535376,-0.185511
2.29501,-0.0540844,0.0400707
2.30092,0.170989,-0.14787
2.31533,0.0586079,0.134883
2.29746,-0.054142,0.0936268
2.28024,-0.0537362,-0.119535
2.32975,0.0589729,0.286149
2.3117,0.17179,-0.0944409
2.32502,-0.0547914,0.424028
2.29864,0.0581853,-0.0535052
2.23743,0.0488209,-0.626493
2.23883,-0.0605809,-0.447932
2.30745,0.0503488,0
2.25696,-0.0610715,-0.287386
2.28712,-0.0618878,-0.0132977
2.27828,0.0497122,-0.245466
2.25565,-0.171583,-0.211169
2.31082,0.0504224,0.0537844
2.27328,-0.172924,0.0265417
2.28587,0.0498779,-0.159882
2.26762,-0.0613601,-0.185186
2.29081,-0.0619876,0.0400009
2.3015,0.162955,-0.14787
2.25366,-0.171431,-0.131627
2.31552,0.0505249,0.134883
2.29326,-0.0620537,0.0934639
2.29297,0.0500327,-0.106835
2.28004,-0.0616959,-0.119535
2.32994,0.0508396,0.286149
2.30431,0.163154,-0.0941152
2.32481,-0.0629075,0.424028
2.29883,0.0501607,-0.0535052
2.31042,0.155483,-0.0404198
2.24644,-0.068635,-0.449501
2.29961,0.0421473,0
2.2607,-0.179906,-0.026402
2.26438,0.0415015,-0.352343
2.2607,-0.0690705,-0.287892
2.29089,-0.0699931,-0.0133209
2.28241,0.0418321,-0.245895
2.25901,-0.179771,-0.211541
2.31498,0.0424291,0.0538774
2.28063,-0.181493,0.0266348
2.29401,0.0420447,-0.16044
2.2674,-0.0692752,-0.185186
2.29458,-0.0701057,0.0400707
2.29808,0.154653,-0.147614
2.31569,0.0424419,0.134883
2.29702,-0.0701804,0.0936268
2.2838,-0.0697764,-0.119745
2.33011,0.0427062,0.286149
2.31285,0.155646,-0.0944409
2.32458,-0.0710222,0.424028
2.29899,0.0421359,-0.0535052
2.30297,0.146908,-0.0402802
2.23772,0.0331996,-0.626493
2.24227,-0.0763427,-0.448716
2.29975,0.0341199,0
2.26006,-0.187796,-0.026402
2.26055,0.0335385,-0.351728
2.25251,-0.0766914,-0.286881
2.28664,-0.0778533,-0.0132977
2.27061,0.0336877,-0.24461
2.2544,-0.187326,-0.211169
2.31112,0.0342887,0.0537844
2.27999,-0.189452,0.0266348
2.29016,0.0339776,-0.160161
2.26714,-0.0771895,-0.185186
2.29432,-0.0781149,0.0400707
2.25241,-0.187161,-0.131627
2.30784,0.0342399,0.134417
2.29676,-0.078198,0.0936268
2.29726,0.034083,-0.107022
2.33024,0.0345724,0.286149
2.3054,0.147063,-0.0941152
2.36819,0.0351354,0.634624
2.32038,-0.0790022,0.423311
2.29513,0.0340514,-0.0534122
2.24591,-0.0843163,-0.449501
2.30385,0.0261375,0
2.27134,-0.19672,-0.0265417
2.26066,0.0256475,-0.351728
2.25619,-0.0847025,-0.287386
2.28635,-0.0858346,-0.0132977
2.27072,0.0257616,-0.24461
2.24579,-0.194507,-0.210425
2.29923,0.0260851,0.0535052
2.2833,-0.197755,0.0266814
2.29026,0.0259833,-0.160161
2.27084,-0.0852524,-0.185511
2.29004,-0.0859731,0.0400009
2.30794,0.0261839,0.134417
2.29248,-0.0860648,0.0934639
2.28937,0.0259732,-0.106649
2.28326,-0.0857185,-0.119745
2.32638,0.0263931,0.285662
2.30989,0.139256,-0.0942781
2.29523,0.0260397,-0.0534122
2.23776,-0.0918339,-0.447932
2.29993,0.018064,0
2.27064,-0.204647,-0.0265417
2.26864,0.0178182,-0.352958
2.25588,-0.0925776,-0.287386
2.28204,-0.093651,-0.0132744
2.26682,0.0178039,-0.244181
2.2451,-0.202345,-0.210425
2.29931,0.0180591,0.0535052
2.26666,-0.204288,0.0264951
2.28236,0.017926,-0.159603
2.27053,-0.0931786,-0.185511
2.3113,0.131245,0.0673737
2.28972,-0.0939663,0.0400009
2.2916,0.130126,-0.147102
2.31201,0.0181589,0.13465
2.29616,-0.0942304,0.0936268
2.28945,0.0179816,-0.106649
2.27895,-0.0935242,-0.119535
2.30637,0.130965,-0.0941152
2.29531,0.0180277,-0.0534122
2.26879,-0.101041,-0.0660937
2.23409,0.00974812,-0.625415
2.23743,-0.0996446,-0.447932
2.29198,0.0100007,0
2.26195,-0.211826,-0.0264485
2.25683,0.00984734,-0.351113
2.25951,-0.100628,-0.287892
2.30869,0.123013,0.0134371
2.28969,-0.101972,-0.0133209
2.2788,0.00994318,-0.245466
2.24438,-0.21018,-0.210425
2.29936,0.0100329,0.0535052
2.26991,-0.212572,0.0265417
2.28241,0.00995893,-0.159603
2.26222,-0.100749,-0.18486
2.29338,-0.102136,0.0400707
2.29603,0.122339,-0.147358
2.2543,-0.211109,-0.131859
2.30807,0.0100709,0.134417
2.29582,-0.102245,0.0936268
2.29749,0.0100247,-0.107022
2.31857,0.0101167,0.284687
2.29883,0.122488,-0.0937896
2.3155,-0.103121,0.422593
2.29136,0.009998,-0.0533191
2.26842,-0.10896,-0.0660937
2.23026,0.00194627,-0.624337
2.24098,-0.107642,-0.448716
2.288,0.00199666,0
2.25722,-0.219333,-0.026402
2.25685,0.00196947,-0.351113
2.25518,-0.108324,-0.287386
2.28932,-0.109964,-0.0133209
2.27484,0.00198517,-0.245038
2.2476,-0.218399,-0.210797
2.30338,0.00201007,0.0535983
2.27314,-0.220881,0.0265882
2.28243,0.00199179,-0.159603
2.26186,-0.108645,-0.18486
2.28502,-0.109757,0.0399311
2.28847,0.113927,-0.146847
2.24958,-0.218591,-0.131627
2.31208,0.00201767,0.13465
2.29545,-0.110258,0.0936268
2.29351,0.00200147,-0.106835
2.27824,-0.109432,-0.119535
2.32256,0.00202681,0.285174
2.29924,0.114463,-0.0937896
2.31119,-0.111014,0.421876
2.29138,0.00199961,-0.0533191
2.30119,0.106509,-0.0402103
2.23025,-0.0058388,-0.624337
2.24451,-0.115666,-0.449501
2.29199,-0.00600043,0
2.25644,-0.227211,-0.026402
2.25684,-0.00590841,-0.351113
2.25875,-0.1164,-0.287892
2.28493,-0.117749,-0.0132977
2.29937,-0.00601975,0.0535052
2.26837,-0.228413,0.0265417
2.28242,-0.00597537,-0.159603
2.25748,-0.116334,-0.184535
2.28861,-0.117939,0.0400009
2.29284,0.106122,-0.147102
2.3001,-0.00602165,0.133952
2.29106,-0.118064,0.0934639
2.31858,-0.00607004,0.284687
2.30362,0.106621,-0.0939524
2.31079,-0.119081,0.421876
2.28737,-0.00598834,-0.0532261
2.23235,-0.122853,-0.447147
2.29196,-0.0140009,0
2.25563,-0.235086,-0.026402
2.25681,-0.0137862,-0.351113
2.25833,-0.124284,-0.287892
2.2845,-0.125724,-0.0132977
2.26684,-0.0138475,-0.244181
2.25394,-0.23491,-0.211541
2.29534,-0.0140216,0.0534122
2.26756,-0.23633,0.0265417
2.27839,-0.0139181,-0.159324
2.26503,-0.124652,-0.185186
2.2802,-0.125487,0.0398613
2.25197,-0.234704,-0.131859
2.30006,-0.0140504,0.133952
2.28664,-0.125841,0.0933011
2.29347,-0.0140102,-0.106835
2.26945,-0.124895,-0.119117
2.32251,-0.0141876,0.285174
2.29999,0.0984087,-0.0937896
2.31036,-0.127147,0.421876
2.29534,-0.0140216,-0.0534122
2.22631,-0.0213716,-0.623258
2.23582,-0.130874,-0.447932
2.28789,-0.0219629,0
2.26672,-0.244244,-0.0265417
2.25675,-0.0216639,-0.351113
2.25393,-0.131934,-0.287386
2.28006,-0.133464,-0.0132744
2.27474,-0.0218366,-0.245038
2.25311,-0.242776,-0.211541
2.29127,-0.0219953,0.0533191
2.26672,-0.244244,0.0265417
2.28232,-0.0219094,-0.159603
2.26458,-0.132558,-0.185186
2.28773,-0.133913,0.0400009
2.28554,0.0897993,-0.146591
2.24319,-0.241708,-0.131394
2.29018,-0.134056,0.0934639
2.28542,-0.0219391,-0.106463
2.27298,-0.13305,-0.119326
2.31451,-0.0222184,0.284199
2.30032,0.0903796,-0.0937896
2.3099,-0.135211,0.421876
2.29127,-0.0219953,-0.0533191
2.29418,0.0821191,-0.0400707
2.22622,-0.0291428,-0.623258
2.22752,-0.138192,-0.446363
2.25393,-0.250828,-0.026402
2.25271,-0.0294895,-0.350499
2.24949,-0.139555,-0.286881
2.27067,-0.0297247,-0.24461
2.29518,-0.0300456,0.0534122
2.26188,-0.251712,0.0264951
2.27425,-0.0297716,-0.159045
2.25614,-0.139968,-0.184535
2.28326,-0.14165,0.0399311
2.28584,0.0818207,-0.146591
2.25027,-0.25042,-0.131859
2.3039,-0.0301597,0.134185
2.2897,-0.142049,0.0934639
2.28533,-0.0299166,-0.106463
2.27251,-0.140983,-0.119326
2.31442,-0.0302974,0.284199
2.30942,-0.143273,0.421876
2.28718,-0.0299409,-0.0532261
2.29843,0.0750419,-0.0401405
2.22997,-0.036199,-0.624337
2.24273,-0.14621,-0.449501
2.2877,-0.0371362,0
2.25711,-0.258362,-0.0264485
2.25655,-0.0366306,-0.351113
2.24508,-0.146363,-0.286376
2.26261,-0.0367289,-0.243753
2.29508,-0.0372559,0.0534122
2.26505,-0.259272,0.0265417
2.27415,-0.0369162,-0.159045
2.25569,-0.147055,-0.184535
2.27881,-0.148563,0.0398613
2.24551,-0.257034,-0.131627
2.30379,-0.0373974,0.134185
2.28924,-0.149242,0.0934639
2.27205,-0.148122,-0.119326
2.31828,-0.0376326,0.284687
2.29288,0.0748607,-0.0934639
2.27908,-0.0369963,-0.05304
2.22598,-0.0439069,-0.623258
2.23829,-0.153769,-0.448716
2.28356,-0.0450426,0
2.25619,-0.266239,-0.0264485
2.24851,-0.0443513,-0.349884
2.24852,-0.154471,-0.286881
2.27859,-0.156537,-0.0132744
2.26247,-0.0446267,-0.243753
2.29493,-0.045267,0.0534122
2.26016,-0.266708,0.0264951
2.27001,-0.0447755,-0.158766
2.25914,-0.155201,-0.18486
2.28227,-0.15679,0.0399311
2.28235,0.0665424,-0.146335
2.2446,-0.264871,-0.131627
2.29566,-0.0452814,0.13372
2.2887,-0.157232,0.0934639
2.28907,-0.0451514,-0.106649
2.27152,-0.156052,-0.119326
2.31814,-0.0457247,0.284687
2.29712,0.066973,-0.0936268
2.28294,-0.0450304,-0.053133
2.23774,-0.161581,-0.448716
2.25525,-0.274113,-0.0264485
2.24834,-0.0521998,-0.349884
2.24796,-0.162319,-0.286881
2.27803,-0.16449,-0.0132744
2.25832,-0.0524316,-0.243325
2.24169,-0.272465,-0.210797
2.29476,-0.0532776,0.0534122
2.26716,-0.275561,0.0265882
2.27383,-0.0527917,-0.159045
2.25859,-0.163086,-0.18486
2.27772,-0.164468,0.0398613
2.28256,0.0585751,-0.146335
2.23969,-0.272223,-0.131394
2.28415,-0.164932,0.0933011
2.28491,-0.0530488,-0.106463
2.27096,-0.16398,-0.119326
2.31399,-0.0537241,0.284199
2.29734,0.0589542,-0.0936268
2.28676,-0.0530919,-0.0532261
2.2256,-0.0598343,-0.623258
2.22931,-0.169188,-0.447147
2.28318,-0.0613821,0
2.26217,-0.283372,-0.0265417
2.25604,-0.0606525,-0.351113
2.24735,-0.170557,-0.286881
2.29541,0.0504868,0.0133442
2.2814,-0.173141,-0.0132977
2.26209,-0.0608153,-0.243753
2.24067,-0.280679,-0.210797
2.28655,-0.061473,0.0532261
2.2582,-0.282874,0.0264951
2.26565,-0.0609109,-0.158487
2.254,-0.171062,-0.184535
2.28109,-0.173118,0.0399311
2.28276,0.0502087,-0.146335
2.25057,-0.281919,-0.132092
2.29129,-0.0616002,0.133487
2.28353,-0.173303,0.0933011
2.28869,-0.0615304,-0.106649
2.26636,-0.172,-0.119117
2.30584,-0.0619916,0.283224
2.29354,0.0504458,-0.0934639
2.28655,-0.061473,-0.0532261
2.22538,-0.0676028,-0.623258
2.23653,-0.17759,-0.448716
2.28295,-0.0693515,0
2.2572,-0.290755,-0.0264951
2.25186,-0.0684071,-0.350499
2.2507,-0.178715,-0.287386
2.29557,0.042474,0.0133442
2.26187,-0.0687111,-0.243753
2.24758,-0.289516,-0.211541
2.29032,-0.0695756,0.0533191
2.26116,-0.291266,0.0265417
2.2734,-0.0690614,-0.159045
2.24941,-0.178613,-0.184209
2.27649,-0.180763,0.0398613
2.27893,0.0421662,-0.146079
2.24957,-0.289773,-0.132092
2.29904,-0.0698405,0.133952
2.28291,-0.181273,0.0933011
2.27648,-0.0691551,-0.106091
2.26177,-0.179594,-0.118907
2.30958,-0.0701606,0.283712
2.28571,0.0422916,-0.0931383
2.28633,-0.0694542,-0.0532261
2.29139,0.0347959,-0.0400009
2.22515,-0.0749821,-0.623258
2.23202,-0.184682,-0.447932
2.27871,-0.076787,0
2.24829,-0.297191,-0.026402
2.25162,-0.0758742,-0.350499
2.24219,-0.185523,-0.286376
2.2722,-0.188006,-0.0132512
2.26163,-0.0762114,-0.243753
2.24266,-0.296446,-0.211169
2.28608,-0.0770355,0.0532261
2.26019,-0.298763,0.0265417
2.26917,-0.0764655,-0.158766
2.27189,-0.187981,0.0397915
2.27906,0.0346088,-0.146079
2.2486,-0.297231,-0.132092
2.29481,-0.0773295,0.13372
2.2823,-0.188842,0.0933011
2.28023,-0.0768383,-0.106277
2.26514,-0.187422,-0.119117
2.3133,-0.0779528,0.284199
2.28584,0.0347117,-0.0931383
2.28209,-0.0769008,-0.053133
2.25865,-0.194826,-0.0659773
2.22872,-0.082892,-0.624337
2.23527,-0.192809,-0.448716
2.28242,-0.0848893,0
2.25516,-0.306113,-0.0264951
2.25134,-0.0837334,-0.350499
2.24152,-0.193349,-0.286376
2.2958,0.0268477,0.0133442
2.27153,-0.195937,-0.0132512
2.2534,-0.0838098,-0.242896
2.29379,-0.0853122,0.0534122
2.26309,-0.307189,0.0265882
2.27686,-0.0846825,-0.159324
2.24815,-0.19392,-0.184209
2.27122,-0.19591,0.0397915
2.24359,-0.304541,-0.131859
2.29452,-0.0853394,0.13372
2.28561,-0.197151,0.0934639
2.27995,-0.0847974,-0.106277
2.25651,-0.194642,-0.118698
2.31302,-0.0860273,0.284199
2.28994,0.0267792,-0.0933011
2.27781,-0.0847177,-0.05304
2.22072,-0.090358,-0.62218
2.22677,-0.199909,-0.447147
2.27812,-0.0926933,0
2.24616,-0.312879,-0.026402
2.25499,-0.0917522,-0.351113
2.24479,-0.201527,-0.286881
2.29188,0.0188009,0.0133209
2.27083,-0.203865,-0.0132512
2.25309,-0.0916751,-0.242896
2.24448,-0.312645,-0.211541
2.28549,-0.0929934,0.0532261
2.26201,-0.315087,0.0265882
2.26858,-0.0923053,-0.158766
2.27849,-0.204552,0.0399311
2.24251,-0.312371,-0.131859
2.29022,-0.0931859,0.133487
2.27695,-0.204414,0.0931383
2.27565,-0.0925929,-0.106091
2.2598,-0.202874,-0.118907
2.3127,-0.0941007,0.284199
2.29002,0.0187856,-0.0933011
2.2775,-0.0926682,-0.05304
2.25322,-0.210612,-0.065861
2.22422,-0.0986674,-0.623258
2.22993,-0.208434,-0.447932
2.27776,-0.101042,0
2.24896,-0.321676,-0.0264485
2.24674,-0.0996662,-0.349884
2.24403,-0.209753,-0.286881
2.29194,0.0104006,0.0133209
2.27405,-0.212558,-0.0132744
2.25671,-0.100109,-0.243325
2.23937,-0.320305,-0.211169
2.28114,-0.101192,0.053133
2.25292,-0.322242,0.0264951
2.26025,-0.100266,-0.158208
2.2467,-0.210002,-0.184209
2.26578,-0.211785,0.0397217
2.27531,0.0103251,-0.145823
2.24135,-0.320588,-0.131859
2.28588,-0.101402,0.133255
2.27618,-0.212758,0.0931383
2.27928,-0.10111,-0.106277
2.26302,-0.211527,-0.119117
2.30441,-0.102225,0.283224
2.28608,0.010374,-0.0931383
2.28513,-0.10137,-0.0532261
2.22003,-0.105859,-0.62218
2.22922,-0.215828,-0.447932
2.24392,-0.328553,-0.026402
2.24333,-0.217193,-0.286881
2.29196,0.00280014,0.0133209
2.27333,-0.220098,-0.0132744
2.25637,-0.107592,-0.243325
2.24224,-0.328307,-0.211541
2.28079,-0.108756,0.053133
2.25579,-0.330291,0.0265417
2.26389,-0.107951,-0.158487
2.24599,-0.217451,-0.184209
2.27302,-0.220069,0.0398613
2.27533,0.00277983,-0.145823
2.24028,-0.328019,-0.131859
2.28951,-0.109172,0.133487
2.27546,-0.220305,0.0931383
2.27894,-0.108668,-0.106277
2.25435,-0.218261,-0.118698
2.30803,-0.110055,0.283712
2.28211,0.0027881,-0.0929754
2.2728,-0.108375,-0.0529469
2.28365,-0.00558,-0.0398613
2.22348,-0.114193,-0.623258
2.22842,-0.223997,-0.447932
2.24666,-0.337369,-0.0264485
2.24599,-0.115349,-0.349884
2.23462,-0.22462,-0.285871
2.25199,-0.115657,-0.242896
2.23708,-0.335931,-0.211169
2.27638,-0.11691,0.05304
2.25852,-0.339151,0.0265882
2.26348,-0.116247,-0.158487
2.24518,-0.225682,-0.184209
2.26822,-0.227998,0.0397915
2.23906,-0.336228,-0.131859
2.2891,-0.117563,0.133487
2.27464,-0.228643,0.0931383
2.27453,-0.116815,-0.106091
2.25354,-0.226522,-0.118698
2.30761,-0.118513,0.283712
2.2781,-0.00556646,-0.0928126
2.28038,-0.117115,-0.053133
2.22376,-0.23098,-0.447147
2.2726,-0.124273,0
2.25739,-0.346638,-0.0265882
2.24559,-0.122796,-0.349884
2.23781,-0.232439,-0.286376
2.28792,-0.0131776,0.0132977
2.27174,-0.235964,-0.0132744
2.25159,-0.123124,-0.242896
2.27998,-0.124676,0.053133
2.26134,-0.347245,0.0266348
2.26308,-0.123753,-0.158487
2.24838,-0.233538,-0.184535
2.26348,-0.235105,0.0397217
2.23004,-0.342439,-0.131394
2.27785,-0.236598,0.0933011
2.30324,-0.125948,0.283224
2.28607,-0.0131669,-0.0931383
2.27598,-0.124458,-0.05304
2.28355,-0.021124,-0.0398613
2.23074,-0.239579,-0.448716
2.27216,-0.132205,0
2.24431,-0.352653,-0.0264485
2.24515,-0.130634,-0.349884
2.24093,-0.240673,-0.286881
2.29186,-0.0212009,0.0133209
2.25512,-0.131214,-0.243325
2.23868,-0.351769,-0.211541
2.28352,-0.132867,0.0532261
2.26011,-0.355137,0.0266348
2.27061,-0.132115,-0.159045
2.24756,-0.241385,-0.184535
2.26662,-0.243432,0.0397915
2.27124,-0.0210102,-0.145567
2.23277,-0.350841,-0.131627
2.28426,-0.13291,0.133255
2.27303,-0.244121,0.0931383
2.26571,-0.13183,-0.105719
2.25194,-0.241856,-0.118698
2.30278,-0.133987,0.283224
2.28601,-0.0211467,-0.0931383
2.27553,-0.132402,-0.05304
2.22209,-0.246499,-0.447147
2.24306,-0.360485,-0.0264485
2.24862,-0.138714,-0.350499
2.24007,-0.248494,-0.286881
2.29178,-0.0292009,0.0133209
2.25465,-0.139085,-0.243325
2.23744,-0.359581,-0.211541
2.27506,-0.140344,0.05304
2.25096,-0.361755,0.0265417
2.2542,-0.139058,-0.157929
2.2467,-0.249229,-0.184535
2.26973,-0.251783,0.0398613
2.23548,-0.359266,-0.131859
2.28378,-0.140882,0.133255
2.27217,-0.252054,0.0931383
2.27321,-0.14023,-0.106091
2.25108,-0.249715,-0.118698
2.3023,-0.142025,0.283224
2.28592,-0.0291262,-0.0931383
2.27506,-0.140344,-0.05304
2.22507,-0.255089,-0.447932
2.24173,-0.368704,-0.0264485
2.24021,-0.146439,-0.349269
2.24309,-0.257154,-0.287386
2.28365,-0.0374692,0.0132744
2.2691,-0.260136,-0.0132744
2.25015,-0.147088,-0.242896
2.2361,-0.367779,-0.211541
2.27852,-0.148943,0.053133
2.24962,-0.370002,0.0265417
2.24181,-0.257008,-0.184209
2.26879,-0.260101,0.0398613
2.24203,-0.368753,-0.132324
2.28325,-0.149252,0.133255
2.2752,-0.260835,0.0933011
2.26869,-0.1483,-0.105905
2.25412,-0.258419,-0.118907
2.29384,-0.149944,0.282249
2.27381,-0.0373076,-0.0926498
2.27453,-0.148682,-0.05304
2.27922,-0.0445591,-0.0397915
2.22426,-0.262078,-0.447932
2.27068,-0.155595,0
2.23661,-0.375083,-0.026402
2.23974,-0.153476,-0.349269
2.23045,-0.262807,-0.285871
2.28352,-0.0446433,0.0132744
2.26827,-0.267263,-0.0132744
2.25365,-0.154429,-0.243325
2.27804,-0.1561,0.053133
2.25239,-0.377729,0.0265882
2.26796,-0.267227,0.0398613
2.23298,-0.374474,-0.131859
2.28277,-0.156424,0.133255
2.2704,-0.267514,0.0931383
2.2722,-0.1557,-0.106091
2.24933,-0.265032,-0.118698
2.29732,-0.157421,0.282737
2.28167,-0.0446071,-0.0929754
2.27405,-0.155827,-0.05304
2.22333,-0.26984,-0.447932
2.26613,-0.163233,0
2.23923,-0.383564,-0.0264485
2.24313,-0.161577,-0.349884
2.23346,-0.271069,-0.286376
2.28336,-0.052614,0.0132744
2.26335,-0.274698,-0.0132512
2.24913,-0.162009,-0.242896
2.27349,-0.163764,0.05304
2.25663,-0.162549,-0.158208
2.2361,-0.27139,-0.183884
2.26305,-0.27466,0.0397915
2.23166,-0.382267,-0.131859
2.26945,-0.275438,0.0931383
2.27165,-0.163631,-0.106091
2.24839,-0.272882,-0.118698
2.29676,-0.165439,0.282737
2.27751,-0.0524793,-0.0928126
2.2695,-0.163476,-0.0529469
2.26947,-0.172236,0
2.24168,-0.392849,-0.0264951
2.2425,-0.170189,-0.349884
2.2324,-0.279643,-0.286376
2.28314,-0.0613811,0.0132744
2.25246,-0.170944,-0.243325
2.23213,-0.391175,-0.211541
2.25744,-0.395611,0.0266814
2.25201,-0.170911,-0.157929
2.24295,-0.280965,-0.184535
2.26198,-0.283348,0.0397915
2.22624,-0.390143,-0.131627
2.28156,-0.173153,0.133255
2.26441,-0.283653,0.0929754
2.25905,-0.171445,-0.105533
2.25526,-0.282506,-0.119117
2.30006,-0.174557,0.283224
2.27329,-0.0611164,-0.0926498
2.27285,-0.172492,-0.05304
2.27463,-0.0683041,-0.0397217
2.26493,-0.17905,0
2.24438,-0.400592,-0.0265417
2.24195,-0.177233,-0.349884
2.23151,-0.286655,-0.286376
2.28693,-0.0686735,0.0132977
2.26535,-0.291001,-0.0132744
2.24794,-0.177706,-0.242896
2.23089,-0.398186,-0.211541
