3.04974,-0.112362,-0.159939
3.05177,-0.112437,0.249301
3.14692,0.0378995,-0.0732324
3.14789,0.0269217,0
2.96796,-0.265405,-0.0346904
3.05746,-0.123335,-0.0177845
2.95531,-0.264274,-0.276973
3.13904,0.026846,0.0730463
2.96796,-0.265405,0.0346904
3.13224,0.0267879,-0.219035
3.04339,-0.122767,-0.24865
3.05305,-0.123157,0.0533346
2.95916,-0.264618,-0.173022
3.05099,-0.123074,0.124401
3.13648,0.0268242,-0.146108
3.04135,-0.122685,-0.15952
3.04738,-0.122928,0.248975
3.14303,0.0268802,-0.0731393
3.13196,0.016399,0
3.02866,-0.132234,-0.385876
3.04904,-0.133124,-0.017738
2.95442,-0.274073,-0.276973
3.13911,0.0164365,0.0730463
2.95909,-0.274507,0.0345973
3.12433,0.0163591,-0.218477
3.03899,-0.132685,-0.248324
3.04863,-0.133106,0.0532647
2.95429,-0.274061,-0.172789
3.04258,-0.132842,0.124076
3.12856,0.0163813,-0.145735
3.03294,-0.132421,-0.159101
3.04297,-0.132859,0.24865
3.13511,0.0164155,-0.0729532
3.02735,-0.142766,-0.0882025
3.128,0.00545939,0
2.95015,-0.284068,-0.0345042
3.02817,-0.142805,-0.385876
3.04456,-0.143578,-0.0177147
2.95344,-0.284384,-0.276973
3.12315,0.00545094,0.0726741
2.95015,-0.284068,0.0345042
3.11639,0.00543913,-0.217919
3.03054,-0.142917,-0.247673
3.03616,-0.143182,0.0530553
2.94934,-0.283989,-0.172557
3.0381,-0.143273,0.123913
3.1286,0.00546045,-0.145735
3.03246,-0.143007,-0.159101
3.03054,-0.142917,0.247673
3.13115,0.0054649,-0.0728602
3.01882,-0.153455,-0.0879698
3.11999,-0.00598996,0
2.94113,-0.294083,-0.034411
2.94842,-0.294811,-0.276602
3.13115,-0.00601137,0.0728602
2.94113,-0.294083,0.034411
3.1084,-0.00596771,-0.217361
3.02203,-0.153618,-0.247023
3.03562,-0.154309,0.0530553
2.94828,-0.294797,-0.172557
3.03356,-0.154205,0.12375
3.12061,-0.00599115,-0.145363
3.03192,-0.154121,-0.159101
3.02203,-0.153618,0.247023
3.12715,-0.0060037,-0.0727671
3.01428,-0.163775,-0.0878534
3.11195,-0.0168375,0
2.94009,-0.304347,-0.034411
3.01519,-0.163825,-0.38436
2.94341,-0.304691,-0.27623
3.11111,-0.0168329,0.0723949
2.93213,-0.303524,0.0343179
3.10836,-0.016818,-0.217361
3.02148,-0.164166,-0.247023
3.02707,-0.16447,0.0529157
2.93134,-0.303442,-0.171626
3.02902,-0.164576,0.123587
3.11658,-0.0168625,-0.145177
3.02339,-0.16427,-0.158683
3.0175,-0.16395,0.246697
3.10711,-0.0168113,-0.0723018
3.10388,-0.0270872,0
2.93111,-0.313245,-0.0343179
3.00274,-0.173137,-0.382845
2.93446,-0.313603,-0.275486
3.09904,-0.0270449,0.0721157
2.93509,-0.31367,0.0343645
3.1043,-0.0270908,-0.217082
3.01296,-0.173726,-0.246372
3.02252,-0.174277,0.0528459
2.93032,-0.313161,-0.171626
3.01648,-0.173929,0.123099
3.10052,-0.0270578,-0.144433
3.01485,-0.173835,-0.158264
3.01296,-0.173726,0.246372
3.09904,-0.0270449,-0.0721157
3.18537,0.116802,-0.0556383
3.00112,-0.183556,-0.0875043
3.09577,-0.0378238,0
2.92602,-0.323036,-0.0342714
3.01004,-0.184102,-0.383855
2.92543,-0.322971,-0.274743
3.09493,-0.0378136,0.0720227
2.92205,-0.322597,0.0342248
3.09621,-0.0378292,-0.216524
3.01233,-0.184242,-0.246372
3.00992,-0.184094,0.0526365
3.01586,-0.184458,0.123099
3.09242,-0.0377829,-0.14406
3.01422,-0.184358,-0.158264
3.01233,-0.184242,0.246372
3.09493,-0.0378136,-0.0720227
3.18176,0.10555,-0.0555685
2.99248,-0.193515,-0.0872716
3.08362,-0.0484414,0
2.91693,-0.332342,-0.0341782
2.9975,-0.19384,-0.38234
2.92429,-0.33318,-0.274743
3.08279,-0.0484283,0.0717435
2.9209,-0.332795,0.0342248
3.09207,-0.0485741,-0.216245
2.99973,-0.193984,-0.245395
3.00127,-0.194084,0.0524968
2.92013,-0.332707,-0.171161
3.00323,-0.19421,0.12261
3.09227,-0.0485772,-0.14406
3.00958,-0.19462,-0.158055
2.99576,-0.193727,0.24507
3.09078,-0.0485539,-0.0719296
3.18211,0.0944429,-0.0555685
2.9878,-0.203688,-0.0871552
3.07943,-0.0591281,0
2.91178,-0.342055,-0.0341317
2.98889,-0.203762,-0.38133
2.91519,-0.342457,-0.273999
3.0786,-0.0591121,0.0716505
2.91178,-0.342055,0.0341317
3.07991,-0.0591373,-0.215408
2.99904,-0.204454,-0.245395
2.9926,-0.204015,0.0523572
2.91498,-0.342432,-0.170929
3.09019,-0.0593347,0.179998
3.00652,-0.204964,0.122773
3.08409,-0.0592175,-0.143688
3.00091,-0.204581,-0.157636
2.99108,-0.203912,0.244744
3.09459,-0.0594192,-0.0720227
3.16643,0.0829159,-0.0552892
2.98707,-0.214116,-0.0871552
3.07921,-0.069877,0
2.90263,-0.351256,-0.0340385
2.9842,-0.21391,-0.380825
2.99626,-0.214775,-0.017459
3.07343,-0.0697458,-0.331144
2.91003,-0.352152,-0.273627
3.07038,-0.0696766,0.0714644
2.90263,-0.351256,0.0340385
3.07171,-0.0697068,-0.21485
2.99433,-0.214636,-0.24507
2.99187,-0.21446,0.0523572
3.1724,0.0830723,-0.203385
2.90188,-0.351166,-0.170231
3.07799,-0.0698494,0.179301
2.99383,-0.2146,0.122285
3.08386,-0.0699826,-0.143688
2.99221,-0.214484,-0.157217
2.98638,-0.214066,0.244419
3.16429,0.0828598,-0.128961
3.07837,-0.0698581,-0.0716505
3.1667,0.0718625,-0.0552892
2.97833,-0.223942,-0.0869225
3.06695,-0.0803109,0
2.89741,-0.360892,-0.033992
2.98344,-0.224326,-0.380825
3.15913,0.0716907,0.0183656
2.99151,-0.224932,-0.0174357
3.06521,-0.0802654,-0.330287
3.06212,-0.0801845,0.0712783
2.90138,-0.361386,0.0340385
3.07144,-0.0804286,-0.21485
2.98959,-0.224788,-0.244744
2.98711,-0.224602,0.0522874
2.89667,-0.360799,-0.169998
3.07374,-0.0804886,0.179068
2.98509,-0.22445,0.121959
3.07162,-0.0804331,-0.14313
2.99144,-0.224927,-0.157217
2.97766,-0.223891,0.243768
3.07811,-0.0806032,-0.0716505
3.15094,0.0605011,-0.05501
2.96956,-0.233709,-0.0866898
2.89614,-0.371004,-0.033992
2.97473,-0.234116,-0.379815
2.98671,-0.235059,-0.0174125
3.06094,-0.0908465,-0.329859
2.89565,-0.370941,-0.272512
3.05783,-0.0907541,0.0711852
2.89217,-0.370495,0.0339454
3.05519,-0.090676,-0.213734
2.98481,-0.23491,-0.244419
2.98232,-0.234714,0.0522176
2.89539,-0.370908,-0.169998
3.06545,-0.0909805,0.178603
2.98429,-0.234869,0.121959
3.06333,-0.0909175,-0.142757
2.97869,-0.234428,-0.156589
2.97289,-0.233971,0.243443
3.07381,-0.0912287,-0.0715574
3.14713,0.0494391,-0.0549402
2.96075,-0.243418,-0.0864571
2.88293,-0.379544,-0.0338523
2.97389,-0.244498,-0.379815
3.14756,0.0494458,0.0182959
3.0606,-0.101531,-0.329859
2.89433,-0.381046,-0.272512
3.05349,-0.101295,0.0710922
2.89086,-0.380589,0.0339454
3.05087,-0.101208,-0.213455
2.97603,-0.244674,-0.243768
2.9775,-0.244795,0.0521478
2.89012,-0.380492,-0.169766
3.06512,-0.10168,0.178603
2.97947,-0.244957,0.121796
3.06299,-0.10161,-0.142757
2.97785,-0.244824,-0.156589
2.96411,-0.243694,0.242792
3.06548,-0.101693,-0.0713713
3.14329,0.0384044,-0.0548704
2.96387,-0.254093,-0.0865734
3.04196,-0.111543,0
2.87762,-0.389069,-0.0338057
2.95721,-0.253522,-0.377795
3.04433,-0.111631,-0.328145
3.04912,-0.111806,0.0709991
2.88555,-0.390141,0.0338988
3.04651,-0.11171,-0.213176
2.97118,-0.25472,-0.243443
2.96069,-0.25382,0.0518686
2.88482,-0.390043,-0.169533
3.05676,-0.112086,0.178138
2.97063,-0.254673,0.121471
3.04665,-0.111715,-0.142013
2.95926,-0.253699,0.242466
3.06111,-0.112246,-0.0712783
2.95898,-0.264082,-0.0864571
3.03755,-0.122001,0
2.86832,-0.398012,-0.0337126
2.9563,-0.263843,-0.377795
2.96417,-0.264545,-0.0172963
3.03598,-0.121937,-0.327289
3.04472,-0.122289,0.0709061
2.87624,-0.399112,0.0338057
3.03813,-0.122024,-0.212618
2.96233,-0.264381,-0.242792
2.96775,-0.264865,0.0520082
3.12946,0.0273104,-0.200571
2.87553,-0.399013,-0.169068
3.04039,-0.122115,0.177208
3.04225,-0.122189,-0.141827
2.96413,-0.264542,-0.155961
2.95042,-0.263318,0.241815
3.05271,-0.12261,-0.0710922
3.12348,0.0168998,-0.0545213
2.95013,-0.273156,-0.0862243
3.03313,-0.131899,0
2.86699,-0.407522,-0.0337126
2.95146,-0.273279,-0.377289
2.95929,-0.274004,-0.017273
3.03631,-0.132037,0.0707199
2.87887,-0.409211,0.0338523
3.0377,-0.132098,-0.212618
2.95747,-0.273836,-0.242466
2.95491,-0.273598,0.0517987
2.87024,-0.407984,-0.168836
3.04795,-0.132543,0.177673
2.95291,-0.273413,0.120819
3.02985,-0.131756,-0.141268
2.94124,-0.282173,-0.0859916
2.93611,-0.28168,-0.589921
2.86166,-0.416451,-0.033666
2.94264,-0.282307,-0.376279
2.95439,-0.283434,-0.0172498
2.86917,-0.417544,-0.270653
3.03186,-0.141918,0.0706269
2.95655,-0.283641,-0.242466
2.95399,-0.283396,0.0517987
2.86097,-0.41635,-0.168371
3.03553,-0.14209,0.176975
2.94801,-0.282822,0.120656
2.95039,-0.28305,-0.155333
2.94067,-0.282118,0.241164
3.04384,-0.142479,-0.0709061
2.93621,-0.292555,-0.0858753
2.93896,-0.292829,-0.590705
2.94158,-0.293091,-0.376279
3.02732,-0.152828,0.0705338
2.85616,-0.426346,0.0336195
2.94358,-0.29329,-0.24149
2.94099,-0.293031,0.0515893
2.85942,-0.426833,-0.168371
3.031,-0.153013,0.176743
2.94695,-0.293625,0.120656
3.02087,-0.152502,-0.140896
2.94933,-0.293862,-0.155333
2.9312,-0.302393,-0.0857589
2.93011,-0.302281,-0.589136
2.84279,-0.4345,-0.0334798
3.01923,-0.162987,-0.470406
2.9287,-0.302135,-0.374764
2.94035,-0.303336,-0.01718
3.02278,-0.163179,0.0704408
2.93858,-0.303154,-0.241164
2.93597,-0.302885,0.0515195
2.85791,-0.436812,-0.168371
3.02646,-0.163377,0.17651
3.01234,-0.162615,-0.140524
2.93636,-0.302926,-0.154705
3.03077,-0.16361,-0.0706269
2.9262,-0.311688,-0.0856425
2.92519,-0.31158,-0.588352
2.84134,-0.443925,-0.0334798
2.92374,-0.311425,-0.374259
3.09584,-0.0259362,0.0179937
2.93137,-0.312238,-0.0171335
3.02222,-0.173202,0.0704408
3.00771,-0.17237,-0.210665
2.93756,-0.312897,-0.241164
2.93893,-0.313043,0.0515893
2.83672,-0.443204,-0.167208
3.01394,-0.172727,0.175812
2.93296,-0.312408,0.120168
3.00381,-0.172147,-0.140152
2.93534,-0.312661,-0.154705
3.01823,-0.172973,-0.0703477
2.91715,-0.321025,-0.0854098
2.92409,-0.321789,-0.588352
2.91869,-0.321195,-0.373754
2.92628,-0.322031,-0.0171103
3.01362,-0.183265,0.0702547
2.84372,-0.454472,0.0335263
2.99912,-0.182383,-0.210106
2.92852,-0.322277,-0.240513
2.92191,-0.32155,0.0513101
2.83516,-0.453104,-0.167208
3.00933,-0.183004,0.17558
2.91994,-0.321332,0.119679
2.93026,-0.322469,-0.154496
3.00962,-0.183022,-0.0701616
2.91595,-0.331715,-0.0854098
2.9073,-0.330731,-0.585214
2.83019,-0.462954,-0.0333866
2.99369,-0.193069,-0.466717
2.91355,-0.331442,-0.373249
3.08358,-0.0479024,0.0179239
2.92111,-0.332302,-0.017087
2.84171,-0.464839,-0.268794
3.00893,-0.194052,0.0701616
2.83414,-0.4636,0.0334332
2.91674,-0.331805,0.0512403
2.83348,-0.463492,-0.167208
3.00466,-0.193776,0.175347
2.91874,-0.332032,0.119679
2.91716,-0.331852,-0.153868
3.01292,-0.194309,-0.0702547
2.9108,-0.341426,-0.0852934
2.91002,-0.341334,-0.585999
2.98511,-0.202981,0
2.82067,-0.471512,-0.0332935
2.90843,-0.341148,-0.372744
3.08339,-0.0586658,0.0179239
2.91993,-0.342497,-0.017087
3.00026,-0.204011,0.0699755
2.83645,-0.47415,0.0334798
2.9858,-0.203028,-0.209269
2.91954,-0.34245,0.0513101
2.8279,-0.472721,-0.166975
2.91359,-0.341753,0.119517
2.98985,-0.203303,-0.139593
2.91201,-0.341568,-0.153658
2.99454,-0.203622,0.368533
2.91171,-0.341532,0.534519
2.90569,-0.350598,-0.0851771
2.90498,-0.350513,-0.585214
2.98043,-0.212594,0
2.81515,-0.48019,-0.0332469
2.89547,-0.349365,-0.371229
2.91084,-0.351219,-0.0170405
2.99956,-0.213959,0.0699755
2.82697,-0.482208,0.0333866
2.98511,-0.212928,-0.209269
2.91311,-0.351493,-0.239537
2.9025,-0.350213,0.0510308
2.82238,-0.481425,-0.166743
2.90847,-0.350934,0.119354
2.98118,-0.212648,-0.139221
2.91086,-0.351222,-0.153658
2.98593,-0.212987,0.367558
2.91447,-0.351657,0.535237
2.99558,-0.213675,-0.0698825
2.89645,-0.360258,-0.0849444
2.89979,-0.360674,-0.58443
2.97564,-0.223217,0
2.80943,-0.489818,-0.0332004
2.89417,-0.359975,-0.371229
3.06691,-0.0797743,0.017831
2.89762,-0.360405,-0.0169708
2.82492,-0.492519,-0.267679
2.99477,-0.224652,0.0698825
2.82125,-0.491879,0.0333401
2.97635,-0.22327,-0.208711
2.90389,-0.361184,-0.238886
2.9012,-0.360849,0.0510308
2.8088,-0.489709,-0.166045
2.99052,-0.224333,0.17465
2.9032,-0.361098,0.119191
2.98039,-0.223573,-0.139221
2.98909,-0.224226,0.368045
2.88807,-0.359216,0.237584
2.90144,-0.36088,0.533084
2.99079,-0.224353,-0.0697894
2.8953,-0.369356,-0.0849444
2.89864,-0.369782,-0.58443
2.97094,-0.232253,0
2.80787,-0.498642,-0.0332004
2.89302,-0.369065,-0.371229
3.06265,-0.0892923,0.0178077
2.90044,-0.370012,-0.016994
2.81552,-0.499999,-0.266935
2.98209,-0.233125,0.0696033
2.81969,-0.50074,0.0333401
2.96768,-0.231998,-0.208153
2.90274,-0.370305,-0.238886
2.89608,-0.369456,0.050961
2.80331,-0.497832,-0.165813
2.97785,-0.232793,0.173952
2.89016,-0.3687,0.118702
2.96772,-0.232001,-0.138663
2.90048,-0.370017,-0.15324
2.98441,-0.233306,0.367558
2.88297,-0.367783,0.237259
2.89249,-0.368997,0.531649
2.98608,-0.233436,-0.0696964
2.88197,-0.378907,-0.0845953
2.87775,-0.378352,-0.580507
2.80987,-0.510134,-0.0332469
2.88765,-0.379654,-0.370724
3.05828,-0.100919,0.0177845
2.89107,-0.380103,-0.0169475
2.81358,-0.510806,-0.266935
2.97719,-0.244246,0.0695103
2.80987,-0.510134,0.0332469
2.96279,-0.243065,-0.207874
2.89339,-0.380409,-0.238235
2.89068,-0.380052,0.0508912
2.80138,-0.508592,-0.165813
2.98092,-0.244552,0.174185
2.88872,-0.379795,0.118702
2.89112,-0.38011,-0.152821
2.97163,-0.24379,0.366096
2.87758,-0.37833,0.236933
2.89495,-0.380614,0.532367
2.9732,-0.243919,-0.0694172
2.8727,-0.387894,-0.0843626
2.87641,-0.388395,-0.580507
2.79628,-0.517755,-0.0331072
2.88631,-0.389731,-0.370724
3.04992,-0.111302,0.017738
2.8818,-0.389122,-0.016901
2.80394,-0.519174,-0.266192
2.97233,-0.254296,0.0694172
2.79628,-0.517755,0.0331072
2.95795,-0.253065,-0.207595
2.88415,-0.389439,-0.237584
2.88934,-0.39014,0.0508912
2.79566,-0.517641,-0.16558
2.97607,-0.254616,0.173952
2.88738,-0.389876,0.118702
2.95798,-0.253068,-0.13829
2.88186,-0.38913,-0.152402
2.97076,-0.254161,0.366096
2.88581,-0.389663,0.530932
2.97233,-0.254296,-0.0694172
2.87133,-0.397919,-0.0843626
2.87116,-0.397895,-0.579723
2.9563,-0.263322,0
2.79838,-0.528254,-0.0331538
2.86921,-0.397625,-0.368703
3.03752,-0.121468,0.0176682
2.88042,-0.399179,-0.016901
2.96745,-0.264315,0.0693242
2.80231,-0.528996,0.0332004
2.95704,-0.263389,-0.207595
2.87882,-0.398957,-0.237259
3.04028,-0.121579,0.0885516
2.87607,-0.398576,0.0506818
2.79776,-0.528137,-0.165813
2.87808,-0.398855,0.118377
2.95707,-0.263392,-0.13829
2.87652,-0.398639,-0.152193
2.96985,-0.26453,0.366096
2.88053,-0.399194,0.530214
2.96346,-0.263961,-0.0692311
2.87,-0.407439,-0.0843626
2.86982,-0.407414,-0.579723
2.94346,-0.27202,0
2.79662,-0.537531,-0.0331538
2.86002,-0.406022,-0.367693
3.03311,-0.131367,0.017645
2.87116,-0.407605,-0.0168546
2.79643,-0.537496,-0.26582
2.96257,-0.273786,0.0692311
2.79662,-0.537531,0.0331538
2.95615,-0.273193,-0.207595
2.87748,-0.408501,-0.237259
3.03187,-0.131314,0.0883189
2.87473,-0.408111,0.0506818
2.78423,-0.535151,-0.165115
2.95836,-0.273397,0.173022
2.94823,-0.272461,-0.137918
2.87519,-0.408176,-0.152193
2.8714,-0.407638,0.528779
2.95859,-0.273418,-0.0691381
2.85669,-0.415727,-0.0840135
2.86838,-0.417429,-0.579723
2.94647,-0.282675,0
2.7908,-0.546521,-0.0331072
2.85465,-0.415431,-0.367188
3.02464,-0.14158,0.0175985
2.86576,-0.417048,-0.0168313
2.94567,-0.282598,0.0688589
2.7908,-0.546521,0.0331072
2.94724,-0.282748,-0.207037
2.86815,-0.417395,-0.236608
3.02341,-0.141523,0.0880861
2.86538,-0.416992,0.0505422
2.77843,-0.544099,-0.164882
2.95341,-0.283341,0.172789
2.86739,-0.417285,0.118051
2.93533,-0.281606,-0.13736
2.86189,-0.416484,-0.151565
2.95613,-0.283601,0.364633
2.85237,-0.415098,0.235306
2.86606,-0.417092,0.528062
2.95364,-0.283362,-0.069045
2.84731,-0.424517,-0.0837807
2.85527,-0.425704,-0.577369
2.93353,-0.291771,0
2.78495,-0.555477,-0.0330607
2.84926,-0.424808,-0.366683
3.02013,-0.151936,0.0175752
2.94467,-0.292879,0.0688589
2.78103,-0.554695,0.0330141
2.93829,-0.292245,-0.206479
2.86667,-0.427404,-0.236608
2.8639,-0.426991,0.0505422
2.7726,-0.553013,-0.16465
2.94843,-0.293253,0.172557
2.86197,-0.426702,0.117888
2.9383,-0.292246,-0.137546
2.84856,-0.424704,-0.150937
2.94327,-0.292739,0.363171
2.84696,-0.424465,0.234981
2.8607,-0.426513,0.527344
2.94467,-0.292879,-0.0688589
2.84984,-0.43456,-0.0838971
2.84609,-0.433987,-0.5758
2.92856,-0.301088,0
2.77525,-0.563119,-0.0329675
2.83999,-0.433058,-0.365673
3.01162,-0.161522,0.0175287
2.851,-0.434736,-0.0167616
2.92359,-0.300576,-0.316579
2.77904,-0.563887,-0.264705
2.9397,-0.302233,0.0687658
2.77917,-0.563914,0.0330141
2.93334,-0.301579,-0.2062
2.85342,-0.435105,-0.235632
2.85852,-0.435883,0.0504724
2.77466,-0.562998,-0.164882
2.94347,-0.302621,0.172324
2.85658,-0.435588,0.117725
2.93334,-0.301579,-0.13736
2.85109,-0.43475,-0.151146
2.94623,-0.302904,0.363658
2.85538,-0.435404,0.526627
2.93573,-0.301824,-0.0686728
3.00661,-0.172307,-0.0525666
2.84033,-0.443767,-0.0836644
2.84835,-0.445021,-0.576585
2.92744,-0.31182,0
2.77317,-0.573287,-0.0329675
2.83839,-0.443464,-0.365673
3.01101,-0.172559,0.0175287
2.85334,-0.4458,-0.0167848
2.91851,-0.310869,-0.316151
2.93858,-0.313006,0.0687658
2.76925,-0.572477,0.032921
2.92428,-0.311483,-0.205642
2.84786,-0.444945,-0.235306
3.00579,-0.17226,0.0876207
2.849,-0.445122,0.0503327
2.76867,-0.572356,-0.16465
2.85102,-0.445438,0.117563
2.92427,-0.311482,-0.136988
2.84158,-0.443963,-0.150728
2.9372,-0.312859,0.362683
2.84988,-0.445259,0.525909
2.9346,-0.312582,-0.0686728
2.998,-0.182315,-0.052427
2.83086,-0.452417,-0.0834316
2.83516,-0.453104,-0.574232
2.91838,-0.321161,0
2.76333,-0.581317,-0.0328744
2.8329,-0.452743,-0.365168
2.83991,-0.453864,-0.0167151
2.91346,-0.320619,-0.315722
2.92952,-0.322387,0.0685797
2.76724,-0.58214,0.032921
2.92714,-0.322125,-0.205921
2.84629,-0.454883,-0.235306
2.83953,-0.453802,0.0501931
2.76275,-0.581195,-0.164417
2.92932,-0.322365,0.171626
2.84945,-0.455387,0.117563
2.91919,-0.32125,-0.136801
2.84001,-0.45388,-0.150728
2.93215,-0.322676,0.362196
2.83665,-0.453342,0.523757
2.92157,-0.321512,-0.0683936
2.83372,-0.462009,-0.574232
2.91736,-0.330328,0
2.75757,-0.589159,-0.0328279
2.82755,-0.461003,-0.364663
2.99383,-0.191504,0.0174357
2.83058,-0.461496,-0.0166686
2.90848,-0.329323,-0.315294
2.75751,-0.589145,-0.263218
2.91657,-0.330239,0.0683006
2.76149,-0.589995,0.0328744
2.91818,-0.330421,-0.205363
2.84091,-0.463181,-0.234981
2.84204,-0.463364,0.0502629
2.76091,-0.589871,-0.164417
2.84011,-0.463051,0.117237
2.91023,-0.329521,-0.136429
2.83857,-0.4628,-0.150728
2.92323,-0.330993,0.361221
2.82911,-0.461257,0.234004
2.83521,-0.462251,0.523757
2.9126,-0.329789,-0.0682075
2.81975,-0.470852,-0.0831989
2.82032,-0.470948,-0.571878
2.90018,-0.339666,0
2.75138,-0.598893,-0.0327813
2.82576,-0.471856,-0.364663
2.99307,-0.202998,0.0174357
2.83273,-0.47302,-0.0166918
2.9072,-0.340488,-0.315294
2.75523,-0.599729,-0.263218
2.91131,-0.34097,0.0682075
2.75138,-0.598893,0.0327813
2.91293,-0.34116,-0.205084
2.83518,-0.47343,-0.234655
2.98787,-0.202645,0.0871552
2.83235,-0.472956,0.0501233
2.75862,-0.600468,-0.164417
2.91907,-0.341879,0.171161
2.82649,-0.471978,0.116748
2.90894,-0.340693,-0.136429
2.8289,-0.47238,-0.150309
2.91799,-0.341753,0.360733
2.82339,-0.47146,0.233679
2.82565,-0.471838,0.522322
2.91528,-0.341435,-0.0683006
2.8148,-0.480131,-0.571094
2.89897,-0.349788,0
2.74928,-0.608493,-0.0327813
2.81627,-0.480383,-0.363652
2.83106,-0.482905,-0.0166918
2.89809,-0.349681,-0.314437
2.74923,-0.608482,-0.262846
2.9101,-0.35113,0.0682075
2.74537,-0.607629,0.0327347
2.89984,-0.349892,-0.204247
2.82565,-0.481983,-0.234004
2.82279,-0.481495,0.0499837
2.97831,-0.212443,-0.191361
2.74871,-0.608368,-0.163952
2.91389,-0.351588,0.170929
2.8327,-0.483185,0.117074
2.90377,-0.350366,-0.136243
2.81148,-0.479565,-0.149472
2.91284,-0.351461,0.360246
2.82398,-0.481698,0.522322
2.9101,-0.35113,-0.0682075
2.9753,-0.221625,-0.052078
2.80941,-0.488299,-0.570309
2.89389,-0.358402,0
2.73955,-0.615374,-0.0326882
2.80693,-0.487869,-0.362642
2.82165,-0.490427,-0.0166453
2.7473,-0.617116,-0.262846
2.90104,-0.359288,0.0680214
2.73955,-0.615374,0.0326882
2.89872,-0.359,-0.204247
2.8202,-0.490175,-0.233679
2.81339,-0.488991,0.0498441
2.74679,-0.617,-0.163952
2.90881,-0.360249,0.170696
2.82329,-0.490713,0.116748
2.90662,-0.359978,-0.136429
2.81783,-0.489763,-0.14989
2.80841,-0.488126,0.232702
2.81858,-0.489894,0.521605
2.90104,-0.359288,-0.0680214
2.9665,-0.231905,-0.0519384
2.80294,-0.497766,-0.0828498
2.81146,-0.499279,-0.571094
2.88859,-0.3685,0
2.74117,-0.626302,-0.0327347
2.80122,-0.49746,-0.362137
2.81196,-0.499367,-0.0165988
2.73726,-0.625407,-0.262102
2.89971,-0.369918,0.0680214
2.89739,-0.369622,-0.204247
2.81446,-0.499811,-0.233353
2.81157,-0.499299,0.0498441
2.72893,-0.623506,-0.163022
2.89559,-0.369392,0.169998
2.81361,-0.49966,0.116423
2.89339,-0.369112,-0.135871
2.81602,-0.500088,-0.14989
2.9025,-0.370275,0.359271
2.80268,-0.497719,0.232377
2.81289,-0.499533,0.520887
2.88384,-0.367894,-0.0676492
2.96567,-0.242259,-0.0519384
2.80584,-0.50839,-0.570309
2.88332,-0.378061,0
2.72728,-0.633153,-0.032595
2.80337,-0.507942,-0.362642
2.96208,-0.241966,0.017273
2.80626,-0.508466,-0.0165756
2.87857,-0.377437,-0.312723
2.73506,-0.634958,-0.262102
2.88254,-0.377958,0.0676492
2.73118,-0.634057,0.0326416
2.89212,-0.379215,-0.203968
2.81269,-0.509632,-0.233353
2.80982,-0.50911,0.0498441
2.73063,-0.633931,-0.163254
2.89428,-0.379498,0.169998
2.80398,-0.508053,0.116097
2.88812,-0.37869,-0.135685
2.80639,-0.50849,-0.149472
2.89726,-0.379888,0.358783
2.797,-0.506789,0.232052
2.80726,-0.508647,0.52017
2.87857,-0.377438,-0.0675562
2.79153,-0.515868,-0.0826171
2.78862,-0.51533,-0.567171
2.87009,-0.386521,0
2.72505,-0.642669,-0.032595
2.79768,-0.517003,-0.362137
2.8084,-0.518986,-0.0165988
2.87329,-0.386952,-0.312295
2.72895,-0.643587,-0.261731
2.87328,-0.38695,0.0674631
2.72505,-0.642669,0.032595
2.87101,-0.386645,-0.202573
2.80306,-0.517998,-0.232702
2.95603,-0.251862,0.0863407
2.95919,-0.252131,-0.190338
2.7284,-0.643458,-0.163254
2.88502,-0.388532,0.169533
2.80219,-0.517838,0.116097
2.87886,-0.387702,-0.135313
2.78889,-0.515379,-0.148634
2.88411,-0.388409,0.357321
2.8016,-0.517728,0.519452
2.87328,-0.38695,-0.0674631
2.79075,-0.525301,-0.567956
2.86879,-0.396037,0
2.71513,-0.64984,-0.0325019
2.79205,-0.525544,-0.361632
2.87199,-0.396478,-0.312295
2.71905,-0.650779,-0.260987
2.87198,-0.396476,0.0674631
2.71513,-0.64984,0.0325019
2.86576,-0.395618,-0.202294
2.78957,-0.525078,-0.231726
2.95038,-0.261238,-0.189826
2.87976,-0.397551,0.169301
2.79653,-0.526388,0.115934
2.8736,-0.396701,-0.135126
2.78716,-0.524625,-0.148634
2.88281,-0.397971,0.357321
2.79986,-0.527016,0.519452
2.87198,-0.396476,-0.0674631
2.94306,-0.271465,-0.0515893
2.78001,-0.533836,-0.0823844
2.78496,-0.534786,-0.567171
2.86336,-0.405987,0
2.71661,-0.660732,-0.0325485
2.78231,-0.534277,-0.360622
2.86264,-0.405885,-0.311438
2.87051,-0.407,0.0674631
2.71661,-0.660732,0.0325485
2.86824,-0.406679,-0.202573
2.79154,-0.536051,-0.232052
2.79255,-0.536243,0.0496346
2.71608,-0.660603,-0.162789
2.87433,-0.407543,0.169068
2.79066,-0.535881,0.115772
2.87213,-0.40723,-0.135126
2.78522,-0.534837,-0.148634
2.87347,-0.40742,0.356346
2.78371,-0.534547,0.231401
2.79791,-0.537274,0.519452
2.87051,-0.407,-0.0674631
2.93811,-0.281355,-0.0515195
2.77813,-0.543537,-0.0823844
2.77922,-0.543751,-0.566387
2.85797,-0.415404,0
2.71429,-0.670211,-0.0325485
2.77653,-0.543224,-0.360117
2.78711,-0.545294,-0.0165058
2.71432,-0.670219,-0.260987
2.8572,-0.415292,0.067184
2.70264,-0.667335,0.0324088
2.86285,-0.416114,-0.202294
2.78574,-0.545026,-0.231726
2.79066,-0.545988,0.0496346
2.70601,-0.668165,-0.162324
2.85709,-0.415276,0.168138
2.78877,-0.545619,0.115772
2.86278,-0.416104,-0.134754
2.78334,-0.544556,-0.148634
2.86417,-0.416305,0.355371
2.93612,-0.281165,-0.120168
2.78057,-0.544015,0.516582
2.8572,-0.415292,-0.067184
2.77229,-0.55245,-0.082268
2.77731,-0.553449,-0.566387
2.8565,-0.425378,0
2.7003,-0.676764,-0.0324088
2.77851,-0.553688,-0.360622
2.78519,-0.555019,-0.0165058
2.84794,-0.424103,-0.310153
2.70424,-0.677754,-0.260243
2.70805,-0.678709,0.0325019
2.85744,-0.425517,-0.202015
2.77991,-0.553968,-0.231401
2.78481,-0.554944,0.0495648
2.93154,-0.291057,-0.188803
2.69978,-0.676636,-0.162092
2.85167,-0.424658,0.167906
2.77901,-0.553788,0.115446
2.86131,-0.426094,-0.134754
2.7775,-0.553487,-0.148425
2.86662,-0.426885,0.355859
2.76818,-0.55163,0.230424
2.7748,-0.552949,0.515865
2.85573,-0.425263,-0.067184
2.92419,-0.300123,-0.0513101
2.76261,-0.560051,-0.0820353
2.76008,-0.559539,-0.563249
2.7611,-0.559746,-0.358602
2.77941,-0.563458,-0.0164826
2.84259,-0.432946,-0.309725
2.8464,-0.433526,0.0669978
2.69804,-0.685715,0.0324088
2.84812,-0.433789,-0.201457
2.77806,-0.563183,-0.231401
2.77512,-0.562587,0.0494252
2.92659,-0.300369,-0.188547
2.7014,-0.686569,-0.162324
2.85025,-0.434113,0.167906
2.77716,-0.563,0.115446
2.85593,-0.434979,-0.134568
2.76782,-0.561108,-0.148006
2.85342,-0.434596,0.354396
2.85035,-0.434128,-0.0670909
2.92313,-0.310328,-0.0513101
2.76064,-0.569691,-0.0820353
2.83773,-0.442347,0
2.69175,-0.69413,-0.0323622
2.7669,-0.570984,-0.359612
2.77351,-0.572348,-0.0164593
2.84892,-0.444091,-0.310581
2.69571,-0.69515,-0.259872
2.84091,-0.442843,0.0669048
2.69175,-0.69413,0.0323622
2.84265,-0.443113,-0.201178
2.76436,-0.57046,-0.230424
2.92155,-0.310161,-0.188291
2.69898,-0.695994,-0.162324
2.84871,-0.444059,0.167906
2.77126,-0.571883,0.115283
2.85045,-0.44433,-0.134382
2.76193,-0.569959,-0.147797
2.85188,-0.444553,0.354396
2.84486,-0.443459,-0.0669978
2.91402,-0.320166,-0.0511705
2.75462,-0.578983,-0.0819189
2.75985,-0.580082,-0.564033
2.83609,-0.452745,0
2.68532,-0.702978,-0.0323156
2.75314,-0.578673,-0.358097
2.83156,-0.452022,-0.308868
2.83532,-0.452623,0.0668117
2.68919,-0.703991,0.0323622
2.83706,-0.4529,-0.200899
2.76616,-0.581408,-0.23075
2.76319,-0.580785,0.0492856
2.91246,-0.319995,-0.187779
2.68869,-0.703859,-0.161859
2.83918,-0.453238,0.16744
2.76915,-0.582036,0.115283
2.83696,-0.452885,-0.133824
2.75983,-0.580078,-0.147797
2.83847,-0.453126,0.352934
2.75055,-0.578128,0.229448
2.84322,-0.453883,-0.0669978
2.75268,-0.588115,-0.0819189
2.75407,-0.588411,-0.563249
2.82668,-0.46086,0
2.68298,-0.711879,-0.0323156
2.82429,-0.46047,-0.445195
2.74733,-0.586971,-0.357592
2.76163,-0.590025,-0.0164128
2.82986,-0.461379,0.0667187
2.83554,-0.462306,-0.200899
2.76031,-0.589745,-0.230424
2.76125,-0.589945,0.0492856
2.91139,-0.329652,-0.187779
2.68248,-0.711747,-0.161626
2.83372,-0.462008,0.167208
2.76329,-0.590381,0.11512
2.83939,-0.462933,-0.13401
2.75789,-0.589226,-0.147797
2.83696,-0.462536,0.352934
2.83775,-0.462666,-0.0669048
2.7428,-0.596022,-0.0816862
2.74817,-0.597188,-0.562464
2.82111,-0.470067,0
2.68047,-0.72124,-0.0323156
2.74914,-0.5974,-0.358097
2.82057,-0.469978,-0.308011
2.68059,-0.721272,-0.259128
2.82034,-0.46994,0.0665326
2.67661,-0.720201,0.0322691
2.82604,-0.470889,-0.200341
2.75824,-0.599376,-0.230424
2.75527,-0.598731,0.0492158
2.90229,-0.338886,-0.187268
2.67998,-0.721107,-0.161626
2.82815,-0.471241,0.166975
2.7534,-0.598326,0.114795
2.82199,-0.470214,-0.133265
2.75191,-0.598001,-0.147587
2.83141,-0.471783,0.352446
2.83218,-0.471911,-0.0668117
2.7368,-0.604729,-0.0815699
2.73458,-0.604238,-0.560111
2.66636,-0.727434,-0.032176
2.73929,-0.60528,-0.357087
2.81474,-0.479111,0.0664395
2.67022,-0.728487,0.0322225
2.82045,-0.480082,-0.200062
2.74834,-0.60728,-0.229773
2.74535,-0.606619,0.0490762
2.81468,-0.4791,0.166278
2.74349,-0.606209,0.114469
2.81639,-0.479392,-0.133079
2.74981,-0.607604,-0.147587
2.82192,-0.480331,0.351471
2.83051,-0.481795,-0.0668117
2.73857,-0.615155,-0.0816862
2.72862,-0.612921,-0.559327
2.66381,-0.736737,-0.032176
2.73716,-0.614838,-0.357087
2.80939,-0.488295,-0.307154
2.81305,-0.488933,0.0664395
2.66381,-0.736737,0.032176
2.81089,-0.488557,-0.199504
2.73843,-0.615123,-0.229122
2.73931,-0.615322,0.0490064
2.88797,-0.357668,-0.1865
2.66718,-0.73767,-0.161161
2.81299,-0.488922,0.166278
2.74526,-0.616657,0.114632
2.80683,-0.487851,-0.132707
2.74767,-0.617199,-0.147587
2.82022,-0.490179,0.351471
2.82487,-0.490987,-0.0667187
2.73652,-0.624233,-0.0816862
2.73422,-0.62371,-0.560896
2.66135,-0.745567,-0.032176
2.72737,-0.622147,-0.356076
2.80775,-0.497609,-0.307154
2.80748,-0.497561,0.0663465
2.6575,-0.744488,0.0321294
2.80926,-0.497876,-0.199504
2.74026,-0.625087,-0.229448
2.74116,-0.625292,0.0490762
2.88676,-0.367243,-0.1865
2.80349,-0.496854,0.165813
2.7393,-0.624869,0.114469
2.8052,-0.497156,-0.132707
2.81076,-0.498143,0.350496
2.72253,-0.631548,-0.0813371
2.7281,-0.632841,-0.560111
2.6586,-0.755316,-0.032176
2.79637,-0.506171,-0.44212
2.72507,-0.632139,-0.356076
2.80564,-0.507847,0.0663465
2.65475,-0.754223,0.0321294
2.80741,-0.508169,-0.199504
2.73407,-0.634225,-0.229122
2.73495,-0.634431,0.0490064
2.80558,-0.507837,0.166045
2.80336,-0.507435,-0.132707
2.80892,-0.508441,0.350496
2.81351,-0.509272,-0.0665326
2.71252,-0.639214,-0.0811044
2.72587,-0.64236,-0.560111
2.6521,-0.763485,-0.0321294
2.7907,-0.515211,-0.441505
2.72285,-0.641647,-0.356076
2.79205,-0.51546,0.0660673
2.64826,-0.762379,0.0320828
2.79777,-0.516517,-0.198945
2.72796,-0.642851,-0.228797
2.6478,-0.762245,-0.160464
2.79593,-0.516177,0.16558
2.72309,-0.641704,0.11398
2.78978,-0.515041,-0.132148
2.79932,-0.516802,0.349521
2.71243,-0.639193,0.227495
2.80778,-0.518364,-0.0664395
2.71027,-0.648678,-0.0811044
2.70836,-0.648219,-0.556973
2.64558,-0.771618,-0.0320828
2.71673,-0.650224,-0.355571
2.86478,-0.395483,0.0168081
2.79448,-0.526002,-0.306298
2.79023,-0.525203,0.0660673
2.6379,-0.769378,0.0319897
2.78419,-0.524065,-0.198108
2.72182,-0.651441,-0.228471
2.72268,-0.651647,0.0488667
2.87083,-0.396318,-0.185733
2.64895,-0.772601,-0.160696
2.79412,-0.525934,0.16558
2.72083,-0.651206,0.11398
2.71936,-0.650853,-0.146541
2.78579,-0.524367,0.348059
2.71188,-0.659079,-0.0812208
2.70608,-0.657669,-0.556973
2.6352,-0.778582,-0.0319897
2.71059,-0.658766,-0.355066
2.86338,-0.405481,0.0168081
2.78838,-0.534939,0.0660673
2.63137,-0.777448,0.0319431
2.78626,-0.534532,-0.198387
2.71178,-0.659055,-0.227821
2.72039,-0.661147,0.0488667
2.86152,-0.405217,-0.185221
2.64241,-0.780712,-0.160464
2.78834,-0.534931,0.165347
2.71466,-0.659756,0.113818
2.77827,-0.532999,-0.131776
2.78004,-0.53334,0.347571
2.70191,-0.666154,-0.080988
2.7115,-0.668517,-0.558542
2.63261,-0.787316,-0.0319897
2.70454,-0.666801,-0.354561
2.71466,-0.669298,-0.0162501
2.78267,-0.543416,0.0659743
2.62877,-0.78617,0.0319431
2.78056,-0.543004,-0.198108
2.71345,-0.668998,-0.228146
2.7143,-0.669207,0.0487969
2.63981,-0.78947,-0.160464
2.78655,-0.544175,0.165347
2.71246,-0.668754,0.113818
2.71487,-0.669348,-0.146541
2.78216,-0.543317,0.348059
2.69957,-0.675582,-0.080988
2.63367,-0.79766,-0.0320363
2.7717,-0.551326,-0.439661
2.70219,-0.676238,-0.354561
2.70843,-0.677798,-0.0162269
2.78075,-0.553126,0.0659743
2.62601,-0.795341,0.0319431
2.77865,-0.552707,-0.198108
2.70336,-0.67653,-0.227495
2.63321,-0.797522,-0.160231
2.7768,-0.55234,0.164882
2.70623,-0.677248,0.113655
2.76674,-0.550338,-0.131404
2.76856,-0.550701,0.346596
2.69332,-0.684017,-0.0808717
2.76201,-0.559429,-0.438431
2.69597,-0.68469,-0.354056
2.84719,-0.433139,0.0167383
2.69442,-0.684295,-0.0161571
2.77097,-0.561242,0.0657882
2.62705,-0.805676,0.0319897
2.76888,-0.560818,-0.19755
2.70098,-0.685963,-0.227495
2.69793,-0.685186,0.0485875
2.84141,-0.43226,-0.184198
2.6266,-0.805538,-0.159999
2.76703,-0.560444,0.164417
2.69223,-0.683739,0.113166
2.76662,-0.560362,0.346596
2.6793,-0.690421,-0.0805226
2.62422,-0.814841,-0.0319897
2.75617,-0.568268,-0.437816
2.69356,-0.694096,-0.354056
2.84566,-0.443075,0.0167383
2.76508,-0.570104,0.0656951
2.61276,-0.811283,0.03185
2.69857,-0.695387,-0.227495
2.83661,-0.441665,0.083548
2.69552,-0.6946,0.0485875
2.83594,-0.441561,-0.183942
2.62377,-0.814702,-0.159999
2.76897,-0.570906,0.16465
2.68983,-0.693132,0.113166
2.6961,-0.69475,-0.145913
2.76076,-0.569214,0.346109
2.68074,-0.70078,-0.080639
2.60991,-0.820398,-0.03185
2.68345,-0.701487,-0.353046
2.83225,-0.451118,0.0166686
2.69344,-0.7041,-0.0161804
2.76698,-0.580573,0.0657882
2.61373,-0.821598,0.0318966
2.68842,-0.702786,-0.226844
2.69308,-0.704005,0.0485875
2.76696,-0.580568,0.16465
2.68352,-0.701507,0.113003
2.753,-0.57764,-0.131032
2.75487,-0.578032,0.345621
2.68215,-0.711158,-0.0807553
2.61084,-0.830716,-0.0318966
2.68098,-0.71085,-0.353046
2.83461,-0.461645,0.0166918
2.6871,-0.712472,-0.0161571
2.76103,-0.589393,0.0656951
2.61084,-0.830716,0.0318966
2.74724,-0.586451,-0.196434
2.68209,-0.711144,-0.226519
2.67901,-0.710326,0.0483781
2.76101,-0.589389,0.164417
2.68492,-0.711894,0.113166
2.75097,-0.587246,-0.131032
2.74895,-0.586816,0.345134
2.67579,-0.719478,-0.080639
2.60412,-0.838598,-0.03185
2.74235,-0.595422,-0.436586
2.67465,-0.719173,-0.352541
2.82114,-0.469566,0.0166221
2.67687,-0.719771,-0.0161106
2.75505,-0.598179,0.0656021
2.60412,-0.838598,0.03185
2.74518,-0.596037,-0.196434
2.67959,-0.720502,-0.226519
2.81999,-0.469376,0.0831989
2.68037,-0.720712,0.0484479
2.60369,-0.838461,-0.159301
2.75503,-0.598176,0.164185
2.6747,-0.719186,0.112841
2.74109,-0.59515,-0.130659
2.75077,-0.597251,0.345621
2.66419,-0.716361,0.225217
2.66169,-0.725659,-0.0802899
2.59737,-0.846444,-0.0318034
2.73639,-0.604139,-0.435971
2.67213,-0.728505,-0.352541
2.81554,-0.478741,0.0165988
2.74904,-0.60693,0.065509
2.59737,-0.846444,0.0318034
2.73919,-0.604756,-0.196155
2.8144,-0.478546,0.0830826
2.74513,-0.606068,0.16372
2.66832,-0.727467,0.112678
2.7351,-0.603853,-0.130473
2.74479,-0.605993,0.345134
2.65914,-0.734946,-0.0802899
2.5906,-0.854253,-0.0317569
2.73041,-0.612821,-0.435356
2.66574,-0.736771,-0.352036
2.81779,-0.48925,0.0166221
2.67178,-0.738441,-0.0161106
2.7469,-0.616523,0.065509
2.5944,-0.855505,0.0318034
2.73317,-0.61344,-0.195876
2.81271,-0.488367,0.0830826
2.59019,-0.854116,-0.158836
2.743,-0.615646,0.16372
2.66576,-0.736777,0.112678
2.73297,-0.613396,-0.130473
2.66817,-0.737441,-0.145075
2.73491,-0.613832,0.344159
2.66054,-0.744837,-0.0804062
2.58396,-0.861574,-0.0317103
2.81222,-0.497894,0.0165988
2.59155,-0.864104,0.0318034
2.72723,-0.621613,-0.195597
2.58734,-0.862701,-0.158836
2.74094,-0.624739,0.16372
2.6633,-0.745613,0.112678
2.73092,-0.622456,-0.130473
2.73286,-0.622897,0.344159
2.6542,-0.752565,-0.0802899
2.72011,-0.629488,0
2.58488,-0.871416,-0.0317569
2.65316,-0.75227,-0.351026
2.80268,-0.505796,0.0165523
2.73496,-0.632924,0.0653229
2.58488,-0.871416,0.0317569
2.72904,-0.631553,-0.195876
2.66187,-0.754738,-0.225868
2.80547,-0.506301,0.0829662
2.58825,-0.872552,-0.159068
2.64928,-0.75117,0.112189
2.73078,-0.631957,0.344159
2.64772,-0.760722,-0.0801735
2.7179,-0.638979,0
2.57804,-0.879142,-0.0317103
2.71252,-0.637715,-0.433511
2.65052,-0.761527,-0.351026
2.79696,-0.514852,0.0165291
2.65648,-0.76324,-0.0160641
2.73273,-0.642467,0.0653229
2.57804,-0.879142,0.0317103
2.71905,-0.639249,-0.195318
2.79582,-0.514643,0.0827335
2.65612,-0.763137,0.0482385
2.57385,-0.877715,-0.158371
2.72496,-0.64064,0.163022
2.65049,-0.761517,0.112352
2.71884,-0.639201,-0.130101
2.72469,-0.640576,0.343672
2.71176,-0.647533,0
2.70644,-0.646262,-0.432897
2.64785,-0.770774,-0.351026
2.79908,-0.52535,0.0165523
2.64996,-0.77139,-0.0160409
2.72659,-0.651073,0.0652298
2.57495,-0.888136,0.0317103
2.7168,-0.648736,-0.195318
2.79401,-0.524399,0.0827335
2.72659,-0.651075,0.163254
2.64397,-0.769647,0.112189
2.71271,-0.64776,-0.129915
2.72244,-0.650083,0.343672
2.72659,-0.651073,-0.0652298
2.63084,-0.775795,-0.0798244
2.70948,-0.656995,0
2.56806,-0.895801,-0.0316637
2.70801,-0.656637,-0.433511
2.64133,-0.77889,-0.350521
2.7933,-0.534366,0.0165291
2.56428,-0.894484,0.0316172
2.71064,-0.657275,-0.195039
2.78824,-0.533398,0.0826171
2.77979,-0.531781,-0.181384
2.56012,-0.893032,-0.157906
2.6451,-0.780002,0.112352
2.70655,-0.656283,-0.129729
2.71244,-0.657711,0.342697
2.77524,-0.541463,-0.0493554
2.63181,-0.786577,-0.0799408
2.70706,-0.666921,0
2.56099,-0.903877,-0.0316172
2.63846,-0.788566,-0.350521
2.7874,-0.543835,0.0165058
2.64054,-0.789188,-0.0160176
2.56099,-0.903877,0.0316172
2.70821,-0.667206,-0.195039
2.63947,-0.788867,-0.224891
2.77841,-0.542082,0.0823844
2.7739,-0.541201,-0.181128
2.56436,-0.905067,-0.158371
2.63457,-0.787402,0.112026
2.70025,-0.665243,-0.129543
2.71001,-0.667648,0.342697
2.76951,-0.549884,-0.0492856
2.62918,-0.7953,-0.0799408
2.69707,-0.673955,0
2.55798,-0.912364,-0.0316172
2.62064,-0.792715,-0.3485
2.77381,-0.550738,0.0164361
2.55798,-0.912364,0.0316172
2.69824,-0.674248,-0.194481
2.77268,-0.550514,0.082268
2.56135,-0.913566,-0.158371
2.62812,-0.794977,0.111864
2.69802,-0.674194,-0.129543
2.63434,-0.796859,-0.144238
2.70393,-0.675669,0.342209
2.62639,-0.804473,-0.0799408
2.69082,-0.682382,0
2.55101,-0.919931,-0.0315706
2.68566,-0.681072,-0.431052
2.61786,-0.801858,-0.3485
2.77187,-0.560417,0.0164361
2.62746,-0.8048,-0.0159711
2.7056,-0.68613,0.0649507
2.55478,-0.921288,0.0316172
2.69974,-0.684643,-0.19476
2.76682,-0.559397,0.0821517
2.62328,-0.803519,0.0478894
2.76233,-0.558488,-0.180616
2.55063,-0.919792,-0.157906
2.70175,-0.685154,0.162324
2.62533,-0.804146,0.111864
2.69566,-0.683608,-0.129543
2.7054,-0.686079,0.342697
2.61197,-0.810539,-0.0795917
2.69605,-0.694235,0
2.54763,-0.929275,-0.0315706
2.67931,-0.689925,-0.430437
2.61869,-0.812624,-0.349005
2.76979,-0.570573,0.0164361
2.62449,-0.814425,-0.0159711
2.54011,-0.926533,0.0314775
2.69335,-0.693539,-0.194481
2.76475,-0.569534,0.0821517
2.62032,-0.813129,0.0478894
2.76026,-0.568609,-0.180616
2.54724,-0.929134,-0.157906
2.61854,-0.812579,0.111701
2.68539,-0.69149,-0.12917
2.69518,-0.69401,0.341722
2.75196,-0.575916,-0.0490762
2.6056,-0.817543,-0.0794753
2.68612,-0.700682,0
2.53719,-0.934509,-0.0314775
2.67713,-0.698339,-0.430437
2.61612,-0.820846,-0.349005
2.76407,-0.578452,0.0164128
2.6181,-0.821468,-0.0159479
2.53719,-0.934509,0.0314775
2.67957,-0.698976,-0.193644
2.75904,-0.577398,0.0820353
2.61393,-0.82016,0.0478196
2.75846,-0.577278,-0.180616
2.54431,-0.937132,-0.157906
2.69316,-0.702521,0.162092
2.61598,-0.820801,0.111701
2.68321,-0.699923,-0.12917
2.61837,-0.821552,-0.143819
2.6853,-0.70047,0.340747
2.60186,-0.816371,0.222613
2.754,-0.576345,-0.114632
2.74972,-0.586478,-0.0490762
2.60244,-0.827542,-0.0794753
2.68341,-0.710991,0
2.52608,-0.94145,-0.0313844
2.60917,-0.829683,-0.3485
2.76183,-0.589061,0.0164128
2.53358,-0.944244,0.0314775
2.68073,-0.710281,-0.193923
2.6139,-0.831188,-0.223915
2.61458,-0.831402,0.0478894
2.75232,-0.587032,-0.18036
2.53695,-0.9455,-0.157673
2.609,-0.829628,0.111538
2.6805,-0.710221,-0.12917
2.68259,-0.710776,0.340747
2.74787,-0.595114,-0.0490762
2.60363,-0.836937,-0.0795917
2.67343,-0.717344,0
2.52686,-0.95079,-0.0314309
2.66456,-0.714963,-0.429207
2.74433,-0.594348,0.0163199
2.66574,-0.71528,-0.297301
2.53434,-0.953607,0.0315241
2.67463,-0.717665,-0.193644
2.60748,-0.838176,-0.22359
2.60053,-0.83594,0.04768
2.74266,-0.593986,-0.179849
2.53397,-0.953465,-0.157673
2.68434,-0.720271,0.161859
2.60638,-0.837821,0.111538
2.67826,-0.718638,-0.12917
2.60877,-0.838589,-0.14361
2.68035,-0.7192,0.340747
2.7421,-0.593865,-0.114306
2.73786,-0.60346,-0.0489365
2.59674,-0.845237,-0.0794753
2.67079,-0.727138,0
2.52709,-0.961467,-0.0314775
2.74213,-0.604402,0.0163199
2.5978,-0.845581,-0.0158782
2.65926,-0.724001,-0.296873
2.52709,-0.961467,0.0314775
2.66813,-0.726415,-0.193365
2.74102,-0.604157,0.0816862
2.60125,-0.846704,0.0477498
2.74046,-0.604034,-0.179849
2.52299,-0.959906,-0.157208
2.59949,-0.846131,0.111375
2.67175,-0.7274,-0.128984
2.60188,-0.846909,-0.143401
2.67769,-0.729019,0.340747
2.73991,-0.603912,-0.114306
2.73183,-0.612139,-0.0488667
2.66438,-0.735392,0
2.51999,-0.968848,-0.0314309
2.74001,-0.613971,0.0163199
2.59483,-0.854643,-0.0158782
2.65672,-0.733279,-0.296873
2.67136,-0.737321,0.0644854
2.52372,-0.970283,0.0314775
2.66942,-0.736786,-0.193644
2.73889,-0.613721,0.0816862
2.59448,-0.854528,0.04768
2.73834,-0.613597,-0.179849
2.5159,-0.967274,-0.156975
2.59273,-0.853949,0.111212
2.66534,-0.735659,-0.128798
2.73388,-0.612598,-0.114143
2.57955,-0.859102,-0.0791263
2.66192,-0.744224,0
2.51303,-0.975751,-0.0313844
2.73406,-0.622166,0.0162966
2.6581,-0.743156,-0.297301
2.51676,-0.977199,0.0314309
2.65544,-0.742411,-0.192807
2.73294,-0.621913,0.0815699
2.59163,-0.863127,0.04768
2.7324,-0.621788,-0.179593
2.52012,-0.978503,-0.15744
2.5823,-0.860017,0.110887
2.66289,-0.744493,-0.128798
2.59227,-0.863337,-0.143191
2.72794,-0.620774,-0.11398
2.7276,-0.630719,-0.0488667
2.57275,-0.866825,-0.0790099
2.65931,-0.753511,0
2.50217,-0.981596,-0.0312912
2.72797,-0.630805,0.0162734
2.58516,-0.871009,-0.0158549
2.65549,-0.75243,-0.297301
2.50961,-0.984517,0.0313844
2.58419,-0.870681,-0.222613
2.72297,-0.629648,0.0813371
2.5886,-0.872168,0.04768
2.73021,-0.631322,-0.179593
2.66249,-0.754414,0.161161
2.58307,-0.870302,0.111049
2.65643,-0.752695,-0.128612
2.72576,-0.630292,-0.11398
2.72149,-0.639322,-0.0487969
2.56592,-0.87451,-0.0788935
2.65666,-0.762789,0
2.50616,-0.993271,-0.0313844
2.64408,-0.759176,-0.427977
2.71407,-0.637579,0.0162036
2.57832,-0.878737,-0.0158317
2.6452,-0.759499,-0.296445
2.50616,-0.993271,0.0313844
2.65403,-0.762032,-0.193086
2.58114,-0.879697,-0.222613
2.71686,-0.638234,0.0812208
2.57419,-0.877328,0.0474705
2.72022,-0.639023,-0.179081
2.58001,-0.879313,0.111049
2.71965,-0.638889,-0.113818
2.71535,-0.647889,-0.0487271
2.57041,-0.886068,-0.0791263
2.6463,-0.769823,0
2.70794,-0.646121,0.0161804
2.57146,-0.886428,-0.0158084
2.63872,-0.767617,-0.296016
2.64752,-0.770177,-0.192807
2.57805,-0.888701,-0.222613
2.71461,-0.647714,0.0812208
2.57489,-0.887612,0.0475404
2.71797,-0.648514,-0.179081
2.64949,-0.770752,0.160696
2.57693,-0.888313,0.111049
2.65111,-0.771222,-0.128612
2.7174,-0.648379,-0.113818
2.70907,-0.656895,-0.0486573
2.55582,-0.891532,-0.0787772
2.64346,-0.779517,0
2.70944,-0.656984,0.0162036
2.57197,-0.897165,-0.0158317
2.63589,-0.777284,-0.296016
2.64658,-0.780437,0.0642063
2.70834,-0.656717,0.0811044
2.57162,-0.897043,0.0475404
2.71557,-0.658472,-0.179081
2.64665,-0.780458,0.160696
2.55856,-0.892487,0.110398
2.64443,-0.779803,-0.128426
2.71112,-0.657392,-0.113655
2.70299,-0.66492,-0.0485875
2.55285,-0.900003,-0.0787772
2.62936,-0.784847,0
2.70336,-0.66501,0.0161804
2.56521,-0.904359,-0.0158084
2.6333,-0.78602,-0.296016
2.64015,-0.788066,0.0641132
2.63443,-0.786359,-0.192249
2.70614,-0.665695,0.0811044
2.56109,-0.902906,0.0474007
2.71338,-0.667474,-0.179081
2.56312,-0.903624,0.110724
2.638,-0.787425,-0.12824
2.5655,-0.904463,-0.142563
2.70893,-0.666379,-0.113655
2.70054,-0.674822,-0.0485875
2.54577,-0.90801,-0.0786608
2.6303,-0.795637,0
2.7009,-0.674914,0.0161804
2.62659,-0.794515,-0.295588
2.63153,-0.796009,-0.192249
2.56093,-0.913419,-0.221962
2.70704,-0.676446,-0.178825
2.63349,-0.796603,0.160231
2.55603,-0.91167,0.110561
2.6351,-0.797089,-0.12824
2.56217,-0.91386,-0.142563
2.69483,-0.673397,-0.113166
2.70228,-0.684285,-0.0486573
2.53914,-0.914649,-0.0785444
2.62779,-0.803896,0
2.68714,-0.68045,0.0161106
2.62788,-0.803926,-0.296016
2.6938,-0.682136,0.0808717
2.55112,-0.918963,0.0473309
2.69716,-0.682988,-0.178314
2.55315,-0.919695,0.110561
2.69271,-0.681859,-0.113166
2.68826,-0.690727,-0.0484479
2.53969,-0.924874,-0.0786608
2.62114,-0.81188,0
2.68475,-0.689825,0.0161106
2.54824,-0.927988,-0.0157619
2.62126,-0.811918,-0.295588
2.62238,-0.812264,-0.19197
2.68366,-0.689545,0.080639
2.5479,-0.927862,0.0473309
2.69476,-0.692398,-0.178314
2.61671,-0.810507,0.159533
2.62212,-0.812183,-0.127868
2.69031,-0.691254,-0.113166
2.68958,-0.701585,-0.0485177
2.61433,-0.820284,0
2.67833,-0.698651,0.0160874
2.54107,-0.935939,-0.0157387
2.61447,-0.820329,-0.295159
2.68111,-0.699376,0.080639
2.54448,-0.937194,0.0473309
2.68834,-0.701263,-0.178058
2.61753,-0.821288,0.159766
2.61913,-0.821788,-0.127868
2.68776,-0.70111,-0.113166
2.68724,-0.7105,-0.0485177
2.6116,-0.828949,0
2.676,-0.707529,0.0160874
2.53795,-0.94436,-0.0157387
2.6147,-0.829935,0.0638341
2.60904,-0.828137,-0.191412
2.67491,-0.707242,0.0805226
2.54136,-0.945627,0.0473309
2.61479,-0.829963,0.159766
2.542,-0.945868,-0.142144
2.68542,-0.710019,-0.113166
2.6147,-0.829935,-0.0638341
2.52238,-0.948604,-0.0784281
2.60107,-0.835614,0
2.66965,-0.71583,0.0160641
2.60883,-0.838106,-0.295159
2.60613,-0.83724,-0.191412
2.66856,-0.715539,0.0804062
2.60808,-0.837864,0.159533
2.67906,-0.718354,-0.113003
2.52263,-0.959264,-0.0785444
2.6018,-0.846379,0
2.65929,-0.72351,0.0160176
2.52331,-0.959524,0.0471215
2.6693,-0.726232,-0.17729
2.60278,-0.846698,-0.127495
2.67255,-0.727119,-0.112841
2.60109,-0.84615,-0.0636479
2.66024,-0.733752,-0.0481686
2.51553,-0.966629,-0.0784281
2.59883,-0.855456,0
2.52029,-0.968457,-0.0156922
2.59521,-0.854266,-0.294303
2.65952,-0.733553,0.0802899
2.51995,-0.968326,0.0471215
2.66674,-0.735545,-0.17729
2.59443,-0.854008,0.159068
2.67,-0.736443,-0.112841
2.59812,-0.855224,-0.0636479
2.65394,-0.741493,-0.0480988
2.58838,-0.861542,0
2.6543,-0.741594,0.0160176
2.51706,-0.976809,-0.0156922
2.59148,-0.862572,0.0635549
2.64937,-0.740217,0.0800572
2.51672,-0.976677,0.0471215
2.58401,-0.860085,0.158603
2.59316,-0.863133,-0.127309
2.66369,-0.744218,-0.112678
2.59148,-0.862572,-0.0635549
2.65903,-0.752932,-0.0482385
2.58157,-0.869296,0
2.6517,-0.750855,0.0160176
2.58466,-0.870337,0.0634618
2.58284,-0.869725,-0.190575
2.64677,-0.74946,0.0800572
2.50585,-0.982536,0.0469819
2.66168,-0.75368,-0.17729
2.58856,-0.871648,0.159068
2.51023,-0.984255,-0.141307
2.66108,-0.753512,-0.112678
2.58845,-0.871613,-0.0635549
2.65255,-0.761106,-0.0481686
2.49801,-0.989536,-0.0781954
2.64137,-0.7579,0.0159711
2.51018,-0.994358,-0.0156922
2.57979,-0.878735,-0.190575
2.6403,-0.757592,0.0799408
2.64691,-0.759489,-0.112189
2.49083,-0.996764,-0.078079
2.57166,-0.885994,0
2.63487,-0.765999,0.0159479
2.63764,-0.766804,0.0799408
2.64102,-0.767786,-0.176267
2.64424,-0.768724,-0.112189
2.57852,-0.88836,-0.0634618
2.63169,-0.775546,-0.0478894
2.57217,-0.896731,0
2.62821,-0.77452,0.0159246
2.63097,-0.775335,0.0798244
2.64201,-0.778589,-0.176523
2.63757,-0.77728,-0.112026
2.56392,-0.893855,-0.0631827
2.6328,-0.785871,-0.0479592
2.56525,-0.904374,0
2.62165,-0.782545,0.0159014
2.56456,-0.904129,0.0632757
2.62442,-0.783371,0.0797081
2.63928,-0.787807,-0.176523
2.63101,-0.785339,-0.111864
2.56456,-0.904129,-0.0632757
2.634,-0.795754,-0.048029
2.55847,-0.911533,0
2.61904,-0.791235,0.0159014
2.56154,-0.912628,0.0632757
2.556,-0.910652,-0.189738
2.61798,-0.790913,0.0795917
2.62901,-0.794246,-0.176011
2.63222,-0.795216,-0.112026
2.61974,-0.801434,-0.0478196
2.54775,-0.917747,0
2.62009,-0.801542,0.0159246
2.55458,-0.920209,0.0631827
2.62179,-0.802061,-0.111701
2.62074,-0.811757,-0.0478894
2.54828,-0.928003,0
2.61578,-0.810218,-0.1755
2.61897,-0.811207,-0.111701
2.55135,-0.929121,-0.0631827
2.6104,-0.818051,-0.0477498
2.60312,-0.81577,0.0158549
2.5445,-0.936195,0.0630896
2.61307,-0.818888,-0.1755
2.61627,-0.819888,-0.111701
2.537,-0.933434,-0.0629035
2.60753,-0.827158,-0.0477498
2.53816,-0.943933,0
2.52998,-0.94089,0.0628105
2.5992,-0.824516,0.079359
2.6102,-0.828004,-0.1755
2.60958,-0.827807,-0.111538
2.54122,-0.945072,-0.0630896
2.60448,-0.83671,-0.0477498
2.53468,-0.95323,0
2.52651,-0.950156,0.0628105
2.53224,-0.952312,-0.18918
2.59236,-0.832814,0.0792426
2.534,-0.952972,-0.0629966
2.59774,-0.844559,-0.04768
2.53134,-0.962072,0
2.59049,-0.8422,0.0158317
2.52692,-0.960391,0.0629035
2.58563,-0.840622,0.0791263
2.60421,-0.846661,-0.1755
2.59599,-0.843988,-0.111212
2.59113,-0.85192,-0.0476102
2.5244,-0.969027,0
2.58283,-0.849191,0.0791263
2.5938,-0.852799,-0.174988
2.58938,-0.851343,-0.111049
2.52745,-0.970198,-0.0629966
2.58814,-0.860959,-0.0476102
2.521,-0.977833,0
2.5771,-0.857288,0.0157852
2.59081,-0.861848,-0.174988
2.5826,-0.859115,-0.110887
2.51659,-0.976122,-0.0628105
2.58512,-0.869988,-0.0476102
2.51385,-0.985167,0
2.5741,-0.866279,0.0157852
2.57684,-0.867202,0.0791263
2.58779,-0.870886,-0.174988
2.58337,-0.8694,-0.111049
2.50945,-0.983442,-0.0627174
2.58191,-0.879458,-0.0476102
2.50279,-0.991428,0
2.56712,-0.874418,0.0157619
2.56607,-0.874063,0.0788935
2.5808,-0.879078,-0.174732
2.57638,-0.877574,-0.110887
2.50954,-0.994105,-0.0628105
2.57142,-0.885411,-0.0474705
2.49948,-0.999722,0
2.5642,-0.882926,0.0157619
2.57787,-0.887631,-0.174732
2.57346,-0.886113,-0.110887
2.49881,-0.999452,-0.0626244
2.57209,-0.895696,-0.0475404
2.56721,-0.893999,-0.17422
2.56657,-0.893776,-0.110724
2.55763,-0.900684,-0.0473309
2.55043,-0.898149,0.0157154
2.55317,-0.899112,0.0787772
2.56031,-0.901629,-0.173965
2.56344,-0.90273,-0.110724
2.55824,-0.910948,-0.0474007
2.55482,-0.909729,0.0157619
2.56091,-0.911899,-0.17422
2.56027,-0.911672,-0.110724
2.5441,-0.915932,0.0157154
2.54306,-0.91556,0.0786608
2.55771,-0.920833,-0.17422
2.55331,-0.91925,-0.110561
2.55182,-0.928785,-0.0474007
2.54464,-0.926175,0.0157387
2.54698,-0.927025,-0.173709
