2.04433,0.22353,-0.119766
2.05154,0.217436,-0.19258
2.03712,0.215907,-0.119301
2.04183,0.209203,-0.119534
2.03858,0.20168,-0.119301
2.03596,0.187079,-0.119069
2.02864,0.179268,-0.118604
2.01377,0.156719,-0.023515
2.02298,0.150334,-0.118138
2.0235,0.143272,-0.118138
2.03056,0.13665,-0.189978
2.02398,0.136208,-0.118138
2.05206,0.231989,-0.168587
2.04889,0.22439,-0.168262
1.99661,0.114075,0.0232822
2.04562,0.217531,-0.167936
2.03373,0.216266,-0.107184
2.04641,0.210032,-0.167936
1.98938,0.0993855,0.023189
2.03125,0.201313,-0.106975
2.03427,0.194087,-0.260113
2.02104,0.0935428,-0.188862
2.03595,0.194247,-0.107184
2.04052,0.188217,-0.167285
2.03257,0.187483,-0.106975
2.03719,0.18074,-0.16696
2.02923,0.180034,-0.106765
2.048,0.174496,-0.261628
2.03781,0.173628,-0.16696
2.00447,0.163741,-0.0585302
1.9908,0.0649985,0.023189
2.00902,0.157054,-0.0586465
2.03103,0.158775,-0.166309
2.02703,0.158462,-0.106556
2.00559,0.149393,-0.0585302
2.03391,0.151503,-0.259607
2.0106,0.051245,-0.187747
2.02361,0.150735,-0.106347
2.01007,0.143025,-0.0586465
2.0344,0.144757,-0.259607
2.0241,0.144023,-0.106347
2.03885,0.137924,-0.260113
2.00692,0.0374847,-0.187375
2.04107,0.238689,-0.143698
2.0286,0.13723,-0.165984
1.99907,0.127872,-0.0582974
2.03142,0.129942,-0.259102
2.03797,0.230756,-0.143419
1.99551,0.120653,-0.0581811
2.03187,0.122851,-0.259102
2.00316,0.0230766,-0.187003
1.97973,0.0228068,0.0230493
2.03083,0.222772,-0.142861
2.02157,0.122229,-0.165333
2.01754,0.121985,-0.105928
2.00386,0.114841,-0.0584138
2.02432,0.116014,-0.258092
1.9798,0.0165875,0.0230493
2.03549,0.216813,-0.14314
2.00026,0.107631,-0.0582974
2.02867,0.10916,-0.258597
2.03738,0.209824,-0.22062
1.99928,0.00977114,-0.186632
2.03226,0.209298,-0.142861
1.99666,0.0997494,-0.0581811
2.02908,0.101369,-0.258597
2.04608,0.202784,-0.221477
2.04099,0.202279,-0.143419
2.03183,0.201371,-0.0951096
1.99301,0.092593,-0.0580647
2.04282,0.195261,-0.221048
1.99532,-0.00487582,-0.18626
2.03771,0.194774,-0.14314
2.02854,0.193897,-0.0949235
2.01107,0.0934322,-0.105509
1.98533,0.0852928,-0.057832
2.04349,0.18813,-0.221048
1.99131,-0.0118167,-0.185888
1.96783,-0.0116774,0.0229097
2.02646,0.186562,-0.142303
2.01543,0.086586,-0.164682
2.02921,0.186815,-0.0949235
1.9936,0.0786779,-0.0580647
2.01813,0.079646,-0.257082
2.04017,0.180645,-0.22062
2.01915,0.178784,-0.141745
2.01174,0.0793935,-0.164356
2.02587,0.179379,-0.0947374
1.98585,0.0721236,-0.057832
2.01837,0.0733049,-0.257082
2.0328,0.173558,-0.219763
2.02368,0.172779,-0.142024
2.02642,0.173013,-0.0947374
1.98209,0.0650605,-0.0577156
2.01862,0.0662594,-0.257082
2.0334,0.166461,-0.219763
2.02427,0.165714,-0.142024
2.01507,0.164961,-0.094179
1.98232,0.0577949,-0.0577156
2.01885,0.0588598,-0.257082
2.02606,0.158387,-0.218906
1.98697,-0.0391927,-0.185516
1.95949,-0.0386506,0.0228165
2.01691,0.157671,-0.141466
1.97752,0.0576549,0.0806004
2.01964,0.157885,-0.0943651
1.9825,0.0512213,-0.0577156
2.03451,0.152262,-0.219763
1.95135,-0.0449636,0.0227234
2.0214,0.15128,-0.141745
2.00466,0.0517939,-0.163705
2.02015,0.151187,-0.0943651
1.98267,0.0443012,-0.0577156
2.01127,0.0449403,-0.256072
2.03106,0.144876,-0.219335
1.96318,-0.0520927,0.0228631
2.01793,0.14394,-0.141466
2.00483,0.0447964,-0.163705
2.02067,0.144135,-0.0943651
1.98281,0.0370336,-0.0577156
2.00745,0.0374937,-0.255567
2.02364,0.136894,-0.218478
2.01845,0.136542,-0.141466
2.0379,0.238317,-0.131497
1.97801,0.0369439,0.0806004
2.02118,0.136728,-0.0943651
1.98292,0.0308046,-0.0577156
2.00756,0.0311873,-0.255567
2.02406,0.130536,-0.218478
1.95478,-0.0651878,0.02277
2.01488,0.129944,-0.141187
1.97546,0.0306887,0.034486
2.00964,0.129606,-0.0938067
1.97902,0.023834,-0.0575993
2.01593,0.0242785,-0.403217
2.02054,0.123227,-0.21805
1.97407,-0.0727309,-0.184401
1.95054,-0.0718641,0.0227234
2.01134,0.122667,-0.140908
2.0012,0.0241012,-0.16338
2.0315,0.223921,-0.130985
2.01407,0.122833,-0.0939929
1.9751,0.0162017,-0.0574829
2.01601,0.0165373,-0.403217
1.99674,0.114082,0
2.02497,0.115695,-0.218478
1.95025,-0.0793536,0.0227234
2.01578,0.11517,-0.141187
1.99729,0.0163838,-0.163054
2.03235,0.216119,-0.130985
2.01054,0.11487,-0.0938067
1.97514,0.00999707,-0.0574829
2.01605,0.0102041,-0.403217
2.00109,0.108025,0
1.99587,0.010102,-0.254052
2.02135,0.109118,-0.21805
1.946,-0.0853045,0.0226768
2.01215,0.108622,-0.140908
2.02508,0.208914,-0.130473
1.97516,0.0031029,-0.0574829
2.01215,0.00316101,-0.402433
1.99746,0.100838,0
2.03687,0.102827,-0.317293
2.00383,0.00314794,-0.255062
2.0098,0.101461,-0.216764
2.01252,0.101598,-0.140908
1.99337,0.0031315,-0.162729
2.02579,0.201844,-0.130473
1.97036,0.00309536,0.0802748
2.00726,0.101333,-0.0936206
2.02031,0.201298,-0.0827172
1.97116,-0.00412858,-0.0573665
2.01215,-0.00421442,-0.402433
1.99382,0.0933283,0
2.02934,0.0949911,-0.316064
1.99986,-0.00418869,-0.254557
2.01016,0.0940933,-0.216764
1.97285,-0.100631,-0.184401
1.94933,-0.0994314,0.0227234
2.01288,0.0942204,-0.140908
2.02255,0.194036,-0.130218
1.96237,-0.00411016,0.0799491
1.99166,0.0932272,-0.0928761
2.01706,0.19351,-0.0825544
1.97114,-0.0106648,-0.0573665
2.01212,-0.0108865,-0.402433
1.99012,0.0865427,0
2.02569,0.0880897,-0.315449
1.99984,-0.01082,-0.254557
2.00649,0.0872544,-0.216336
1.96853,-0.106956,-0.184029
1.94899,-0.105895,0.0227234
2.02715,0.187697,-0.130473
1.96234,-0.0106172,0.0799491
1.99196,0.0866225,-0.0928761
2.02167,0.187189,-0.0827172
1.97509,-0.0175804,-0.0574829
2.00423,-0.0178398,-0.400864
1.98242,0.0792761,0
1.94861,-0.112697,-0.0227234
2.01809,0.0807027,-0.314219
2.00678,0.0802504,-0.216336
1.94063,-0.112235,0.0226303
2.00151,0.0800397,-0.140071
2.02382,0.180266,-0.130218
2.00422,0.0801482,-0.0934345
1.94146,-0.0172812,0.158498
2.01435,0.179422,-0.0823915
2.01636,0.172155,-0.0353237
1.97101,-0.0247687,-0.0573665
2.00023,-0.0251358,-0.400079
1.98669,0.0721553,0
2.02232,0.0734494,-0.314834
1.99574,-0.0250794,-0.254052
2.01103,0.0730394,-0.216764
1.96771,-0.121039,-0.184029
1.93621,-0.119101,0.0225837
1.9978,0.0725588,-0.139792
1.98524,-0.0249475,-0.162078
2.02049,0.172508,-0.129962
1.99652,0.0725122,-0.0930622
1.97091,-0.0316492,-0.0573665
1.9962,-0.0320553,-0.399295
1.98293,0.0650882,0
2.01862,0.0662596,-0.314219
1.99564,-0.0320462,-0.254052
2.0073,0.0658881,-0.216336
1.93578,-0.125859,0.0225837
1.99804,0.0655842,-0.139792
1.98514,-0.0318776,-0.162078
2.0171,0.165128,-0.129706
1.95812,-0.0314438,0.0797863
2.00075,0.0656732,-0.0932484
2.0116,0.164677,-0.0822287
1.9628,-0.0380304,-0.0571338
1.99609,-0.0386753,-0.399295
1.98314,0.0585117,0
2.01883,0.0595647,-0.314219
1.99552,-0.0386644,-0.254052
1.99558,0.0588789,-0.215051
1.94333,-0.132824,0.0226768
2.00224,0.0590753,-0.140071
2.02162,0.15875,-0.129962
1.95002,-0.0377827,0.0794606
1.98898,0.058684,-0.09269
2.00606,0.150484,-0.0351142
1.97533,0.0513804,0
2.01902,0.0525168,-0.314219
2.00373,0.052119,-0.215908
1.96239,-0.14101,-0.183657
1.93887,-0.139321,0.0226303
1.99445,0.0518777,-0.139513
2.0142,0.151094,-0.12945
1.94987,-0.0445898,0.0794606
1.99316,0.0518442,-0.0928761
1.93306,-0.0442054,0.157847
2.01267,0.15098,-0.0822287
1.99859,0.14291,-0.0349746
1.96249,-0.0517323,-0.0571338
1.99185,-0.0525062,-0.39851
1.9755,0.0444854,0
2.01129,0.0452913,-0.312989
1.99124,-0.0524901,-0.253547
2.0039,0.0451249,-0.215908
1.93438,-0.145786,0.0225837
1.99861,0.0450058,-0.139792
1.98072,-0.0522129,-0.161753
2.01869,0.144348,-0.129706
1.9537,-0.0515007,0.0796234
1.98934,0.044797,-0.09269
2.00521,0.143384,-0.0819031
2.00307,0.136204,-0.0350444
1.96629,-0.0587016,-0.0572502
1.99557,-0.0595758,-0.399295
1.97164,0.0375132,0
1.94184,-0.153167,-0.0226768
2.00748,0.0381951,-0.312374
1.98311,-0.0592037,-0.252536
2.00007,0.038054,-0.215479
1.92987,-0.152223,0.0225371
1.99477,0.0379532,-0.139513
2.00724,0.136488,-0.128938
1.95351,-0.05832,0.0796234
1.98948,0.0378527,-0.09269
2.00171,0.136112,-0.0817402
1.95808,-0.0652984,-0.0570174
1.99535,-0.0665413,-0.399295
1.97176,0.0306307,0
1.94129,-0.159944,-0.0226768
2.00365,0.0311261,-0.311759
1.98686,-0.0662579,-0.253042
1.99981,0.128972,0.0116471
1.99223,0.0309487,-0.214623
1.93332,-0.159287,0.0225837
1.98691,0.030866,-0.138955
2.01169,0.129737,-0.129194
1.9493,-0.0650055,0.0794606
1.98561,0.0308458,-0.0925039
2.00218,0.129124,-0.0817402
1.95784,-0.072133,-0.0570174
1.99511,-0.073506,-0.399295
1.96386,0.0236514,0
2.01165,0.024227,-0.312989
1.99631,0.0240422,-0.215051
1.95626,-0.168054,-0.183286
1.92478,-0.16535,0.0224906
1.99498,0.0240263,-0.139513
2.00814,0.122471,-0.128938
1.94107,-0.0715151,0.079135
1.9897,0.0239626,-0.09269
1.92827,-0.0710436,0.157522
1.99863,0.121891,-0.0815774
1.9964,0.114762,-0.0349048
1.95358,-0.0788055,-0.0569011
1.99092,-0.0803117,-0.39851
1.96793,0.0168304,0
2.01173,0.0172049,-0.312989
1.99638,0.0170737,-0.215051
1.92419,-0.172068,0.0224906
1.98708,0.0169941,-0.138955
2.00856,0.115461,-0.128938
1.9448,-0.0784514,0.0792978
1.98577,0.016983,-0.0925039
1.92801,-0.0777741,0.157522
2.00303,0.115143,-0.0817402
2.00078,0.108008,-0.0349746
1.95729,-0.0857994,-0.0570174
1.98279,-0.0869172,-0.396941
1.97597,0.0100014,0
1.92756,-0.179154,-0.0225371
2.00387,0.0101426,-0.311759
2.00105,0.108023,0.0116471
1.99245,0.0100848,-0.214623
1.95107,-0.181339,-0.182914
1.9196,-0.178413,0.022444
1.98313,0.0100376,-0.138676
1.97154,-0.0864241,-0.161102
2.00496,0.108234,-0.128683
1.94053,-0.0850645,0.079135
1.98582,0.0100512,-0.0925039
1.99713,0.10117,-0.0349048
1.94901,-0.0919129,-0.0567847
1.99033,-0.0938615,-0.39851
1.93094,-0.185928,-0.0225837
1.99599,0.00348366,-0.310529
1.98179,-0.0934588,-0.252536
1.99341,0.100982,0.0116006
1.99247,0.00347753,-0.214623
1.95046,-0.187808,-0.182914
1.91899,-0.184778,0.022444
1.98714,0.00346823,-0.138955
1.97124,-0.0929615,-0.161102
2.00132,0.101383,-0.128427
1.94023,-0.091499,0.079135
1.98584,0.00346596,-0.0925039
1.99179,0.1009,-0.0812517
1.98949,0.0938218,-0.0347652
1.95267,-0.0989179,-0.0569011
1.98215,-0.100412,-0.396941
1.972,-0.00344179,0
1.99599,-0.00348366,-0.310529
1.98976,0.0938345,0.0115773
1.95346,-0.0989581,-0.0113681
1.94979,-0.194615,-0.182914
1.9263,-0.19227,0.0225371
1.98714,-0.00346823,-0.138955
1.97091,-0.0998419,-0.161102
2.00166,0.0943961,-0.128427
1.94389,-0.0984734,0.0792978
1.98584,-0.00346596,-0.0925039
1.98582,0.0863555,-0.0346954
1.9483,-0.105857,-0.0567847
1.98569,-0.107889,-0.397726
1.97197,-0.0106695,0
1.99596,-0.0107993,-0.310529
1.97711,-0.107422,-0.252031
1.99408,0.0867148,0.0116006
1.9216,-0.198917,0.0224906
1.98313,-0.0107299,-0.138676
1.94883,-0.105886,0.0340671
2.002,0.087059,-0.128427
1.93554,-0.105164,0.0789721
1.97783,-0.0107012,-0.0921316
1.98847,0.0864708,-0.0810889
1.98611,0.0794232,-0.0346954
1.94393,-0.112427,-0.0566684
1.97355,-0.11414,-0.395372
1.96792,-0.0175173,0
1.99986,-0.0178016,-0.311144
1.97672,-0.114323,-0.252031
1.99038,0.0795938,0.0115773
1.98444,-0.0176643,-0.213766
1.94439,-0.208139,-0.182542
1.91692,-0.205198,0.022444
1.97909,-0.0176167,-0.138397
1.96616,-0.113713,-0.160776
1.99431,0.0797512,-0.127915
1.92718,-0.111458,0.0786465
1.97778,-0.017605,-0.0921316
1.91442,-0.11072,0.156545
1.99275,0.0796889,-0.0812517
1.99036,0.0729831,-0.0347652
1.94753,-0.119116,-0.0567847
1.97708,-0.120923,-0.396157
1.96385,-0.0239942,0
1.9202,-0.211992,-0.0224906
1.98794,-0.0242884,-0.3093
1.99063,0.072993,0.0115773
1.9804,-0.0241963,-0.213337
1.9202,-0.211992,0.0224906
1.97902,-0.0241795,-0.138397
1.96578,-0.120232,-0.160776
1.98582,0.0728169,0.057832
1.99456,0.0731374,-0.127915
1.93478,-0.118336,0.0789721
1.97371,-0.0241146,-0.0919455
1.9946,0.0661677,-0.034835
1.94711,-0.125914,-0.0567847
1.98056,-0.128077,-0.396941
1.96776,-0.030912,0
1.91945,-0.218694,-0.0224906
1.98784,-0.0312275,-0.3093
1.97194,-0.127519,-0.251526
1.98687,0.0659114,0.0115541
1.98428,-0.0311715,-0.213766
1.9115,-0.217788,0.0223974
1.97892,-0.0310874,-0.138397
1.98207,0.065752,0.0577156
1.99481,0.0661746,-0.127915
1.93036,-0.124831,0.0788093
1.97761,-0.0310668,-0.0921316
1.98282,0.0588489,-0.0346256
1.94267,-0.132438,-0.0566684
1.98401,-0.135256,-0.397726
1.96764,-0.0377806,0
1.99167,-0.038242,-0.309915
1.96752,-0.134132,-0.251021
1.98709,0.0589755,0.0115541
1.9762,-0.037945,-0.212909
1.91073,-0.224459,0.0223974
1.9788,-0.0379949,-0.138397
1.96091,-0.133681,-0.160451
1.98229,0.0588329,0.0577156
1.99104,0.0590926,-0.127659
1.9339,-0.13184,0.0789721
1.98548,0.0589276,-0.0809261
1.97902,0.0518225,-0.0345558
1.9382,-0.138932,-0.056552
1.97962,-0.141901,-0.396941
1.99152,-0.045194,-0.309915
1.98329,0.0519342,0.0115308
1.98003,-0.0449332,-0.213337
1.90994,-0.231128,0.0223974
1.97467,-0.0448115,-0.138118
1.97049,0.0515991,0.0573665
1.93873,-0.13897,0.0339275
1.99123,0.0521422,-0.127659
1.92546,-0.138019,0.0786465
1.96536,-0.0446003,-0.0915733
1.98567,0.0519966,-0.0809261
1.97919,0.0449141,-0.0345558
1.93771,-0.145697,-0.056552
1.97129,-0.148222,-0.395372
1.95533,-0.0512021,0
1.92102,-0.239276,-0.0225371
1.99135,-0.0521454,-0.309915
1.98745,0.0451016,0.0115541
1.97191,-0.0516364,-0.212481
1.90515,-0.237299,0.0223509
1.97051,-0.0515997,-0.137839
1.97466,0.0448112,0.0574829
1.93823,-0.145736,0.0339275
1.98741,0.0451006,-0.127403
1.92098,-0.144439,0.0784836
1.96919,-0.051565,-0.0917594
1.98984,0.0451557,-0.0810889
1.97933,0.0380051,-0.0345558
1.94117,-0.152774,-0.0566684
1.97076,-0.155102,-0.395372
1.95114,-0.0579085,0
1.91224,-0.244964,-0.022444
1.97931,-0.0587445,-0.30807
1.96601,-0.154728,-0.251021
1.9756,0.0379335,0.0114843
1.96775,-0.0584013,-0.212052
1.90431,-0.243948,0.0223509
1.97032,-0.0584777,-0.137839
1.95543,-0.153896,-0.160125
1.9708,0.0378413,0.0573665
1.99155,0.0382396,-0.127659
1.92445,-0.151457,0.0786465
1.965,-0.0583199,-0.0915733
1.97799,0.0379794,-0.0806004
1.97945,0.0310958,-0.0345558
1.94063,-0.159549,-0.0566684
1.9702,-0.16198,-0.395372
1.95492,-0.0648515,0
1.91534,-0.25216,-0.0224906
1.97909,-0.0656532,-0.30807
1.9615,-0.161265,-0.250516
1.97572,0.0310371,0.0114843
1.97548,-0.0655334,-0.212909
1.90345,-0.250593,0.0223509
1.9701,-0.065355,-0.137839
1.95488,-0.16072,-0.160125
1.97092,0.0309617,0.0573665
1.98768,0.0312249,-0.127403
1.92789,-0.158501,0.0788093
1.92051,-0.06371,0.235939
1.90323,-0.156474,0.155894
1.98211,0.0311375,-0.0807633
1.97555,0.0241371,-0.034486
1.93209,-0.165639,-0.0564356
1.96963,-0.168856,-0.395372
1.95868,-0.0718217,0
1.91445,-0.258844,-0.0224906
1.98675,-0.0728508,-0.3093
1.97582,0.0241404,0.0114843
1.96729,-0.0721373,-0.212052
1.90652,-0.257772,0.0223974
1.96986,-0.0722316,-0.137839
1.97102,0.0240817,0.0573665
1.98378,0.0242377,-0.127148
1.91936,-0.164547,0.0784836
1.96854,-0.0721831,-0.0917594
1.92425,-0.0705589,0.236427
1.97821,0.0241696,-0.0806004
1.97162,0.0172061,-0.0344161
1.92752,-0.172027,-0.0563193
1.96902,-0.175731,-0.395372
1.95043,-0.0783373,0
1.91353,-0.265525,-0.0224906
1.97463,-0.0793095,-0.307455
1.97589,0.0172434,0.0114843
1.96305,-0.0788443,-0.211624
1.90165,-0.263876,0.0223509
1.9696,-0.0791073,-0.137839
1.97109,0.0172015,0.0573665
1.93203,-0.172429,0.0338577
1.98785,0.0173477,-0.127403
1.94314,-0.0780445,0.113255
1.91081,-0.170536,0.078158
1.9563,-0.0785731,-0.091201
1.92399,-0.0772754,0.236427
1.98228,0.0172991,-0.0807633
1.97967,0.0103656,-0.0345558
1.93089,-0.179123,-0.0564356
1.96449,-0.182241,-0.394588
1.94615,-0.0849706,0
1.9126,-0.272203,-0.0224906
1.97829,-0.0863742,-0.30807
1.95971,-0.181796,-0.250516
1.97594,0.0103461,0.0114843
1.8928,-0.269385,0.0222578
1.96134,-0.0856339,-0.137281
1.97114,0.0103209,0.0573665
1.9839,0.0103878,-0.127148
1.91419,-0.177574,0.0783208
1.964,-0.08575,-0.0915733
1.91577,-0.0836445,0.235452
1.98233,0.0103795,-0.0807633
1.9717,0.0037854,-0.0344161
1.93028,-0.185525,-0.0564356
1.97169,-0.189505,-0.396157
1.95384,-0.0917992,0
1.90773,-0.277967,-0.022444
1.9701,-0.092563,-0.30684
1.96796,0.00377823,0.0114378
1.96644,-0.0923911,-0.212052
1.92718,-0.280802,-0.181799
1.89585,-0.276237,0.0223043
1.96104,-0.0921374,-0.137281
1.94851,-0.187277,-0.1598
1.96317,0.00376902,0.0571338
1.92683,-0.185193,0.0337879
1.98393,0.00380888,-0.127148
1.91359,-0.18392,0.0783208
1.95572,-0.0918873,-0.091201
1.92738,-0.090556,0.236914
1.97836,0.00379818,-0.0806004
1.9757,-0.00275859,-0.034486
1.92568,-0.191529,-0.0563193
1.95544,-0.194489,-0.393019
1.94953,-0.0980769,0
1.90284,-0.283702,-0.0223974
1.96978,-0.0990956,-0.30684
1.95056,-0.194004,-0.249506
1.95996,-0.00273663,0.0113914
1.96215,-0.0987118,-0.211624
1.89492,-0.282522,0.0223043
1.96073,-0.0986399,-0.137281
1.96717,-0.00274668,0.0572502
1.9262,-0.191581,0.0337879
1.97994,-0.00276451,-0.126892
1.91694,-0.190661,0.0784836
1.96339,-0.0987737,-0.0915733
1.97436,-0.00275673,-0.0804376
1.97167,-0.00997963,-0.0344161
1.92894,-0.198996,-0.0564356
1.96251,-0.20246,-0.394588
1.96941,-0.106315,-0.30684
1.96394,-0.00994049,0.0114146
1.92973,-0.199077,-0.0112751
1.92518,-0.294249,-0.181799
1.89388,-0.289466,0.0223043
1.96035,-0.105826,-0.137281
1.95915,-0.00991621,0.0570174
1.92151,-0.19823,0.033718
1.97991,-0.0100213,-0.126892
1.91226,-0.197275,0.0783208
1.95902,-0.105754,-0.0913871
1.97833,-0.0100133,-0.0806004
1.96763,-0.0168278,-0.0343463
1.92028,-0.20488,-0.0562029
1.95789,-0.208893,-0.393804
1.94479,-0.111795,0
1.90471,-0.297929,-0.022444
1.96508,-0.112962,-0.306225
1.9559,-0.0167275,0.0113681
1.95346,-0.112294,-0.210767
1.89285,-0.296075,0.0223043
1.95997,-0.112668,-0.137281
1.9591,-0.0167549,0.0570174
1.97587,-0.0168983,-0.126636
1.93751,-0.111377,0.113022
1.90758,-0.203525,0.078158
1.95465,-0.112362,-0.091201
1.97429,-0.0168848,-0.0804376
1.97156,-0.0237442,-0.0344161
1.92353,-0.21202,-0.0563193
1.95325,-0.215296,-0.393019
1.94039,-0.11834,0
1.90366,-0.304576,-0.022444
1.97256,-0.120301,-0.307455
1.96382,-0.023651,0.0114146
1.88786,-0.302048,0.0222578
1.9516,-0.119023,-0.136723
1.95503,-0.0235451,0.0569011
1.92008,-0.211639,0.033718
1.9758,-0.0237953,-0.126636
1.90686,-0.210182,0.078158
1.95425,-0.119184,-0.091201
1.97422,-0.0237762,-0.0804376
1.96347,-0.0301591,-0.0342765
1.92282,-0.218397,-0.0563193
1.94863,-0.22133,-0.392235
1.936,-0.124517,0
1.89474,-0.309597,-0.0223509
1.96032,-0.126081,-0.30561
1.95574,-0.0300403,0.0113681
1.96455,-0.126353,-0.212052
1.95119,-0.125494,-0.136723
1.94102,-0.220465,-0.159474
1.95094,-0.0299667,0.0567847
1.97571,-0.0303472,-0.126636
1.90218,-0.216054,0.0779952
1.95384,-0.125664,-0.091201
1.91761,-0.123334,0.235939
1.97013,-0.0302614,-0.0802748
1.96734,-0.0374314,-0.0343463
1.91406,-0.224512,-0.0560866
1.9556,-0.229384,-0.393804
1.93553,-0.131612,0
1.90149,-0.317858,-0.022444
1.96773,-0.133801,-0.30684
1.9429,-0.227894,-0.249001
1.95961,-0.0372843,0.0113914
1.95217,-0.132744,-0.210767
1.88571,-0.315221,0.0222578
1.9547,-0.132915,-0.137002
1.95482,-0.0371931,0.0569011
1.91855,-0.225039,0.033718
1.97559,-0.0375883,-0.126636
1.90535,-0.22349,0.078158
1.91714,-0.130361,0.235939
1.96601,-0.0374061,-0.0801119
1.9632,-0.0442085,-0.0342765
1.95479,-0.236209,-0.393804
1.93905,-0.138653,0
1.89642,-0.323821,-0.0223974
1.96331,-0.140387,-0.306225
1.94209,-0.234675,-0.249001
1.95147,-0.0439443,0.0113449
1.94773,-0.139273,-0.210339
1.88854,-0.322474,0.0223043
1.95025,-0.139453,-0.136723
1.94668,-0.0438365,0.0566684
1.91776,-0.231734,0.033718
1.97545,-0.0444842,-0.126636
1.90455,-0.230139,0.078158
1.95289,-0.139642,-0.091201
1.96587,-0.0442686,-0.0801119
1.95505,-0.0505119,-0.0341369
1.91249,-0.237535,-0.0560866
1.95788,-0.243173,-0.394588
1.94257,-0.14538,0
1.89928,-0.330794,-0.022444
1.96677,-0.147192,-0.30684
1.94524,-0.241603,-0.249506
1.95531,-0.0505187,0.0113681
1.95122,-0.146028,-0.210767
1.88352,-0.328049,0.0222578
1.94977,-0.14592,-0.136723
1.93465,-0.240288,-0.159149
1.95052,-0.0503949,0.0567847
1.9713,-0.0509316,-0.12638
1.89585,-0.235468,0.0778323
1.94843,-0.145819,-0.0910149
1.90829,-0.142815,0.234964
1.9737,-0.0509938,-0.0804376
1.95485,-0.0576771,-0.0341369
1.91557,-0.245051,-0.0562029
1.9492,-0.249352,-0.393019
1.93405,-0.151873,0
1.89411,-0.337052,-0.0223974
1.96228,-0.15409,-0.306225
1.9404,-0.248227,-0.249001
1.95512,-0.057685,0.0113681
1.94275,-0.152556,-0.20991
1.91349,-0.3405,-0.181427
1.87443,-0.333548,0.0221646
1.94525,-0.152753,-0.136444
1.94633,-0.0574257,0.0566684
1.97509,-0.0582742,-0.126636
1.89497,-0.242415,0.0778323
1.9439,-0.152647,-0.0908288
1.91171,-0.150119,0.235452
1.96951,-0.0581096,-0.0802748
1.95864,-0.0646324,-0.0342067
1.9147,-0.251736,-0.0562029
1.94832,-0.256155,-0.393019
1.92952,-0.158296,0
1.89293,-0.343662,-0.0223974
1.95385,-0.160293,-0.304995
1.9549,-0.0645092,0.0113681
1.94617,-0.159662,-0.210339
1.87718,-0.340804,0.0222112
1.94868,-0.159868,-0.136723
1.92893,-0.253606,-0.158823
1.94212,-0.0640874,0.056552
1.97088,-0.0650365,-0.12638
1.89411,-0.249029,0.0778323
1.93937,-0.159105,-0.0906426
1.91118,-0.156792,0.235452
1.8894,-0.248409,0.155569
1.9613,-0.0647205,-0.0799491
1.96239,-0.0716148,-0.0342765
1.91778,-0.258953,-0.0563193
1.94741,-0.262954,-0.393019
1.92895,-0.165031,0
1.87992,-0.348083,-0.0222578
1.95328,-0.167112,-0.304995
1.93862,-0.261768,-0.249001
1.94667,-0.071041,0.0113216
1.94163,-0.166115,-0.20991
1.87598,-0.347354,0.0222112
1.94811,-0.166669,-0.136723
1.94588,-0.0710121,0.0566684
1.96665,-0.0717702,-0.126124
1.89719,-0.256174,0.0779952
1.94677,-0.166555,-0.0910149
1.90666,-0.163124,0.234964
1.96107,-0.0715663,-0.0799491
1.95014,-0.077985,-0.0340671
1.90498,-0.263999,-0.0559702
1.94648,-0.26975,-0.393019
1.93235,-0.172118,0
1.88655,-0.356126,-0.0223509
1.95662,-0.17428,-0.30561
1.9377,-0.268533,-0.249001
1.94641,-0.0778357,0.0113216
1.90575,-0.264106,-0.0111821
1.87869,-0.354643,0.0222578
1.94752,-0.173468,-0.136723
1.94163,-0.0776443,0.056552
1.9055,-0.26407,0.0335784
1.9624,-0.0784752,-0.125868
1.92113,-0.171118,0.112325
1.88837,-0.261697,0.0776695
1.93424,-0.172286,-0.0904565
1.9608,-0.0784113,-0.0799491
1.94989,-0.0841111,-0.0340671
1.91206,-0.271105,-0.0562029
1.94951,-0.276415,-0.393804
1.92782,-0.17782,0
1.88149,-0.361297,-0.0223043
1.95607,-0.180426,-0.30561
1.93292,-0.274062,-0.248496
1.93816,-0.0836054,0.0112751
1.90492,-0.270092,-0.0111821
1.94445,-0.179354,-0.210339
1.90477,-0.365766,-0.181055
1.87364,-0.359789,0.0222112
1.94137,-0.0837437,0.056552
1.96215,-0.0846399,-0.125868
1.91263,-0.176419,0.111859
1.88754,-0.267628,0.0776695
1.94164,-0.179096,-0.0908288
1.96055,-0.084571,-0.0799491
1.94957,-0.0912573,-0.0340671
1.90314,-0.27696,-0.0559702
1.9446,-0.282993,-0.393019
1.92317,-0.184503,0
1.88801,-0.369728,-0.0223974
1.95933,-0.187971,-0.306225
1.93583,-0.281716,-0.249001
1.93785,-0.0907085,0.0112751
1.94378,-0.18648,-0.210339
1.90341,-0.372745,-0.181055
1.87231,-0.366653,0.0222112
1.94232,-0.18634,-0.136444
1.93706,-0.0906717,0.0564356
1.96182,-0.0918309,-0.125868
1.91992,-0.184191,0.112325
1.88655,-0.274545,0.0776695
1.93302,-0.185448,-0.0904565
1.89698,-0.18199,0.233989
1.95623,-0.0915693,-0.0797863
1.94924,-0.098062,-0.0340671
1.90216,-0.283601,-0.0559702
1.93972,-0.289201,-0.392235
1.92251,-0.191215,0
1.87494,-0.373969,-0.0222578
1.93752,-0.0974723,0.0112751
1.90293,-0.283716,-0.0111821
1.93916,-0.19287,-0.20991
1.9021,-0.379387,-0.181055
1.86709,-0.372404,0.0221646
1.94166,-0.193118,-0.136444
1.92032,-0.286308,-0.158498
1.93274,-0.0972319,0.0563193
1.96149,-0.0986784,-0.125868
1.91926,-0.190891,0.112325
1.88953,-0.281718,0.0778323
1.93634,-0.192589,-0.0906426
1.9559,-0.0983972,-0.0797863
1.94489,-0.104651,-0.0339973
1.90511,-0.290842,-0.0560866
1.93094,-0.294786,-0.390666
1.91388,-0.197105,0
1.87362,-0.380512,-0.0222578
1.94617,-0.200431,-0.30438
1.92597,-0.294026,-0.247991
1.93317,-0.10402,0.0112519
1.93847,-0.199638,-0.20991
1.8697,-0.379716,0.0222112
1.937,-0.199486,-0.136165
1.92325,-0.293611,-0.158823
1.93239,-0.103978,0.0563193
1.90167,-0.290318,0.0335784
1.95715,-0.10531,-0.125613
1.89644,-0.289518,0.078158
1.94756,-0.104795,-0.0794606
1.94453,-0.111099,-0.0339973
1.90809,-0.297775,-0.0562029
1.93383,-0.301793,-0.39145
1.92117,-0.204296,0
1.87627,-0.387532,-0.0223043
1.94157,-0.206465,-0.303765
1.9289,-0.301023,-0.248496
1.93681,-0.110658,0.0112751
1.90096,-0.296663,-0.0111821
1.93385,-0.205645,-0.209482
1.86452,-0.385105,0.0221646
1.93203,-0.110385,0.0563193
1.96077,-0.112027,-0.125868
1.89152,-0.295189,0.0779952
1.9512,-0.11148,-0.0796234
1.94411,-0.118226,-0.0339973
1.89514,-0.302873,-0.0558538
1.93271,-0.308878,-0.39145
1.92041,-0.211336,0
1.87875,-0.395229,-0.0223509
1.9408,-0.21358,-0.303765
1.92387,-0.307465,-0.247991
1.93639,-0.117756,0.0112751
1.89986,-0.303628,-0.0111821
1.93308,-0.212731,-0.209482
1.89802,-0.399284,-0.181055
1.87092,-0.393583,0.0222578
1.93953,-0.21344,-0.136444
1.93161,-0.117466,0.0563193
1.95636,-0.118971,-0.125613
1.90525,-0.209668,0.111627
1.93024,-0.212419,-0.0904565
1.95476,-0.118874,-0.0797863
1.94369,-0.125011,-0.0339973
1.89407,-0.309487,-0.0558538
1.93162,-0.315623,-0.39145
1.92363,-0.21849,0
1.87345,-0.400948,-0.0223043
1.94397,-0.220799,-0.30438
1.93597,-0.124515,0.0112751
1.93628,-0.219926,-0.20991
1.86171,-0.398437,0.0221646
1.93084,-0.219309,-0.135886
1.93518,-0.124464,0.0564356
1.89853,-0.310216,0.0335784
1.95594,-0.125799,-0.125613
1.88147,-0.307428,0.0776695
1.92552,-0.218704,-0.0902704
1.91199,-0.312414,-0.101532
1.95434,-0.125696,-0.0797863
1.94326,-0.131456,-0.0339973
1.89698,-0.316424,-0.0559702
1.93057,-0.322027,-0.39145
1.91495,-0.223939,0
1.8682,-0.406308,-0.0222578
1.93537,-0.226327,-0.303151
1.93155,-0.130664,0.0112519
1.8938,-0.315895,-0.0111589
1.92764,-0.225422,-0.209053
1.89526,-0.412195,-0.181055
1.91508,-0.319444,-0.158498
1.95551,-0.132285,-0.125613
1.89981,-0.222168,0.111394
1.88438,-0.314323,0.0778323
1.92478,-0.225088,-0.0902704
1.94195,-0.131367,-0.0792978
1.94277,-0.138578,-0.0339973
1.89975,-0.324047,-0.0560866
1.92164,-0.327781,-0.389881
1.91412,-0.230956,0
1.8706,-0.414017,-0.0223043
1.93453,-0.233419,-0.303151
1.92445,-0.328261,-0.248496
1.92308,-0.137173,0.0112054
1.93469,-0.233439,-0.20991
1.89374,-0.419138,-0.181055
1.93028,-0.137687,0.0563193
1.94705,-0.138883,-0.125101
1.90691,-0.230087,0.111859
1.87928,-0.320555,0.0776695
1.92791,-0.23262,-0.0904565
1.94544,-0.138768,-0.0794606
1.93828,-0.14506,-0.0339275
1.8986,-0.330676,-0.0560866
1.93208,-0.336506,-0.392235
1.91727,-0.238129,0
1.86524,-0.419666,-0.0222578
1.93762,-0.240657,-0.303765
1.91548,-0.333615,-0.247486
1.89543,-0.330124,-0.0111821
1.9324,-0.240008,-0.136165
1.92181,-0.143827,0.0560866
1.89124,-0.329393,0.0335086
1.94655,-0.145679,-0.125101
1.89817,-0.235757,0.111394
1.87815,-0.327113,0.0776695
1.91916,-0.238363,-0.0900843
1.94096,-0.14526,-0.0792978
1.93777,-0.151825,-0.0339275
1.88956,-0.335902,-0.0558538
1.92703,-0.342562,-0.39145
1.91643,-0.24482,0
1.85987,-0.425283,-0.0222112
1.92606,-0.150908,0.0112286
1.92907,-0.246436,-0.209482
1.88688,-0.431461,-0.180683
1.91194,-0.244247,0.0448513
1.92528,-0.150847,0.0562029
1.88614,-0.335293,0.0334388
1.94603,-0.152472,-0.125101
1.90526,-0.243394,0.111859
1.92228,-0.245567,-0.0902704
1.93645,-0.151722,-0.079135
1.93725,-0.15825,-0.0339275
1.88451,-0.341453,-0.0557375
1.92202,-0.348251,-0.390666
1.90767,-0.250134,0
1.86624,-0.433257,-0.0223043
1.93202,-0.253326,-0.303151
1.92555,-0.157294,0.0112286
1.92036,-0.251797,-0.208625
1.91112,-0.250586,0.0448513
1.92281,-0.252118,-0.135607
1.92477,-0.15723,0.0562029
1.94552,-0.158925,-0.125101
1.90444,-0.24971,0.111859
1.91749,-0.251421,-0.0900843
1.90237,-0.344691,-0.101322
1.93594,-0.158143,-0.079135
1.9327,-0.164672,-0.0338577
1.89117,-0.349483,-0.0559702
1.91694,-0.354245,-0.389881
1.90282,-0.256257,0
1.93113,-0.260069,-0.303151
1.91584,-0.354043,-0.247991
1.92499,-0.164015,0.0112286
1.92341,-0.25903,-0.209053
1.88778,-0.445209,-0.181055
1.92587,-0.259361,-0.135886
1.91624,-0.163269,0.0559702
1.88774,-0.348851,0.0335086
1.94495,-0.165715,-0.125101
1.92452,-0.259179,-0.0904565
1.93538,-0.164899,-0.079135
1.93212,-0.171417,-0.0338577
1.88993,-0.356082,-0.0559702
1.90984,-0.263993,0
1.93021,-0.266808,-0.303151
1.9068,-0.359259,-0.246981
1.91644,-0.170026,0.0111821
1.88677,-0.355486,-0.0111589
1.92249,-0.265742,-0.209053
1.88621,-0.451795,-0.181055
1.91705,-0.264989,-0.135328
1.90405,-0.358742,-0.158173
1.91566,-0.169957,0.0559702
1.88652,-0.355438,0.0335086
1.93641,-0.171798,-0.124589
1.91965,-0.265348,-0.0902704
1.93081,-0.171301,-0.0789721
1.92357,-0.17709,-0.033718
1.88482,-0.361594,-0.0558538
1.90103,-0.269203,0
1.92931,-0.273208,-0.303151
1.90949,-0.366328,-0.247486
1.91985,-0.176747,0.0112054
1.88558,-0.361741,-0.0111589
1.91373,-0.271001,-0.208197
1.88471,-0.458048,-0.181055
1.92011,-0.271904,-0.135607
1.90285,-0.365054,-0.158173
1.91509,-0.176309,0.0559702
1.88533,-0.361692,0.0335086
1.93583,-0.178218,-0.124589
1.89386,-0.268188,0.111394
1.91876,-0.271713,-0.0902704
1.89872,-0.364262,-0.101322
1.93023,-0.177703,-0.0789721
1.92689,-0.18452,-0.0337879
1.87955,-0.367732,-0.0557375
1.90003,-0.276169,0
1.93221,-0.280846,-0.303765
1.91203,-0.374086,-0.247991
1.91521,-0.183401,0.0111821
1.88424,-0.368649,-0.0111589
1.92059,-0.279157,-0.209053
1.88301,-0.464953,-0.181055
1.92305,-0.279514,-0.135886
1.91045,-0.182946,0.0558538
1.93516,-0.185312,-0.124589
1.88892,-0.274553,0.111162
1.90588,-0.277019,-0.089712
1.93752,-0.185538,-0.0792978
1.92225,-0.19085,-0.033718
1.87434,-0.373509,-0.0556211
1.8951,-0.282211,0
1.92731,-0.287006,-0.303151
1.91071,-0.380758,-0.247991
1.91853,-0.190481,0.0112054
1.8751,-0.373661,-0.0111124
1.91174,-0.284688,-0.208197
1.87752,-0.470555,-0.180683
1.9025,-0.283312,0.0447583
1.91417,-0.28505,-0.135328
1.91776,-0.190403,0.0560866
1.93847,-0.19246,-0.124845
1.8919,-0.281733,0.111394
1.91281,-0.284848,-0.0900843
1.89607,-0.377839,-0.101322
1.92891,-0.191511,-0.0789721
1.92556,-0.197968,-0.0337879
1.87694,-0.380845,-0.0557375
1.89411,-0.288824,0
1.92582,-0.197995,0.0112519
1.88162,-0.381795,-0.0111589
1.91466,-0.291959,-0.208625
1.9171,-0.292331,-0.135607
1.89495,-0.384499,-0.157847
1.9131,-0.196687,0.0559702
1.87745,-0.380948,0.0334388
1.93779,-0.199226,-0.124845
1.8909,-0.288335,0.111394
1.91575,-0.292125,-0.0902704
1.89082,-0.383661,-0.101113
1.92823,-0.198243,-0.0789721
1.91693,-0.203508,-0.0336482
1.8835,-0.388683,-0.0559702
1.88919,-0.294487,0
1.92531,-0.300118,-0.303151
1.9003,-0.392151,-0.246981
1.90924,-0.202691,0.0111589
1.88427,-0.388841,-0.0111821
1.91369,-0.298307,-0.208625
1.91218,-0.298072,-0.135328
1.89367,-0.390781,-0.157847
1.91244,-0.20303,0.0559702
1.93315,-0.205229,-0.124589
1.88994,-0.294604,0.111394
1.91083,-0.297861,-0.0900843
1.89345,-0.390736,-0.101322
1.92756,-0.204636,-0.0789721
1.92019,-0.210634,-0.033718
1.87431,-0.393612,-0.0557375
1.8921,-0.30171,0
1.92035,-0.306215,-0.302536
1.89892,-0.398782,-0.246981
1.90852,-0.209354,0.0111589
1.87115,-0.39295,-0.0111124
1.90871,-0.304359,-0.208197
1.89229,-0.397389,-0.157847
1.90774,-0.209269,0.0558538
1.92845,-0.211541,-0.124333
1.90188,-0.303271,-0.089712
1.88817,-0.396522,-0.101113
1.93081,-0.211799,-0.079135
1.91146,-0.216769,-0.0335784
1.89098,-0.308643,0
1.89357,-0.404909,-0.246476
1.87752,-0.401478,-0.0111589
1.90758,-0.311352,-0.208197
1.86691,-0.495701,-0.180312
1.89441,-0.309204,0.0446652
1.91394,-0.31239,-0.135607
1.89472,-0.405155,-0.158173
1.90299,-0.215809,0.0557375
1.92766,-0.218607,-0.124333
1.90076,-0.310239,-0.089712
1.8867,-0.40344,-0.101113
1.92208,-0.217973,-0.0788093
1.91867,-0.224034,-0.033718
1.88994,-0.314912,0
1.91816,-0.319614,-0.302536
1.89222,-0.411186,-0.246476
1.90304,-0.222209,0.0111356
1.87618,-0.407702,-0.0111589
1.90261,-0.317023,-0.207768
1.86911,-0.502924,-0.180683
1.90108,-0.316768,-0.134769
1.89337,-0.411436,-0.158173
1.90624,-0.222582,0.0558538
1.93486,-0.225924,-0.124845
1.89578,-0.315884,-0.0895259
1.88145,-0.408846,-0.100904
1.92531,-0.22481,-0.0789721
1.91788,-0.23073,-0.033718
1.87398,-0.41408,-0.0558538
1.89278,-0.322178,0
1.91703,-0.326307,-0.302536
1.90622,-0.229328,0.0111589
1.90541,-0.324329,-0.208197
1.86734,-0.509445,-0.180683
1.89226,-0.322091,0.0446652
1.9039,-0.324072,-0.135049
1.88803,-0.417183,-0.157847
1.93009,-0.2322,-0.124589
1.8986,-0.32317,-0.089712
1.88391,-0.416273,-0.101113
1.92055,-0.231051,-0.0788093
1.91706,-0.237423,-0.033718
1.86863,-0.419743,-0.0557375
1.8877,-0.328098,0
1.91199,-0.33232,-0.301921
1.8893,-0.424386,-0.246476
1.90541,-0.235981,0.0111589
1.87329,-0.42079,-0.0111589
1.90427,-0.330979,-0.208197
1.86939,-0.517022,-0.181055
1.90669,-0.331399,-0.135328
1.88656,-0.423771,-0.157847
1.8967,-0.234902,0.0556211
1.91739,-0.237464,-0.123822
1.89746,-0.329796,-0.089712
1.88245,-0.422847,-0.101113
1.91576,-0.237263,-0.0786465
1.90828,-0.243103,-0.0335784
1.87495,-0.428043,-0.0559702
1.88654,-0.334686,0
1.91082,-0.338992,-0.301921
1.89167,-0.431862,-0.246981
1.90061,-0.242125,0.0111356
1.86011,-0.424656,-0.0110891
1.89919,-0.336929,-0.207768
1.86757,-0.523544,-0.181055
1.89766,-0.336659,-0.134769
1.88507,-0.430353,-0.157847
1.89587,-0.241521,0.0556211
1.92051,-0.24466,-0.124078
1.90024,-0.337115,-0.0898981
1.92285,-0.244959,-0.0789721
1.91139,-0.250282,-0.0336482
1.88143,-0.340556,0
1.90962,-0.34566,-0.301921
1.89016,-0.438462,-0.246981
1.90372,-0.249277,0.0111589
1.90191,-0.344265,-0.208197
1.8619,-0.528972,-0.180683
1.88485,-0.341177,0.0445722
1.9004,-0.343991,-0.135049
1.88744,-0.437832,-0.158173
1.89501,-0.248138,0.0556211
1.91568,-0.250844,-0.123822
1.89118,-0.342323,-0.0895259
1.91802,-0.25115,-0.0788093
1.89666,-0.343313,-0.0448513
1.90258,-0.255886,-0.0335086
1.86024,-0.43837,-0.0556211
1.88416,-0.347848,0
1.89248,-0.445967,-0.247486
1.89887,-0.255388,0.0111356
1.86387,-0.536569,-0.181055
1.88365,-0.347754,0.0445722
1.89527,-0.349898,-0.134769
1.88202,-0.443503,-0.157847
1.89414,-0.254751,0.0556211
1.92271,-0.258594,-0.124333
1.88605,-0.348197,-0.0893398
1.87014,-0.440704,-0.100694
1.90921,-0.256778,-0.0784836
1.89545,-0.349932,-0.0448513
1.90568,-0.26274,-0.0335784
1.87513,-0.352616,0
1.90334,-0.35792,-0.301306
1.90198,-0.262229,0.0111589
1.89562,-0.356468,-0.207768
1.85443,-0.540518,-0.180312
1.88249,-0.353998,0.0445722
1.89802,-0.356919,-0.135049
1.88054,-0.449742,-0.157847
1.89328,-0.261031,0.0556211
1.92184,-0.264968,-0.124333
1.89274,-0.355926,-0.089712
1.91231,-0.263654,-0.0786465
1.90866,-0.270284,-0.0336482
1.85713,-0.451346,-0.0556211
1.88169,-0.360993,0
1.90202,-0.364894,-0.301306
1.88546,-0.458231,-0.246981
1.89308,-0.268077,0.0111124
1.8943,-0.363413,-0.207768
1.8851,-0.361649,0.0446652
1.8967,-0.363873,-0.135049
1.87888,-0.456631,-0.157847
1.89231,-0.267968,0.0556211
1.91295,-0.270891,-0.123822
1.90737,-0.270101,-0.0784836
1.90375,-0.27637,-0.0335784
1.85554,-0.457826,-0.0556211
1.87649,-0.366792,0
1.90073,-0.371531,-0.301306
1.8877,-0.465761,-0.247486
1.89213,-0.274684,0.0111124
1.89302,-0.370023,-0.207768
1.87991,-0.36746,0.0445722
1.88758,-0.36896,-0.13449
1.88114,-0.464142,-0.158173
1.89136,-0.274572,0.0556211
1.91594,-0.27814,-0.124078
1.89406,-0.370227,-0.0898981
1.87318,-0.462177,-0.101113
1.90246,-0.276183,-0.0783208
1.89168,-0.369761,-0.0448513
1.89887,-0.282094,-0.0335086
1.87134,-0.372232,0
1.89949,-0.377832,-0.301306
1.87845,-0.470091,-0.246476
1.89121,-0.280957,0.0111124
1.89958,-0.37785,-0.208625
1.89418,-0.376775,-0.135049
1.87572,-0.469409,-0.157847
1.89044,-0.280842,0.0556211
1.90711,-0.283319,-0.123566
1.88499,-0.374947,-0.0895259
1.90549,-0.283078,-0.0784836
1.88652,-0.375252,-0.0447583
1.89787,-0.28872,-0.0335086
1.86611,-0.377968,0
1.90591,-0.386029,-0.302536
1.8768,-0.476645,-0.246476
1.89435,-0.383689,-0.208197
1.88112,-0.381008,-0.134211
1.87794,-0.476935,-0.158173
1.91006,-0.290575,-0.123822
1.88367,-0.381525,-0.0895259
1.86999,-0.474916,-0.101113
1.90449,-0.289727,-0.0784836
1.8852,-0.381835,-0.0447583
1.8929,-0.294728,-0.0334388
1.87896,-0.484184,-0.246981
1.89711,-0.295383,0.0111589
1.893,-0.390299,-0.208197
1.88759,-0.389184,-0.134769
1.86854,-0.481498,-0.157522
1.90903,-0.29724,-0.123822
1.88232,-0.388098,-0.0895259
1.86445,-0.480444,-0.100904
1.89557,-0.295144,-0.078158
1.88777,-0.389221,-0.0448513
1.89186,-0.301334,-0.0334388
1.86342,-0.390987,0
1.8993,-0.398514,-0.301921
1.88817,-0.300746,0.0111124
1.88774,-0.396088,-0.207768
1.88622,-0.39577,-0.134769
1.87071,-0.489026,-0.157847
1.8795,-0.299365,0.0553884
1.9001,-0.302646,-0.12331
1.88096,-0.394666,-0.0895259
1.86663,-0.48796,-0.101113
1.89847,-0.302387,-0.0783208
1.8908,-0.307936,-0.0334388
1.86205,-0.397489,0
1.88316,-0.306692,0.0110891
1.88634,-0.402675,-0.207768
1.86513,-0.494531,-0.157522
1.87845,-0.305924,0.0553884
1.90691,-0.31056,-0.123822
1.87957,-0.401229,-0.0895259
1.86105,-0.493449,-0.100904
1.89741,-0.309012,-0.0783208
1.87328,-0.399886,-0.0445722
1.88971,-0.314534,-0.0334388
1.86065,-0.403986,0
1.89261,-0.410925,-0.301306
1.88492,-0.409257,-0.207768
1.88731,-0.409775,-0.135049
1.86725,-0.502074,-0.157847
1.90188,-0.31656,-0.123566
1.87425,-0.40694,-0.0893398
1.86317,-0.500979,-0.101113
1.89632,-0.315634,-0.0783208
1.87578,-0.407271,-0.0446652
1.8886,-0.321128,-0.0334388
1.89502,-0.418381,-0.301921
1.88097,-0.319831,0.0110891
1.88348,-0.415834,-0.207768
1.88587,-0.416361,-0.135049
1.86548,-0.508589,-0.157847
1.90076,-0.323196,-0.123566
1.87282,-0.41348,-0.0893398
1.86141,-0.50748,-0.101113
1.89126,-0.321581,-0.078158
1.87434,-0.413816,-0.0446652
1.89141,-0.328403,-0.0335086
1.88969,-0.424128,-0.301306
1.87984,-0.326395,0.0110891
1.87662,-0.421194,-0.13449
1.85601,-0.512973,-0.157196
1.90749,-0.331195,-0.124078
1.87136,-0.420015,-0.0893398
1.85578,-0.51291,-0.100904
1.89013,-0.328181,-0.078158
1.87679,-0.421232,-0.0447583
1.89025,-0.335003,-0.0335086
1.87869,-0.332955,0.0110891
1.88441,-0.429858,-0.208197
1.88681,-0.430404,-0.135328
1.85805,-0.520524,-0.157522
1.89453,-0.335762,-0.12331
1.87768,-0.428322,-0.089712
1.88897,-0.334777,-0.078158
1.87141,-0.426891,-0.0446652
1.88519,-0.340559,-0.0334388
1.88151,-0.339894,0.0111124
1.87523,-0.43431,-0.20734
1.87371,-0.433957,-0.13449
1.86015,-0.527771,-0.157847
1.87288,-0.338334,0.0553884
1.89341,-0.342042,-0.12331
1.86846,-0.432743,-0.0893398
1.89178,-0.341749,-0.0783208
1.87388,-0.433997,-0.0447583
1.88012,-0.346085,-0.033369
1.87251,-0.344683,0.0110659
1.87378,-0.440526,-0.20734
1.87226,-0.440168,-0.13449
1.86222,-0.535038,-0.158173
1.89619,-0.349042,-0.123566
1.86313,-0.438022,-0.0891536
1.88671,-0.347297,-0.078158
1.87243,-0.440209,-0.0447583
1.89063,-0.355188,-0.0335784
1.87516,-0.352282,0.0110891
1.87602,-0.448315,-0.207768
1.87451,-0.447955,-0.134769
1.85642,-0.540744,-0.157847
1.87047,-0.351401,0.0553884
1.89097,-0.355252,-0.12331
1.86928,-0.446705,-0.0895259
1.88935,-0.354948,-0.0783208
1.86691,-0.446139,-0.0446652
1.87766,-0.359202,-0.033369
1.87399,-0.358499,0.0110891
1.87302,-0.454169,-0.134769
1.85079,-0.54577,-0.157522
1.8937,-0.362271,-0.123566
1.86391,-0.45196,-0.0893398
1.88424,-0.360461,-0.078158
1.86542,-0.452328,-0.0446652
1.88032,-0.366519,-0.0334388
1.87292,-0.461074,-0.207768
1.87142,-0.460704,-0.134769
1.84887,-0.552227,-0.157522
1.86232,-0.458463,-0.0893398
1.87905,-0.366271,-0.0779952
1.87896,-0.373408,-0.0334388
1.86745,-0.37112,0.0110659
1.87122,-0.467936,-0.207768
1.86972,-0.46756,-0.134769
1.84684,-0.559,-0.157522
1.88715,-0.375035,-0.12331
1.86838,-0.467225,-0.089712
1.88553,-0.374714,-0.0783208
1.86987,-0.378052,-0.0332992
1.8658,-0.473161,-0.20734
1.87203,-0.474738,-0.135049
1.88589,-0.381291,-0.12331
1.85907,-0.471453,-0.0893398
1.8882,-0.381756,-0.0784836
1.86854,-0.384577,-0.0332992
1.8688,-0.384629,0.0110891
1.86414,-0.479671,-0.20734
1.86649,-0.480276,-0.134769
1.88455,-0.387871,-0.12331
1.85355,-0.476944,-0.0891536
1.87902,-0.386734,-0.078158
1.87495,-0.393064,-0.0334388
1.86346,-0.390655,0.0110659
1.86622,-0.487505,-0.207768
1.857,-0.485097,-0.134211
1.88312,-0.394776,-0.12331
1.85179,-0.483735,-0.0891536
1.87371,-0.398952,-0.0334388
1.86083,-0.492348,-0.20734
1.86318,-0.492969,-0.134769
1.87796,-0.399859,-0.123054
1.85412,-0.490572,-0.0893398
1.87244,-0.398682,-0.0779952
1.86825,-0.405296,-0.033369
1.85893,-0.49949,-0.20734
1.86898,-0.502191,-0.135328
1.88032,-0.407913,-0.12331
1.85608,-0.498724,-0.0895259
1.8748,-0.406716,-0.078158
1.86306,-0.410303,-0.0332992
1.86119,-0.506371,-0.207768
1.85969,-0.505965,-0.134769
1.88292,-0.414677,-0.123566
1.87351,-0.412604,-0.078158
1.86552,-0.417678,-0.033369
1.87091,-0.516037,-0.209053
1.85407,-0.511392,-0.13449
1.88536,-0.422119,-0.123822
1.87206,-0.419141,-0.078158
1.86398,-0.424512,-0.033369
1.84834,-0.517109,-0.134211
1.8838,-0.429026,-0.123822
1.86662,-0.425112,-0.0779952
1.86249,-0.431016,-0.033369
1.85036,-0.524646,-0.13449
1.87062,-0.432899,-0.123054
1.86901,-0.432527,-0.078158
1.85236,-0.532204,-0.134769
1.8691,-0.439426,-0.123054
1.8636,-0.438134,-0.0779952
1.84675,-0.537229,-0.13449
1.87152,-0.446548,-0.12331
1.86214,-0.444311,-0.0779952
1.84486,-0.543672,-0.13449
1.87383,-0.454019,-0.123566
1.86446,-0.451749,-0.078158
1.86827,-0.459929,-0.12331
1.85891,-0.457625,-0.0779952
1.86278,-0.46548,-0.123054
1.8573,-0.464111,-0.0779952
1.86502,-0.472961,-0.12331
1.8518,-0.469609,-0.0778323
1.85966,-0.477824,-0.123054
1.85805,-0.477413,-0.078158
1.85798,-0.484313,-0.123054
1.86024,-0.484904,-0.0783208
1.86391,-0.493162,-0.123566
1.85446,-0.497596,-0.123054
1.8528,-0.503743,-0.123054
1.85103,-0.510207,-0.123054
1.85684,-0.519138,-0.123566
1.85118,-0.524528,-0.12331
1.8455,-0.529885,-0.123054
