2.29087,0.366938,-0.135115
2.14114,0.561719,-0.103113
2.21622,0.46703,-0.118698
2.2958,0.359924,-0.0270539
2.22076,0.460302,-0.0131814
2.29185,0.359305,0.0270073
2.22124,0.460402,-0.185186
2.29602,0.359958,-0.135348
2.14299,0.554616,-0.103113
2.22166,0.46049,-0.118907
2.30489,0.353521,-0.027147
2.29698,0.352308,0.0270539
2.23057,0.454625,-0.185836
2.14869,0.548494,-0.103299
2.22709,0.453917,-0.119117
2.31408,0.346255,-0.0272401
2.23569,0.447141,-0.0132512
2.30221,0.344479,0.0271004
2.14778,0.539883,-0.154859
2.23613,0.447229,-0.186162
2.31822,0.346875,-0.13651
2.15456,0.54159,-0.103485
2.23658,0.447319,-0.119535
2.31527,0.338175,-0.0272401
2.23494,0.438883,-0.289912
2.30736,0.337019,0.027147
2.16127,0.53526,-0.155696
2.16032,0.535025,-0.103671
2.24204,0.440278,-0.119745
2.22992,0.430222,-0.0660937
2.3243,0.331626,-0.0273333
2.23638,0.431469,-0.289912
2.24653,0.433428,-0.0132977
2.32034,0.331061,0.0272867
2.15528,0.526198,-0.155138
2.32448,0.331651,-0.136743
2.16596,0.528807,-0.103857
2.3255,0.323105,-0.0273333
2.24185,0.424008,-0.290417
2.32154,0.322554,0.0272867
2.16883,0.521092,-0.155975
2.33359,0.324229,-0.137208
2.17177,0.521798,-0.104044
2.25291,0.4261,-0.120163
2.2408,0.415713,-0.0663264
2.16426,0.512009,0
2.32662,0.314985,-0.0273333
2.25892,0.419074,-0.292437
2.32662,0.314985,0.0273333
2.16675,0.512599,-0.155696
2.34262,0.317152,-0.137673
2.25439,0.418233,-0.120163
2.17365,0.507025,0
2.33552,0.308723,-0.0274264
2.26413,0.412687,-0.292942
2.33552,0.308723,0.0274264
2.17613,0.507602,-0.156255
2.26355,0.412582,-0.120582
2.18728,0.501355,0
2.34859,0.301279,-0.0275661
2.26179,0.403294,-0.292437
2.26819,0.404434,-0.0133907
2.34066,0.300261,0.027473
2.18195,0.500134,-0.156534
2.27248,0.4052,-0.18844
2.1927,0.502598,-0.104788
2.26905,0.404588,-0.120791
2.25685,0.394288,-0.0666755
2.18511,0.492837,0
2.35757,0.294068,-0.0276592
2.271,0.396761,-0.293447
2.26958,0.396514,-0.0133907
2.34963,0.293078,0.0275661
2.18368,0.492514,-0.156534
2.27388,0.397264,-0.18844
2.35374,0.293591,-0.138138
2.27562,0.397567,0.0941152
2.19444,0.49494,-0.104788
2.27438,0.397352,-0.121001
2.12198,0.588875,-0.0897188
2.19463,0.486939,0
2.35858,0.285838,-0.0276592
2.27628,0.389501,-0.293952
2.35064,0.284875,0.0275661
2.19318,0.486618,-0.157092
2.28311,0.39067,-0.189091
2.36664,0.286815,-0.138836
2.28093,0.390296,0.0942781
2.19615,0.487278,-0.104788
2.28363,0.390758,-0.121419
2.19615,0.480042,0
2.36741,0.279363,-0.0277523
2.28141,0.383004,-0.294457
2.284,0.383439,-0.0134604
2.35152,0.277488,0.0275661
2.1908,0.478872,-0.156813
2.3715,0.279846,-0.139069
2.28609,0.38379,0.0944409
2.20938,0.482935,-0.105346
2.28091,0.38292,-0.12121
2.13355,0.576875,-0.0900445
2.27269,0.372575,-0.0670246
2.20971,0.474125,0
2.36449,0.269819,-0.0277058
2.29461,0.376169,-0.295973
2.2894,0.375315,-0.0134836
2.21302,0.474835,0.0526678
2.36449,0.269819,0.0277058
2.20823,0.473807,-0.157929
2.28972,0.375367,-0.189416
2.29419,0.3761,-0.121838
2.13575,0.56868,-0.0900445
2.27792,0.365272,-0.067141
2.21526,0.467233,0
2.3694,0.262003,-0.0277523
2.29591,0.368156,-0.295973
2.2986,0.368587,-0.0135301
2.20641,0.465367,-0.242896
2.21858,0.467932,0.0527608
2.37735,0.262882,0.0278455
2.21768,0.467742,-0.158487
2.29548,0.368089,-0.121838
2.28314,0.366109,0.188766
2.13772,0.561221,-0.0900445
2.28702,0.358956,-0.0673737
2.22072,0.460697,0
2.39014,0.256276,-0.0279852
2.30104,0.361156,-0.296478
2.29585,0.360342,-0.0135069
2.21963,0.460471,-0.244181
2.37423,0.25457,0.0277989
2.22312,0.461195,-0.158766
2.14856,0.556455,-0.142242
2.38626,0.25586,-0.139766
2.28828,0.359153,0.189091
2.14731,0.556132,-0.0903702
2.29221,0.351577,-0.06749
2.23015,0.45454,0
2.31013,0.354325,-0.297488
2.30105,0.352933,-0.0135301
2.22901,0.454309,-0.245038
2.22563,0.453619,0.0528539
2.38306,0.247106,0.027892
2.22863,0.45423,-0.159045
2.15049,0.548952,-0.142242
2.39111,0.247941,-0.139999
2.30313,0.353252,0.0949294
2.23165,0.454846,-0.106091
2.30134,0.352977,0.190067
2.14924,0.548634,-0.0903702
2.15638,0.542846,-0.0388142
2.22772,0.446356,0
2.39979,0.240799,-0.0280783
2.31521,0.34725,-0.297993
2.31012,0.346486,-0.0135766
2.22712,0.446235,0.0528539
2.38785,0.239601,0.0279386
2.22621,0.446052,-0.158766
2.16004,0.543766,-0.142753
2.39986,0.240807,-0.140464
2.30825,0.346205,0.0950922
2.30699,0.346017,-0.122257
2.3025,0.345343,0.190067
2.15492,0.542479,-0.090533
2.15438,0.534353,-0.0387443
2.30642,0.337704,-0.0678391
2.23712,0.440122,0
2.40459,0.232807,-0.0281249
2.31641,0.339167,-0.297993
2.40624,0.232966,-0.225668
2.23651,0.440003,0.05304
2.39663,0.232036,0.0280317
2.23167,0.43905,-0.159045
2.1658,0.537184,-0.143009
2.40864,0.233198,-0.140929
2.31735,0.339304,0.0954179
2.324,0.340278,-0.123094
2.30369,0.337304,0.190067
2.1568,0.534954,-0.090533
2.16021,0.527403,-0.0388142
2.31556,0.330378,-0.0680718
2.24657,0.433435,0
2.41339,0.224734,-0.028218
2.32157,0.331236,-0.298498
2.32838,0.332208,-0.0136696
2.40145,0.223622,0.0280783
2.2411,0.432379,-0.159603
2.16775,0.529243,-0.143009
2.40948,0.224369,-0.140929
2.32253,0.331373,0.0955807
2.31281,0.329985,0.190718
2.15875,0.527046,-0.090533
2.16593,0.520793,-0.038884
2.32066,0.322844,-0.0681882
2.32953,0.324077,-0.0136696
2.25077,0.426101,-0.246752
2.41974,0.216808,-0.226784
2.41416,0.216308,0.028218
2.25043,0.426038,-0.160161
2.17347,0.522606,-0.143265
2.41422,0.216313,-0.141162
2.33159,0.324365,0.0959064
2.31789,0.322459,0.191044
2.17224,0.52231,-0.0910215
2.25139,0.426219,-0.0533191
2.17145,0.514909,-0.0389538
2.25726,0.419989,0
2.42679,0.209756,-0.0283577
2.33944,0.317969,-0.300518
2.33846,0.317835,-0.0137161
2.25601,0.419756,-0.24718
2.42438,0.209548,-0.227155
2.25665,0.419876,0.0534122
2.41483,0.208723,0.028218
2.25961,0.420426,-0.160719
2.17898,0.516697,-0.143521
2.41887,0.209072,-0.141394
2.24559,0.417818,0.133022
2.3326,0.317039,0.0959064
2.32284,0.315713,0.191369
2.17387,0.515483,-0.0910215
2.25665,0.419876,-0.0534122
2.17341,0.506568,-0.0389538
2.33078,0.307682,-0.0684209
2.25886,0.411319,0
2.43156,0.200766,-0.0284042
2.34458,0.309503,-0.301023
2.34363,0.309378,-0.0137394
2.4196,0.199779,0.0282646
2.25335,0.410318,-0.160161
2.18095,0.508327,-0.143521
2.42363,0.200112,-0.141627
2.26289,0.412054,0.133952
2.34173,0.309127,0.096232
2.32799,0.307314,0.191695
2.17583,0.507133,-0.0910215
2.18296,0.500767,-0.0390934
2.33581,0.300053,-0.0685373
2.26815,0.404837,0
2.43623,0.192592,-0.0284508
2.34866,0.301704,-0.0137626
2.42427,0.191646,0.0283111
2.26656,0.404552,-0.160998
2.35278,0.302233,-0.193647
2.35231,0.302173,0.0413971
2.19049,0.502495,-0.144032
2.43228,0.192279,-0.142092
2.26825,0.404854,0.134185
2.34675,0.301459,0.0963948
2.35341,0.302314,-0.12435
2.33696,0.300201,0.192346
2.17759,0.499534,-0.0910215
2.18469,0.493144,-0.0390934
2.34875,0.293385,-0.0688864
2.27349,0.397607,0
2.44088,0.184388,-0.0284974
2.27372,0.397647,-0.359107
2.35849,0.294603,-0.302539
2.19279,0.494972,0.0130652
2.4329,0.183786,0.0284042
2.27189,0.397326,-0.161277
2.35732,0.294456,0.0414669
2.18834,0.493967,-0.143777
2.4409,0.18439,-0.142557
2.33799,0.292042,0.192346
2.18711,0.49369,-0.0913472
2.27682,0.398188,-0.0537844
2.1864,0.485514,-0.0390934
2.35372,0.285666,-0.0690027
2.4455,0.176154,-0.0285439
2.36345,0.286846,-0.303044
2.35865,0.286264,-0.0138091
2.28138,0.390784,-0.249322
2.44151,0.175866,0.0284974
2.27719,0.390066,-0.161556
2.19784,0.488056,-0.144288
2.44153,0.175868,-0.142557
2.34296,0.284359,0.192671
2.19663,0.487785,-0.0916728
2.28214,0.390913,-0.0538774
2.19964,0.481208,-0.0393028
2.28397,0.383846,0
2.45003,0.168746,-0.0285905
2.28021,0.383213,-0.359722
2.36434,0.27942,-0.303044
2.20384,0.482128,0.0131117
2.36748,0.279792,-0.0138556
2.45548,0.169121,-0.229758
2.28335,0.383742,0.0538774
2.45402,0.16902,0.0286371
2.20327,0.482002,-0.144544
2.44605,0.168472,-0.142789
2.28011,0.383196,0.13465
2.36556,0.279565,0.0970462
2.35176,0.277933,0.193322
2.20205,0.481736,-0.0918356
2.28335,0.383742,-0.0538774
2.20139,0.473142,-0.0393028
2.35561,0.269638,-0.0690027
2.38099,0.272543,-0.479311
2.28931,0.37612,0
2.45462,0.160024,-0.0286371
2.2816,0.374853,-0.359722
2.37717,0.272106,-0.304559
2.21342,0.475728,0.0131582
2.37247,0.271567,-0.0138789
2.29576,0.37718,-0.250607
2.45063,0.159764,0.0285905
2.28373,0.375204,-0.161835
2.21282,0.4756,-0.145056
2.45861,0.160284,-0.143487
2.37054,0.271347,0.097209
2.37719,0.272108,-0.125397
2.35672,0.269765,0.193647
2.2038,0.473662,-0.0918356
2.29264,0.376666,-0.0540635
2.21085,0.467109,-0.0394424
2.29456,0.368761,0
2.45517,0.151455,-0.0286371
2.38599,0.264682,-0.305569
2.30099,0.369796,-0.251036
2.46315,0.151948,0.0287302
2.29685,0.36913,-0.162672
2.21025,0.466982,0.0657446
2.46712,0.152193,-0.143952
2.3821,0.264249,-0.125606
2.20935,0.466793,-0.0919985
2.21239,0.459774,-0.0394424
2.36932,0.25488,-0.0693518
2.39059,0.257169,-0.48088
2.29972,0.361771,0
2.46763,0.144011,-0.0287768
2.38686,0.256767,-0.305569
2.22443,0.462278,0.0132047
2.46364,0.143778,0.0287302
2.302,0.36213,-0.162951
2.39021,0.257128,-0.196251
2.2157,0.460463,0.065861
2.21992,0.461339,-0.145312
2.4716,0.144243,-0.144185
2.38823,0.256914,0.0978603
2.37039,0.254996,0.194624
2.21089,0.459463,-0.0919985
2.30305,0.362295,-0.0542496
2.21798,0.452462,-0.0395123
2.37819,0.247021,-0.0695846
2.47214,0.135185,-0.0288233
2.39173,0.248428,-0.306074
2.23003,0.454922,0.0132279
2.3911,0.248362,-0.0139718
2.31138,0.35493,-0.251892
2.47613,0.135403,0.0288699
2.30726,0.354297,-0.16323
2.22129,0.453139,0.0659773
2.39475,0.248741,0.0420254
2.22942,0.454796,-0.145823
2.4761,0.135402,-0.144417
2.39313,0.248573,0.0980231
2.38321,0.247542,0.1956
2.22431,0.453754,-0.0924869
2.30436,0.353852,-0.0542496
2.22346,0.445502,-0.0395821
2.48058,0.126963,-0.0289165
2.29833,0.344719,-0.361567
2.40443,0.241265,-0.307589
2.22769,0.446348,0.0132047
2.39593,0.240412,-0.0139951
2.30867,0.346269,-0.251464
2.48458,0.127168,0.028963
2.22678,0.446167,0.0660937
2.23099,0.447011,-0.145823
2.48054,0.126961,-0.14465
2.31415,0.347091,0.136278
2.39796,0.240616,0.098186
2.38009,0.238823,0.195275
2.22885,0.4389,-0.0396519
2.40877,0.233636,-0.484018
2.31921,0.339991,0
2.48499,0.118928,-0.028963
2.40916,0.233674,-0.308094
2.24093,0.441278,0.0132744
2.40467,0.233239,-0.0140416
2.31768,0.339766,-0.252321
2.48499,0.118928,0.028963
2.32146,0.34032,-0.164067
2.23609,0.440326,0.0663264
2.49292,0.119308,-0.145348
2.39874,0.232663,0.098186
2.40142,0.232923,-0.126444
2.38881,0.231699,0.195926
2.23126,0.439375,-0.0926498
2.24215,0.433394,-0.0398613
2.39653,0.224008,-0.07005
2.41738,0.225957,-0.485586
2.32434,0.33246,0
2.48938,0.110431,-0.0290096
2.24638,0.434212,0.0132977
2.40946,0.225216,-0.0140648
2.32672,0.3328,-0.253177
2.48938,0.110431,0.0290096
2.23369,0.431759,0.0662101
2.24574,0.434088,-0.146591
2.5013,0.11096,-0.145813
2.41148,0.225405,0.0986745
2.3896,0.22336,0.195926
2.23671,0.432343,-0.0928126
2.25158,0.426662,-0.0400009
2.40132,0.21558,-0.0701664
2.32951,0.32449,0
2.50176,0.101793,-0.0291493
2.42263,0.217493,-0.30961
2.24796,0.425975,0.0132977
2.41823,0.217098,-0.0141113
2.33187,0.324818,-0.253606
2.48977,0.101306,0.0290096
2.33569,0.325351,-0.164904
2.23919,0.424314,0.0663264
2.24731,0.425854,-0.146591
2.41894,0.217162,-0.127281
2.40629,0.216026,0.197227
2.24613,0.425629,-0.0931383
2.24519,0.417339,-0.0398613
2.40604,0.207541,-0.0702827
2.51009,0.0933578,-0.0292424
2.42338,0.209036,-0.30961
2.2455,0.417395,0.0132744
2.42296,0.209,-0.0141346
2.33693,0.317212,-0.254034
2.4981,0.0929119,0.0291027
2.33681,0.317196,-0.164904
2.24459,0.417226,0.0664428
2.514,0.0935031,-0.14651
2.33856,0.317433,0.137441
2.41497,0.20831,0.197878
2.25546,0.419248,-0.0934639
2.25057,0.410216,-0.0399311
2.41074,0.19947,-0.0703991
2.34361,0.309791,0
2.5184,0.0848642,-0.0293355
2.43595,0.201556,-0.311125
2.25481,0.410989,0.0133209
2.43165,0.2012,-0.0141811
2.33802,0.309052,-0.254034
2.51041,0.0845947,0.0292424
2.34186,0.309559,-0.165183
2.2539,0.410822,0.0666755
2.26201,0.412301,-0.147358
2.52229,0.0849953,-0.146975
2.42967,0.201037,0.0993258
2.41965,0.200208,0.198204
2.26373,0.404863,-0.0401405
2.43985,0.193735,-0.489509
2.34463,0.302018,0
2.51867,0.0765129,-0.0293355
2.43661,0.193478,-0.311125
2.26404,0.404918,0.0133674
2.43629,0.193452,-0.0142043
2.34298,0.301805,-0.254463
2.26312,0.404753,0.0669082
2.2673,0.405501,-0.147614
2.4383,0.193612,0.0996514
2.43697,0.193507,-0.128118
2.42031,0.192183,0.198204
2.26613,0.405293,-0.0937896
2.26907,0.39765,-0.0402103
2.424,0.183965,-0.0707482
2.44442,0.185514,-0.490293
2.34964,0.29433,0
2.52692,0.0679362,-0.0294287
2.44914,0.185872,-0.31264
2.26544,0.397013,0.0133674
2.44094,0.18525,-0.0142276
2.35191,0.294614,-0.255319
2.35694,0.295244,0.0552732
2.51892,0.0677212,0.0293355
2.34787,0.294109,-0.165462
2.44481,0.185544,-0.200157
2.26845,0.397542,0.0670246
2.44294,0.185402,0.0998143
2.35899,0.295501,-0.110744
2.42494,0.184036,0.198529
2.26753,0.397381,-0.0937896
2.27833,0.391079,-0.04035
2.4326,0.176079,-0.0709809
2.45679,0.177829,-0.492647
2.35859,0.287092,0
2.53114,0.059208,-0.0294752
2.44582,0.177035,-0.312135
2.26287,0.388425,0.0133442
2.35292,0.286402,-0.255319
2.53114,0.059208,0.0294752
2.36077,0.287357,-0.166299
2.26983,0.38962,0.0670246
2.27401,0.390338,-0.14787
2.36,0.287264,-0.110744
2.45022,0.177354,-0.128746
2.35678,0.286871,0.291512
2.43749,0.176433,0.199506
2.27968,0.383123,-0.04035
2.44118,0.168135,-0.0712136
2.35958,0.278857,0
2.53933,0.0505308,-0.0295684
2.35116,0.277862,-0.368331
2.45434,0.169041,-0.313145
2.26815,0.381187,0.0133674
2.45015,0.168753,-0.0142741
2.35391,0.278187,-0.255319
2.54332,0.0506104,0.0296149
2.36572,0.279583,-0.166578
2.283,0.383682,0.0673737
2.28323,0.38372,-0.148382
2.36893,0.279962,-0.111116
2.44605,0.16847,0.200157
2.45364,0.168993,0.448422
2.28889,0.376462,-0.0404896
2.36451,0.271075,0
2.54748,0.0417984,-0.0296615
2.46283,0.160991,-0.314155
2.27736,0.374566,0.0134139
2.4627,0.160983,-0.0143438
2.36277,0.270875,-0.256176
2.56052,0.0420123,-0.239052
2.55148,0.041864,0.029708
2.37065,0.271778,-0.166857
2.28433,0.375711,0.0673737
2.29243,0.377044,-0.148893
2.4607,0.160852,0.100466
2.36195,0.270781,-0.110744
2.37055,0.271767,0.292974
2.44662,0.159932,0.200157
2.29809,0.36974,-0.0406292
2.47418,0.153061,-0.495785
2.36942,0.263261,0
2.56361,0.0331117,-0.0298477
2.37268,0.263623,-0.371406
2.4713,0.152883,-0.315165
2.27866,0.366613,0.0134139
2.36765,0.263064,-0.256605
2.56464,0.0331249,-0.239424
2.3807,0.264514,0.0557385
2.55161,0.0329567,0.029708
2.37555,0.263941,-0.167137
2.28168,0.367099,0.0672573
2.56744,0.0331611,-0.149534
2.37082,0.263417,-0.111116
2.46789,0.152672,-0.129584
2.37149,0.26349,0.292974
2.45114,0.151636,0.200482
2.4825,0.145314,-0.497353
2.37028,0.255402,0
2.55971,0.0245724,-0.0298012
2.47971,0.145151,-0.316176
2.29567,0.361545,0.0135069
2.47572,0.144917,-0.0144135
2.37246,0.255638,-0.257033
2.57668,0.0247353,-0.240539
2.55971,0.0245724,0.0298012
2.37641,0.256063,-0.167137
2.29078,0.360776,0.06749
2.57552,0.0247241,-0.149999
2.47371,0.144799,0.100954
2.37169,0.255554,-0.111116
2.46838,0.144487,-0.129584
2.37235,0.255625,0.292974
2.45561,0.14374,0.200808
2.29775,0.361873,-0.0947666
2.30846,0.355307,-0.0407688
2.37911,0.247957,0
2.57178,0.015711,-0.0299409
2.48417,0.136713,-0.316681
2.29296,0.352921,0.0134836
2.4842,0.136714,-0.01446
2.3773,0.247767,-0.257461
2.58471,0.01579,-0.241283
2.57978,0.0157599,0.030034
2.38522,0.248594,-0.167695
2.29598,0.353386,0.0676064
2.30803,0.355241,-0.149661
2.48218,0.136603,0.10128
2.38449,0.248517,-0.111675
2.48482,0.136749,-0.130421
2.38902,0.248989,0.294924
2.46406,0.135606,0.201458
2.31085,0.355674,-0.095255
2.30178,0.346057,-0.0406292
2.47966,0.127784,-0.0722609
2.37996,0.23965,0
2.58782,0.00677494,-0.0301271
2.38707,0.240365,-0.37325
2.48859,0.128244,-0.317186
2.29418,0.344914,0.0134836
2.47667,0.12763,-0.0144135
2.57982,0.006754,0.030034
2.39005,0.240665,-0.167974
2.30115,0.345963,0.0677228
2.31715,0.348368,-0.150172
2.58761,0.0067744,-0.150696
2.39978,0.241645,0.140464
2.49063,0.128349,0.101605
2.39329,0.240992,-0.112047
2.48928,0.128279,-0.130631
2.38988,0.240648,0.294924
2.47248,0.127414,0.202109
2.47978,0.12779,0.452727
2.3188,0.340342,-0.0409084
2.38875,0.232114,0
2.58782,-0.00225896,-0.0301271
2.38789,0.232031,-0.37325
2.50092,0.120127,-0.318701
2.30328,0.338065,0.0135301
2.49308,0.119751,-0.0145065
2.59671,-0.00226671,-0.242398
2.58782,-0.00225896,0.0301271
2.39882,0.233092,-0.168532
2.31817,0.34025,0.0681882
2.48707,0.119462,0.101443
2.39014,0.232249,-0.111861
2.39861,0.233072,0.295899
2.48486,0.119356,0.203086
2.48807,0.11951,0.454162
2.32393,0.332815,-0.0409782
2.5998,-0.0113427,-0.0302668
2.40049,0.224801,-0.375095
2.32029,0.332293,0.0136231
2.49349,0.111049,-0.0145065
2.60465,-0.0113639,-0.243142
2.5998,-0.0113427,0.0302668
2.39962,0.224719,-0.168532
2.31934,0.332158,0.0681882
2.60356,-0.0113591,-0.151627
2.49545,0.111137,0.101768
2.39889,0.224651,-0.112233
2.50208,0.111432,-0.131259
2.39545,0.224329,0.295411
2.48526,0.110683,0.203086
2.49633,0.111176,0.455597
2.333,0.325806,-0.0411179
2.48885,0.102139,-0.0724936
2.51601,0.103253,-0.503629
2.60374,-0.0204497,-0.0303134
2.51359,0.103154,-0.320216
2.32143,0.324191,0.0136231
2.50585,0.102836,-0.0145763
2.60858,-0.0204877,-0.243513
2.60374,-0.0204497,0.0303134
2.40039,0.216341,-0.168532
2.32049,0.324059,0.0681882
2.50951,0.102986,0.0438404
2.33253,0.325741,-0.15094
2.61149,-0.0205106,-0.152092
2.50381,0.102753,0.102094
2.39966,0.216275,-0.112233
2.40413,0.216678,0.296386
2.48962,0.10217,0.203411
2.50457,0.102784,0.457032
2.33809,0.318201,-0.0411877
2.50517,0.0940507,-0.0729591
2.60766,-0.0295832,-0.0303599
2.41382,0.20906,-0.37694
2.51393,0.0943795,-0.320216
2.31859,0.315547,0.0135999
2.51019,0.094239,-0.0145995
2.61646,-0.029683,-0.244257
2.61565,-0.0296739,0.0304531
2.4051,0.208305,-0.168811
2.32953,0.317036,0.0684209
2.51385,0.0943763,0.0439103
2.33761,0.318136,-0.151196
2.61939,-0.0297164,-0.152557
2.50815,0.0941624,0.102257
2.41234,0.208933,-0.112791
2.51877,0.094561,-0.132096
2.41278,0.20897,0.297361
2.49394,0.093629,0.203737
2.34047,0.318524,-0.096232
2.34315,0.310562,-0.0412575
2.50948,0.0854408,-0.0730754
2.61953,-0.0388641,-0.0304996
2.41847,0.20096,-0.377555
2.52218,0.085873,-0.321226
2.33157,0.309027,0.0136696
2.5145,0.0856117,-0.0146228
2.62828,-0.0389939,-0.245372
2.62353,-0.0389235,0.0305462
2.41774,0.200899,-0.169648
2.33855,0.309953,0.0686537
2.52215,0.0858722,0.0440499
2.34266,0.310498,-0.151451
2.61927,-0.0388603,-0.152557
2.42751,0.201711,0.141859
2.51246,0.0855421,0.10242
2.42102,0.201172,-0.113164
2.42141,0.201204,0.298336
2.50222,0.0851936,0.204388
2.34553,0.310877,-0.0963948
2.51702,0.0856975,0.459184
2.34818,0.302892,-0.0413273
2.52176,0.0770462,-0.0734245
2.42035,0.192611,0
2.62338,-0.0480817,-0.0305462
2.42704,0.193143,-0.378784
2.53436,0.0774313,-0.322742
2.34454,0.302421,0.0137394
2.51878,0.0769554,-0.014646
2.41832,0.192449,-0.261317
2.62813,-0.0481688,-0.245372
2.43165,0.19351,0.0567621
2.63138,-0.0482283,0.0306393
2.42639,0.193091,-0.170206
2.34755,0.30281,0.0688864
2.52644,0.0771892,0.0441197
2.6311,-0.0482232,-0.153254
2.43616,0.193869,0.142324
2.51274,0.0767708,0.10242
2.41773,0.192402,-0.112978
2.43001,0.19338,0.299311
2.51446,0.0768233,0.205364
2.35314,0.295604,-0.0413971
2.518,0.0685762,-0.0733081
2.63121,-0.0569523,-0.0306393
2.42767,0.185095,-0.378784
2.34949,0.295145,0.0137626
2.6399,-0.0571405,-0.246488
2.44026,0.186055,0.0569482
2.6352,-0.0570388,0.0306859
2.35251,0.295524,0.0690027
2.53867,0.0691392,0.0443291
2.63492,-0.0570326,-0.153487
2.43679,0.185791,0.142324
2.53296,0.0689836,0.103234
2.43429,0.1856,-0.113722
2.4346,0.185624,0.299799
2.52267,0.0687034,0.206015
2.53328,0.0689924,0.462054
2.3621,0.288356,-0.0415367
2.53421,0.0601652,-0.0737736
2.54879,0.0605114,-0.509905
2.63499,-0.0662378,-0.0306859
2.43224,0.176906,-0.379399
2.35845,0.287911,0.0138091
2.54324,0.0603796,-0.0147855
2.43941,0.177427,-0.263459
2.64367,-0.0664559,-0.246859
2.44488,0.177825,0.0570412
2.63899,-0.0663383,0.0307325
2.43162,0.176861,-0.170485
2.35749,0.287794,0.0691191
2.64668,-0.0665316,-0.154185
2.44539,0.177862,0.142789
2.53718,0.0602357,0.103397
2.44688,0.177971,-0.11428
2.44315,0.1777,0.300774
2.52289,0.0598965,0.206015
2.5384,0.0518421,-0.07389
2.43814,0.169208,0
2.64675,-0.0753174,-0.0308256
2.4407,0.169386,-0.380629
2.35939,0.280088,0.0138091
2.55142,0.0521082,-0.014832
2.44792,0.169887,-0.264316
2.65538,-0.0755629,-0.247975
2.44944,0.169993,0.0571343
2.65075,-0.0754312,0.0308722
2.44812,0.169901,-0.171601
2.35843,0.279974,0.0691191
2.54308,0.0519378,0.0443989
2.37046,0.281401,-0.152986
2.65043,-0.0754222,-0.154417
2.44596,0.169751,0.142789
2.54935,0.0520659,0.103885
2.45543,0.170408,-0.114653
2.45165,0.170146,0.301749
2.53105,0.0516921,0.206666
2.36938,0.281274,-0.097209
2.36803,0.272316,-0.0416065
2.55056,0.0427396,-0.074239
2.44672,0.160796,0
2.65045,-0.0851455,-0.0308722
2.44919,0.160958,-0.381859
2.55899,0.0428808,-0.325772
2.36438,0.271896,0.0138324
2.5556,0.042824,-0.0148553
2.45249,0.161175,-0.264744
2.66304,-0.08555,-0.248718
2.45404,0.161277,0.0572273
2.65845,-0.0854024,0.0309653
2.45271,0.161189,-0.17188
2.36739,0.272242,0.0693518
2.55525,0.0428182,0.0446084
2.37544,0.273168,-0.153242
2.65014,-0.0851355,-0.154417
2.44657,0.160786,0.142789
2.54953,0.0427222,0.103885
2.45622,0.16142,0.302236
2.5392,0.0425491,0.207317
2.5496,0.0427235,0.464924
2.46202,0.161801,-0.0574134
2.37692,0.264934,-0.0417462
2.5507,0.0338355,-0.074239
2.57282,0.034129,-0.514612
2.45126,0.152502,0
2.65813,-0.0946823,-0.0309653
2.45368,0.152653,-0.382474
2.56706,0.0340526,-0.326782
2.36929,0.264083,0.0138556
2.56373,0.0340085,-0.0149017
2.46098,0.153107,-0.265601
2.67069,-0.0951295,-0.249462
2.45858,0.152957,0.0573204
2.66613,-0.094967,0.0310584
2.46122,0.153122,-0.172438
2.38025,0.265305,0.0697009
2.66579,-0.094955,-0.155347
2.45907,0.152988,0.143487
2.54966,0.0338218,0.103885
2.45658,0.152833,-0.114653
2.46469,0.153338,0.303211
2.54331,0.0337376,0.207642
2.37928,0.265197,-0.0975347
2.55761,0.0339272,0.466359
2.47055,0.153702,-0.0575995
2.38573,0.25791,-0.0418858
2.56279,0.0254968,-0.0745881
2.57684,0.0256366,-0.515396
2.45974,0.144843,0
2.6618,-0.103652,-0.0310118
2.46996,0.145445,-0.384934
2.3781,0.257085,0.0139021
2.46941,0.145413,-0.266457
2.46307,0.145039,0.0574134
2.67379,-0.104118,0.0311515
2.45773,0.144725,-0.172159
2.38111,0.257411,0.0697009
2.57148,0.0255833,0.0448876
2.38915,0.258279,-0.15401
2.66546,-0.103794,-0.155347
2.46355,0.145068,0.14372
2.56574,0.0255262,0.104536
2.47303,0.145626,-0.115397
2.46915,0.145397,0.303698
2.55537,0.025423,0.208619
2.38412,0.257736,-0.0976975
2.47504,0.145744,-0.0576926
2.38666,0.249165,-0.0418858
2.57086,0.0161543,-0.0748209
2.47224,0.136489,0
2.6654,-0.113577,-0.0310584
2.47047,0.136392,-0.384934
2.38699,0.249199,0.0139486
2.57991,0.0162112,-0.0149947
2.4739,0.136581,-0.266886
2.46757,0.136232,0.0575065
2.68138,-0.114258,0.0312447
2.4702,0.136377,-0.172996
2.58335,0.0162328,-0.210897
2.38602,0.249097,0.0698173
2.57956,0.016209,0.0450272
2.39405,0.249936,-0.154266
2.68102,-0.114242,-0.156278
2.46805,0.136258,0.143952
2.57381,0.0161729,0.104862
2.47754,0.136782,-0.115583
2.47363,0.136566,0.304186
2.55944,0.0160825,0.208944
2.38902,0.249411,-0.0978603
2.48354,0.137113,-0.0578787
2.39548,0.241634,-0.0420254
2.5709,0.00717956,-0.0748209
2.4727,0.127858,0
2.67298,-0.123249,-0.0311515
2.47488,0.127971,-0.385548
2.59108,0.00723592,-0.329813
2.3958,0.241667,0.0139951
2.58795,0.00722716,-0.0150412
2.48231,0.128355,-0.267743
2.48002,0.128236,0.0577856
2.68497,-0.123802,0.0312912
2.4866,0.128577,-0.174112
2.59137,0.00723672,-0.211548
2.39085,0.241168,0.0699336
2.5836,0.00721501,0.045097
2.39888,0.241978,-0.154521
2.68858,-0.123969,-0.156743
2.47649,0.128054,0.144417
2.58185,0.00721013,0.105188
2.47806,0.128135,0.304673
2.56745,0.00716992,0.209595
2.39783,0.241872,-0.098186
2.488,0.128649,-0.0579717
2.39627,0.233689,-0.0420254
2.57891,-0.00135079,-0.0750536
2.49697,0.120811,-0.699818
2.48909,0.12043,0
2.68054,-0.132508,-0.0312447
2.47924,0.119953,-0.386163
2.40057,0.234109,0.0140183
2.58796,-0.00135553,-0.0150412
2.49066,0.120506,-0.268599
2.48442,0.120204,0.0578787
2.69652,-0.133298,0.0314309
2.48701,0.120329,-0.174112
2.40358,0.234402,0.0702827
2.5916,-0.00135744,0.0452366
2.40364,0.234408,-0.154777
2.68816,-0.132884,-0.156743
2.48089,0.120033,0.14465
2.58985,-0.00135652,0.105513
2.49036,0.120492,0.306136
2.57145,-0.00134688,0.20992
2.4026,0.234306,-0.0983488
2.58931,-0.00135624,0.472099
2.48442,0.120204,-0.0578787
2.40109,0.225279,-0.0420952
2.58688,-0.0108359,-0.0752863
2.49355,0.111487,-0.698739
2.49351,0.111485,0
2.69202,-0.142968,-0.0313844
2.48756,0.111219,-0.387393
2.60694,-0.0109199,-0.331833
2.40938,0.226056,0.0140648
2.59993,-0.0108905,-0.015111
2.49903,0.111732,-0.269456
2.71237,-0.144048,-0.253551
2.48484,0.111098,0.0578787
2.69602,-0.14318,0.0314309
2.49939,0.111748,-0.174949
2.41238,0.226338,0.0705155
2.40846,0.22597,-0.155033
2.7036,-0.143582,-0.157673
2.4853,0.111118,0.144882
2.58983,-0.0108482,0.105513
2.4948,0.111543,-0.116328
2.49475,0.111541,0.306623
2.5794,-0.0108045,0.210571
2.4114,0.226246,-0.0986745
2.59716,-0.0108789,0.473534
2.49283,0.111455,-0.0580648
2.40983,0.217616,-0.0422348
2.59083,-0.0198959,-0.0754027
2.50547,0.103259,-0.701974
2.61611,-0.0200901,-0.523241
2.49788,0.102946,0
2.69949,-0.152815,-0.0314775
2.49583,0.102862,-0.388623
2.60388,-0.0199961,-0.0151342
2.50736,0.103336,-0.270313
2.4972,0.102918,0.0581579
2.69949,-0.152815,0.0314775
2.50376,0.103188,-0.175228
2.41321,0.217921,-0.155289
2.70707,-0.153244,-0.157906
2.50163,0.103101,0.145813
2.60576,-0.0200106,0.106165
2.51114,0.103493,-0.117072
2.49513,0.102833,0.306623
2.59529,-0.0199302,0.211873
2.41616,0.218187,-0.0988373
2.60498,-0.0200045,0.474969
2.50519,0.103247,-0.058344
2.41448,0.21039,-0.0423046
2.59875,-0.0281224,-0.0756354
2.52118,0.0959725,-0.706287
2.50618,0.0954017,0
2.699,-0.161296,-0.0314775
2.42278,0.211113,0.0141346
2.6118,-0.0282636,-0.0151807
2.51562,0.0957607,-0.27117
2.50151,0.0952238,0.0582509
2.70699,-0.161773,0.0315706
2.52002,0.0959282,-0.176344
2.42179,0.211028,0.0707482
2.42581,0.211378,-0.156056
2.71854,-0.162463,-0.158603
2.50594,0.0953922,0.146045
2.60968,-0.0282407,0.106327
2.51146,0.0956023,-0.117072
2.51131,0.0955967,0.308573
2.5992,-0.0281273,0.212199
2.41683,0.210595,-0.0988373
2.60884,-0.0282315,0.475686
2.5135,0.0956801,-0.0585301
2.41919,0.202295,-0.0423744
2.60663,-0.0373074,-0.0758681
2.52535,0.087305,-0.707366
2.5145,0.0869298,0
2.50436,0.0865793,-0.389853
2.4235,0.202656,0.0141346
2.61569,-0.0374371,-0.015204
2.52388,0.0872543,-0.272027
2.51382,0.0869063,0.0585301
2.72237,-0.172231,0.0317569
2.52432,0.0872696,-0.176623
2.62699,-0.0375988,-0.214477
2.4265,0.202906,0.0708645
2.62333,-0.0375465,0.0457951
2.42256,0.202577,-0.155801
2.72592,-0.172455,-0.159068
2.51823,0.0870587,0.146743
2.62156,-0.0375211,0.106816
2.52375,0.0872498,-0.117631
2.51559,0.0869677,0.309061
2.60706,-0.0373136,0.212849
2.42153,0.202491,-0.0990001
2.61659,-0.03745,0.477121
2.51781,0.0870445,-0.0586231
2.41995,0.193005,-0.0423744
2.52952,0.0777266,-0.708444
2.52681,0.0776434,0
2.72169,-0.182682,-0.0317569
2.63034,-0.0477486,-0.334863
2.42825,0.193667,0.0141578
2.62752,-0.0476975,-0.0152737
2.52818,0.0776854,-0.272455
2.52612,0.0776224,0.0588092
2.72169,-0.182682,0.0317569
2.52464,0.0775768,-0.176623
2.6348,-0.0478296,-0.215128
2.62317,-0.0476184,0.0457951
2.43128,0.193909,-0.156312
2.73321,-0.183455,-0.159533
2.51455,0.0772668,0.14651
2.62539,-0.0476587,0.106979
2.53206,0.0778047,-0.118003
2.63195,-0.0477779,-0.137958
2.51988,0.0774305,0.309548
2.61088,-0.0473954,0.213175
2.43424,0.194145,-0.0994886
2.62036,-0.0475675,0.477839
2.52213,0.0774996,-0.0587162
2.42459,0.18486,-0.0424443
2.53747,0.0691055,-0.710601
2.53106,0.0689309,0
2.73301,-0.193027,-0.0318966
2.43689,0.185797,0.0142043
2.53638,0.0690758,-0.273312
2.75314,-0.19445,-0.257641
2.52638,0.0688034,0.0588092
2.73301,-0.193027,0.0318966
2.53287,0.0689803,-0.177181
2.43988,0.186026,0.0712136
2.4399,0.186027,-0.156824
2.74848,-0.194121,-0.160464
2.53077,0.068923,0.147441
2.6332,-0.0569964,0.107304
2.53231,0.068965,-0.118003
2.61867,-0.056682,0.213826
2.43092,0.185343,-0.0993258
2.63198,-0.0569702,0.479991
2.42921,0.176685,-0.0425141
2.54155,0.0603388,-0.711679
2.65065,-0.0666322,-0.530301
2.52329,0.0599052,0
2.74428,-0.203454,-0.0320363
2.44151,0.17758,0.0142276
2.53661,0.0602214,-0.273312
2.5386,0.0602687,0.0590884
2.7363,-0.202862,0.0319431
2.53709,0.0602329,-0.17746
2.44451,0.177798,0.07133
2.4485,0.178088,-0.157336
2.75575,-0.204304,-0.160929
2.53898,0.0602778,0.147906
2.64097,-0.0663889,0.10763
2.54452,0.0604094,-0.118561
2.64753,-0.0665537,-0.138795
2.53226,0.0601183,0.311011
2.6344,-0.0662237,0.215128
2.43953,0.177435,-0.0996514
2.6357,-0.0662564,0.480709
2.5426,0.0603636,-0.0591814
2.43773,0.169608,-0.0426537
2.62983,-0.0743767,-0.0765663
2.55328,0.0525919,-0.714914
2.53946,0.0523073,0
2.74363,-0.212074,-0.0320363
2.65749,-0.0751587,-0.338399
2.45403,0.170741,0.0142973
2.6509,-0.0749723,-0.0154132
2.54474,0.052416,-0.274168
2.54277,0.0523755,0.0591814
2.74363,-0.212074,0.0320363
2.54524,0.0524264,-0.178019
2.65411,-0.0750631,-0.216755
2.44505,0.170117,0.07133
2.64654,-0.0748491,0.046214
2.45303,0.170672,-0.157591
2.76704,-0.213884,-0.161626
2.55114,0.0525478,0.148603
2.64874,-0.0749114,0.107956
2.5487,0.0524975,-0.118747
2.6513,-0.0749837,-0.139004
2.54435,0.052408,0.312473
2.63418,-0.0744995,0.215128
2.44805,0.170325,-0.0999771
2.64335,-0.0747589,0.482144
2.45427,0.162152,-0.0429329
2.5573,0.0437449,-0.715992
2.54763,0.0435794,0
2.75085,-0.222294,-0.0321294
2.65721,-0.0844346,-0.338399
2.45461,0.162174,0.0142973
2.66261,-0.0846063,-0.0154829
2.55683,0.0437369,-0.275454
2.55493,0.0437044,0.0594606
2.75483,-0.222616,0.032176
2.55339,0.043678,-0.178577
2.6618,-0.0845804,-0.217406
2.45361,0.162108,0.0715627
2.65825,-0.0844678,0.0464234
2.45361,0.162108,-0.157591
2.77424,-0.224185,-0.162092
2.5553,0.0437106,0.148836
2.66045,-0.0845376,0.108444
2.55286,0.0436689,-0.118934
2.663,-0.0846186,-0.139632
2.55246,0.043662,0.313448
2.64187,-0.0839473,0.215779
2.46458,0.162833,-0.100628
2.65487,-0.0843603,0.484296
2.45086,0.152907,-0.0428631
2.57285,0.0345787,-0.720305
2.55177,0.0342954,0
2.76994,-0.234059,-0.0323622
2.67274,-0.0947354,-0.340419
2.45918,0.153426,0.0143206
2.65829,-0.094223,-0.0154597
2.553,0.0343119,-0.275025
2.76197,-0.233385,0.0322691
2.5655,0.03448,-0.179414
2.45818,0.153363,0.0716791
2.66592,-0.0944936,0.046563
2.77738,-0.234688,-0.162324
2.55544,0.0343447,0.148836
2.66811,-0.0945712,0.10877
2.56499,0.034473,-0.119492
2.66666,-0.0945199,-0.139842
2.56054,0.0344132,0.314423
2.64553,-0.0937709,0.216104
2.46516,0.153799,-0.100628
2.56707,0.0345011,-0.0597397
2.46735,0.145291,-0.0431423
2.56525,0.0255209,-0.718149
2.56787,0.025547,0
2.78106,-0.244779,-0.0325019
2.55711,0.0254399,-0.397847
2.6724,-0.104064,-0.340419
2.46369,0.145076,0.0143438
2.67393,-0.104124,-0.0155527
2.56106,0.0254792,-0.275882
2.78905,-0.245481,-0.261359
2.55918,0.0254605,0.0595536
2.77309,-0.244077,0.0324088
2.5696,0.0255642,-0.179693
2.46668,0.145252,0.0719118
2.67357,-0.10411,0.0467026
2.47064,0.145485,-0.158615
2.78848,-0.245431,-0.163022
2.57152,0.0255833,0.149766
2.67176,-0.10404,0.108933
2.5611,0.0254796,-0.119306
2.56461,0.0255146,0.31491
2.66511,-0.103781,0.217731
2.56718,0.0255401,-0.0597397
2.4758,0.137552,-0.043282
2.6605,-0.112438,-0.0774972
2.58073,0.0171163,-0.722462
2.55994,0.0169784,0
2.7882,-0.254727,-0.032595
2.68393,-0.113429,-0.341934
2.47215,0.137349,0.0143903
2.67756,-0.11316,-0.0155759
2.56908,0.0170391,-0.276739
2.57925,0.0171065,0.0600189
2.77227,-0.253272,0.0324088
2.56967,0.0170429,-0.179693
2.47114,0.137293,0.0720282
2.6812,-0.113313,0.0468423
2.7956,-0.255404,-0.163487
2.67938,-0.113236,0.109258
2.56516,0.0170131,-0.119492
2.67793,-0.113175,-0.14047
2.56071,0.0169835,0.314423
2.66475,-0.112618,0.217731
2.47812,0.137681,-0.101117
2.48026,0.129117,-0.0433518
2.58848,0.00813196,-0.724619
2.57599,0.00809273,0
2.79127,-0.264836,-0.0326416
2.56908,0.00807104,-0.399691
2.69145,-0.123159,-0.342945
2.48459,0.129342,0.01446
2.68515,-0.122871,-0.0156224
2.57708,0.00809616,-0.277596
2.58329,0.00811567,0.060112
2.79924,-0.265592,0.0327347
2.57769,0.00809809,-0.180251
2.69222,-0.123195,-0.22001
2.47161,0.128666,0.0720282
2.68478,-0.122854,0.0469121
2.48752,0.129495,-0.159638
2.68696,-0.122954,0.109584
2.58119,0.00810907,-0.120236
2.6855,-0.122887,-0.140888
2.57267,0.0080823,0.315885
2.66832,-0.122101,0.218057
2.48258,0.129237,-0.10128
2.58729,0.00812823,-0.060205
2.48072,0.120025,-0.0433518
2.59619,-0.00135936,-0.726775
2.58,-0.00135089,0
2.80223,-0.276242,-0.0327813
2.5849,-0.00135345,-0.402151
2.69494,-0.133219,-0.34345
2.48905,0.120428,0.0144833
2.69666,-0.133304,-0.0156922
2.58107,-0.00135145,-0.278024
2.80621,-0.276634,0.0328279
2.58569,-0.00135386,-0.180809
2.48005,0.119993,0.0722609
2.68431,-0.132694,0.0469121
2.81755,-0.277752,-0.164882
2.69447,-0.133196,0.10991
2.58919,-0.0013557,-0.120609
2.70099,-0.133518,-0.141726
2.57665,-0.00134913,0.316373
2.6798,-0.132471,0.219033
2.49501,0.120717,-0.101768
2.4851,0.111978,-0.0434216
2.60388,-0.00999822,-0.728932
2.58398,-0.00992182,0
2.80925,-0.286344,-0.0328744
2.59674,-0.00997082,-0.403996
2.70241,-0.142573,-0.34446
2.48943,0.112174,0.0144833
2.70419,-0.142667,-0.0157387
2.58105,-0.00991057,-0.278024
2.81721,-0.287155,0.0329675
2.59365,-0.00995894,-0.181367
2.48443,0.111948,0.0723772
2.69983,-0.142437,0.0471913
2.50432,0.112844,-0.160661
2.82455,-0.287904,-0.165347
2.59958,-0.0099817,0.151394
2.69801,-0.142341,0.110073
2.59317,-0.0099571,-0.120795
2.70851,-0.142895,-0.142144
2.58854,-0.00993933,0.317835
2.68333,-0.141567,0.219359
2.50338,0.112802,-0.102094
2.60328,-0.00999591,-0.0605772
2.50546,0.104134,-0.0437706
2.60383,-0.0190874,-0.728932
2.59193,-0.0190002,0
2.82017,-0.297407,-0.0330141
2.6046,-0.019093,-0.405226
2.71774,-0.152897,-0.34648
2.4978,0.103815,0.0145298
2.70767,-0.152331,-0.0157619
2.59691,-0.0190367,-0.279738
2.60323,-0.019083,0.0605772
2.82415,-0.297827,0.0330607
2.59759,-0.0190416,-0.181646
2.49679,0.103773,0.0727263
2.70331,-0.152085,0.0472611
2.83147,-0.298599,-0.165813
2.60352,-0.0190851,0.151627
2.70148,-0.151982,0.110235
2.59312,-0.0190089,-0.120795
2.59643,-0.0190332,0.31881
2.69078,-0.15138,0.22001
2.51175,0.104395,-0.10242
2.50982,0.0951014,-0.0438404
2.61529,-0.0287578,-0.732167
2.83099,-0.309044,-0.0331538
2.61241,-0.0287261,-0.406455
2.72508,-0.163332,-0.34749
2.50216,0.0948114,0.014553
2.71508,-0.162732,-0.0158084
2.61273,-0.0287296,-0.281451
2.61114,-0.0287121,0.0607633
2.82701,-0.30861,0.0331072
2.60548,-0.0286499,-0.182204
2.49715,0.0946214,0.0727263
2.71471,-0.16271,0.0474705
2.8383,-0.309842,-0.166278
2.61142,-0.0287152,0.152092
2.7049,-0.162122,0.110398
2.60502,-0.0286448,-0.121353
2.59237,-0.0285058,0.318323
2.70215,-0.161957,0.220986
2.5181,0.0874938,-0.0439801
2.83398,-0.318383,-0.0332004
2.61231,-0.0369331,-0.406455
2.73644,-0.172642,-0.349005
2.50645,0.087089,0.0145763
2.71855,-0.171513,-0.0158317
2.62058,-0.03705,-0.282308
2.61903,-0.0370281,0.0609494
2.84193,-0.319276,0.0332935
2.60937,-0.0368915,-0.182483
2.72616,-0.171993,0.04768
2.84922,-0.320095,-0.166975
2.6193,-0.0370319,0.152557
2.71235,-0.171122,0.110724
2.61291,-0.0369416,-0.121725
2.60021,-0.0367621,0.319298
2.7056,-0.170696,0.221311
2.5264,0.0785124,-0.0441197
2.7168,-0.181402,-0.0792426
2.83677,-0.329228,-0.0332469
2.62401,-0.0467186,-0.4083
2.73974,-0.182934,-0.34951
2.51474,0.0781503,0.0146228
2.72988,-0.182275,-0.0159014
2.62838,-0.0467962,-0.283165
2.62687,-0.0467695,0.0611355
2.84868,-0.330612,0.0333866
2.61719,-0.0465971,-0.183041
2.51772,0.0782428,0.0733081
2.72951,-0.182251,0.0477498
2.62713,-0.0467741,0.153022
2.71968,-0.181595,0.111049
2.61675,-0.0465892,-0.121912
2.61197,-0.0465041,0.32076
2.71689,-0.181408,0.222288
2.53268,0.0787076,-0.103234
2.52665,0.0696932,-0.0441197
2.72413,-0.191445,-0.0794753
2.61541,-0.0556983,0
2.85149,-0.341029,-0.0334332
2.63569,-0.0561303,-0.410145
2.75096,-0.193331,-0.351026
2.523,0.0695923,0.0146693
2.72922,-0.191803,-0.0159014
2.62422,-0.055886,-0.282736
2.63469,-0.056109,0.0613216
2.85546,-0.341503,0.0334798
2.62898,-0.0559874,-0.183878
2.52597,0.0696743,0.0735409
2.73683,-0.192338,0.0478894
2.87064,-0.34332,-0.168371
2.63094,-0.0560292,0.153254
2.73099,-0.191928,0.111538
2.62855,-0.0559783,-0.12247
2.61973,-0.0557903,0.321735
2.7242,-0.19145,0.222939
2.63869,-0.0561941,-0.0614147
2.53888,0.0611621,-0.0443291
2.7354,-0.201835,-0.0798244
2.62719,-0.0651248,0
2.86616,-0.352935,-0.0336195
2.64733,-0.065624,-0.41199
2.53122,0.0609777,0.0147158
2.74449,-0.202506,-0.0159944
2.64389,-0.0655387,-0.284878
2.63848,-0.0654045,0.0614147
2.8741,-0.353913,0.0337126
2.63675,-0.0653617,-0.184436
2.5262,0.0608566,0.0735409
2.74412,-0.202479,0.048029
2.63473,-0.0653115,0.153487
2.73031,-0.201459,0.111538
2.62834,-0.0651533,-0.12247
2.62746,-0.0651313,0.32271
2.54515,0.0613132,-0.103722
2.55106,0.0529917,-0.0445385
2.74668,-0.211828,-0.0801735
2.63096,-0.0739489,0
2.87687,-0.363944,-0.0337591
2.655,-0.0746246,-0.413219
2.54341,0.0528327,0.0147855
2.75577,-0.212529,-0.0160641
2.65161,-0.0745293,-0.285735
2.64224,-0.074266,0.0615077
2.87291,-0.363442,0.0337126
2.6445,-0.0743294,-0.184994
2.54637,0.0528943,0.0741227
2.75938,-0.212808,0.0483083
2.64248,-0.0742726,0.153952
2.75353,-0.212356,0.112515
2.64808,-0.0744302,-0.123401
2.63119,-0.0739555,0.323198
2.73873,-0.211215,0.22424
2.55523,0.0441556,-0.0446084
2.74991,-0.221735,-0.0802899
2.63868,-0.0833849,0
2.87559,-0.373984,-0.0337591
2.66262,-0.0841415,-0.414449
2.55158,0.0440924,0.014832
2.76299,-0.22279,-0.0161106
2.65396,-0.0838676,0.0617869
2.87955,-0.3745,0.0338057
2.64821,-0.083686,-0.185273
2.54254,0.0439364,0.0740063
2.76261,-0.22276,0.0483781
2.64619,-0.0836223,0.154185
2.76074,-0.222609,0.112841
2.63886,-0.0833904,0.324172
2.55937,0.0348444,-0.0446782
2.76501,-0.233157,-0.0807553
2.65435,-0.0936196,0
2.89005,-0.386642,-0.0339454
2.6702,-0.0941786,-0.415679
2.55972,0.0348491,0.0148785
2.77012,-0.233587,-0.0161571
2.67088,-0.0942026,-0.287877
2.65763,-0.0937352,0.06188
2.89402,-0.387173,0.033992
2.65985,-0.0938135,-0.18611
2.55468,0.0347805,0.0743554
2.76178,-0.232884,0.0483781
2.64986,-0.0934613,0.154417
2.76389,-0.233062,0.113003
2.67144,-0.0942224,-0.124517
2.6425,-0.0932017,0.32466
2.66962,-0.0941581,-0.0621591
2.55948,0.0259103,-0.0446782
2.77215,-0.243507,-0.080988
2.662,-0.103194,0
2.90454,-0.398905,-0.0341317
2.67775,-0.103805,-0.416909
2.55983,0.0259138,0.0148785
2.77726,-0.243956,-0.0162036
2.67848,-0.103833,-0.288734
2.66927,-0.103476,0.0621591
2.90057,-0.398361,0.0340851
2.67944,-0.10387,-0.187505
2.56278,0.0259437,0.0745881
2.77688,-0.243923,0.0486573
2.6575,-0.10302,0.154882
2.775,-0.243757,0.113492
2.67509,-0.103702,-0.124703
2.65406,-0.102887,0.326122
2.76413,-0.242802,0.226519
2.66528,-0.103321,-0.0620661
2.56755,0.0170289,-0.0448178
2.77526,-0.253545,-0.0811044
2.67361,-0.112993,0
2.91501,-0.410715,-0.0342714
2.68527,-0.113485,-0.418139
2.5759,0.0170843,0.0149715
2.78834,-0.25474,-0.0162734
2.6649,-0.112624,0.0620661
2.91501,-0.410715,0.0342714
2.68703,-0.11356,-0.188063
2.56686,0.0170243,0.0747045
2.79195,-0.25507,0.0489365
2.6651,-0.112633,0.155347
2.77812,-0.253806,0.113655
2.67471,-0.113039,-0.124703
2.66162,-0.112486,0.327097
2.68088,-0.1133,-0.0624383
2.58359,0.00811661,-0.045097
2.78232,-0.263987,-0.0813371
2.6772,-0.122507,0
2.92543,-0.422604,-0.034411
2.69276,-0.123219,-0.419368
2.58394,0.00811771,0.015018
2.79938,-0.265605,-0.0163431
2.67647,-0.122474,0.0623452
2.91356,-0.420888,0.0342714
2.68264,-0.122756,-0.187784
2.58289,0.00811441,0.0751699
2.80298,-0.265947,0.049146
2.79313,-0.265012,0.114306
2.69026,-0.123105,-0.125448
2.67311,-0.12232,0.32856
2.68446,-0.12284,-0.0625313
2.59161,-0.000452332,-0.0452366
2.79735,-0.274775,-0.0818026
2.68876,-0.131973,0
2.92797,-0.432888,-0.0344576
2.69628,-0.132342,-0.419983
2.59196,-0.000452393,0.0150645
2.81043,-0.27606,-0.0164128
2.68804,-0.131937,0.0626244
2.92402,-0.432303,0.034411
2.69816,-0.132434,-0.188901
2.5909,-0.000452209,0.0754027
2.81005,-0.276023,0.0492856
2.68422,-0.13175,0.15651
2.80417,-0.275445,0.114795
2.67665,-0.131378,0.329047
2.69203,-0.132133,-0.0627174
2.59959,-0.00952803,-0.0453763
2.80433,-0.285348,-0.0820353
2.69627,-0.141778,0
2.95017,-0.446698,-0.034737
2.7037,-0.142168,-0.421213
2.82648,-0.287602,-0.361632
2.59194,-0.0095,0.0150645
2.8174,-0.286678,-0.0164593
2.69555,-0.141739,0.0628105
2.70963,-0.14248,-0.189738
2.59488,-0.0095108,0.075519
2.821,-0.287044,0.049495
2.60264,-0.00953924,-0.166801
2.69171,-0.141538,0.156975
2.81909,-0.28685,0.115446
2.69204,-0.141555,0.330997
2.60182,-0.00953623,-0.106002
2.70753,-0.142369,-0.0630896
2.59554,-0.0185736,-0.0453064
2.81127,-0.295972,-0.082268
2.71174,-0.152085,0
2.9565,-0.458219,-0.0348301
2.71107,-0.152047,-0.422443
2.60789,-0.018662,0.0151575
2.81639,-0.296511,-0.0164593
2.716,-0.152323,-0.293018
2.711,-0.152043,0.0631827
2.71709,-0.152384,-0.190296
2.60683,-0.0186544,0.0758681
2.82396,-0.297309,0.0495648
2.6912,-0.150933,0.156975
2.8141,-0.29627,0.115283
2.69549,-0.151173,0.331485
2.60977,-0.0186755,-0.106327
2.711,-0.152043,-0.0631827
2.60746,-0.0277613,-0.0455159
2.81817,-0.306648,-0.0825008
2.71918,-0.162025,0
2.97068,-0.471042,-0.0350164
2.71447,-0.161745,-0.423058
2.83919,-0.308937,-0.0165988
2.72736,-0.162513,-0.294303
2.71445,-0.161743,0.0632757
2.83483,-0.308462,0.0497743
2.6105,-0.0277937,-0.167313
2.71059,-0.161514,0.158138
2.82894,-0.307821,0.115934
2.70684,-0.16129,0.332947
2.61368,-0.0278277,-0.10649
2.71844,-0.161981,-0.0633688
2.61535,-0.0365195,-0.0456555
2.72262,-0.171293,0
2.7297,-0.171738,-0.425518
2.85008,-0.319687,-0.0166686
2.73474,-0.172055,-0.295159
2.72188,-0.171246,0.0634618
2.73191,-0.171877,-0.191412
2.84572,-0.319198,0.0499837
2.61837,-0.0365617,-0.167825
2.72997,-0.171755,0.159301
2.83585,-0.318091,0.11626
2.73163,-0.17186,-0.127495
2.85019,-0.3197,-0.150309
2.71025,-0.170514,0.333435
2.72986,-0.171748,-0.0636479
2.6152,-0.0456485,-0.0456555
2.72998,-0.181325,0
2.72514,-0.181004,-0.424903
2.85689,-0.330554,-0.0167151
2.73723,-0.181806,0.0638341
2.62249,-0.0457757,0.0763336
2.62621,-0.0458407,-0.168336
2.8506,-0.329826,0.116911
2.72152,-0.180763,0.334897
2.62542,-0.0458269,-0.106979
2.62701,-0.0554868,-0.0458649
2.84656,-0.339936,-0.0834316
2.73728,-0.19189,0
2.74417,-0.192373,-0.427977
2.63537,-0.0556632,0.0153202
2.85963,-0.341497,-0.0167383
2.74534,-0.192455,-0.296445
2.6303,-0.0555562,0.0765663
2.85925,-0.341451,0.0502629
2.62603,-0.0554659,-0.168336
2.74062,-0.192123,0.159999
2.85731,-0.34122,0.117237
2.75026,-0.192799,-0.128426
2.73272,-0.19157,0.336359
2.62923,-0.0555337,-0.107142
2.74851,-0.192677,-0.0641132
2.62682,-0.064198,-0.0458649
2.86129,-0.351322,-0.0838971
2.7486,-0.201844,0
2.75535,-0.20234,-0.429822
2.86643,-0.351953,-0.0167848
2.74866,-0.201849,-0.296873
2.75583,-0.202376,0.0642993
2.75782,-0.202522,-0.193365
2.64209,-0.0645713,0.0769154
2.87001,-0.352392,0.0504724
2.6378,-0.0644664,-0.169104
2.74395,-0.201503,0.160231
2.8641,-0.351667,0.117563
2.75758,-0.202504,-0.128798
2.74395,-0.201503,0.337822
2.64502,-0.0646428,-0.107793
2.75184,-0.202083,-0.0642063
2.63857,-0.0737019,-0.0460744
2.86798,-0.36231,-0.0841298
2.75585,-0.212051,0
2.76644,-0.212866,-0.431667
2.65092,-0.0740469,0.0154132
2.87708,-0.36346,-0.0168546
2.7638,-0.212662,-0.298587
2.7591,-0.212301,0.0643924
2.76506,-0.212759,-0.193923
2.88066,-0.363912,0.0506818
2.64953,-0.074008,-0.169871
2.75517,-0.211999,0.160929
2.87871,-0.363666,0.118214
2.76482,-0.212741,-0.12917
2.65276,-0.0740984,-0.108119
2.76308,-0.212608,-0.0644854
2.65027,-0.0837512,-0.0462838
2.87853,-0.374367,-0.0844789
2.75506,-0.222151,0
2.8916,-0.376066,-0.0169475
2.763,-0.222791,-0.298587
2.77026,-0.223376,0.0646715
2.77221,-0.223534,-0.194481
2.65755,-0.0839811,0.0773808
2.89517,-0.376531,0.050961
2.65722,-0.0839707,-0.170383
2.76801,-0.223195,-0.129357
2.66046,-0.0840732,-0.108444
2.65398,-0.0926789,-0.0463536
2.88916,-0.385496,-0.084828
2.76626,-0.23229,0
2.66633,-0.0931103,0.0155062
2.89827,-0.386711,-0.016994
2.77017,-0.232618,-0.299443
2.77941,-0.233393,-0.195039
2.65725,-0.0927934,0.0773808
2.89787,-0.386659,0.0510308
2.66491,-0.0930605,-0.170895
2.7775,-0.233233,0.162324
2.77521,-0.233041,-0.129729
2.66017,-0.0928952,-0.108444
2.78146,-0.233565,-0.0649507
2.66563,-0.102403,-0.046563
2.90364,-0.39775,-0.0852934
2.77739,-0.24299,0
2.67398,-0.102724,0.0155527
2.91275,-0.398997,-0.017087
2.78915,-0.244019,-0.301585
2.7905,-0.244137,-0.195876
2.66491,-0.102375,0.0776135
2.90443,-0.397857,0.0511705
2.66456,-0.102362,-0.170895
2.78463,-0.243623,0.162789
2.78234,-0.243424,-0.130101
2.67181,-0.102641,-0.108933
2.67325,-0.112042,-0.0467026
2.91016,-0.408996,-0.0855262
2.78051,-0.253046,0
2.6776,-0.112225,0.0155759
2.9153,-0.409719,-0.0171103
2.7962,-0.254474,-0.302442
2.78963,-0.253876,-0.195876
2.67252,-0.112012,0.0778463
2.91094,-0.409107,0.0513101
2.68413,-0.112498,-0.172174
2.78774,-0.253704,0.163022
2.68342,-0.112468,-0.109421
2.79569,-0.254427,-0.0653229
2.68083,-0.121736,-0.0468423
2.91663,-0.420292,-0.0857589
2.78757,-0.263503,0
2.68519,-0.121934,0.0156224
2.92177,-0.421034,-0.0171568
2.80274,-0.264937,0.065509
2.80462,-0.265114,-0.196992
2.67611,-0.121521,0.0779626
2.68771,-0.122048,-0.17243
2.79479,-0.264185,0.163487
2.79251,-0.26397,-0.130659
2.80274,-0.264937,-0.065509
2.69237,-0.131679,-0.0470517
2.92305,-0.431639,-0.0859916
2.79858,-0.274403,0
2.69673,-0.131892,0.0156922
2.94007,-0.434151,-0.017273
2.80976,-0.2755,0.0656951
2.80765,-0.275292,-0.197271
2.68366,-0.131253,0.0781954
2.80577,-0.275108,0.164185
2.81543,-0.276055,-0.131776
2.70388,-0.141704,-0.0472611
2.94525,-0.445427,-0.0866898
2.80158,-0.284575,0
2.70025,-0.141514,0.0157154
2.94249,-0.44501,-0.0172963
2.81674,-0.286114,0.0658812
2.81858,-0.286301,-0.198108
2.68717,-0.140829,0.0783117
2.80876,-0.285304,0.164417
2.81674,-0.286114,-0.0658812
2.71135,-0.151588,-0.0474007
2.95948,-0.458152,-0.0871552
2.82046,-0.296443,0
2.70373,-0.151162,0.0157387
2.95278,-0.457114,-0.017366
2.82368,-0.29678,0.0660673
2.69465,-0.150654,0.0785444
2.71817,-0.151969,-0.174476
2.82364,-0.296776,0.165347
2.82933,-0.297375,-0.132521
2.71486,-0.160341,-0.0474705
2.96197,-0.468071,-0.0872716
2.82747,-0.306163,0
2.71123,-0.160127,0.0157852
2.94738,-0.465764,-0.0173428
2.83466,-0.306941,0.0663465
2.70215,-0.159591,0.0787772
2.82269,-0.305645,0.165347
2.83466,-0.306941,-0.0663465
2.72625,-0.170566,-0.04768
2.83831,-0.317365,0
2.71465,-0.16984,0.0158084
2.83357,-0.316834,0.0663465
2.71753,-0.17002,0.0792426
2.82557,-0.31594,0.16558
2.84947,-0.318612,-0.0667187
2.73761,-0.180872,-0.0478894
2.83719,-0.32727,0
2.73,-0.180369,0.0159014
2.84039,-0.32764,0.0665326
2.72889,-0.180296,0.0795917
2.84032,-0.327632,0.16651
2.85628,-0.329473,-0.0669048
2.85589,-0.339533,0
2.73734,-0.190453,0.0159479
2.84717,-0.338497,0.0667187
2.73622,-0.190376,0.0798244
2.7522,-0.201626,-0.0481686
2.86653,-0.351458,0
2.74859,-0.201361,0.0160176
2.86179,-0.350877,0.0670909
2.75146,-0.201572,0.0802899
2.7595,-0.211363,-0.0483083
2.87726,-0.362462,0
2.75588,-0.211086,0.0160641
2.87251,-0.361864,0.0673701
2.75875,-0.211305,0.0805226
2.88442,-0.363364,-0.0676492
2.76671,-0.221633,-0.0484479
2.89184,-0.374559,0
2.7631,-0.221343,0.0161106
2.87916,-0.372916,0.0675562
2.76995,-0.221892,0.0808717
2.76991,-0.231622,-0.0485177
2.89448,-0.385178,0
2.77427,-0.231987,0.0161804
2.89766,-0.385602,0.0680214
2.78104,-0.242331,-0.0487271
2.90897,-0.397445,0
2.90819,-0.397338,0.0683006
2.78427,-0.242612,0.0813371
2.79212,-0.25312,-0.0489365
2.91549,-0.408708,0
2.7925,-0.253155,0.0162966
2.7952,-0.26324,-0.0490064
2.92988,-0.421159,0
2.80355,-0.264026,0.0163664
2.79825,-0.273385,-0.0490762
2.93235,-0.431967,0
2.81057,-0.274588,0.0164128
2.81341,-0.274866,0.082268
2.81678,-0.275195,-0.181384
2.81324,-0.284271,-0.0493554
2.93091,-0.441688,0
2.82158,-0.285113,0.0164826
2.81646,-0.284596,0.0823844
2.8238,-0.285337,-0.181895
2.83212,-0.296169,-0.0497045
2.95307,-0.455576,0
2.82853,-0.295793,0.0165291
2.81943,-0.294841,0.0825008
2.83543,-0.306524,0.0165756
2.8303,-0.30597,0.0828498
