1.13506,0.00356588,-0.105956
1.13992,0.00358114,0.0132708
1.12747,0.114127,-0.0792434
1.13867,0.0592763,-0.093081
1.11095,0.167619,0.0326978
1.13829,0.0592566,0.0198957
1.10915,0.167346,-0.0718883
1.13008,0.00355024,-0.0658134
1.13229,0.114614,0.0662785
1.12155,0.0583853,0.045755
1.12503,0.113879,-0.0526732
1.13291,0.0589767,-0.0594537
1.12575,0.113953,0.138931
1.11478,0.0580328,0.0911282
1.10655,0.166955,-0.0455922
1.13788,0.11518,-0.026613
1.11576,0.164562,-0.0196863
1.13018,0.0550775,-0.0329305
1.13613,0.0553672,-0.227496
1.1306,0.110657,0
1.14792,-0.000200141,-0.013364
1.13289,0.110882,-0.177094
1.14539,0.0558187,-0.145966
1.11195,0.164001,0.00653259
1.14262,0.055684,-0.00664883
1.1241,0.110021,-0.121662
1.13108,-0.000197205,-0.105584
1.13427,0.111017,0.02652
1.12784,0.110388,-0.0792434
1.1508,0.0560825,-0.0940573
1.1115,0.163934,0.0326978
1.13448,0.0552871,0.0198259
1.11364,0.16425,-0.0721441
1.14206,-0.00019912,-0.066511
1.13266,0.110859,0.0662785
1.12174,0.0546661,0.045755
1.12142,0.109759,-0.0524871
1.14108,0.0556086,-0.0598723
1.12612,0.110219,0.138931
1.11496,0.0543359,0.0911282
1.1071,0.163284,-0.0455922
1.13427,0.111017,-0.02652
1.11633,0.160667,-0.0196863
1.13436,0.051313,-0.0330468
1.13631,0.0514013,-0.227496
1.11505,0.105207,0
1.12934,0.106555,-0.176479
1.1535,0.052179,-0.146976
1.11648,0.160688,0.00655584
1.14031,0.107591,-0.123376
1.13506,-0.00415977,-0.105956
1.13465,0.107057,0.02652
1.14391,-0.00419223,0.0133174
1.12425,0.106075,-0.0789643
1.14701,0.0518852,-0.0937319
1.11207,0.160053,0.0326978
1.13467,0.0513269,0.0198259
1.11816,0.160931,-0.0723999
1.13008,-0.00414152,-0.0658134
1.12906,0.10653,0.0660459
1.12591,0.050931,0.0459178
1.1218,0.105844,-0.0524871
1.13727,0.0514449,-0.059663
1.11859,0.105542,0.137956
1.12709,0.0509844,0.0921046
1.10766,0.159419,-0.0455922
1.13067,0.106681,-0.0264269
1.12084,0.157324,-0.0197561
1.13453,0.0473527,-0.0330468
1.1404,0.0475978,-0.228281
1.11939,0.101676,0
1.12577,0.102255,-0.175864
1.14971,0.0479865,-0.146471
1.11703,0.15679,0.00655584
1.1288,0.10253,-0.122091
1.13902,-0.00815065,-0.106328
1.13589,-0.00812828,0.0132243
1.12461,0.10215,-0.0789643
1.15117,0.048047,-0.0940573
1.1047,0.155059,0.032465
1.13884,0.0475324,0.0198957
1.11476,0.156471,-0.0721441
1.13405,-0.00811508,-0.0660459
1.13341,0.102949,0.0662785
1.1181,0.0466669,0.0455922
1.12614,0.102289,-0.0526732
1.13346,0.0473079,-0.0594537
1.11896,0.101636,0.137956
1.11133,0.0463845,0.0908028
1.10821,0.155551,-0.0455922
1.12138,0.153411,-0.0197561
1.13469,0.0433919,-0.0330468
1.13664,0.0434666,-0.227496
1.12372,0.0981154,0
1.11824,0.0976367,-0.174634
1.14591,0.043821,-0.145966
1.11757,0.152889,0.00655584
1.12519,0.0982429,-0.121662
1.13898,-0.0121268,-0.106328
1.15186,-0.0122639,0.0134105
1.13689,0.0992647,-0.0798014
1.14336,0.0437234,-0.0934064
1.10919,0.151743,0.0325814
1.13899,0.0435565,0.0198957
1.11135,0.152038,-0.0718883
1.13401,-0.0120739,-0.0660459
1.11825,0.0427634,0.0455922
1.12251,0.0980091,-0.0524871
1.13761,0.0435034,-0.059663
1.12326,0.0980747,0.138444
1.11149,0.0425046,0.0908028
1.10874,0.151682,-0.0455922
1.13537,0.0991324,-0.02652
1.11792,0.149163,-0.0196863
1.13083,0.0394896,-0.0329305
1.13678,0.0396973,-0.227496
1.12803,0.0947234,0
1.1225,0.0942589,-0.175249
1.15001,0.0401595,-0.146471
1.11807,0.149183,0.00655584
1.14328,0.0399244,-0.00664883
1.12551,0.0945114,-0.121662
1.13495,-0.0158479,-0.105956
1.14781,-0.0160274,0.013364
1.13323,0.0951604,-0.0795224
1.1435,0.0399319,-0.0934064
1.11365,0.148593,0.0326978
1.13514,0.0396399,0.0198259
1.11185,0.148352,-0.0718883
1.12998,-0.0157784,-0.0658134
1.12638,0.0393341,0.0459178
1.12283,0.0942864,-0.0524871
1.13375,0.0395916,-0.0594537
1.12358,0.0943496,0.138444
1.11959,0.039097,0.0914537
1.1132,0.148533,-0.045755
1.12869,0.0394149,0.205915
1.13569,0.095367,-0.02652
1.1224,0.145775,-0.0197561
1.12697,0.0354166,-0.0328141
1.14083,0.0358524,-0.228281
1.12437,0.0904647,0
1.14775,-0.0200337,-0.013364
1.11888,0.0900233,-0.174634
1.15411,0.0362698,-0.146976
1.12255,0.145794,0.00657909
1.12583,0.0905823,-0.121662
1.13489,-0.0198093,-0.105956
1.13203,0.0910816,0.0264269
1.15175,-0.0201035,0.0134105
1.12958,0.0908844,-0.0792434
1.13566,0.0356898,-0.0927555
1.11417,0.144705,0.0326978
1.11631,0.144984,-0.0721441
1.13391,-0.0197921,-0.0660459
1.11852,0.0351512,0.0455922
1.12315,0.0903667,-0.0524871
1.13388,0.035634,-0.0594537
1.1239,0.0904272,0.138444
1.11972,0.0351889,0.0914537
1.11371,0.144647,-0.045755
1.12489,0.0353514,0.205198
1.13602,0.0914024,-0.02652
1.11499,0.140659,-0.0196165
1.13508,0.031508,-0.0330468
1.13704,0.0315622,-0.227496
1.12868,0.0866495,0
1.12709,0.0865272,-0.175864
1.14631,0.0318196,-0.145966
1.11911,0.141179,0.00655584
1.14754,0.0318538,-0.00667208
1.12615,0.0864556,-0.121662
1.13083,-0.0238844,-0.105584
1.13635,0.0872383,0.02652
1.14367,-0.0241555,0.0133174
1.12195,0.086133,-0.0786853
1.14375,0.0317487,-0.0934064
1.12262,0.141622,0.0329305
1.11684,0.140892,-0.0721441
1.1458,-0.0242006,-0.0667436
1.13473,0.0871143,0.0662785
1.12264,0.0311625,0.045755
1.13542,0.0871674,-0.0530455
1.13401,0.0314782,-0.0594537
1.12422,0.0863075,0.138444
1.12383,0.0311956,0.0917791
1.11424,0.140564,-0.045755
1.13635,0.0872383,-0.02652
1.12339,0.137935,-0.0197561
1.13518,0.0277435,-0.0330468
1.12174,0.0823756,-0.314864
1.14498,0.0279829,-0.229065
1.13295,0.0831988,0
1.14758,-0.028046,-0.013364
1.12737,0.0827888,-0.175864
1.15434,0.0282117,-0.146976
1.12354,0.137954,0.00657909
1.14764,0.0280479,-0.00667208
1.13437,0.0833029,-0.122519
1.13871,-0.0278292,-0.106328
1.14758,-0.028046,0.013364
1.13417,0.0832884,-0.0795224
1.14385,0.0279554,-0.0934064
1.11515,0.136923,0.0326978
1.11334,0.136701,-0.0718883
1.14172,-0.0279029,-0.066511
1.13502,0.0833506,0.0662785
1.13472,0.0277322,0.0462435
1.13571,0.0834014,-0.0530455
1.1341,0.0277172,-0.0594537
1.12054,0.0822879,0.137956
1.11595,0.0272736,0.0911282
1.11073,0.136381,-0.0455922
1.14062,0.0837621,-0.026613
1.12387,0.134013,-0.0197561
1.13927,0.0238642,-0.0331632
1.12202,0.0784592,-0.314864
1.14507,0.0239857,-0.229065
1.12924,0.0789643,0
1.14348,-0.0319402,-0.0133174
1.12765,0.0788528,-0.175864
1.1465,0.0240156,-0.145966
1.10813,0.132137,0.0064861
1.13465,0.0793424,-0.122519
1.14657,-0.0320266,-0.107072
1.14348,-0.0319402,0.0133174
1.13047,0.0790503,-0.0792434
1.15191,0.0241291,-0.0940573
1.11562,0.13303,0.0326978
1.13558,0.0237869,0.0198259
1.11381,0.132814,-0.0718883
1.14162,-0.0318884,-0.066511
1.12682,0.0236034,0.0459178
1.13599,0.0794362,-0.0530455
1.13819,0.0238416,-0.059663
1.11604,0.0233777,0.0911282
1.11517,0.132976,-0.045755
1.1409,0.0797798,-0.026613
1.12035,0.129629,-0.0196863
1.13934,0.019887,-0.0331632
1.12997,0.0750524,-0.317021
1.14907,0.0200566,-0.229849
1.1335,0.0752868,0
1.14736,-0.0360575,-0.013364
1.13186,0.0751777,-0.176479
1.15054,0.0200824,-0.146471
1.12051,0.129647,0.00655584
1.12698,0.0748538,-0.121662
1.13849,-0.0357787,-0.106328
1.1332,0.0752664,0.0264269
1.14336,-0.0359318,0.0133174
1.1387,0.0756323,-0.0798014
1.14402,0.0199686,-0.0934064
1.10813,0.128215,0.032465
1.14365,0.0199622,0.0199656
1.11427,0.128925,-0.0718883
1.13751,-0.0357481,-0.0662785
1.13159,0.0751594,0.0660459
1.13089,0.0197394,0.0460806
1.13626,0.0754701,-0.0530455
1.14226,0.0199378,-0.0598723
1.12902,0.0749887,0.138931
1.11612,0.0194815,0.0911282
1.11166,0.128623,-0.0455922
1.12528,0.0196414,0.205198
1.13719,0.0755314,-0.02652
1.11682,0.125272,-0.0196165
1.13541,0.0158547,-0.0330468
1.14128,0.0159368,-0.228281
1.13775,0.0715816,0
1.12817,0.0709789,-0.175864
1.1506,0.0160669,-0.146471
1.11698,0.125289,0.00653259
1.14387,0.0159729,-0.00664883
1.12724,0.0709202,-0.121662
1.13437,-0.0396128,-0.105956
1.13345,0.0713111,0.0264269
1.15122,-0.0402011,0.0134105
1.131,0.0711567,-0.0792434
1.14807,0.0160315,-0.0937319
1.12447,0.12613,0.0329305
1.14771,0.0160266,0.0200354
1.11471,0.125035,-0.0718883
1.13738,-0.0397177,-0.0662785
1.13184,0.0712098,0.0660459
1.12696,0.0157367,0.0459178
1.12455,0.0707514,-0.0524871
1.14232,0.0159513,-0.0598723
1.12927,0.0710481,0.138931
1.11618,0.0155862,0.0911282
1.11607,0.125188,-0.045755
1.13345,0.0713111,-0.0264269
1.12918,0.122669,-0.0198259
1.13546,0.011891,-0.0330468
1.12278,0.0667056,-0.314864
1.14918,0.0120347,-0.229849
1.13001,0.0671349,0
1.15507,-0.0443732,-0.0134571
1.1363,0.067509,-0.177094
1.15859,0.0121333,-0.147481
1.12934,0.122685,0.00660233
1.13939,0.0676923,-0.122947
1.14219,-0.0438783,-0.1067
1.13769,0.0675911,0.02652
1.14708,-0.0440661,0.013364
1.12726,0.0669714,-0.0789643
1.14812,0.0120236,-0.0937319
1.12093,0.121772,0.0328141
1.14776,0.0120199,0.0200354
1.11911,0.121574,-0.0721441
1.14122,-0.0438413,-0.066511
1.13208,0.0672582,0.0660459
1.127,0.0118025,0.0459178
1.13676,0.0675362,-0.0530455
1.13438,0.0118798,-0.0594537
1.12158,0.0666345,0.137956
1.12021,0.0117314,0.0914537
1.11253,0.120859,-0.0455922
1.12932,0.0118268,0.205915
1.14168,0.0678283,-0.026613
1.12563,0.118309,-0.0197561
1.13949,0.00795563,-0.0331632
1.1307,0.0632162,-0.317021
1.14137,0.00796874,-0.228281
1.13423,0.0634136,0
1.15091,-0.0482371,-0.0134105
1.13653,0.0635424,-0.177094
1.15466,0.00806151,-0.146976
1.12578,0.118325,0.00657909
1.13168,0.0632709,-0.122091
1.13805,-0.047698,-0.106328
1.14191,0.0638429,0.026613
1.15091,-0.0482371,0.0134105
1.1235,0.0628136,-0.0786853
1.15214,0.00804394,-0.0940573
1.12135,0.117859,0.0328141
1.1478,0.00801363,0.0200354
1.11952,0.117667,-0.0721441
1.13707,-0.0476571,-0.0662785
1.13103,0.00789659,0.0460806
1.14098,0.063791,-0.0532316
1.13841,0.00794809,-0.059663
1.12423,0.00784911,0.0917791
1.11294,0.116975,-0.0455922
1.14191,0.0638429,-0.026613
1.13001,0.114783,-0.0198259
1.13951,0.00397771,-0.0331632
1.12707,0.059067,-0.315942
1.14923,0.00401165,-0.229849
1.13045,0.0592444,0
1.15074,-0.0522546,-0.0134105
1.12885,0.0591607,-0.175864
1.15468,0.00403065,-0.146976
1.11027,0.112777,0.0064861
1.15197,0.00402122,-0.00669533
1.13586,0.059528,-0.122519
1.1339,-0.0514899,-0.105956
1.14212,0.0598562,0.026613
1.15074,-0.0522546,0.0134105
1.13168,0.0593089,-0.0792434
1.14419,0.00399404,-0.0934064
1.12175,0.113943,0.0328141
1.13982,0.00397879,0.0198957
1.11596,0.113355,-0.0718883
1.14488,-0.0519886,-0.0667436
1.13252,0.0593531,0.0660459
1.13105,0.0039482,0.0460806
1.1372,0.0595984,-0.0530455
1.14243,0.00398789,-0.0598723
1.12995,0.0592183,0.138931
1.12425,0.00392445,0.0917791
1.10937,0.112685,-0.0454293
1.13331,0.00395607,0.206633
1.13813,0.0596469,-0.02652
1.11847,0.109666,-0.0196165
1.13952,-2.48334e-07,-0.0331632
1.13111,0.0553203,-0.317021
1.14924,-2.50453e-07,-0.229849
1.14263,0.0558839,0
1.15055,-0.0562714,-0.0134105
1.133,0.0554127,-0.176479
1.15072,-2.50775e-07,-0.146471
1.11066,0.1089,0.0064861
1.12812,0.0551739,-0.121662
1.14962,-0.0562261,-0.107443
1.14655,-0.056076,0.013364
1.13188,0.0553579,-0.0792434
1.14818,-2.50222e-07,-0.0937319
1.11816,0.109637,0.0326978
1.14383,-2.49273e-07,0.0199656
1.12032,0.109848,-0.0721441
1.14469,-0.0559849,-0.0667436
1.13272,0.0553992,0.0660459
1.13106,-2.46492e-07,0.0460806
1.13741,0.0556282,-0.0530455
1.14643,-2.4984e-07,-0.0600817
1.12027,-2.44141e-07,0.0914537
1.11373,0.109202,-0.0455922
1.14233,0.0558688,-0.026613
1.11884,0.105762,-0.0196165
1.13551,-0.00396371,-0.0330468
1.15316,-0.0040253,-0.230634
1.14282,0.0518952,0
1.15833,-0.0607056,-0.0135037
1.13713,0.051637,-0.177094
1.15071,-0.00401676,-0.146471
1.11899,0.105776,0.00653259
1.1283,0.051236,-0.121662
1.13351,-0.0594047,-0.105956
1.13452,0.0515184,0.0264269
1.15434,-0.0604963,0.0134571
1.13605,0.0515878,-0.0795224
1.14817,-0.00400791,-0.0937319
1.12252,0.106109,0.0328141
1.14382,-0.00399271,0.0199656
1.11672,0.105561,-0.0718883
1.13651,-0.0595621,-0.0662785
1.12306,-0.00392025,0.045755
1.14158,0.051839,-0.0532316
1.14642,-0.00400178,-0.0600817
1.12027,-0.00391049,0.0914537
1.11411,0.105314,-0.0455922
1.12544,-0.00392855,0.205198
1.14251,0.0518812,-0.026613
1.11917,0.102246,-0.0196165
1.13549,-0.00753079,-0.0330468
1.14922,-0.00762179,-0.229849
1.13898,0.048136,0
1.15414,-0.0641222,-0.0134571
1.13334,0.0478976,-0.176479
1.15863,-0.0076842,-0.147481
1.1233,0.102624,0.00655584
1.14038,0.048195,-0.122947
1.14525,-0.063628,-0.107072
1.13868,0.048123,0.02652
1.15414,-0.0641222,0.0134571
1.12425,0.0475133,-0.0786853
1.14417,-0.00758832,-0.0934064
1.12285,0.102582,0.0328141
1.125,0.102779,-0.0723999
1.14031,-0.0633535,-0.066511
1.13706,0.0480546,0.0662785
1.12704,-0.00747472,0.0459178
1.13376,0.0479152,-0.0528594
1.13442,-0.00752365,-0.0594537
1.13049,0.0477772,0.138931
1.12424,-0.00745612,0.0917791
1.11443,0.101814,-0.0455922
1.13329,-0.00751618,0.206633
1.13468,0.0479542,-0.0264269
1.1235,0.0986888,-0.0196863
1.13946,-0.0115351,-0.0331632
1.13546,0.0440169,-0.318099
1.14918,-0.0116336,-0.229849
1.13515,0.0440047,0
1.14593,-0.0676792,-0.013364
1.12955,0.0437878,-0.175864
1.16256,-0.011769,-0.147986
1.13162,0.0994022,0.00660233
1.13259,0.0439057,-0.122091
1.14104,-0.0673908,-0.1067
1.13884,0.0441477,0.02652
1.14593,-0.0676792,0.013364
1.14036,0.0442067,-0.0798014
1.14812,-0.0116228,-0.0937319
1.11523,0.0979623,0.0325814
1.15177,-0.0116597,0.0201052
1.12535,0.098851,-0.0723999
1.15204,-0.0680402,-0.0672087
1.135,-0.01149,0.0462435
1.13791,0.0441118,-0.0530455
1.14637,-0.0116051,-0.0600817
1.12669,0.0436767,0.138444
1.11623,-0.0113,0.0911282
1.1108,0.0975728,-0.0454293
1.13326,-0.0114724,0.206633
1.14283,0.0443026,-0.026613
1.12784,0.0949059,-0.0197561
1.13941,-0.0157111,-0.0331632
1.12792,0.039585,-0.315942
1.14521,-0.0157911,-0.229065
1.1393,0.0399844,0
1.15765,-0.0726299,-0.0135037
1.13366,0.0397864,-0.176479
1.15854,-0.0159749,-0.147481
1.12002,0.0942479,0.00653259
1.14864,0.0403124,-0.123804
1.14874,-0.072071,-0.107443
1.14299,0.0401139,0.026613
1.14567,-0.0718785,0.013364
1.13652,0.039887,-0.0795224
1.15206,-0.0158855,-0.0940573
1.11957,0.0942097,0.0326978
1.15172,-0.0158808,0.0201052
1.12173,0.0943913,-0.0721441
1.13982,-0.0715118,-0.066511
1.14136,0.0400569,0.066511
1.13095,-0.0155945,0.0460806
1.14206,0.0400813,-0.0532316
1.14632,-0.0158064,-0.0600817
1.12684,0.0395471,0.138444
1.12814,-0.0155557,0.0921046
1.1231,0.0945065,-0.0459178
1.14698,0.0402541,-0.0267061
1.12815,0.0911655,-0.0197561
1.13935,-0.0194892,-0.0331632
1.13189,0.035967,-0.317021
1.14907,-0.0196555,-0.229849
1.14342,0.0363334,0
1.1574,-0.0764681,-0.0135037
1.12983,0.0359015,-0.175864
1.15848,-0.0198165,-0.147481
1.12432,0.0908557,0.00655584
1.14781,-0.019634,-0.00667208
1.14082,0.0362508,-0.122947
1.14452,-0.0756172,-0.107072
1.14311,0.0363236,0.026613
1.13665,0.0361182,-0.0795224
1.15598,-0.0197738,-0.0943828
1.12784,0.0911408,0.0329305
1.14766,-0.0196313,0.0200354
1.12203,0.0906712,-0.0721441
1.14356,-0.0755542,-0.0667436
1.13889,-0.0194813,0.0464063
1.14618,0.036421,-0.0534177
1.14626,-0.0196074,-0.0600817
1.12696,0.0358104,0.138444
1.1241,-0.0192283,0.0917791
1.11942,0.09046,-0.045755
1.14711,0.0364506,-0.0267061
1.12447,0.0869185,-0.0196863
1.13928,-0.0234665,-0.0331632
1.12816,0.0319066,-0.315942
1.15292,-0.0237475,-0.230634
1.13155,0.0320024,0
1.16111,-0.0807856,-0.0135502
1.13785,0.0321807,-0.177094
1.15841,-0.0238605,-0.147481
1.13659,0.087855,0.00662558
1.14374,-0.0235584,-0.00664883
1.14094,0.032268,-0.122947
1.14027,-0.0793357,-0.1067
1.14323,0.0323329,0.026613
1.14076,0.0322628,-0.0798014
1.15192,-0.023727,-0.0940573
1.13214,0.0875112,0.0330468
1.15158,-0.0237199,0.0201052
1.1303,0.087369,-0.0726558
1.14329,-0.0795458,-0.0667436
1.14161,0.0322869,0.066511
1.12683,-0.0232101,0.0459178
1.13831,0.0321936,-0.0530455
1.14219,-0.0235265,-0.0598723
1.13502,0.0321005,0.139419
1.12801,-0.0232344,0.0921046
1.12371,0.0868597,-0.0459178
1.13308,-0.0233388,0.206633
1.13524,0.0321068,-0.0264269
1.12876,0.0832874,-0.0197561
1.13519,-0.0273466,-0.0330468
1.12827,0.0279686,-0.315942
1.15283,-0.0277715,-0.230634
1.13565,0.0281517,0
1.15684,-0.0845464,-0.0135037
1.13796,0.0282089,-0.177094
1.15832,-0.0279037,-0.147481
1.1329,0.083593,0.00660233
1.15165,-0.0277431,-0.00669533
1.14105,0.0282854,-0.122947
1.15191,-0.0841862,-0.107815
1.15285,-0.0842549,0.0134571
1.13687,0.028182,-0.0795224
1.1598,-0.0279396,-0.0947082
1.12845,0.0832648,0.0329305
1.12662,0.0831295,-0.0723999
1.15097,-0.0841181,-0.0672087
1.13772,0.028203,0.0662785
1.12674,-0.027143,0.0459178
1.14241,0.0283192,-0.0532316
1.1421,-0.0275131,-0.0598723
1.13512,0.0281386,0.139419
1.11596,-0.0268835,0.0911282
1.12002,0.0826428,-0.045755
1.13934,0.0282432,-0.02652
1.12505,0.079066,-0.0196863
1.14308,-0.0315298,-0.0332796
1.15272,-0.0317958,-0.230634
1.13174,0.0241019,0
1.15255,-0.0882789,-0.0134571
1.12619,0.0239837,-0.175249
1.15821,-0.0319472,-0.147481
1.13718,0.079918,0.00662558
1.13716,0.0242173,-0.122519
1.14366,-0.0875985,-0.107072
1.14343,0.0243508,0.026613
1.14856,-0.0879734,0.0134105
1.13298,0.0241281,-0.0792434
1.14774,-0.0316584,-0.0937319
1.12475,0.0790446,0.0328141
1.15139,-0.0317589,0.0201052
1.13089,0.0794759,-0.0726558
1.15067,-0.0881355,-0.0672087
1.13463,-0.0312966,0.0462435
1.1465,0.0244161,-0.0534177
1.142,-0.0314999,-0.0598723
1.12728,0.0240068,0.138444
1.12383,-0.0309989,0.0917791
1.11632,0.0784522,-0.0455922
1.13943,0.0242656,-0.02652
1.12532,0.0751384,-0.0196863
1.14296,-0.0355197,-0.0332796
1.15261,-0.0358194,-0.230634
1.13982,0.0202936,0
1.15223,-0.0923015,-0.0134571
1.13813,0.0202635,-0.177094
1.15413,-0.0358666,-0.146976
1.12547,0.0751486,0.00655584
1.13724,0.0202477,-0.122519
1.15129,-0.0922262,-0.107815
1.14351,0.0203593,0.026613
1.15223,-0.0923015,0.0134571
1.13704,0.0202442,-0.0795224
1.14763,-0.0356646,-0.0937319
1.12502,0.075118,0.0328141
1.15127,-0.0357778,0.0201052
1.13116,0.0755279,-0.0726558
1.15036,-0.0921516,-0.0672087
1.13451,-0.035257,0.0462435
1.14258,0.0203428,-0.0532316
1.14987,-0.0357342,-0.060291
1.13529,0.020213,0.139419
1.1277,-0.0350455,0.0921046
1.12456,0.0750875,-0.0459178
1.14351,0.0203593,-0.026613
1.12159,0.0709573,-0.0196165
1.13884,-0.0393711,-0.0331632
1.16031,-0.0401135,-0.232203
1.13988,0.0163148,0
1.15987,-0.0969895,-0.0135502
1.13424,0.016234,-0.176479
1.15399,-0.0398951,-0.146976
1.12174,0.0709669,0.00653259
1.1373,0.0162779,-0.122519
1.14302,-0.0955806,-0.107072
1.15589,-0.0966562,0.0135037
1.13312,0.0162179,-0.0792434
1.14749,-0.0396704,-0.0937319
1.12926,0.071443,0.0329305
1.15513,-0.0399345,0.020175
1.12344,0.0710749,-0.0721441
1.14605,-0.0958338,-0.0669762
1.13796,0.0162872,0.0662785
1.13438,-0.039217,0.0462435
1.14664,0.0164115,-0.0534177
1.14574,-0.0396098,-0.0600817
1.13139,0.0161932,0.138931
1.12757,-0.0389817,0.0921046
1.12482,0.0711616,-0.0459178
1.14357,0.0163676,-0.026613
1.12582,0.0672804,-0.0196863
1.1347,-0.043194,-0.0330468
1.15233,-0.0438652,-0.230634
1.14393,0.012379,0
1.14614,0.012403,-0.178324
1.15385,-0.043923,-0.146976
1.12597,0.0672895,0.00655584
1.14133,0.0123509,-0.122947
1.14268,-0.0995699,-0.107072
1.14762,0.012419,0.0267061
1.15953,-0.101038,0.0135502
1.14115,0.0123489,-0.0798014
1.15133,-0.0438273,-0.0940573
1.12951,0.0675007,0.0329305
1.15099,-0.0438143,0.0201052
1.12767,0.067391,-0.0723999
1.14571,-0.0998337,-0.0669762
1.142,0.0123581,0.066511
1.13024,-0.0430245,0.0460806
1.13071,0.0122359,-0.0526732
1.14959,-0.0437609,-0.060291
1.13541,0.0122868,0.139419
1.13141,-0.043069,0.09243
1.12905,0.0674733,-0.0460806
1.14762,0.012419,-0.0267061
1.13403,0.0637994,-0.0198259
1.13853,-0.0473206,-0.0331632
1.13243,0.00830132,-0.317021
1.14825,-0.0477244,-0.229849
1.14397,0.00838589,0
1.15518,-0.104723,-0.0135037
1.15013,0.00843107,-0.178939
1.16558,-0.0484448,-0.148491
1.13419,0.0638081,0.00660233
1.15498,-0.0480043,-0.00671857
1.14932,0.00842511,-0.123804
1.14233,-0.103558,-0.107072
1.14766,0.00841293,0.0267061
1.14722,-0.104001,0.0134105
1.13719,0.00833621,-0.0795224
1.15117,-0.0478459,-0.0940573
1.13373,0.0637821,0.0330468
1.15483,-0.0479978,0.020175
1.13587,0.0639027,-0.0729116
1.14535,-0.103832,-0.0669762
1.14203,0.0083717,0.066511
1.13408,-0.0471354,0.0462435
1.13873,0.00834751,-0.0530455
1.14943,-0.0477734,-0.060291
1.1275,0.00826517,0.138444
1.12727,-0.0468526,0.0921046
1.12928,0.0635318,-0.0460806
1.14766,0.00841293,-0.0267061
1.13026,0.0596298,-0.0197561
1.14236,-0.0514745,-0.0332796
1.13246,0.00434834,-0.317021
1.15199,-0.0519088,-0.230634
1.13599,0.00436192,0
1.15481,-0.108755,-0.0135037
1.12644,0.00432525,-0.175249
1.16144,-0.0523345,-0.147986
1.1344,0.0598486,0.00660233
1.14139,0.00438264,-0.122947
1.14196,-0.107545,-0.107072
1.15481,-0.108755,0.0135037
1.1412,0.00438194,-0.0798014
1.151,-0.051864,-0.0940573
1.13394,0.0598243,0.0330468
1.15066,-0.0518486,0.0201052
1.1321,0.0597271,-0.0726558
1.16089,-0.109327,-0.0679064
1.13806,0.00436987,0.0662785
1.1379,-0.0512737,0.0464063
1.14275,0.00438788,-0.0532316
1.14526,-0.0516056,-0.0600817
1.12752,0.0043294,0.138444
1.12312,-0.0506078,0.0917791
1.1255,0.0593789,-0.0459178
1.13845,0.0560777,-0.0198957
1.14217,-0.0554618,-0.0332796
1.13246,0.000395304,-0.317021
1.15964,-0.0563102,-0.232203
1.136,0.000396538,0
1.15044,-0.112397,-0.0134571
1.12645,0.000393204,-0.175249
1.15332,-0.0560034,-0.146976
1.13061,0.0556917,0.00657909
1.15462,-0.0560663,-0.00671857
1.14537,0.00039981,-0.123376
1.14554,-0.111918,-0.107443
1.15443,-0.112786,0.0135037
1.1452,0.000399751,-0.0800804
1.15081,-0.0558814,-0.0940573
1.13015,0.055669,0.0329305
1.15047,-0.0558648,0.0201052
1.12831,0.0555786,-0.0723999
1.15255,-0.112602,-0.0674413
1.13771,-0.0552455,0.0464063
1.14676,0.000400293,-0.0534177
1.14907,-0.0557967,-0.060291
1.1315,0.000394968,0.138931
1.13887,-0.0553013,0.093081
1.12969,0.0556464,-0.0460806
1.15169,0.000402014,-0.0267991
1.13064,0.0517378,-0.0197561
1.14996,-0.0598641,-0.0335123
1.13631,-0.00356983,-0.318099
1.15552,-0.0601538,-0.231418
1.14399,-0.00359397,0
1.16198,-0.11762,-0.0135968
1.1383,-0.00357609,-0.177094
1.15708,-0.0602352,-0.147481
1.1268,0.0515619,0.00655584
1.15841,-0.0603043,-0.00674182
1.13344,-0.00356081,-0.122091
1.14911,-0.116317,-0.107815
1.16198,-0.11762,0.0135968
1.14919,-0.00361029,-0.0803595
1.15061,-0.0598981,-0.0940573
1.13433,0.0519065,0.0330468
1.15426,-0.0600882,0.020175
1.13249,0.0518222,-0.0726558
1.14818,-0.116223,-0.0672087
1.14605,-0.00360044,0.0667436
1.1455,-0.059632,0.046732
1.14276,-0.00359008,-0.0532316
1.14887,-0.0598074,-0.060291
1.1315,-0.00355471,0.138931
1.11876,-0.0582401,0.0914537
1.13387,0.0518854,-0.0462435
1.14768,-0.00360556,-0.0267061
1.12681,0.0478185,-0.0196863
1.13378,-0.0627928,-0.0330468
1.15923,-0.0642022,-0.232203
1.14798,-0.00741341,0
1.15761,-0.121057,-0.0135502
1.13828,-0.00735081,-0.177094
1.16876,-0.0647302,-0.148997
1.13896,0.0483338,0.00662558
1.15821,-0.0641454,-0.00674182
1.14137,-0.00737077,-0.122947
1.15664,-0.120955,-0.108559
1.16159,-0.121473,0.0135968
1.14518,-0.00739535,-0.0800804
1.1504,-0.0637134,-0.0940573
1.1345,0.0481446,0.0330468
1.15805,-0.0641367,0.0202448
1.12867,0.0478972,-0.0723999
1.15176,-0.120445,-0.0674413
1.13332,-0.0627673,0.0462435
1.14274,-0.00737958,-0.0532316
1.14866,-0.0636168,-0.060291
1.13942,-0.00735815,0.139906
1.13448,-0.0628315,0.0927555
1.13004,0.0479557,-0.0460806
1.14767,-0.0074114,-0.0267061
1.13497,0.0441962,-0.0198259
1.13356,-0.06675,-0.0330468
1.13626,-0.0113043,-0.318099
1.15508,-0.0680177,-0.231418
1.13994,-0.011341,0
1.1422,-0.0113634,-0.177709
1.16457,-0.0685763,-0.148491
1.13512,0.0442022,0.00660233
1.13736,-0.0113153,-0.122519
1.14829,-0.124136,-0.107815
1.16116,-0.125527,0.0135968
1.14515,-0.0113927,-0.0800804
1.15813,-0.0681974,-0.0947082
1.13066,0.0440286,0.0329305
1.15782,-0.0681787,0.0202448
1.13282,0.0441124,-0.0726558
1.14736,-0.124035,-0.0672087
1.146,-0.0114012,0.0667436
1.14506,-0.0674277,0.046732
1.1427,-0.0113684,-0.0532316
1.14444,-0.0673912,-0.0600817
1.13542,-0.0112959,0.139419
1.1263,-0.0663225,0.0921046
1.13021,0.0440108,-0.0460806
1.14763,-0.0114175,-0.0267061
1.13112,0.0400925,-0.0197561
1.14529,-0.0714534,-0.0333959
1.13621,-0.0152705,-0.318099
1.15875,-0.0722935,-0.232203
1.1399,-0.01532,0
1.16071,-0.129579,-0.0135968
1.13425,-0.0152442,-0.176479
1.16828,-0.0728881,-0.148997
1.13127,0.0400979,0.00657909
1.15773,-0.0722296,-0.00674182
1.13732,-0.0152854,-0.122519
1.15576,-0.129027,-0.108559
1.15158,-0.0154771,0.0267991
1.14879,-0.128248,0.0134571
1.1451,-0.01539,-0.0800804
1.14197,-0.0712466,-0.0934064
1.12682,0.03994,0.0328141
1.15358,-0.0719708,0.020175
1.12897,0.0400165,-0.0723999
1.15089,-0.128483,-0.0674413
1.14595,-0.0154014,0.0667436
1.13684,-0.0709266,0.0464063
1.14266,-0.0153571,-0.0532316
1.1442,-0.0713856,-0.0600817
1.1314,-0.0152058,0.138931
1.12606,-0.0702536,0.0921046
1.12236,0.0397822,-0.045755
1.15158,-0.0154771,-0.0267991
1.13925,0.0363993,-0.0198957
1.15301,-0.0759765,-0.0336287
1.13615,-0.0192366,-0.318099
1.16241,-0.0765958,-0.232987
1.14384,-0.0193666,0
1.15628,-0.133172,-0.0135502
1.13024,-0.0191364,-0.175864
1.16406,-0.0767048,-0.148491
1.12341,0.0358933,0.00653259
1.15316,-0.0195246,-0.124233
1.15135,-0.132605,-0.108187
1.15152,-0.0194968,0.0267991
1.16025,-0.13363,0.0135968
1.14903,-0.0194546,-0.0803595
1.1457,-0.0754945,-0.0937319
1.12695,0.0360064,0.0328141
1.15332,-0.0759971,0.020175
1.1331,0.0362029,-0.0726558
1.15837,-0.133413,-0.0679064
1.13659,-0.0748945,0.0464063
1.1426,-0.0193457,-0.0532316
1.14793,-0.0756419,-0.060291
1.13531,-0.0192223,0.139419
1.12581,-0.0741839,0.0921046
1.13048,0.0361194,-0.0460806
1.15152,-0.0194968,-0.0267991
1.13137,0.0321949,-0.0197561
1.14875,-0.079724,-0.0335123
1.13993,-0.023281,-0.319177
1.15431,-0.0801098,-0.231418
1.14776,-0.0234409,0
1.16375,-0.138151,-0.0136434
1.13412,-0.0231623,-0.176479
1.15191,-0.0799435,-0.146976
1.12752,0.0320854,0.00655584
1.15321,-0.0800333,-0.00671857
1.14514,-0.0233873,-0.123376
1.15879,-0.137562,-0.10893
1.15978,-0.137679,0.0135968
1.13699,-0.0232209,-0.0795224
1.15338,-0.0800453,-0.0943828
1.12707,0.0320724,0.0328141
1.15704,-0.0802994,0.0202448
1.13322,0.0322474,-0.0726558
1.14203,-0.135573,-0.0669762
1.14828,-0.0796916,0.0468948
1.15051,-0.0234971,-0.0536039
1.15165,-0.079925,-0.0605004
1.13921,-0.0232662,0.139906
1.12952,-0.0783892,0.09243
1.1306,0.0321731,-0.0460806
1.14745,-0.0234346,-0.0267061
1.13547,0.0283453,-0.0198259
1.14448,-0.0834426,-0.0333959
1.15793,-0.0844238,-0.232203
1.14367,-0.0273516,0
1.15929,-0.141727,-0.0135968
1.13798,-0.0272155,-0.177094
1.1635,-0.0848296,-0.148491
1.13563,0.0283491,0.00660233
1.1609,-0.08464,-0.00676507
1.1371,-0.0271943,-0.122519
1.1504,-0.14064,-0.108187
1.15136,-0.0275354,0.0267991
1.15135,-0.140756,0.0135037
1.14488,-0.0273804,-0.0800804
1.15309,-0.0840709,-0.0943828
1.12317,0.0280382,0.0326978
1.15276,-0.0840469,0.020175
1.13332,0.0282915,-0.0726558
1.14155,-0.139558,-0.0669762
1.14174,-0.0273053,0.066511
1.14401,-0.0834088,0.046732
1.13844,-0.0272264,-0.0530455
1.15136,-0.0839445,-0.0605004
1.13912,-0.0272426,0.139906
1.14116,-0.0832012,0.0934064
1.1347,0.0283261,-0.0462435
1.15136,-0.0275354,-0.0267991
1.13158,0.0239007,-0.0197561
1.14415,-0.0878365,-0.0333959
1.13973,-0.0316364,-0.319177
1.1576,-0.0888693,-0.232203
1.14356,-0.0317428,0
1.15874,-0.146177,-0.0135968
1.13392,-0.0314751,-0.176479
1.16316,-0.0892964,-0.148491
1.13573,0.0239884,0.00660233
1.14096,-0.0316706,-0.122947
1.1459,-0.144557,-0.107815
1.1508,-0.145176,0.0135037
1.14077,-0.0316654,-0.0798014
1.15276,-0.0884978,-0.0943828
1.13926,0.0240631,0.0331632
1.13741,0.024024,-0.0729116
1.14893,-0.14494,-0.0674413
1.14562,-0.0317999,0.0667436
1.1397,-0.0874949,0.0465691
1.14631,-0.0318193,-0.0534177
1.14705,-0.088059,-0.060291
1.1271,-0.0312858,0.138444
1.14481,-0.0878875,0.0937319
1.13481,0.0239689,-0.0462435
1.13964,0.0204894,-0.0198957
1.14785,-0.0917491,-0.0335123
1.13962,-0.0352168,-0.319177
1.14559,-0.091568,-0.229849
1.13946,-0.0352117,0
1.16224,-0.15033,-0.0136434
1.14566,-0.0354035,-0.178324
1.16288,-0.0929502,-0.148491
1.1398,0.0204922,0.00662558
1.1488,-0.0355005,-0.123804
1.14544,-0.148156,-0.107815
1.15827,-0.149817,0.0135968
1.14466,-0.0353724,-0.0800804
1.15248,-0.0921189,-0.0943828
1.13134,0.0203401,0.0329305
1.13349,0.0203788,-0.0726558
1.15243,-0.149061,-0.0676738
1.1495,-0.0355221,0.0669762
1.15137,-0.0920303,0.0470576
1.14621,-0.0354203,-0.0534177
1.15075,-0.0919804,-0.0605004
1.13096,-0.0349492,0.138931
1.13658,-0.0908483,0.093081
1.12688,0.02026,-0.0459178
1.15514,-0.0356962,-0.0268922
1.13971,0.0165112,-0.0198957
1.14752,-0.0957553,-0.0335123
1.13949,-0.0391946,-0.319177
1.15699,-0.0965448,-0.232203
1.14732,-0.0394639,0
1.15378,-0.153332,-0.0135502
1.12973,-0.0388589,-0.175864
1.15859,-0.0966789,-0.147986
1.13986,0.0165135,0.00662558
1.14867,-0.0395103,-0.123804
1.15281,-0.153203,-0.108559
1.15774,-0.153859,0.0135968
1.13655,-0.0390934,-0.0795224
1.14818,-0.0958097,-0.0940573
1.1394,0.0165067,0.0331632
1.15979,-0.0967789,0.0203146
1.13356,0.0164221,-0.0726558
1.14399,-0.152031,-0.0672087
1.14937,-0.0395344,0.0669762
1.15104,-0.0960487,0.0470576
1.14608,-0.0394211,-0.0534177
1.14246,-0.0953323,-0.0600817
1.14274,-0.0393062,0.140393
1.13229,-0.0944836,0.0927555
1.12695,0.0163264,-0.0459178
1.155,-0.0397281,-0.0268922
1.13576,0.0124888,-0.0198259
1.14718,-0.0997603,-0.0335123
1.1432,-0.0433178,-0.320256
1.16446,-0.101262,-0.233772
1.13918,-0.0431656,0
1.16116,-0.15844,-0.0136434
1.13749,-0.0431015,-0.177094
1.15825,-0.100723,-0.147986
1.13991,0.0125345,0.00662558
1.15562,-0.100494,-0.00674182
1.14058,-0.0432185,-0.122947
1.15227,-0.157226,-0.108559
1.1572,-0.157899,0.0135968
1.14837,-0.0435138,-0.0803595
1.15578,-0.100508,-0.0947082
1.14345,0.0125734,0.0332796
1.15945,-0.100827,0.0203146
1.12562,0.0123774,-0.0721441
1.15532,-0.157643,-0.0679064
1.1507,-0.100066,0.0470576
1.14993,-0.0435728,-0.0536039
1.16201,-0.10105,-0.0611284
1.13863,-0.0431445,0.139906
1.12798,-0.0980901,0.09243
1.13499,0.0124804,-0.0462435
1.15086,-0.0436082,-0.0267991
1.1318,0.00849419,-0.0197561
1.14285,-0.103404,-0.0333959
1.16019,-0.104973,-0.232987
1.15501,-0.0478035,0
1.16456,-0.163047,-0.0136899
1.14918,-0.0475622,-0.178939
1.16184,-0.105123,-0.148491
1.13995,0.00855538,0.00662558
1.15925,-0.104888,-0.00676507
1.14439,-0.0473641,-0.123376
1.15566,-0.1618,-0.10893
1.1547,-0.0477906,0.0268922
1.1606,-0.162492,0.0136434
1.14821,-0.0475221,-0.0803595
1.16733,-0.105619,-0.0956846
1.13949,0.0085519,0.0331632
1.15909,-0.104873,0.0203146
1.13364,0.00850805,-0.0726558
1.15476,-0.161675,-0.0679064
1.14508,-0.0473924,0.0667436
1.15034,-0.104082,0.0470576
1.14977,-0.0475865,-0.0536039
1.1537,-0.104386,-0.0607097
1.13847,-0.0471188,0.139906
1.13557,-0.102745,0.093081
1.13503,0.00851844,-0.0462435
1.1547,-0.0477906,-0.0268922
1.13982,0.00457554,-0.0198957
1.15044,-0.108141,-0.0336287
1.15982,-0.109022,-0.232987
1.14685,-0.0514762,0
1.16794,-0.167679,-0.0137365
1.14111,-0.0512188,-0.177709
1.16147,-0.109177,-0.148491
1.14397,0.00459222,0.00664883
1.14422,-0.0513585,-0.123376
1.15508,-0.165833,-0.10893
1.16399,-0.167111,0.0136899
1.15202,-0.0517087,-0.0806385
1.15505,-0.108574,-0.0947082
1.14351,0.00459035,0.0332796
1.1627,-0.109293,0.0203844
1.14165,0.0045829,-0.0731674
1.15024,-0.165137,-0.0676738
1.14997,-0.108097,0.0470576
1.15359,-0.0517788,-0.05379
1.14935,-0.108038,-0.0605004
1.14226,-0.0512706,0.140393
1.14314,-0.107455,0.0937319
1.13905,0.00457245,-0.0464063
1.15452,-0.0518209,-0.0268922
1.13583,0.000594716,-0.0198259
1.14608,-0.111768,-0.0335123
1.14653,-0.0554729,-0.321334
1.15553,-0.112689,-0.232203
1.14266,-0.0552859,0
1.15548,-0.170008,-0.0135968
1.14092,-0.0552017,-0.177709
1.16503,-0.113616,-0.148997
1.13998,0.000596891,0.00662558
1.16247,-0.113366,-0.00678832
1.14006,-0.0551601,-0.122947
1.15056,-0.169284,-0.108559
1.15944,-0.170591,0.0136434
1.13988,-0.0551512,-0.0798014
1.15069,-0.112218,-0.0943828
1.12752,0.000590368,0.0328141
1.16231,-0.113351,0.0203844
1.13367,0.000593588,-0.0726558
1.1536,-0.169732,-0.0679064
1.1527,-0.0557713,0.0672087
1.14959,-0.11211,0.0470576
1.1534,-0.0558053,-0.05379
1.14499,-0.111662,-0.060291
1.14208,-0.0552575,0.140393
1.14276,-0.111444,0.0937319
1.13106,0.000592221,-0.0460806
1.13582,-0.00317183,-0.0198259
1.1457,-0.115568,-0.0335123
1.15019,-0.0594736,-0.322412
1.15124,-0.116127,-0.231418
1.15046,-0.0594879,0
1.17073,-0.176221,-0.013783
1.14074,-0.0589848,-0.177709
1.15675,-0.116682,-0.147986
1.13598,-0.00317226,0.00660233
1.13987,-0.0589404,-0.122947
1.15393,-0.173691,-0.10893
1.16678,-0.175625,0.0137365
1.14766,-0.059343,-0.0803595
1.15032,-0.116034,-0.0943828
1.13951,-0.00318214,0.0331632
1.15397,-0.116402,0.0202448
1.13367,-0.00316582,-0.0726558
1.15304,-0.173557,-0.0679064
1.14523,-0.115521,0.0468948
1.14523,-0.0592171,-0.0534177
1.15654,-0.116661,-0.0609191
1.13792,-0.0588394,0.139906
1.14635,-0.115633,0.0940573
1.13505,-0.00316968,-0.0462435
1.16213,-0.0600913,-0.0270783
1.1398,-0.00716169,-0.0198957
1.14529,-0.119566,-0.0335123
1.14613,-0.0632758,-0.321334
1.16644,-0.121774,-0.234556
1.15025,-0.0635034,0
1.16616,-0.179697,-0.0137365
1.14052,-0.0629664,-0.177709
1.15634,-0.12072,-0.147986
1.13996,-0.00716266,0.00662558
1.16167,-0.121276,-0.00678832
1.14363,-0.0631381,-0.123376
1.15725,-0.178325,-0.109302
1.1622,-0.179088,0.0136899
1.14745,-0.0633487,-0.0803595
1.1499,-0.120048,-0.0943828
1.1355,-0.00713463,0.0330468
1.15753,-0.120845,0.0203146
1.13764,-0.00714812,-0.0729116
1.15242,-0.177581,-0.0679064
1.14432,-0.0631758,0.0667436
1.14085,-0.119103,0.046732
1.15698,-0.0638751,-0.0539761
1.15612,-0.120697,-0.0609191
1.14167,-0.06303,0.140393
1.13801,-0.118806,0.0934064
1.13504,-0.00713173,-0.0462435
1.15393,-0.0637066,-0.0268922
1.13977,-0.0111403,-0.0198957
1.14486,-0.123563,-0.0335123
1.1459,-0.0672761,-0.321334
1.1504,-0.124161,-0.231418
1.14603,-0.0672837,0
1.16552,-0.183767,-0.0137365
1.14424,-0.0671788,-0.178324
1.1638,-0.125607,-0.148997
1.13993,-0.0111418,0.00662558
1.16521,-0.12576,-0.00681156
1.15135,-0.0675959,-0.124233
1.15662,-0.182363,-0.109302
1.1512,-0.0675875,-0.0806385
1.15741,-0.124917,-0.0950337
1.14746,-0.0112154,0.0333959
1.16506,-0.125743,0.0204542
1.13761,-0.0111192,-0.0729116
1.15968,-0.182846,-0.0683715
1.15206,-0.0676379,0.0672087
1.14837,-0.123942,0.0470576
1.15276,-0.0676791,-0.05379
1.15172,-0.124304,-0.0607097
1.14145,-0.0670148,0.140393
1.13759,-0.122778,0.0934064
1.139,-0.0111328,-0.0464063
1.1537,-0.0677342,-0.0268922
1.14373,-0.0151718,-0.0199656
1.14045,-0.127116,-0.0333959
1.15776,-0.129045,-0.232987
1.14978,-0.071532,0
1.16092,-0.187197,-0.0136899
1.144,-0.0711726,-0.178324
1.16729,-0.130108,-0.149502
1.14388,-0.0151739,0.00664883
1.16874,-0.130269,-0.00683481
1.1511,-0.0716145,-0.124233
1.15205,-0.185765,-0.10893
1.15745,-0.0720093,0.0269852
1.16487,-0.187834,0.0137365
1.14299,-0.07111,-0.0800804
1.16093,-0.129398,-0.0953592
1.13542,-0.0150617,0.0330468
1.14156,-0.0151431,-0.0731674
1.15115,-0.185622,-0.0679064
1.15182,-0.071659,0.0672087
1.15191,-0.128393,0.0472204
1.15651,-0.0719507,-0.0539761
1.15525,-0.128766,-0.0609191
1.13328,-0.0705058,0.139419
1.153,-0.128515,0.0947082
1.13895,-0.0151086,-0.0464063
1.15745,-0.0720093,-0.0269852
1.14766,-0.0192311,-0.0200354
1.14397,-0.131553,-0.0335123
1.1573,-0.133086,-0.232987
1.14553,-0.0752827,0
1.16816,-0.192549,-0.013783
1.1398,-0.0749063,-0.177709
1.16289,-0.133728,-0.148997
1.13982,-0.0190997,0.00662558
1.16828,-0.134348,-0.00683481
1.14688,-0.0753713,-0.123804
1.15139,-0.189786,-0.10893
1.16026,-0.191248,0.0136899
1.14672,-0.075361,-0.0803595
1.15254,-0.132539,-0.0947082
1.14336,-0.0191589,0.0332796
1.13751,-0.0190609,-0.0729116
1.15838,-0.190938,-0.0683715
1.14748,-0.131956,0.0470576
1.14828,-0.0754632,-0.0536039
1.15479,-0.132797,-0.0609191
1.13699,-0.0747216,0.139906
1.13274,-0.130261,0.093081
1.1309,-0.0189502,-0.0460806
1.16118,-0.0763113,-0.0270783
1.14359,-0.0231561,-0.0199656
1.15145,-0.136487,-0.033745
1.14897,-0.079538,-0.322412
1.16462,-0.138048,-0.234556
1.14925,-0.0795571,0
1.16748,-0.196626,-0.013783
1.13953,-0.0788844,-0.177709
1.16242,-0.137787,-0.148997
1.13975,-0.0230783,0.00662558
1.14661,-0.0793742,-0.123804
1.15072,-0.193804,-0.10893
1.16748,-0.196626,0.013783
1.15839,-0.08019,-0.0811965
1.15999,-0.1375,-0.0953592
1.13928,-0.0230689,0.0331632
1.1597,-0.137465,0.0203844
1.13344,-0.0229506,-0.0726558
1.14983,-0.193654,-0.0679064
1.15527,-0.0799741,0.0674413
1.14701,-0.135961,0.0470576
1.15598,-0.0800228,-0.0539761
1.15036,-0.136357,-0.0607097
1.1486,-0.0795125,0.141368
1.1402,-0.135153,0.0937319
1.13483,-0.0229786,-0.0462435
1.13951,-0.0270529,-0.0198957
1.147,-0.140021,-0.0336287
1.14101,-0.0829894,-0.320256
1.16803,-0.142588,-0.235341
1.14498,-0.0832781,0
1.16284,-0.200022,-0.0137365
1.13925,-0.0828617,-0.177709
1.16587,-0.142324,-0.149502
1.13966,-0.0270566,0.00662558
1.16731,-0.142501,-0.00683481
1.15426,-0.0839531,-0.124661
1.15004,-0.197819,-0.10893
1.15264,-0.0838358,0.0268922
1.16678,-0.2007,0.013783
1.16209,-0.0845226,-0.0814756
1.15555,-0.141065,-0.0950337
1.1352,-0.0269507,0.0330468
1.16319,-0.141997,0.0204542
1.14134,-0.0270964,-0.0731674
1.15308,-0.198343,-0.0681389
1.14304,-0.0831373,0.0667436
1.1505,-0.140448,0.0472204
1.15968,-0.0843473,-0.0541622
1.14987,-0.140372,-0.0607097
1.1404,-0.0829454,0.140393
1.13576,-0.138649,0.0934064
1.13474,-0.0269398,-0.0462435
1.14865,-0.0835457,-0.0267991
1.13541,-0.0309215,-0.0198259
1.1465,-0.144024,-0.0336287
1.15974,-0.145686,-0.233772
1.14867,-0.0875784,0
1.17396,-0.206155,-0.0138762
1.14684,-0.0874388,-0.178939
1.16536,-0.146393,-0.149502
1.13556,-0.0309257,0.00660233
1.17078,-0.147073,-0.00685806
1.15396,-0.0879817,-0.124661
1.15326,-0.202521,-0.109302
1.16032,-0.0884667,0.0270783
1.16608,-0.204771,0.013783
1.15383,-0.0879718,-0.0809175
1.15901,-0.145594,-0.0953592
1.14309,-0.0311308,0.0332796
1.16268,-0.146057,0.0204542
1.14523,-0.0311889,-0.0734233
1.15632,-0.203058,-0.0683715
1.14672,-0.0874303,0.0669762
1.15,-0.144463,0.0472204
1.13945,-0.086876,-0.0532316
1.15334,-0.144883,-0.0609191
1.14802,-0.0875293,0.141368
1.14714,-0.144104,0.0943828
1.13863,-0.0310094,-0.0464063
1.16032,-0.0884667,-0.0270783
1.13529,-0.0348846,-0.0198259
1.14599,-0.148025,-0.0336287
1.14424,-0.0912592,-0.321334
1.16311,-0.150236,-0.234556
1.14437,-0.0912695,0
1.16535,-0.208841,-0.013783
1.14652,-0.0914415,-0.178939
1.16485,-0.15046,-0.149502
1.14744,-0.0352579,0.00667208
1.15364,-0.0920093,-0.124661
1.15647,-0.207248,-0.109674
1.16,-0.0925165,0.0270783
1.16142,-0.208135,0.0137365
1.14556,-0.0913644,-0.0803595
1.15849,-0.149639,-0.0953592
1.14298,-0.0351208,0.0332796
1.16217,-0.150114,0.0204542
1.14511,-0.0351863,-0.0734233
1.15953,-0.207797,-0.0686041
1.14949,-0.148477,0.0472204
1.15906,-0.0924413,-0.0541622
1.14887,-0.148396,-0.0607097
1.14375,-0.0912204,0.140881
1.13852,-0.0349838,-0.0464063
1.16399,-0.0928344,-0.0271713
1.13516,-0.0388473,-0.0198259
1.14943,-0.15255,-0.033745
1.14775,-0.0955725,-0.322412
1.15869,-0.153779,-0.233772
1.15201,-0.0959274,0
1.16855,-0.213626,-0.0138296
1.15014,-0.095771,-0.179554
1.16431,-0.154525,-0.149502
1.14331,-0.0391262,0.00664883
1.1652,-0.0970257,-0.125946
1.16357,-0.212716,-0.110418
1.15569,-0.0962332,0.0269852
1.16068,-0.212188,0.0137365
1.14921,-0.0956937,-0.0806385
1.16191,-0.154207,-0.0956846
1.14684,-0.039247,0.0333959
1.14099,-0.0390467,-0.0731674
1.17058,-0.213998,-0.0693017
1.15802,-0.0964278,0.0676738
1.15689,-0.15354,0.0475461
1.14678,-0.0954919,-0.0536039
1.16022,-0.153982,-0.0613377
1.13947,-0.0948829,0.140393
1.13439,-0.038821,-0.0462435
1.13902,-0.0429603,-0.0198957
1.14889,-0.156561,-0.033745
1.14357,-0.0992452,-0.321334
1.17369,-0.159941,-0.23691
1.15167,-0.099948,0
1.15994,-0.216238,-0.0137365
1.13798,-0.09876,-0.177709
1.15984,-0.158053,-0.148997
1.14317,-0.0431168,0.00664883
1.16917,-0.159325,-0.00685806
1.15693,-0.100405,-0.125089
1.15891,-0.216047,-0.110046
1.1678,-0.217704,0.0138296
1.14887,-0.0997046,-0.0806385
1.15347,-0.157185,-0.0950337
1.1427,-0.0430993,0.0332796
1.15713,-0.157684,0.0203844
1.13287,-0.0427284,-0.0726558
1.15805,-0.215887,-0.0686041
1.1537,-0.100124,0.0674413
1.15634,-0.157577,0.0475461
1.16237,-0.100876,-0.0543484
1.15572,-0.157492,-0.0611284
1.14704,-0.0995463,0.141368
1.13825,-0.0429312,-0.0464063
1.16331,-0.100958,-0.0271713
1.13886,-0.0469359,-0.0198957
1.15626,-0.161678,-0.0339777
1.15089,-0.103929,-0.32349
1.16147,-0.162408,-0.234556
1.15132,-0.103968,0
1.15917,-0.220286,-0.0137365
1.14157,-0.103087,-0.178324
1.17107,-0.163749,-0.150512
1.14301,-0.047107,0.00664883
1.15262,-0.104085,-0.124661
1.16597,-0.221578,-0.110789
1.16703,-0.221779,0.0138296
1.15646,-0.104432,-0.0811965
1.16081,-0.162315,-0.0956846
1.15054,-0.0474171,0.0335123
1.16449,-0.16283,0.020524
1.14069,-0.0470113,-0.0731674
1.15337,-0.219183,-0.0683715
1.14937,-0.103792,0.0672087
1.15975,-0.162166,0.0477089
1.15405,-0.104214,-0.0539761
1.15912,-0.162078,-0.0613377
1.14208,-0.0470687,-0.0465691
1.16693,-0.105378,-0.0272644
1.1387,-0.0507123,-0.0198957
1.1478,-0.164378,-0.033745
1.14671,-0.107386,-0.322412
1.16093,-0.166259,-0.234556
1.14698,-0.107412,0
1.16629,-0.225648,-0.0138296
1.14515,-0.107241,-0.178939
1.16659,-0.167069,-0.150007
1.15084,-0.051253,0.00669533
1.17202,-0.167847,-0.00688131
1.15226,-0.107907,-0.124661
1.16523,-0.225443,-0.110789
1.1626,-0.108874,0.0271713
1.17415,-0.227168,0.0139227
1.15213,-0.107894,-0.0809175
1.16026,-0.166163,-0.0956846
1.14238,-0.0508764,0.0332796
1.1679,-0.167257,0.0205938
1.14053,-0.0507937,-0.0731674
1.16048,-0.224523,-0.0688366
1.15299,-0.107975,0.0674413
1.15129,-0.164878,0.0473833
1.15767,-0.108413,-0.0541622
1.15462,-0.165355,-0.0611284
1.14192,-0.0508558,-0.0465691
1.1626,-0.108874,-0.0271713
1.14251,-0.0548786,-0.0199656
1.15513,-0.169545,-0.0339777
1.15646,-0.16974,-0.233772
1.15456,-0.112189,0
1.16942,-0.230491,-0.0138762
1.15657,-0.112384,-0.180783
1.17385,-0.172293,-0.151017
1.15465,-0.0554618,0.00671857
1.17143,-0.171937,-0.00688131
1.14396,-0.111159,-0.123804
1.15272,-0.227199,-0.109674
1.15425,-0.112158,0.0269852
1.14778,-0.111529,-0.0806385
1.15968,-0.170212,-0.0956846
1.15418,-0.0554392,0.0336287
1.16731,-0.171333,0.0205938
1.14433,-0.0549661,-0.0734233
1.15969,-0.228573,-0.0688366
1.15261,-0.111999,0.0674413
1.15466,-0.169476,0.0475461
1.15729,-0.112454,-0.0541622
1.15799,-0.169964,-0.0613377
1.13774,-0.0546497,-0.0464063
1.16619,-0.113319,-0.0272644
1.1503,-0.059278,-0.0201052
1.16244,-0.174765,-0.0342105
1.14593,-0.115389,-0.322412
1.17138,-0.176109,-0.23691
1.15018,-0.115817,0
1.149,-0.230636,-0.0136434
1.14438,-0.115233,-0.178939
1.16539,-0.175209,-0.150007
1.15445,-0.0594919,0.00671857
1.17127,-0.11794,-0.126803
1.16753,-0.234356,-0.111161
1.15135,-0.115935,-0.0809175
1.15513,-0.173666,-0.0953592
1.14599,-0.0590562,0.0333959
1.14413,-0.0589602,-0.0734233
1.1628,-0.233405,-0.0690692
1.16016,-0.116822,0.0679064
1.15011,-0.172911,0.0473833
1.15689,-0.116493,-0.0541622
1.16134,-0.174599,-0.0615471
1.13755,-0.0586209,-0.0464063
1.15408,-0.0635127,-0.020175
1.14601,-0.176388,-0.033745
1.15318,-0.120187,-0.324569
1.15912,-0.178406,-0.234556
1.14977,-0.119832,0
1.15211,-0.235446,-0.0136899
1.1479,-0.119636,-0.179554
1.16085,-0.178672,-0.149502
1.15024,-0.0633015,0.00669533
1.1702,-0.180111,-0.00688131
1.15107,-0.119967,-0.124661
1.17061,-0.239228,-0.111533
1.16139,-0.121043,0.0271713
1.15491,-0.120367,-0.0811965
1.15846,-0.178304,-0.0956846
1.14977,-0.0632758,0.0335123
1.13595,-0.062515,-0.0729116
1.15806,-0.236663,-0.0688366
1.15974,-0.120871,0.0679064
1.1574,-0.178141,0.0477089
1.16045,-0.120944,-0.0543484
1.15282,-0.177437,-0.0611284
1.13733,-0.0625913,-0.0464063
1.16935,-0.121872,-0.0273575
1.13787,-0.0668046,-0.0198957
1.15721,-0.182456,-0.0340941
1.15656,-0.124826,-0.325647
1.16621,-0.183875,-0.236125
1.1533,-0.124474,0
1.1669,-0.242928,-0.0138762
1.14352,-0.123419,-0.178939
1.16803,-0.184162,-0.150512
1.15399,-0.0677514,0.00671857
1.17348,-0.185022,-0.00690455
1.15458,-0.124612,-0.125089
1.16583,-0.242705,-0.111161
1.16094,-0.125299,0.0271713
1.15843,-0.125027,-0.0814756
1.16567,-0.183791,-0.0963355
1.14953,-0.0674895,0.0335123
1.16147,-0.183128,0.020524
1.13571,-0.066678,-0.0729116
1.15719,-0.240906,-0.0688366
1.15929,-0.125121,0.0679064
1.15279,-0.181759,0.0475461
1.14411,-0.123482,-0.0536039
1.16006,-0.182905,-0.0615471
1.13311,-0.0665252,-0.0462435
1.16094,-0.125299,-0.0271713
1.14562,-0.0710728,-0.0200354
1.14475,-0.184385,-0.033745
1.17721,-0.189613,-0.238479
1.16083,-0.129183,0
1.17,-0.247625,-0.0139227
1.15489,-0.128521,-0.180783
1.17133,-0.188665,-0.151017
1.14977,-0.0713301,0.00669533
1.16891,-0.188276,-0.00688131
1.15021,-0.128,-0.124661
1.15722,-0.24492,-0.110418
1.16052,-0.129148,0.0271713
1.15404,-0.128427,-0.0811965
1.16506,-0.187655,-0.0963355
1.1493,-0.0713011,0.0335123
1.16481,-0.187615,0.0205938
1.13947,-0.0706909,-0.0731674
1.15638,-0.244742,-0.0688366
1.1549,-0.128523,0.0676738
1.15218,-0.185581,0.0475461
1.15958,-0.129043,-0.0543484
1.15944,-0.186751,-0.0615471
1.14086,-0.0707773,-0.0465691
1.16449,-0.12959,-0.0272644
1.14936,-0.0753329,-0.0201052
1.15199,-0.189679,-0.0339777
1.14803,-0.131817,-0.32349
1.16106,-0.191172,-0.235341
1.14448,-0.131409,0
1.18086,-0.254233,-0.0140624
1.14658,-0.13165,-0.179554
1.17067,-0.192753,-0.151017
1.14951,-0.0753431,0.00669533
1.17614,-0.193655,-0.0069278
1.1458,-0.13156,-0.124233
1.16415,-0.250635,-0.111161
1.16006,-0.133198,0.0271713
1.15359,-0.132454,-0.0811965
1.16833,-0.192368,-0.096661
1.14905,-0.0753125,0.0335123
1.16415,-0.191679,0.0205938
1.1432,-0.0749291,-0.0734233
1.16723,-0.251298,-0.0695343
1.15841,-0.133009,0.0679064
1.15941,-0.1909,0.0478718
1.16706,-0.134001,-0.0547206
1.15484,-0.190148,-0.0613377
1.14459,-0.0750205,-0.046732
1.14907,-0.079545,-0.0201052
1.15129,-0.1939,-0.0339777
1.15137,-0.136477,-0.324569
1.16035,-0.195426,-0.235341
1.14796,-0.136074,0
1.15394,-0.136782,-0.180783
1.16995,-0.197042,-0.151017
1.15721,-0.0801083,0.00674182
1.17543,-0.197964,-0.0069278
1.16901,-0.138568,-0.126803
1.15933,-0.254047,-0.110789
1.14913,-0.136212,-0.0809175
1.16369,-0.195987,-0.0963355
1.14079,-0.0789712,0.0332796
1.17132,-0.197273,0.0207335
1.1469,-0.0793943,-0.0736791
1.1624,-0.25472,-0.0693017
1.15792,-0.137254,0.0679064
1.16259,-0.137808,-0.0545345
1.15414,-0.194379,-0.0613377
1.13634,-0.0786632,-0.0464063
1.15279,-0.0836445,-0.020175
1.15458,-0.198394,-0.0340941
1.15473,-0.14076,-0.325647
1.16743,-0.200601,-0.23691
1.14751,-0.13988,0
1.15741,-0.141086,-0.181398
1.16929,-0.200921,-0.151017
1.15295,-0.0836558,0.00671857
1.1567,-0.141,-0.125518
1.16237,-0.258756,-0.111161
1.16307,-0.141777,0.0272644
1.14471,-0.139539,-0.0806385
1.16696,-0.20052,-0.096661
1.15248,-0.0836218,0.0336287
1.17066,-0.201157,0.0207335
1.14663,-0.0831971,-0.0736791
1.16545,-0.259441,-0.0695343
1.15746,-0.141093,0.0679064
1.16213,-0.141662,-0.0545345
1.15743,-0.198882,-0.0615471
1.14005,-0.0827202,-0.0465691
1.14452,-0.0870613,-0.0200354
1.15388,-0.202423,-0.0340941
1.15423,-0.14479,-0.325647
1.17445,-0.206031,-0.238479
1.15892,-0.145378,0
1.14906,-0.144142,-0.180169
1.16858,-0.205001,-0.151017
1.14866,-0.0873765,0.00669533
1.17405,-0.205961,-0.0069278
1.15225,-0.144542,-0.125089
1.16923,-0.26457,-0.111905
1.16257,-0.145836,0.0272644
1.15609,-0.145024,-0.0814756
1.16232,-0.203904,-0.0963355
1.15218,-0.0876442,0.0336287
1.17389,-0.205933,0.0208033
1.14633,-0.0871991,-0.0736791
1.16064,-0.262626,-0.0693017
1.14903,-0.144138,0.0674413
1.16559,-0.146215,-0.0547206
1.15672,-0.202921,-0.0615471
1.14374,-0.0870024,-0.046732
1.17051,-0.146832,-0.0274505
1.14022,-0.0907386,-0.0199656
1.15317,-0.206449,-0.0340941
1.15372,-0.148818,-0.325647
1.16986,-0.209438,-0.237694
1.1584,-0.149422,0
1.15247,-0.148658,-0.180783
1.16786,-0.209079,-0.151017
1.15234,-0.0917028,0.00671857
1.16939,-0.209353,-0.00690455
1.1478,-0.148054,-0.124661
1.1683,-0.268649,-0.111905
1.15809,-0.149382,0.0271713
1.15162,-0.148548,-0.0811965
1.16945,-0.209365,-0.0969865
1.15187,-0.0916656,0.0336287
1.16529,-0.20862,0.0206636
1.14204,-0.0908833,-0.0734233
1.17139,-0.269361,-0.0699994
1.16436,-0.150191,0.0683715
1.14526,-0.147727,-0.05379
1.15208,-0.206254,-0.0613377
1.14742,-0.0913113,-0.0468948
1.16602,-0.150405,-0.0273575
1.14787,-0.0953805,-0.0201052
1.15638,-0.211192,-0.0342105
1.15319,-0.152845,-0.325647
1.16913,-0.21352,-0.237694
1.15391,-0.15294,0
1.15587,-0.153199,-0.181398
1.17103,-0.213867,-0.151522
1.15998,-0.0963871,0.00676507
1.17652,-0.214871,-0.00695105
1.16304,-0.15415,-0.126375
1.16348,-0.27182,-0.111533
1.1511,-0.152567,-0.0811965
