1.86768,0.0808917,-0.0979729
1.83218,0.0793541,0.149711
1.99038,0.282564,-0.0819031
1.93125,0.178476,-0.0451305
1.84974,0.0739702,-0.0538757
1.86945,0.0747586,-0.374192
1.92837,0.171763,0
1.78781,-0.0159136,-0.0208143
1.92119,0.171124,-0.300076
1.86346,0.0745191,-0.237384
1.86248,0.0744798,-0.0108334
1.9252,0.171481,-0.208197
1.79612,-0.0159876,-0.167671
1.93183,0.172072,0.0451305
1.79581,-0.0159848,0.0209074
1.92764,0.171699,-0.135328
1.86032,0.0743934,-0.151989
1.85823,0.0743099,0.0324615
1.99283,0.276174,-0.128938
1.7889,-0.0159233,-0.104185
1.841,0.0736208,0.0750642
1.9223,0.171223,-0.0898981
1.85597,0.0742194,-0.0973449
1.83243,0.0732783,0.149711
1.98338,0.274865,-0.0815774
1.92386,0.171362,-0.0449444
1.84998,0.0675134,-0.0538757
1.86186,0.0679469,-0.372623
1.92895,0.165031,0
1.78374,-0.0221042,-0.0207677
1.85975,0.0678696,-0.236879
1.84674,0.0673949,-0.0107404
1.91786,0.164082,-0.20734
1.78809,-0.022158,-0.166928
1.93242,0.165328,0.0451305
1.78374,-0.0221042,0.0207677
1.92425,0.164629,-0.135049
1.86057,0.0678996,-0.151989
1.85448,0.0676775,0.0323917
1.98587,0.268148,-0.128427
1.78484,-0.0221178,-0.103953
1.84125,0.0671945,0.0750642
1.92288,0.164512,-0.0898981
1.85622,0.0677407,-0.0973449
1.82471,0.066591,0.14906
1.98433,0.26794,-0.0815774
1.91648,0.163964,-0.0447583
1.84223,0.0604696,-0.0536429
1.85818,0.0609932,-0.371838
1.92157,0.157307,0
1.77965,-0.028578,-0.0207211
1.91449,0.156727,-0.298846
1.85602,0.0609222,-0.236374
1.83898,0.0603629,-0.0106939
1.91448,0.156727,-0.206912
1.78003,-0.0285841,-0.166184
1.91308,0.156612,0.0446652
1.79165,-0.0287707,0.0208608
1.92485,0.157575,-0.135049
1.85284,0.0608178,-0.151338
1.84672,0.0606172,0.032252
1.98288,0.260347,-0.128171
1.77277,-0.0284675,-0.103255
1.8295,0.0600517,0.0745757
1.91551,0.156811,-0.0895259
1.84847,0.0606744,-0.0969262
1.82893,0.060033,0.149385
1.98134,0.260145,-0.0814146
1.91707,0.156938,-0.0447583
1.83442,0.0541238,-0.0534102
1.84661,0.0544834,-0.369485
1.91411,0.150307,0
1.78754,-0.0346349,-0.0208143
1.915,0.150377,-0.298846
1.85621,0.0547666,-0.236374
1.84717,0.0544997,-0.0107404
1.9031,0.149443,-0.205626
1.77993,-0.0344873,-0.166184
1.91359,0.150267,0.0446652
1.77555,-0.0344024,0.0206746
1.90945,0.149941,-0.133932
1.85701,0.0547903,-0.151663
1.84292,0.0543744,0.0321822
1.97185,0.25225,-0.127403
1.76468,-0.0341918,-0.10279
1.82969,0.053984,0.0745757
1.90805,0.149832,-0.0891536
1.83668,0.0541904,-0.0962982
1.82513,0.0538497,0.14906
1.96633,0.251544,-0.0807633
1.80937,0.0533847,0.330039
1.91359,0.150267,-0.0446652
1.83061,0.0476166,-0.0532939
1.83895,0.0478336,-0.367916
1.90664,0.143027,0
1.77142,-0.0405082,-0.020628
1.89974,0.142509,-0.296387
1.84846,0.0480809,-0.235364
1.83935,0.047844,-0.0106939
1.90757,0.143097,-0.206055
1.7798,-0.0406998,-0.166184
1.91011,0.143287,0.0445722
1.76742,-0.0404168,0.0205814
1.91394,0.143574,-0.134211
1.83726,0.0477898,-0.150036
1.8311,0.0476295,0.0319728
1.96876,0.244873,-0.127148
1.77253,-0.0405337,-0.103255
1.82986,0.0475973,0.0745757
1.90856,0.143171,-0.0891536
1.83286,0.0476753,-0.0960888
1.80937,0.0470642,0.147758
1.96323,0.244186,-0.0806004
1.79381,0.0466595,0.327169
1.90214,0.142689,-0.0443861
1.97338,0.238108,-0.0346954
1.82277,0.0407285,-0.0530611
1.83519,0.041006,-0.367132
1.90316,0.135753,0
1.76726,-0.046894,-0.0205814
1.89631,0.135265,-0.295772
1.83672,0.0410401,-0.233849
1.83151,0.0409238,-0.0106474
1.90015,0.135539,-0.205198
1.77963,-0.0472224,-0.166184
1.90664,0.136001,0.0444791
1.77525,-0.0471062,0.0206746
1.91047,0.136275,-0.133932
1.83743,0.041056,-0.150036
1.82327,0.0407396,0.0318332
1.95379,0.235743,-0.126124
1.77237,-0.0470297,-0.103255
1.83002,0.0408906,0.0745757
1.90907,0.136175,-0.0891536
1.83303,0.0409576,-0.0960888
1.80953,0.0404326,0.147758
1.95618,0.236031,-0.0802748
1.90664,0.136001,-0.0444791
1.96225,0.230165,-0.034486
1.8269,0.0347602,-0.0531775
1.83924,0.034995,-0.367916
1.89961,0.129171,0
1.77109,-0.0528732,-0.020628
1.90464,0.129512,-0.297001
1.83684,0.0349495,-0.233849
1.82764,0.0347743,-0.0106242
1.89266,0.128697,-0.204341
1.76354,-0.0526479,-0.164697
1.91107,0.12995,0.0445722
1.7591,-0.0525151,0.0204883
1.90295,0.129397,-0.133374
1.82958,0.0348113,-0.149385
1.82339,0.0346936,0.0318332
1.95853,0.229729,-0.12638
1.76023,-0.052549,-0.102557
1.88843,0.12841,0.110232
1.81417,0.034518,0.0739244
1.90154,0.129302,-0.0887814
1.83315,0.0348792,-0.0960888
1.80567,0.0343563,0.147432
1.95695,0.229544,-0.0802748
1.89112,0.128593,-0.0441069
1.95906,0.222861,-0.0344161
1.81101,0.028134,-0.052712
1.8315,0.0284523,-0.366347
1.89606,0.122281,0
1.7709,-0.0590556,-0.020628
1.88536,0.121591,-0.293927
1.82902,0.0284138,-0.232839
1.81975,0.0282697,-0.0105777
1.88912,0.121834,-0.203913
1.76335,-0.0588039,-0.164697
1.89954,0.122505,0.044293
1.75491,-0.0585223,0.0204417
1.88746,0.121726,-0.132258
1.83368,0.0284861,-0.149711
1.8195,0.0282659,0.0317634
1.94742,0.221537,-0.125613
1.75206,-0.0584273,-0.102092
1.89285,0.122074,0.110464
1.81028,0.0281226,0.0737616
1.88603,0.121634,-0.0880369
1.83326,0.0284797,-0.0960888
1.80179,0.0279907,0.147107
1.94583,0.221355,-0.0797863
1.88358,0.121476,-0.0439208
1.95585,0.215583,-0.0343463
1.80311,0.0217155,-0.0524793
1.82375,0.0219641,-0.364778
1.89648,0.115661,0
1.75869,-0.0647955,-0.0204883
1.88577,0.115008,-0.293927
1.82514,0.0219808,-0.232334
1.82384,0.0219651,-0.0106009
1.88954,0.115238,-0.203913
1.74721,-0.0643727,-0.16321
1.89596,0.11563,0.0442
1.75469,-0.0646482,0.0204417
1.89186,0.11538,-0.132537
1.82181,0.0219407,-0.148734
1.81159,0.0218177,0.0316238
1.94818,0.214737,-0.125613
1.75184,-0.0645432,-0.102092
1.87733,0.114493,0.109534
1.81037,0.0218029,0.0737616
1.89442,0.115536,-0.0884091
1.81737,0.0218873,-0.0952514
1.79789,0.0216526,0.146782
1.94659,0.214561,-0.0797863
1.88,0.114656,-0.0438278
1.95258,0.20867,-0.0342765
1.80317,0.0157355,-0.0524793
1.81597,0.0158472,-0.363209
1.87688,0.10822,0
1.75047,-0.0703066,-0.0203952
1.87036,0.107844,-0.291467
1.82124,0.0158932,-0.231828
1.94887,0.208274,0.0113914
1.8199,0.0158815,-0.0105777
1.878,0.108284,-0.202628
1.74699,-0.0701668,-0.16321
1.88835,0.108881,0.0440139
1.75047,-0.0703066,0.0203952
1.88825,0.108875,-0.132258
1.80991,0.0157944,-0.147758
1.81166,0.0158096,0.0316238
1.93697,0.207002,-0.124845
1.74763,-0.0701924,-0.10186
1.87371,0.108037,0.109301
1.81043,0.0157989,0.0737616
1.89081,0.109023,-0.088223
1.80945,0.0157903,-0.0948328
1.78998,0.0156204,0.146131
1.93934,0.207255,-0.0794606
1.87637,0.108191,-0.0437347
1.94534,0.201032,-0.0341369
1.79921,0.00942151,-0.052363
1.80817,0.00946838,-0.36164
1.87725,0.101669,0
1.74222,-0.0760663,-0.020302
1.86677,0.101102,-0.290852
1.80938,0.00947472,-0.230313
1.93765,0.200237,0.0113216
1.81594,0.00950912,-0.0105544
1.87837,0.101729,-0.202628
1.75469,-0.0766108,-0.163953
1.88872,0.10229,0.0440139
1.73823,-0.0758919,0.0202555
1.87666,0.101637,-0.131421
1.80597,0.00945687,-0.147432
1.8037,0.009445,0.0314841
1.92974,0.19942,-0.124333
1.73939,-0.0759428,-0.101394
1.8661,0.101065,0.108836
1.79848,0.00941768,0.0732731
1.8832,0.101991,-0.0878508
1.80949,0.00947533,-0.0948328
1.79002,0.00937337,0.146131
1.9321,0.199664,-0.079135
1.86476,0.100993,-0.0434555
1.93811,0.193107,-0.0339973
1.79524,0.00282025,-0.0522466
1.80034,0.00282827,-0.360071
1.86962,0.094384,0
1.74593,-0.0826409,-0.0203486
1.86319,0.0940592,-0.290237
1.80543,0.00283626,-0.229808
1.93439,0.192737,0.0112984
1.80797,0.00284025,-0.0105079
1.86681,0.0942422,-0.201342
1.74644,-0.0826654,-0.16321
1.87311,0.0945601,0.0436417
1.74593,-0.0826409,0.0203486
1.88101,0.0949588,-0.1317
1.80998,0.0028434,-0.147758
1.79572,0.00282101,0.0313445
1.93046,0.192346,-0.124333
1.74309,-0.0825067,-0.101627
1.85848,0.0938217,0.108371
1.79051,0.00281282,0.0729474
1.87957,0.0948861,-0.0876646
1.80552,0.0028364,-0.0946234
1.78606,0.00280582,0.145805
1.93282,0.192581,-0.079135
1.759,0.00276332,0.320712
1.86113,0.0939552,-0.0433625
1.93476,0.186296,-0.0339275
1.78324,-0.0031117,-0.0518975
1.80819,-0.00315523,-0.36164
1.87392,0.0883724,0
1.74564,-0.0884298,-0.0203486
1.86349,0.0878805,-0.290237
1.8094,-0.00315734,-0.230313
1.939,0.186705,0.0113216
1.80797,-0.00315484,-0.0105079
1.86711,0.0880515,-0.201342
1.73423,-0.0878515,-0.162094
1.86942,0.0881601,0.0435486
1.72966,-0.0876204,0.0201624
1.86935,0.0881571,-0.130863
1.802,-0.00314444,-0.147107
1.79572,-0.00313348,0.0313445
1.92712,0.185561,-0.124078
1.73882,-0.0880842,-0.101394
1.8508,0.0872824,0.107906
1.79051,-0.00312439,0.0729474
1.8679,0.0880885,-0.0871063
1.79753,-0.00313663,-0.0942047
1.78207,-0.00310965,0.14548
1.92151,0.185021,-0.0786465
1.76687,-0.00308313,0.322146
1.85743,0.087595,-0.0432694
1.93141,0.179172,-0.0338577
1.77123,-0.00927403,-0.0515484
1.7964,-0.00940584,-0.359287
1.87022,0.0816557,0
1.74532,-0.0945232,-0.0203486
1.85194,0.0808575,-0.288393
1.79747,-0.00941146,-0.228798
1.92769,0.178827,0.0112519
1.81194,-0.00948723,-0.0105312
1.86344,0.0813595,-0.200914
1.73391,-0.093905,-0.162094
1.86971,0.0816336,0.0435486
1.72535,-0.0934417,0.0201158
1.87364,0.0818049,-0.131142
1.79401,-0.00939331,-0.146456
1.7917,-0.00938125,0.0312747
1.92378,0.178464,-0.123822
1.73451,-0.0939378,-0.101162
1.84711,0.0806466,0.107673
1.78649,-0.00935397,0.0727846
1.87218,0.0817415,-0.0872924
1.78553,-0.0093489,-0.0935767
1.77407,-0.00928894,0.144829
1.92215,0.178312,-0.0786465
1.75504,-0.0091893,0.319994
1.85773,0.0811103,-0.0432694
1.92409,0.171382,-0.033718
1.77518,-0.015801,-0.0516648
1.78851,-0.0159197,-0.357718
1.86651,0.074641,0
1.72899,-0.0999954,-0.0201624
1.84037,0.0735959,-0.286548
1.79743,-0.0159991,-0.228798
1.92036,0.171051,0.0112054
1.7959,-0.0159855,-0.0104382
1.85577,0.0742117,-0.200057
1.72958,-0.100029,-0.161723
1.85801,0.0743013,0.0432694
1.725,-0.0997644,0.0201158
1.85797,0.0742998,-0.130026
1.78599,-0.0158973,-0.145805
1.89967,0.169208,0.0555047
1.78766,-0.0159121,0.0312049
1.91647,0.170703,-0.12331
1.73416,-0.100294,-0.101162
1.8434,0.073717,0.107441
1.78245,-0.0158658,0.0726218
1.86049,0.0744005,-0.086734
1.78148,-0.0158572,-0.0933674
1.76605,-0.0157198,0.144178
1.91084,0.170203,-0.078158
1.75893,-0.0156564,0.320712
1.84602,0.0738219,-0.0429903
1.92866,0.165005,-0.0337879
1.77511,-0.0219979,-0.0516648
1.78844,-0.0221631,-0.357718
1.85477,0.0676871,0
1.72464,-0.105786,-0.0201158
1.84457,0.067315,-0.287163
1.78546,-0.0221261,-0.227283
1.90899,0.163323,0.0111356
1.79983,-0.0223043,-0.0104614
1.85602,0.0677329,-0.200057
1.72524,-0.105823,-0.161351
1.85826,0.0678146,0.0432694
1.71666,-0.105296,0.0200227
1.84626,0.0673767,-0.129189
1.77795,-0.0220331,-0.145154
1.89627,0.162234,0.0553884
1.78359,-0.022103,0.0311351
1.91307,0.163672,-0.123054
1.72583,-0.105858,-0.100697
1.83966,0.0671357,0.107208
1.77439,-0.021989,0.0722961
1.86074,0.0679052,-0.086734
1.78541,-0.0221256,-0.0935767
1.76599,-0.0218849,0.144178
1.91143,0.163531,-0.078158
1.75887,-0.0217966,0.320712
1.84627,0.0673771,-0.0429903
1.90528,0.156642,-0.033369
1.77103,-0.027822,-0.0515484
1.78444,-0.0280326,-0.356934
1.84698,0.0612704,0
1.72029,-0.111247,-0.0200692
1.84083,0.0610662,-0.286548
1.78141,-0.027985,-0.226778
1.90554,0.156663,0.0111124
1.78375,-0.0280218,-0.0103685
1.84431,0.0611817,-0.198772
1.72488,-0.111544,-0.161351
1.85048,0.0613864,0.0430833
1.71231,-0.11073,0.0199761
1.85844,0.0616503,-0.130026
1.78185,-0.027992,-0.14548
1.90078,0.156272,0.0555047
1.77951,-0.0279552,0.0310653
1.90565,0.156672,-0.122543
1.7175,-0.111066,-0.100232
1.8279,0.0606371,0.106511
1.77431,-0.0278735,0.0722961
1.85696,0.0616014,-0.0865479
1.78134,-0.0279838,-0.0933674
1.75395,-0.0275536,0.143201
1.90797,0.156864,-0.0779952
1.74305,-0.0273824,0.317842
1.83849,0.0609886,-0.0428042
1.90582,0.149992,-0.033369
1.76293,-0.0338491,-0.0513157
1.78825,-0.0343353,-0.357718
1.84319,0.0547054,0
1.7159,-0.116978,-0.0200227
1.84498,0.0547587,-0.287163
1.77336,-0.0340495,-0.225768
1.8981,0.149384,0.0110659
1.79164,-0.0344004,-0.0104149
1.83259,0.0543908,-0.197487
1.71654,-0.117021,-0.160607
1.8347,0.0544533,0.0427111
1.7159,-0.116978,0.0200227
1.84668,0.0548089,-0.129189
1.77776,-0.0341339,-0.145154
1.89334,0.14901,0.055272
1.7834,-0.0342422,0.0311351
1.91016,0.150334,-0.122798
1.7171,-0.117059,-0.100232
1.8281,0.0542575,0.106511
1.76221,-0.0338354,0.0718077
1.84918,0.0548832,-0.0861756
1.77723,-0.0341238,-0.093158
1.81754,0.0539443,0.223265
1.75384,-0.0336747,0.143201
1.90054,0.149577,-0.0776695
1.77442,-0.0340697,0.323581
1.83869,0.054572,-0.0428042
1.89835,0.142738,-0.0332294
1.75481,-0.0398218,-0.051083
1.77243,-0.0402218,-0.35458
1.83937,0.0481659,0
1.71548,-0.122967,-0.0200227
1.83726,0.0481107,-0.285933
1.7772,-0.0403299,-0.226273
1.89462,0.142458,0.0110426
1.77551,-0.0402917,-0.010322
1.83277,0.047993,-0.197487
1.71214,-0.122728,-0.160236
1.83088,0.0479436,0.0426181
1.70351,-0.122109,0.019883
1.83489,0.0480486,-0.128352
1.77364,-0.0402492,-0.144829
1.89385,0.1424,0.055272
1.77927,-0.040377,0.0310653
1.89873,0.142767,-0.122031
1.72066,-0.123338,-0.100464
1.82029,0.0476663,0.106046
1.76608,-0.0400776,0.0719705
1.84137,0.0482184,-0.0858034
1.76912,-0.0401465,-0.0927393
1.74973,-0.0397065,0.142876
1.90105,0.142941,-0.0776695
1.83088,0.0479436,-0.0426181
1.89884,0.13611,-0.0332294
1.75066,-0.0458426,-0.0509666
1.76836,-0.0463062,-0.353796
1.83153,0.0415632,0
1.70308,-0.128055,-0.019883
1.82951,0.0415175,-0.284703
1.76911,-0.0463259,-0.225263
1.88713,0.135271,0.0109961
1.77936,-0.0465942,-0.0103452
1.83292,0.0415948,-0.197487
1.71171,-0.128704,-0.160236
1.83103,0.041552,0.0426181
1.70308,-0.128055,0.019883
1.83505,0.041643,-0.128352
1.76552,-0.0462318,-0.144178
1.89035,0.135502,0.0551557
1.77512,-0.0464832,0.0309955
1.89524,0.135852,-0.121775
1.71624,-0.129045,-0.100232
1.81645,0.0412211,0.105813
1.75394,-0.0459286,0.071482
1.83753,0.0416995,-0.0856173
1.76497,-0.0462174,-0.09253
1.74161,-0.0456056,0.142225
1.88559,0.135161,-0.0770182
1.83103,0.041552,-0.0426181
1.89531,0.129209,-0.0331596
1.75049,-0.0519533,-0.0509666
1.76427,-0.0523623,-0.353011
1.82766,0.0350929,0
1.69464,-0.133371,-0.0197898
1.8257,0.0350552,-0.284088
1.76498,-0.0523833,-0.224757
1.88759,0.128683,0.0109961
1.77519,-0.0526864,-0.010322
1.83306,0.0351965,-0.197487
1.70728,-0.134365,-0.159864
1.82717,0.0350834,0.042525
1.69066,-0.133058,0.0197433
1.82321,0.0350074,-0.127515
1.75339,-0.0520395,-0.143201
1.87485,0.127815,0.0546902
1.77095,-0.0525606,0.0309257
1.88375,0.128421,-0.121008
1.69985,-0.133781,-0.0993015
1.81259,0.0348036,0.10558
1.74978,-0.0519322,0.0713192
1.82968,0.0351316,-0.085245
1.76081,-0.0522595,-0.0923206
1.8061,0.0346789,0.221802
1.73745,-0.0515664,0.1419
1.89004,0.12885,-0.077181
1.82317,0.0350067,-0.042432
1.87979,0.12156,-0.0328803
1.7503,-0.0580633,-0.0509666
1.76015,-0.0583903,-0.352227
1.82378,0.0286501,0
1.69417,-0.139286,-0.0197898
1.82186,0.02862,-0.283473
1.76082,-0.0584123,-0.224252
1.87605,0.121319,0.0109264
1.763,-0.0584847,-0.0102522
1.81726,0.0285478,-0.195773
1.7068,-0.140324,-0.159864
1.82728,0.0287052,0.042525
1.69417,-0.139286,0.0197898
1.8313,0.0287684,-0.128073
1.75718,-0.0582918,-0.143527
1.87928,0.121527,0.0548066
1.76276,-0.0584768,0.030786
1.88021,0.121588,-0.120752
1.69938,-0.139714,-0.0993015
1.8127,0.0284762,0.10558
1.74959,-0.0580397,0.0713192
1.82579,0.0286819,-0.0850589
1.75662,-0.0582731,-0.0921113
1.80224,0.0283119,0.221315
1.73726,-0.0576309,0.1419
1.8825,0.121736,-0.0768554
1.81528,0.0285168,-0.0422459
1.8802,0.114998,-0.0328803
1.74609,-0.0640261,-0.0508503
1.75994,-0.0645341,-0.352227
1.81586,0.0221861,0
1.68969,-0.144857,-0.0197433
1.81404,0.0221638,-0.282244
1.7606,-0.0645583,-0.224252
1.88045,0.115013,0.0109496
1.76678,-0.064785,-0.0102755
1.81735,0.0222042,-0.195773
1.69042,-0.14492,-0.158377
1.81137,0.0221312,0.0421528
1.6857,-0.144516,0.0196967
1.81942,0.0222295,-0.127236
1.749,-0.064133,-0.142876
1.86772,0.114234,0.0544575
1.75455,-0.0643366,0.0306464
1.87664,0.11478,-0.120496
1.6949,-0.145304,-0.0990689
1.80081,0.0220022,0.104883
1.74138,-0.0638537,0.0709935
1.8139,0.022162,-0.0845005
1.75641,-0.0644045,-0.0921113
1.80233,0.0220207,0.221315
1.72908,-0.0634026,0.141249
1.88292,0.115164,-0.0768554
1.81537,0.0221801,-0.0422459
1.8766,0.108204,-0.0328105
1.74585,-0.0701207,-0.0508503
1.74795,-0.0702048,-0.349873
1.80393,0.0157427,0
1.69316,-0.15111,-0.0197898
1.81015,0.015797,-0.281629
1.75244,-0.0703851,-0.223242
1.86886,0.107758,0.0108799
1.75855,-0.0706308,-0.010229
1.82139,0.0158951,-0.196202
1.68991,-0.15082,-0.158377
1.81144,0.0158082,0.0421528
1.67722,-0.149688,0.0196036
1.80752,0.015774,-0.126399
1.75275,-0.0703978,-0.143201
1.86012,0.107254,0.0542248
1.75432,-0.0704607,0.0306464
1.88101,0.108458,-0.120752
1.68643,-0.15051,-0.0986038
1.79689,0.0156812,0.10465
1.73716,-0.0697714,0.0708307
1.81796,0.0158651,-0.0846866
1.75218,-0.0703748,-0.0919019
1.79049,0.0156253,0.219852
1.72885,-0.0694378,0.141249
1.87533,0.108131,-0.0765297
1.81144,0.0158082,-0.0421528
1.86496,0.101329,-0.0326011
1.74162,-0.0757361,-0.0507339
1.7477,-0.0760008,-0.349873
1.79997,0.00973889,0
1.6807,-0.155618,-0.0196502
1.80229,0.00975144,-0.280399
1.75219,-0.076196,-0.223242
1.86921,0.10156,0.0108799
1.75831,-0.0764619,-0.010229
1.80951,0.00979046,-0.194917
1.69336,-0.15679,-0.158748
1.80748,0.00977953,0.0420598
1.67273,-0.15488,0.019557
1.80357,0.00975834,-0.12612
1.74853,-0.0760365,-0.142876
1.85248,0.100651,0.053992
1.74608,-0.0759303,0.0305068
1.87737,0.102004,-0.120496
1.6899,-0.156469,-0.0988363
1.79693,0.00972242,0.10465
1.73292,-0.075358,0.0706678
1.81401,0.00981482,-0.0845005
1.74396,-0.0758378,-0.0914833
1.79053,0.00968778,0.219852
1.71666,-0.0746509,0.140272
1.85971,0.101044,-0.0758784
1.81148,0.00980116,-0.0421528
1.85734,0.0940885,-0.0324615
1.73334,-0.0817422,-0.0505012
1.74741,-0.0824059,-0.349873
1.796,0.00313461,0
1.67613,-0.161393,-0.0196036
1.80232,0.00314564,-0.280399
1.7519,-0.0826176,-0.223242
1.86158,0.0943036,0.0108334
1.74603,-0.0823407,-0.0101592
1.79362,0.00313047,-0.193203
1.68088,-0.161851,-0.157633
1.80351,0.00314772,0.0419667
1.66419,-0.160243,0.0194639
1.80359,0.00314787,-0.12612
1.74027,-0.0820691,-0.142225
1.84885,0.0936585,0.0538757
1.7418,-0.0821411,0.030437
1.8578,0.0941122,-0.119217
1.68136,-0.161897,-0.0983712
1.78497,0.00311537,0.103953
1.72864,-0.0815208,0.070505
1.81003,0.00315911,-0.0843144
1.74367,-0.0822292,-0.0914833
1.78261,0.00311125,0.218877
1.71638,-0.0809423,0.140272
1.85608,0.0940249,-0.0757155
1.80351,0.00314772,-0.0419667
1.85366,0.0874163,-0.0323917
1.72506,-0.0873876,-0.0502684
1.73928,-0.0881082,-0.348304
1.8,-0.00314159,0
1.67158,-0.166846,-0.019557
1.79441,-0.00313184,-0.279169
1.74764,-0.0885316,-0.222737
1.84991,0.0872397,0.0107637
1.73774,-0.0880302,-0.0101127
1.80158,-0.00314435,-0.19406
1.67635,-0.167322,-0.157261
1.79551,-0.00313376,0.0417806
1.65964,-0.165654,0.0194173
1.79561,-0.00313394,-0.125562
1.73599,-0.0879415,-0.1419
1.84117,0.0868275,0.0536429
1.7415,-0.0882207,0.030437
1.85812,0.0876267,-0.119217
1.67284,-0.166972,-0.0979061
1.78098,-0.0031084,0.10372
1.72835,-0.0875544,0.070505
1.79805,-0.00313819,-0.083756
1.73938,-0.0881132,-0.0912739
1.77864,-0.00310432,0.21839
1.71608,-0.086933,0.140272
1.8564,0.0875454,-0.0757155
1.79951,-0.00314074,-0.0418737
1.85793,0.081444,-0.0324615
1.72076,-0.0928921,-0.0501521
1.73506,-0.0936639,-0.34752
1.78398,-0.0090296,0
1.675,-0.172799,-0.0196036
1.79834,-0.00910231,-0.279784
1.73941,-0.0938987,-0.221727
1.8422,0.0807543,0.0107172
1.74144,-0.0940079,-0.010136
1.7936,-0.00907831,-0.193203
1.67974,-0.173288,-0.157633
1.79949,-0.00910811,0.0418737
1.65908,-0.171157,0.0194173
1.7916,-0.00906819,-0.125283
1.73569,-0.0936978,-0.1419
1.83746,0.0805464,0.0535266
1.73321,-0.093564,0.0302974
1.84644,0.08094,-0.118449
1.67228,-0.172518,-0.0979061
1.78495,-0.00903453,0.103953
1.71608,-0.092639,0.0700165
1.79004,-0.00906026,-0.0833838
1.73908,-0.0938807,-0.0912739
1.77465,-0.00898239,0.217902
1.7118,-0.0924084,0.139947
1.84869,0.0810388,-0.0753899
1.79549,-0.00908787,-0.0417806
1.84222,0.0743133,-0.0321822
1.71644,-0.0986686,-0.0500357
1.73081,-0.0994947,-0.346735
1.77594,-0.0151884,0
1.67041,-0.17822,-0.019557
1.7904,-0.015312,-0.278554
1.73511,-0.0997421,-0.221222
1.85046,0.0746458,0.0107637
1.73311,-0.099627,-0.0100895
1.78163,-0.0152371,-0.191918
1.67913,-0.179151,-0.157633
1.79545,-0.0153552,0.0417806
1.65052,-0.176098,0.0193242
1.78358,-0.0152537,-0.124725
1.73535,-0.0997559,-0.1419
1.83773,0.074132,0.0535266
1.72888,-0.099384,0.0302276
1.84671,0.0744942,-0.118449
1.67166,-0.178354,-0.0979061
1.77692,-0.0151968,0.103487
1.71175,-0.0983992,0.0698537
1.786,-0.0152744,-0.0831977
1.72678,-0.0992629,-0.0906459
1.77064,-0.0151431,0.217415
1.70749,-0.0981544,0.139621
1.84497,0.0744241,-0.0752271
1.79545,-0.0153552,-0.0417806
1.83846,0.0680559,-0.0321124
1.72009,-0.104603,-0.0501521
1.72655,-0.104996,-0.345951
1.77587,-0.0210775,0
1.66185,-0.182883,-0.0194639
1.78243,-0.0211553,-0.277324
1.74269,-0.105977,-0.222232
1.8467,0.0683611,0.0107404
1.72878,-0.105131,-0.0100662
1.78157,-0.0211451,-0.191918
1.67061,-0.183847,-0.15689
1.78739,-0.0212142,0.0415945
1.64595,-0.181133,0.0192776
1.77554,-0.0210735,-0.124167
1.72307,-0.104784,-0.140923
1.82198,0.0674458,0.0530611
1.72854,-0.105117,0.0302276
1.84694,0.0683699,-0.118449
1.66709,-0.18346,-0.0976736
1.77287,-0.0210418,0.103255
1.71142,-0.104075,0.0698537
1.78194,-0.0211495,-0.0830115
1.72644,-0.104989,-0.0906459
1.76661,-0.0209675,0.216927
1.69124,-0.102848,0.13832
1.83322,0.067862,-0.0747386
1.78339,-0.0211667,-0.0415014
1.8307,0.0610505,-0.0319728
1.71571,-0.110649,-0.0500357
1.72616,-0.111323,-0.345951
1.77179,-0.0275241,0
1.6572,-0.188521,-0.0194173
1.78234,-0.0276881,-0.277324
1.72645,-0.111342,-0.220212
1.82695,0.0609255,0.0106242
1.71241,-0.110437,-0.00997324
1.76955,-0.0274894,-0.190633
1.66597,-0.189518,-0.156518
1.7873,-0.0277651,0.0415945
1.6572,-0.188521,0.0194173
1.77545,-0.027581,-0.124167
1.7187,-0.110842,-0.140598
1.82621,0.0609007,0.0531775
1.72415,-0.111194,0.0301578
1.83521,0.0612009,-0.117682
1.66641,-0.189569,-0.0976736
1.77677,-0.0276016,0.103487
1.70703,-0.11009,0.0696909
1.78585,-0.0277426,-0.0831977
1.72205,-0.111058,-0.0904365
1.76255,-0.0273806,0.21644
1.69483,-0.109303,0.138645
1.82946,0.0610092,-0.0745757
1.7833,-0.027703,-0.0415014
1.82691,0.0545405,-0.031903
1.71531,-0.116637,-0.0500357
1.77156,-0.0337064,-0.496019
1.72185,-0.117082,-0.345166
1.76768,-0.0336326,0
1.64859,-0.193373,-0.0193242
1.77828,-0.0338343,-0.276709
1.7221,-0.117099,-0.219707
1.81916,0.0543092,0.0105777
1.72399,-0.117228,-0.010043
1.76149,-0.0335148,-0.189776
1.66134,-0.194868,-0.156146
1.7792,-0.0338517,0.0414084
1.64461,-0.192907,0.0192776
1.77135,-0.0337025,-0.123888
1.7183,-0.116841,-0.140598
1.82242,0.0544064,0.0530611
1.71578,-0.116669,0.0300181
1.82744,0.0545562,-0.11717
1.65781,-0.194454,-0.0972084
1.7607,-0.0334997,0.102557
1.70664,-0.116048,0.0696909
1.77376,-0.0337482,-0.0826393
1.72166,-0.117069,-0.0904365
1.75847,-0.0334574,0.215953
1.68648,-0.114677,0.137994
1.82567,0.0545036,-0.0744129
1.7752,-0.0337756,-0.0413153
1.81508,0.0481637,-0.0316936
1.71093,-0.12204,-0.0499194
1.72145,-0.122791,-0.345166
1.75956,-0.0393155,0
1.64793,-0.198838,-0.0193242
1.77421,-0.0396428,-0.276094
1.7217,-0.122809,-0.219707
1.82733,0.0484885,0.0106242
1.71561,-0.122375,-0.00999649
1.76534,-0.0394447,-0.190204
1.65673,-0.199899,-0.155774
1.77108,-0.0395728,0.0412223
1.64396,-0.198359,0.0192776
1.76724,-0.0394871,-0.123608
1.71393,-0.122255,-0.140272
1.81859,0.0482567,0.0529448
1.71139,-0.122074,0.0299483
1.82761,0.048496,-0.11717
1.64922,-0.198994,-0.0967433
1.76457,-0.0394274,0.10279
1.69429,-0.120853,0.0692024
1.76165,-0.0393622,-0.0820809
1.71727,-0.122493,-0.0902272
1.75438,-0.0391998,0.215465
1.68609,-0.120269,0.137994
1.82185,0.0483431,-0.0742501
1.77508,-0.0396622,-0.0413153
1.82724,0.0417851,-0.031903
1.70249,-0.127712,-0.0496866
1.71316,-0.128513,-0.343598
1.75141,-0.0455563,0
1.63926,-0.20389,-0.0192311
1.76615,-0.0459398,-0.274865
1.71728,-0.128822,-0.219202
1.82349,0.0416993,0.0106009
1.71116,-0.128363,-0.00997324
1.76121,-0.0458114,-0.189776
1.65599,-0.20597,-0.155774
1.77092,-0.0460639,0.0412223
1.63529,-0.203396,0.0191845
1.75911,-0.0457566,-0.12305
1.71745,-0.128834,-0.140598
1.81476,0.0414995,0.0528284
1.70296,-0.127747,0.0298087
1.81979,0.0416146,-0.116659
1.64848,-0.205037,-0.0967433
1.75643,-0.0456869,0.102325
1.68985,-0.126764,0.0690396
1.7575,-0.0457148,-0.0818948
1.71283,-0.128488,-0.0900178
1.74629,-0.0454232,0.21449
1.68167,-0.12615,0.137669
1.81802,0.041574,-0.0740873
1.77492,-0.0461679,-0.0413153
1.81538,0.0351741,-0.0316936
1.70602,-0.133967,-0.049803
1.75956,-0.0519152,-0.492784
1.7127,-0.134492,-0.343598
1.75524,-0.0517876,0
1.63854,-0.209611,-0.0192311
1.75808,-0.0518714,-0.273635
1.71682,-0.134815,-0.219202
1.81963,0.0352563,0.0105777
1.70672,-0.134022,-0.00995
1.74514,-0.0514897,-0.188062
1.65131,-0.211244,-0.155402
1.77475,-0.0523632,0.0413153
1.63457,-0.209103,0.0191845
1.75894,-0.0518968,-0.12305
1.70904,-0.134204,-0.139947
1.8029,0.0349322,0.0524793
1.7025,-0.133691,0.0298087
1.81593,0.0351847,-0.116403
1.64776,-0.21079,-0.0967433
1.75227,-0.0517,0.102092
1.68939,-0.132661,0.0690396
1.76132,-0.0519672,-0.0820809
1.70839,-0.134153,-0.0898085
1.73422,-0.0511674,0.213028
1.66929,-0.131083,0.136692
1.80616,0.0349954,-0.0735988
1.77075,-0.0522453,-0.0412223
1.8115,0.0287735,-0.0316238
1.70156,-0.139595,-0.0496866
1.75937,-0.0580569,-0.492784
1.70832,-0.140149,-0.342813
1.74305,-0.0575184,0
1.63383,-0.214807,-0.0191845
1.75788,-0.0580079,-0.273635
1.70843,-0.140158,-0.218191
1.80774,0.0287139,0.0105079
1.69827,-0.139324,-0.0099035
1.74893,-0.0577122,-0.188491
1.64661,-0.216488,-0.155031
1.76656,-0.0582942,0.0411292
1.63383,-0.214807,0.0191845
1.75077,-0.0577731,-0.122492
1.69664,-0.139191,-0.138971
1.79901,0.0285752,0.052363
1.69804,-0.139306,0.0297389
1.80407,0.0286556,-0.115635
1.64701,-0.216541,-0.0967433
1.75208,-0.0578162,0.102092
1.68494,-0.138231,0.0688767
1.75314,-0.0578514,-0.0817087
1.70393,-0.139789,-0.0895992
1.74196,-0.0574825,0.214003
1.6728,-0.137235,0.137018
1.80627,0.0286905,-0.0735988
1.76256,-0.0581623,-0.0410362
1.79959,0.0223013,-0.0314143
1.70106,-0.145533,-0.0496866
1.75531,-0.0640574,-0.491705
1.7,-0.145443,-0.341244
1.74284,-0.0636024,0
1.6291,-0.219974,-0.0191379
1.75767,-0.0641437,-0.273635
1.70398,-0.145783,-0.217686
1.80783,0.0224035,0.0105079
1.6898,-0.14457,-0.00985701
1.74474,-0.0636718,-0.188062
1.64584,-0.222234,-0.155031
1.76235,-0.0643144,0.0410362
1.6291,-0.219974,0.0191379
1.75056,-0.0638841,-0.122492
1.70806,-0.146132,-0.139947
1.8031,0.0223448,0.0524793
1.68558,-0.144209,0.0295295
1.79618,0.0222591,-0.115124
1.62646,-0.219617,-0.0955806
1.73989,-0.0634949,0.101394
1.68046,-0.143771,0.0687139
1.74894,-0.063825,-0.0815225
1.69945,-0.145396,-0.0893898
1.73382,-0.0632732,0.213028
1.66834,-0.142733,0.136692
1.80237,0.0223358,-0.0734359
1.75436,-0.0640227,-0.0408501
1.79565,0.0166107,-0.0313445
1.68467,-0.149463,-0.0492212
1.7474,-0.0692664,-0.489549
1.69953,-0.150782,-0.341244
1.73863,-0.068919,0
1.63237,-0.225639,-0.0191845
1.75351,-0.0695087,-0.27302
1.69561,-0.150434,-0.216676
1.80789,0.0167239,0.0105079
1.68535,-0.149524,-0.00983376
1.74056,-0.0689952,-0.187634
1.6333,-0.225768,-0.153915
1.75415,-0.0695339,0.0408501
1.62048,-0.223996,0.0190448
1.73839,-0.0689091,-0.121655
1.69965,-0.150793,-0.139296
1.79916,0.0166432,0.052363
1.68512,-0.149504,0.0295295
1.80023,0.016653,-0.115379
1.62576,-0.224725,-0.0955806
1.73569,-0.0688024,0.101162
1.66408,-0.147637,0.0680626
1.74074,-0.0690026,-0.0811503
1.70296,-0.151087,-0.0895992
1.73758,-0.068877,0.213515
1.66391,-0.147622,0.136367
1.79843,0.0166364,-0.0732731
1.75015,-0.0693755,-0.040757
1.7917,0.00969414,-0.0312747
1.68408,-0.155931,-0.0492212
1.74327,-0.075808,-0.488471
1.69113,-0.156584,-0.339675
1.73436,-0.0754205,0
1.62753,-0.231342,-0.0191379
1.75323,-0.0762412,-0.27302
1.69502,-0.156943,-0.216676
1.80794,0.00978202,0.0105079
1.68477,-0.155994,-0.00983376
1.74425,-0.0758507,-0.188062
1.64031,-0.233158,-0.154659
1.75387,-0.0762688,0.0408501
1.61169,-0.22909,0.0189517
1.73811,-0.0755835,-0.121655
1.69906,-0.157318,-0.139296
1.79921,0.00973478,0.052363
1.68055,-0.155605,0.0294597
1.79629,0.00971896,-0.115124
1.62489,-0.230966,-0.0955806
1.72744,-0.0751195,0.100697
1.6635,-0.154025,0.0680626
1.73248,-0.0753389,-0.080778
1.68248,-0.155783,-0.0885524
1.72937,-0.0752033,0.21254
1.65539,-0.153274,0.135716
1.79449,0.0097092,-0.0731103
1.75387,-0.0762688,-0.0408501
1.79172,0.00406531,-0.0312747
1.6796,-0.16084,-0.0491048
1.74302,-0.0812843,-0.488471
1.69454,-0.16227,-0.34046
1.73012,-0.0806825,0
1.61492,-0.234728,-0.0189982
1.73719,-0.0810123,-0.27056
1.68661,-0.161511,-0.215666
1.79997,0.00408401,0.0104614
1.68028,-0.160905,-0.00981051
1.73606,-0.0809595,-0.187206
1.62774,-0.236592,-0.153544
1.74962,-0.0815921,0.040757
1.61492,-0.234728,0.0189982
1.73388,-0.0808577,-0.121376
1.67871,-0.160754,-0.137669
1.78724,0.00405514,0.0520139
1.67608,-0.160502,0.0293899
1.79631,0.00407572,-0.115124
1.62415,-0.23607,-0.0955806
1.73517,-0.080918,0.101162
1.66699,-0.159632,0.0682254
1.73623,-0.0809674,-0.0809642
1.68596,-0.161449,-0.0887618
1.72119,-0.080266,0.211565
1.64299,-0.157334,0.13474
1.78252,0.00404442,-0.0726218
1.74164,-0.0812195,-0.0405709
1.78373,-0.00280188,-0.0311351
1.67499,-0.166891,-0.0489885
1.73501,-0.087588,-0.486314
1.6939,-0.168775,-0.34046
1.7298,-0.0873251,0
1.60609,-0.239746,-0.0189051
1.73687,-0.087682,-0.27056
1.68993,-0.16838,-0.216171
1.79197,-0.00281482,0.0104149
1.67567,-0.166959,-0.00978726
1.73971,-0.0878254,-0.187634
1.63076,-0.243428,-0.153915
1.7453,-0.0881079,0.040664
1.61796,-0.241517,0.0190448
1.73355,-0.0875147,-0.121376
1.68205,-0.167594,-0.137994
1.77924,-0.00279484,0.0517812
1.66749,-0.166144,0.0292502
1.78434,-0.00280284,-0.114356
1.61928,-0.241715,-0.095348
1.72687,-0.0871774,0.100697
1.65841,-0.165239,0.0678997
1.7359,-0.0876334,-0.0809642
1.68136,-0.167525,-0.0885524
1.72483,-0.0870745,0.212053
1.64634,-0.164037,0.135065
1.77852,-0.0027937,-0.072459
1.73732,-0.0877047,-0.0404779
1.77971,-0.00900798,-0.0310653
1.67042,-0.172327,-0.0488721
1.73084,-0.0934361,-0.485236
1.6855,-0.173882,-0.338891
1.72948,-0.0933627,0
1.61316,-0.246559,-0.0189982
1.73655,-0.0937443,-0.27056
1.67749,-0.173056,-0.214656
1.78395,-0.00902944,0.0103685
1.66712,-0.171986,-0.00974077
1.72351,-0.0930401,-0.18592
1.61809,-0.247314,-0.1528
1.74099,-0.0939841,0.0405709
1.6092,-0.245955,0.0189517
1.72925,-0.0933503,-0.121097
1.68145,-0.173465,-0.137994
1.77922,-0.00900554,0.0517812
1.65894,-0.171142,0.0291106
1.78032,-0.00901111,-0.1141
1.60659,-0.245556,-0.0946503
1.72257,-0.0929895,0.100464
1.65782,-0.171027,0.0678997
1.72362,-0.0930462,-0.0804058
1.67679,-0.172983,-0.0883431
1.72055,-0.0928808,0.211565
1.64576,-0.169783,0.135065
1.7785,-0.00900188,-0.072459
1.72502,-0.0931218,-0.0401987
1.77567,-0.0145662,-0.0309955
1.66192,-0.176728,-0.0486394
1.72285,-0.0984338,-0.483079
1.67714,-0.178347,-0.337322
1.72119,-0.0983392,0
1.61237,-0.251626,-0.0189982
1.7323,-0.0989739,-0.269945
1.67694,-0.178325,-0.214656
1.78391,-0.0146338,0.0103685
1.6626,-0.1768,-0.00971752
1.72718,-0.098681,-0.186349
1.61731,-0.252396,-0.1528
1.7327,-0.0989969,0.0403848
1.60842,-0.251009,0.0189517
1.72895,-0.0987825,-0.121097
1.67694,-0.178325,-0.137669
1.77119,-0.0145295,0.0515484
1.66237,-0.176776,0.0291804
1.7763,-0.0145714,-0.113844
1.60186,-0.249986,-0.0944178
1.71429,-0.0979451,0.0999991
1.64933,-0.175389,0.0675741
1.71933,-0.0982327,-0.0802197
1.67226,-0.177828,-0.0881338
1.71233,-0.0978326,0.21059
1.77447,-0.0145564,-0.0722961
1.72472,-0.0985407,-0.0401987
1.77161,-0.0207176,-0.0309257
1.66527,-0.182965,-0.0487557
1.66871,-0.183343,-0.335753
1.71685,-0.104105,0
1.60754,-0.256622,-0.0189517
1.73195,-0.10502,-0.269945
1.67236,-0.183744,-0.214151
1.78785,-0.0209075,0.0103917
1.66992,-0.183476,-0.00976402
1.71888,-0.104228,-0.185492
1.60855,-0.256784,-0.152057
1.72437,-0.10456,0.0401987
1.60359,-0.255992,0.0189051
1.72063,-0.104334,-0.120539
1.6763,-0.184177,-0.137669
1.77113,-0.020712,0.0515484
1.65777,-0.182141,0.0291106
1.77623,-0.0207717,-0.113844
1.60492,-0.256205,-0.0946503
1.71394,-0.103928,0.0999991
1.64473,-0.180708,0.0674113
1.711,-0.10375,-0.0798474
1.66369,-0.182792,-0.0877151
1.70405,-0.103329,0.209615
1.77041,-0.0207036,-0.0721333
1.72836,-0.104803,-0.0402918
1.76752,-0.0271493,-0.0308559
1.65267,-0.187714,-0.0484066
1.66413,-0.189015,-0.334968
1.70847,-0.109883,0
1.59869,-0.261222,-0.0188586
1.71183,-0.110099,-0.266871
1.67168,-0.189872,-0.214151
1.77976,-0.0273373,0.0103452
1.65732,-0.188241,-0.00969427
1.72246,-0.110783,-0.18592
1.6076,-0.262678,-0.152057
1.72796,-0.111137,0.0402918
1.59474,-0.260577,0.018812
1.71625,-0.110384,-0.12026
1.65581,-0.18807,-0.136041
1.76305,-0.0270806,0.0513157
1.65709,-0.188216,0.0291106
1.76816,-0.0271592,-0.113333
1.59609,-0.260798,-0.0941852
1.71355,-0.11021,0.0999991
1.64406,-0.186735,0.0674113
1.71061,-0.11002,-0.0798474
1.65904,-0.188437,-0.0875057
1.70366,-0.109574,0.209615
1.76233,-0.0270696,-0.0718077
1.71998,-0.110623,-0.0401057
1.76742,-0.0333189,-0.0308559
1.652,-0.193481,-0.0484066
1.65957,-0.194367,-0.334184
1.70808,-0.115846,0
1.59777,-0.266801,-0.0188586
1.71143,-0.116074,-0.266871
1.65918,-0.194322,-0.212636
1.76766,-0.0333235,0.0102755
1.65665,-0.194025,-0.00969427
1.71809,-0.116525,-0.185492
1.6106,-0.268944,-0.152428
1.72357,-0.116897,0.0401987
1.60171,-0.26746,0.0189051
1.72382,-0.116914,-0.120818
1.6591,-0.194313,-0.136367
1.75495,-0.0330838,0.051083
1.64451,-0.192603,0.0289012
1.75608,-0.0331053,-0.112565
1.59911,-0.267026,-0.0944178
1.71315,-0.11619,0.0999991
1.64339,-0.192473,0.0674113
1.71819,-0.116532,-0.0802197
1.65837,-0.194227,-0.0875057
1.69931,-0.115251,0.209128
1.75823,-0.0331457,-0.0716448
1.71559,-0.116356,-0.0400126
1.7553,-0.0389138,-0.0306464
1.65929,-0.199915,-0.0486394
1.65891,-0.199869,-0.334184
1.71167,-0.121793,0
1.59293,-0.271426,-0.018812
1.71104,-0.121748,-0.266871
1.65459,-0.199348,-0.212131
1.75954,-0.0390077,0.010229
1.65202,-0.199039,-0.00967102
1.70976,-0.121657,-0.184635
1.60577,-0.273615,-0.152057
1.71919,-0.122328,0.0401057
1.58899,-0.270755,0.0187654
1.71944,-0.122346,-0.120539
1.65449,-0.199337,-0.136041
1.75882,-0.0389919,0.0511993
1.64386,-0.198056,0.0289012
1.76395,-0.0391055,-0.113077
1.59034,-0.270986,-0.0939527
1.70081,-0.121021,0.0993015
1.63481,-0.196965,0.0670856
1.70982,-0.121661,-0.0798474
1.65375,-0.199248,-0.0872964
1.75411,-0.0388875,-0.071482
1.70323,-0.121193,-0.0397334
1.75915,-0.0454504,-0.0307162
1.63871,-0.203531,-0.0480576
1.65817,-0.205948,-0.334184
1.70723,-0.127768,0
1.59193,-0.277263,-0.018812
1.70664,-0.127724,-0.266256
1.65778,-0.2059,-0.212636
1.76338,-0.0455598,0.0102522
1.64731,-0.2046,-0.00964778
1.71327,-0.12822,-0.185064
1.58514,-0.276081,-0.150198
1.69879,-0.127136,0.0396404
1.71898,-0.128648,-0.120539
1.65375,-0.205399,-0.136041
1.75067,-0.0452315,0.0509666
1.63915,-0.203586,0.0288314
1.75581,-0.0453642,-0.112565
1.58147,-0.275442,-0.0934876
1.69239,-0.126657,0.0988363
1.63408,-0.202956,0.0670856
1.70139,-0.127331,-0.0794752
1.64509,-0.204323,-0.0868777
1.75795,-0.0454196,-0.0716448
1.69081,-0.126539,-0.0394543
1.75898,-0.0515906,-0.0307162
1.63799,-0.20925,-0.0480576
1.65355,-0.211238,-0.333399
1.69879,-0.133101,0
1.58701,-0.282118,-0.0187654
1.6983,-0.133063,-0.265026
1.65312,-0.211183,-0.212131
1.75522,-0.0514804,0.0102057
1.63866,-0.209335,-0.00960128
1.70092,-0.133268,-0.183779
1.59201,-0.283007,-0.150941
1.70631,-0.13369,0.0398265
1.70659,-0.133712,-0.119702
1.65698,-0.211676,-0.136367
1.74651,-0.051225,0.0508503
1.6305,-0.208293,0.0286918
1.75165,-0.0513758,-0.112309
1.5805,-0.280961,-0.0934876
1.69194,-0.132564,0.0988363
1.62543,-0.207646,0.06676
1.69695,-0.132957,-0.079289
1.62851,-0.20804,-0.0860403
1.7458,-0.0512042,-0.0711563
1.69833,-0.133065,-0.0396404
1.7548,-0.0572928,-0.0306464
1.63332,-0.214161,-0.0479412
1.64895,-0.21621,-0.332615
1.69037,-0.138083,0
1.57819,-0.285953,-0.0186723
1.68209,-0.137407,-0.262566
1.64848,-0.216148,-0.211626
1.75504,-0.0573006,0.0102057
1.63795,-0.214768,-0.00960128
1.70443,-0.139231,-0.184207
1.58323,-0.286865,-0.150198
1.70187,-0.139022,0.0397334
1.70216,-0.139046,-0.119423
1.64836,-0.216133,-0.135716
1.74233,-0.0568859,0.0507339
1.6298,-0.213699,0.0286918
1.74748,-0.057054,-0.112054
1.58349,-0.286913,-0.0937201
1.68751,-0.137849,0.0986038
1.6287,-0.213554,0.0669228
1.69252,-0.138258,-0.0791029
1.63573,-0.214477,-0.086459
1.74163,-0.0568628,-0.0709935
1.6939,-0.138371,-0.0395473
1.74658,-0.0634338,-0.0305068
1.63253,-0.220146,-0.0479412
1.64426,-0.221728,-0.33183
1.69384,-0.144618,0
1.58107,-0.292463,-0.0187189
1.68946,-0.144243,-0.263796
1.63981,-0.221128,-0.210615
1.74282,-0.0632972,0.010136
1.63715,-0.22077,-0.00960128
1.69995,-0.145139,-0.183779
1.58608,-0.29339,-0.150569
1.69736,-0.144919,0.0396404
1.69766,-0.144944,-0.119144
1.63966,-0.221107,-0.135065
1.73412,-0.0629812,0.0505012
1.62108,-0.218602,0.0285521
1.74327,-0.0633136,-0.111798
1.5785,-0.291988,-0.0934876
1.68699,-0.144033,0.0986038
1.62394,-0.218988,0.06676
1.692,-0.144461,-0.0791029
1.6389,-0.221005,-0.0866684
1.73342,-0.0629557,-0.0706678
1.68541,-0.143898,-0.0393612
1.73836,-0.0692119,-0.0303672
1.63175,-0.225843,-0.0479412
1.63959,-0.226929,-0.331046
1.68535,-0.149821,0
1.56825,-0.295756,-0.0185792
1.68894,-0.15014,-0.263796
1.63903,-0.22685,-0.210615
1.74659,-0.0695395,0.0101592
1.62845,-0.225387,-0.00955479
1.68754,-0.150016,-0.182493
1.58505,-0.298925,-0.150569
1.69286,-0.150488,0.0395473
1.6892,-0.150163,-0.118586
1.64282,-0.227376,-0.13539
1.73789,-0.0691931,0.0506175
1.62427,-0.224808,0.0286219
1.74304,-0.0693983,-0.111798
1.56962,-0.296016,-0.0930224
1.67455,-0.14886,0.0979061
1.61525,-0.22356,0.0664343
1.69547,-0.15072,-0.079289
1.62229,-0.224534,-0.085831
1.73319,-0.069006,-0.0706678
1.67693,-0.149072,-0.0391751
1.74611,-0.0753208,-0.0305068
1.61911,-0.229569,-0.0475921
1.68883,-0.155776,0
1.57119,-0.30171,-0.0186257
1.68844,-0.15574,-0.263796
1.63434,-0.231727,-0.21011
1.73436,-0.0748139,0.0100895
1.62373,-0.230224,-0.00953154
1.68704,-0.155611,-0.182493
1.57622,-0.302677,-0.149826
1.68837,-0.155734,0.0394543
1.69266,-0.15613,-0.118865
1.63811,-0.232263,-0.135065
1.72566,-0.0744389,0.0502684
1.61163,-0.228508,0.0284125
1.73881,-0.0750061,-0.111542
1.55687,-0.298961,-0.0923248
1.66212,-0.153312,0.0972084
1.61054,-0.228354,0.0662715
1.67904,-0.154874,-0.0785445
1.62549,-0.230473,-0.0860403
1.73295,-0.0747532,-0.0706678
1.68041,-0.155,-0.0392682
1.73385,-0.0808565,-0.0302974
1.61039,-0.234069,-0.0473594
1.67633,-0.160527,0
1.68395,-0.161256,-0.263181
1.62959,-0.23686,-0.209605
1.73409,-0.0808675,0.0100895
1.62292,-0.23589,-0.00953154
1.67461,-0.160361,-0.181208
1.56343,-0.305883,-0.148711
1.68384,-0.161245,0.0393612
1.68019,-0.160896,-0.118028
1.63335,-0.237406,-0.13474
1.72939,-0.0806484,0.0503848
1.61083,-0.234133,0.0284125
1.73056,-0.0807033,-0.11103
1.55974,-0.30516,-0.0925573
1.66952,-0.159874,0.0976736
1.6944,-0.162257,-0.079289
1.61282,-0.234422,-0.0854123
1.72869,-0.0806156,-0.070505
1.6719,-0.160102,-0.0390821
1.73755,-0.0871085,-0.0303672
1.60561,-0.2391,-0.047243
1.6678,-0.165587,0
1.67551,-0.166352,-0.261952
1.6209,-0.241378,-0.208595
1.7298,-0.0867198,0.0100662
1.61813,-0.240965,-0.00950829
1.68195,-0.166992,-0.182065
1.56236,-0.311339,-0.148711
1.67531,-0.166332,0.0391751
1.67565,-0.166366,-0.117749
1.62068,-0.241344,-0.133763
1.71712,-0.0860839,0.0500357
1.61,-0.239754,0.0284125
1.73027,-0.0867436,-0.11103
1.55474,-0.309822,-0.0923248
1.66101,-0.164912,0.0972084
1.68587,-0.167381,-0.0789168
1.61594,-0.240639,-0.0856216
1.71642,-0.086049,-0.0700165
1.67531,-0.166332,-0.0391751
1.73725,-0.09287,-0.0303672
1.60876,-0.245025,-0.0473594
1.67122,-0.171525,0
1.66708,-0.1711,-0.260722
1.60833,-0.24496,-0.20708
1.72151,-0.0920285,0.0100197
1.61732,-0.24633,-0.00950829
1.68535,-0.172975,-0.182493
1.56131,-0.316518,-0.148711
1.67475,-0.171887,0.0391751
1.67509,-0.171922,-0.117749
1.61987,-0.246718,-0.133763
1.70884,-0.0913508,0.049803
1.60129,-0.243887,0.0282729
1.722,-0.0920547,-0.110519
1.56154,-0.316563,-0.0927899
1.66045,-0.170419,0.0972084
1.67736,-0.172155,-0.0785445
1.61118,-0.245395,-0.0854123
1.72012,-0.0919538,-0.0701794
1.66679,-0.17107,-0.038989
1.72093,-0.0983242,-0.0300879
1.6039,-0.250304,-0.047243
1.6666,-0.177226,0
1.67037,-0.177627,-0.261337
1.60742,-0.250853,-0.20708
1.71318,-0.0978812,0.00997324
1.6085,-0.251022,-0.0094618
1.67284,-0.177889,-0.181208
1.56014,-0.322238,-0.148711
1.67808,-0.178447,0.0392682
1.67842,-0.178482,-0.118028
1.61895,-0.252653,-0.133763
1.7045,-0.0973853,0.0496866
1.60038,-0.249755,0.0282729
1.71767,-0.0981378,-0.110263
1.54081,-0.318245,-0.0916271
1.6479,-0.175237,0.0965108
1.67274,-0.177879,-0.0783584
1.60633,-0.250682,-0.0852029
1.71977,-0.0982577,-0.0701794
1.66218,-0.176755,-0.038896
1.72058,-0.104331,-0.0300879
1.59512,-0.25464,-0.0470103
1.662,-0.182606,0
1.66582,-0.183025,-0.260722
1.61045,-0.257088,-0.207585
1.70883,-0.103619,0.00995
1.60367,-0.256005,-0.00943855
1.6643,-0.182858,-0.180351
1.55121,-0.326044,-0.147967
1.66155,-0.182556,0.038896
1.67382,-0.183904,-0.117749
1.60625,-0.256417,-0.132787
1.70415,-0.103334,0.0496866
1.59555,-0.254709,0.0282031
1.71732,-0.104133,-0.110263
1.53969,-0.323622,-0.0916271
1.64728,-0.180988,0.0965108
1.67211,-0.183717,-0.0783584
1.60544,-0.256288,-0.0852029
1.71542,-0.104018,-0.0700165
1.64962,-0.181246,-0.0386168
1.71222,-0.109824,-0.0299483
1.59422,-0.260207,-0.0470103
1.66135,-0.188406,0
1.66909,-0.189284,-0.261337
1.61346,-0.263347,-0.20809
1.71245,-0.109839,0.00997324
1.60671,-0.262245,-0.0094618
1.6676,-0.189115,-0.18078
1.55007,-0.331457,-0.147967
1.66487,-0.188806,0.038989
1.66523,-0.188846,-0.117191
1.60928,-0.262665,-0.133112
1.69979,-0.109027,0.0495703
1.59465,-0.260277,0.0282031
1.71694,-0.110127,-0.110263
1.53855,-0.328995,-0.0916271
1.6387,-0.185837,0.0960457
1.65955,-0.188202,-0.0778
1.59271,-0.25996,-0.0845749
1.70707,-0.109494,-0.0696909
1.64898,-0.187003,-0.0386168
1.70387,-0.114963,-0.0298087
1.58546,-0.264177,-0.0467776
1.6488,-0.192522,0
1.66061,-0.193901,-0.260107
1.60084,-0.266739,-0.206575
1.7041,-0.114979,0.00992675
1.60978,-0.268229,-0.00948504
1.67487,-0.195566,-0.181637
1.54118,-0.334904,-0.147223
1.66424,-0.194325,0.038989
1.65271,-0.192979,-0.116354
1.60054,-0.266689,-0.132461
1.69942,-0.114663,0.0495703
1.60956,-0.268193,0.0284823
1.70462,-0.115014,-0.109495
1.53745,-0.334095,-0.0916271
1.64204,-0.191734,0.0962782
1.65495,-0.193241,-0.0776139
1.5879,-0.264584,-0.0843656
1.70271,-0.114885,-0.069528
1.64438,-0.192007,-0.0385238
1.70744,-0.121193,-0.0298785
1.58847,-0.270381,-0.0468939
1.64812,-0.198277,0
1.65207,-0.198752,-0.258877
1.59207,-0.270994,-0.205565
1.6997,-0.120643,0.0099035
1.60095,-0.272505,-0.00943855
1.66233,-0.199986,-0.180351
1.54,-0.340281,-0.147223
1.65164,-0.198701,0.0387099
1.65599,-0.199223,-0.116633
1.5996,-0.272275,-0.132461
1.69103,-0.120028,0.0493375
1.71217,-0.121529,-0.110007
1.53628,-0.339459,-0.0916271
1.6374,-0.196987,0.0960457
1.65823,-0.199494,-0.0778
1.5909,-0.270795,-0.0845749
1.69831,-0.120545,-0.0693652
1.6437,-0.197745,-0.0385238
1.69906,-0.126262,-0.0297389
1.58363,-0.274963,-0.0467776
1.64745,-0.203741,0
1.6514,-0.20423,-0.258877
1.59116,-0.276272,-0.205565
1.69131,-0.125686,0.00985701
1.60003,-0.277812,-0.00943855
1.64982,-0.204033,-0.179066
1.53886,-0.345386,-0.147223
1.65097,-0.204177,0.0387099
1.65532,-0.204714,-0.116633
1.59083,-0.276214,-0.13181
1.68265,-0.125042,0.0491048
1.7038,-0.126614,-0.109495
1.62088,-0.200456,0.0951154
1.65756,-0.204991,-0.0778
1.58213,-0.274703,-0.0841562
1.69392,-0.12588,-0.0692024
1.63907,-0.202704,-0.0384307
1.69459,-0.132177,-0.0296691
1.5708,-0.27867,-0.0464285
1.63876,-0.208767,0
1.65064,-0.210281,-0.258877
1.59014,-0.282102,-0.205565
1.69482,-0.132195,0.00988025
1.599,-0.283675,-0.00943855
1.64906,-0.210079,-0.179066
1.52982,-0.349251,-0.14648
1.64228,-0.209216,0.0385238
1.64664,-0.209771,-0.116075
1.5898,-0.282042,-0.13181
1.68616,-0.131519,0.0492212
1.69934,-0.132547,-0.109239
1.52219,-0.34751,-0.0909294
1.61618,-0.20589,0.0948829
1.64491,-0.20955,-0.0772417
1.58111,-0.2805,-0.0841562
1.69743,-0.132399,-0.0693652
1.63831,-0.20871,-0.0384307
1.68615,-0.137442,-0.0295295
1.56588,-0.28344,-0.0463121
1.63405,-0.213966,0
1.64206,-0.215015,-0.257647
1.58134,-0.286237,-0.204555
1.68638,-0.13746,0.00983376
1.58226,-0.286405,-0.00934556
1.63648,-0.214285,-0.177781
1.52859,-0.354589,-0.14648
1.6455,-0.215466,0.0386168
1.63798,-0.214481,-0.115517
1.58489,-0.28688,-0.131485
1.67772,-0.136755,0.0489885
1.69489,-0.138154,-0.108984
1.52097,-0.352821,-0.0909294
1.64417,-0.215291,-0.0772417
1.56833,-0.283882,-0.0835282
1.68899,-0.137673,-0.0690396
1.62964,-0.213389,-0.0382446
1.68964,-0.143665,-0.0295993
1.56488,-0.288904,-0.0463121
1.62933,-0.219136,0
1.62955,-0.219165,-0.255802
1.58423,-0.292476,-0.20506
1.67792,-0.142668,0.00978726
1.58518,-0.292652,-0.00936881
1.64361,-0.221056,-0.178638
1.51571,-0.357182,-0.145365
1.63285,-0.21961,0.0383377
1.63722,-0.220198,-0.115517
1.57996,-0.291687,-0.13116
1.66927,-0.141933,0.0487557
1.68644,-0.143393,-0.108472
1.63945,-0.220496,-0.0770555
1.57125,-0.29008,-0.0837375
1.67655,-0.142552,-0.0685511
1.63285,-0.21961,-0.0383377
1.68119,-0.148564,-0.0294597
1.55999,-0.293353,-0.0461958
1.62463,-0.223991,0
1.62881,-0.224568,-0.255802
1.57155,-0.295528,-0.203544
1.66947,-0.147528,0.00974077
1.64287,-0.226505,-0.178638
1.51839,-0.363133,-0.145736
1.63212,-0.225023,0.0383377
1.63253,-0.225081,-0.115238
1.57898,-0.296924,-0.13116
1.6648,-0.147116,0.0486394
1.68198,-0.148633,-0.108216
1.64266,-0.226477,-0.0772417
1.56636,-0.294551,-0.0835282
1.68005,-0.148463,-0.0687139
1.62023,-0.223385,-0.0380585
1.67267,-0.153991,-0.02932
1.5589,-0.299068,-0.0461958
1.6238,-0.229944,0
1.62798,-0.230536,-0.255802
1.57046,-0.301286,-0.203544
1.66891,-0.153645,0.00974077
1.63809,-0.231968,-0.178209
1.62732,-0.230443,0.0382446
1.62775,-0.230503,-0.114959
1.57005,-0.301207,-0.130509
1.66425,-0.153216,0.0486394
1.67348,-0.154065,-0.107705
1.63787,-0.231936,-0.0770555
1.56135,-0.299537,-0.0833189
1.68348,-0.154986,-0.0688767
1.61544,-0.228761,-0.0379654
1.66416,-0.159068,-0.0291804
1.55,-0.302974,-0.045963
1.62299,-0.235611,0
1.62716,-0.236218,-0.255802
1.5655,-0.306005,-0.203039
1.66439,-0.159089,0.00971752
1.6294,-0.236542,-0.177353
1.61859,-0.234973,0.0380585
1.62693,-0.236184,-0.114959
1.56899,-0.306686,-0.130509
1.66769,-0.159405,0.0487557
1.6769,-0.160286,-0.10796
1.63309,-0.237078,-0.0768694
1.56029,-0.304986,-0.0833189
1.67099,-0.159721,-0.0683882
1.61463,-0.234398,-0.0379654
1.66758,-0.16527,-0.0292502
1.54893,-0.308383,-0.045963
1.61029,-0.23951,0
1.61851,-0.240733,-0.254573
1.56832,-0.312242,-0.203544
1.66382,-0.164898,0.00971752
1.63249,-0.242813,-0.177781
1.61776,-0.240621,0.0380585
1.62215,-0.241274,-0.11468
1.56009,-0.310604,-0.129858
1.65519,-0.164043,0.0484066
1.67633,-0.166138,-0.10796
1.62435,-0.241602,-0.0764972
1.55922,-0.31043,-0.0833189
1.67042,-0.165553,-0.0683882
1.61381,-0.240033,-0.0379654
1.65906,-0.169984,-0.0291106
1.54398,-0.312724,-0.0458467
1.60553,-0.244247,0
1.6177,-0.246099,-0.254573
1.56338,-0.316654,-0.203039
1.65531,-0.169599,0.00967102
1.63168,-0.248225,-0.177781
1.62091,-0.246586,0.0381516
1.61345,-0.245452,-0.114122
1.55124,-0.314193,-0.129207
1.64668,-0.168715,0.0481739
1.66783,-0.170883,-0.107449
1.61564,-0.245785,-0.0761249
1.55035,-0.314013,-0.0829002
1.66191,-0.170276,-0.0680626
1.60114,-0.243579,-0.0376863
1.65448,-0.175353,-0.0290408
1.54288,-0.318111,-0.0458467
1.60071,-0.249234,0
1.61293,-0.251136,-0.253958
1.5545,-0.320506,-0.202029
1.65073,-0.174955,0.00964778
1.62294,-0.252695,-0.176924
1.60818,-0.250397,0.0378724
1.61258,-0.251082,-0.114122
1.54232,-0.317996,-0.128556
1.65531,-0.175441,-0.106681
1.61477,-0.251423,-0.0761249
1.54533,-0.318616,-0.0826908
1.65336,-0.175234,-0.0677369
1.60028,-0.249167,-0.0376863
1.59983,-0.25482,0
1.61204,-0.256765,-0.253958
1.64613,-0.18028,0.00962453
1.6142,-0.257108,-0.176068
1.6152,-0.257267,0.0380585
1.60776,-0.256082,-0.113843
1.5451,-0.324196,-0.128881
1.63751,-0.179337,0.0479412
1.65072,-0.180784,-0.106425
1.60994,-0.25643,-0.0759388
