2.52742,0.534915,0.210897
2.36261,0.747194,-0.100954
2.42856,0.639387,-0.058437
2.37812,0.743437,-0.0434914
2.49346,0.519095,-0.0741227
2.45456,0.637535,0
2.576,0.406156,-0.0303599
2.46678,0.513541,-0.320721
2.51797,0.524198,-0.0149482
2.4058,0.62487,-0.267743
2.46163,0.639373,0.0591814
2.57995,0.406779,0.0304065
2.42927,0.630966,-0.175507
2.51763,0.524127,0.0448876
2.36219,0.738454,-0.158615
2.55604,0.403009,-0.150696
2.53158,0.527031,0.10535
2.4403,0.633831,-0.117445
2.49892,0.520232,-0.133771
2.52918,0.526531,0.210897
2.3727,0.741741,-0.10128
2.43067,0.631331,-0.058437
2.38822,0.737907,-0.043631
2.49517,0.510823,-0.0741227
2.45278,0.628399,0
2.58524,0.39883,-0.0304531
2.46847,0.505358,-0.320721
2.41556,0.618862,-0.268599
2.55061,0.393487,-0.240911
2.45987,0.630213,0.0590884
2.58129,0.39822,0.0304065
2.43521,0.623897,-0.175786
2.52719,0.517379,0.0450272
2.37225,0.732973,-0.159126
2.56131,0.395138,-0.150929
2.53331,0.518632,0.10535
2.43851,0.624743,-0.117258
2.54263,0.52054,0.211873
2.38278,0.736228,-0.101605
2.4405,0.625251,-0.0586231
2.38708,0.727983,-0.0435612
2.50486,0.50325,-0.0743554
2.44731,0.617448,0
2.58668,0.389353,-0.0304531
2.47809,0.497871,-0.321731
2.46216,0.621194,0.0590884
2.58668,0.389353,0.0304531
2.43361,0.613992,-0.175507
2.52907,0.508113,0.0450272
2.3711,0.72311,-0.158871
2.57064,0.386937,-0.151394
2.48189,0.626172,0.149068
2.53911,0.510131,0.105513
2.44466,0.616779,-0.117445
2.51032,0.504347,-0.134189
2.54452,0.511217,0.211873
2.38164,0.726324,-0.101443
2.44665,0.617281,-0.0587162
2.51044,0.495715,-0.0744718
2.46487,0.613191,0
2.59192,0.381354,-0.0304996
2.48362,0.490418,-0.322237
2.39364,0.721314,0.0145298
2.41596,0.601023,-0.268171
2.47197,0.614956,0.0592745
2.59588,0.381937,0.0305462
2.44338,0.607844,-0.176065
2.53466,0.500498,0.045097
2.38113,0.717546,-0.159382
2.56796,0.377829,-0.151161
2.48395,0.617938,0.149068
2.45445,0.610598,-0.117817
2.5462,0.502776,0.211873
2.38787,0.719575,-0.101605
2.44868,0.609164,-0.0587162
2.39965,0.713998,-0.0437008
2.51608,0.487709,-0.0745881
2.59323,0.372304,-0.0304996
2.48921,0.4825,-0.322742
2.39614,0.712954,0.0145298
2.42577,0.594479,-0.269028
2.48187,0.608226,0.0594606
2.59323,0.372304,0.0304996
2.44549,0.599311,-0.176065
2.54032,0.492408,0.0451668
2.38745,0.710367,-0.159638
2.57716,0.369997,-0.151627
2.48997,0.610213,0.149301
2.54645,0.493596,0.105676
2.45656,0.602026,-0.117817
2.54794,0.493884,0.211873
2.38653,0.710095,-0.101443
2.45856,0.602515,-0.0589023
2.40225,0.705198,-0.0437008
2.52178,0.479231,-0.0747045
2.47309,0.596475,0
2.6025,0.363905,-0.0305928
2.49096,0.473374,-0.322742
2.40257,0.705294,0.014553
2.4318,0.586517,-0.269456
2.48019,0.598189,0.0593675
2.6025,0.363905,0.0305928
2.45155,0.59128,-0.176344
2.54604,0.483841,0.0452366
2.5785,0.360549,-0.151627
2.54824,0.48426,0.105676
2.46264,0.593955,-0.118003
2.56148,0.486776,0.212849
2.39679,0.703595,-0.101768
2.45298,0.591626,-0.0587162
2.40085,0.695697,-0.043631
2.52344,0.470427,-0.0747045
2.48294,0.589689,0
2.60376,0.35482,-0.0305928
2.5004,0.466132,-0.323752
2.40886,0.698018,0.0145763
2.54019,0.473551,-0.015018
2.42996,0.577108,-0.269028
2.57688,0.351157,-0.24277
2.47837,0.588605,0.0592745
2.61168,0.3559,0.0306859
2.45359,0.58272,-0.176344
2.53985,0.473486,0.045097
2.5837,0.352087,-0.151859
2.49816,0.593305,0.149534
2.54992,0.475363,0.105676
2.45692,0.583511,-0.117631
2.5289,0.471445,-0.134817
2.56317,0.477833,0.212849
2.40307,0.696339,-0.101931
2.4667,0.585833,-0.0589953
2.40315,0.687731,-0.043631
2.52498,0.462056,-0.0747045
2.48098,0.58054,0
2.61285,0.347237,-0.0306859
2.50584,0.458552,-0.324257
2.54568,0.465844,-0.0150412
2.58198,0.343134,-0.243142
2.4881,0.582205,0.0594606
2.60492,0.346183,0.0305928
2.4594,0.575489,-0.176623
2.54927,0.4665,0.0452366
2.58881,0.344043,-0.152092
2.504,0.585927,0.149766
2.55934,0.468343,0.106002
2.46662,0.57718,-0.118003
2.53045,0.463056,-0.134817
2.56866,0.470048,0.213175
2.46863,0.577649,-0.0589953
2.42093,0.683685,-0.0439103
2.53052,0.453944,-0.0748209
2.48689,0.572773,0
2.61405,0.338114,-0.0306859
2.50742,0.449801,-0.324257
2.41741,0.682691,0.0145995
2.44934,0.564123,-0.270741
2.58711,0.334629,-0.243513
2.49401,0.574413,0.0595536
2.62595,0.339653,0.0308256
2.52712,0.453335,-0.209595
2.55482,0.458304,0.0453064
2.38945,0.674795,-0.159126
2.59396,0.335516,-0.152324
2.47252,0.569462,-0.118189
2.53598,0.454925,-0.135027
2.57028,0.461078,0.213175
2.4116,0.68105,-0.102094
2.48232,0.571721,-0.0592745
2.42727,0.675881,-0.0439801
2.54004,0.44605,-0.0750536
2.48898,0.563655,0
2.61527,0.328531,-0.0306859
2.51296,0.441295,-0.324762
2.44751,0.554264,-0.270313
2.59227,0.325642,-0.243885
2.5,0.566152,0.0596467
2.62717,0.330027,0.0308256
2.46735,0.558757,-0.176902
2.55649,0.448938,0.0453064
2.59913,0.326504,-0.152557
2.51592,0.569757,0.150231
2.5705,0.451399,0.106327
2.47849,0.561279,-0.118375
2.57196,0.451655,0.213175
2.41408,0.672207,-0.102094
2.4844,0.562619,-0.0592745
2.42167,0.66613,-0.0438404
2.54537,0.438747,-0.0751699
2.48293,0.55409,0
2.62423,0.321285,-0.030779
2.51433,0.433397,-0.324762
2.59723,0.31798,-0.244257
2.50957,0.560037,0.0598328
2.63217,0.322257,0.0308722
2.47688,0.55274,-0.17746
2.43258,0.669131,0.0734245
2.56577,0.442262,0.0454461
2.59618,0.317851,-0.152324
2.5138,0.56098,0.149999
2.57585,0.444,0.10649
2.48414,0.55436,-0.118561
2.54689,0.439009,-0.135445
2.57729,0.444249,0.2135
2.42003,0.665679,-0.102257
2.47835,0.553069,-0.0590884
2.42784,0.65872,-0.0439103
2.54689,0.42986,-0.0751699
2.50047,0.54885,0
2.6293,0.312595,-0.0308256
2.51975,0.425279,-0.325267
2.42817,0.65881,0.0146228
2.45502,0.538872,-0.270741
2.59042,0.307972,-0.243513
2.4998,0.548702,0.0595536
2.63328,0.313067,0.0308722
2.47489,0.543236,-0.177181
2.43876,0.661683,0.0735409
2.56729,0.433304,0.0454461
2.40398,0.652246,-0.159638
2.59728,0.308788,-0.152324
2.52355,0.553915,0.150464
2.57738,0.435006,0.10649
2.48215,0.544829,-0.118375
2.58669,0.436578,0.214151
2.48808,0.54613,-0.0592745
2.42649,0.64836,-0.0438404
2.55246,0.420727,-0.0752863
2.50256,0.539244,0
2.63048,0.302496,-0.0308256
2.43841,0.651546,0.0146693
2.45707,0.529441,-0.270741
2.60345,0.299387,-0.244629
2.5097,0.540783,0.0597397
2.63446,0.302953,0.0308722
2.48086,0.534569,-0.17746
2.44128,0.652313,0.0735409
2.57289,0.424093,0.0455159
2.61431,0.300637,-0.153254
2.52956,0.545061,0.150696
2.58692,0.426406,0.106816
2.48813,0.536135,-0.118561
2.59228,0.42729,0.214477
2.43257,0.649985,-0.102582
2.49407,0.537414,-0.0593675
2.44034,0.642944,-0.0440499
2.55786,0.412451,-0.0754027
2.50443,0.530506,0
2.6355,0.293756,-0.0308722
2.53455,0.408692,-0.326782
2.46668,0.52251,-0.271598
2.60448,0.290298,-0.244629
2.51158,0.53202,0.0597397
2.64742,0.295085,0.0310118
2.48662,0.526733,-0.17774
2.55046,0.411258,-0.210897
2.5783,0.415747,0.0455857
2.42413,0.638674,-0.160661
2.61535,0.29151,-0.153254
2.53144,0.536229,0.150696
2.58839,0.417374,0.106816
2.4939,0.528275,-0.118747
2.59376,0.418239,0.214477
2.43482,0.641491,-0.102582
2.50766,0.531191,-0.0596467
2.44622,0.63628,-0.0441197
2.5631,0.405037,-0.075519
2.51783,0.525085,0
2.64039,0.285905,-0.0309187
2.52798,0.399488,-0.325772
2.4722,0.515569,-0.272027
2.6133,0.282972,-0.245372
2.64436,0.286335,0.0309653
2.49217,0.519732,-0.178019
2.45329,0.638121,0.0737736
2.58354,0.408268,0.0456555
2.61625,0.283291,-0.153254
2.59758,0.410487,0.107142
2.50337,0.522069,-0.11912
2.60293,0.411332,0.215128
2.50541,0.522493,-0.0595536
2.44477,0.625891,-0.0440499
2.56463,0.395193,-0.075519
2.51977,0.38828,-0.509905
2.51591,0.514612,0
2.64146,0.275765,-0.0309187
2.45502,0.502159,-0.389853
2.53342,0.390383,-0.326277
2.47416,0.506074,-0.272027
2.61436,0.272936,-0.245372
2.52698,0.516877,0.0600189
2.65738,0.277426,0.031105
2.49805,0.51096,-0.178298
2.58114,0.397737,0.0455857
2.53513,0.518543,0.150696
2.59914,0.400511,0.107142
2.50144,0.511653,-0.118934
2.60449,0.401335,0.215128
2.44311,0.625468,-0.102745
2.50739,0.51287,-0.0595536
2.4506,0.619188,-0.0441197
2.56586,0.387135,-0.075519
2.52143,0.507495,0
2.65028,0.268271,-0.0310118
2.53855,0.383015,-0.326782
2.47184,0.497514,-0.271598
2.62313,0.265524,-0.246116
2.52467,0.508147,0.0599259
2.65824,0.269077,0.031105
2.49573,0.502322,-0.178019
2.45769,0.620979,0.0737736
2.59424,0.391416,0.0457951
2.43048,0.614103,-0.160661
2.62214,0.265423,-0.153487
2.54457,0.512152,0.151161
2.60039,0.392344,0.107142
2.49912,0.503004,-0.118747
2.61757,0.394936,0.216104
2.51291,0.50578,-0.0596467
2.45663,0.611596,-0.0441895
2.52617,0.372131,-0.510689
2.51927,0.497915,0
2.65518,0.259407,-0.0310584
2.54773,0.375307,-0.327792
2.48137,0.490424,-0.272455
2.62404,0.256365,-0.246116
2.53035,0.500106,0.0600189
2.65916,0.259796,0.031105
2.50139,0.494381,-0.178298
2.46372,0.613362,0.07389
2.59559,0.382358,0.0457951
2.43648,0.606579,-0.160917
2.62702,0.256656,-0.15372
2.55026,0.504041,0.151394
2.60569,0.383846,0.107304
2.5087,0.495826,-0.11912
2.57662,0.379563,-0.136492
2.61893,0.385796,0.216104
2.65121,0.390551,0.488601
2.52251,0.498555,-0.0598328
2.45497,0.601636,-0.0441197
2.57648,0.3699,-0.0757518
2.5314,0.363428,-0.511474
2.525,0.489439,0
2.65611,0.249674,-0.0310584
2.55694,0.367095,-0.328802
2.48315,0.481327,-0.272455
2.62893,0.247119,-0.246488
2.54395,0.493112,0.0602981
2.66009,0.250048,0.031105
2.5071,0.485969,-0.178577
2.44256,0.598595,-0.161173
2.63589,0.247774,-0.154185
2.55601,0.495451,0.151627
2.615,0.37543,0.10763
2.51442,0.487389,-0.119306
2.58195,0.370685,-0.136702
2.56465,0.497124,0.32076
2.62033,0.376195,0.216104
2.45719,0.60218,-0.103071
2.65652,0.381391,0.489318
2.52824,0.490068,-0.0599259
2.46861,0.596308,-0.0443291
2.58165,0.361909,-0.0758681
2.53647,0.355575,-0.512258
2.5384,0.483307,0
2.65692,0.240864,-0.0310584
2.54636,0.35696,-0.327287
2.63767,0.239118,-0.247231
2.54164,0.483924,0.060205
2.67684,0.242669,0.0312912
2.51262,0.478398,-0.178856
2.60216,0.364783,0.0458649
2.44453,0.590492,-0.161173
2.64068,0.239391,-0.154417
2.61623,0.366755,0.10763
2.51602,0.479047,-0.119306
2.58712,0.362675,-0.136911
2.57018,0.489358,0.321248
2.62156,0.367503,0.216104
2.45917,0.594028,-0.103071
2.66556,0.373672,0.490753
2.52986,0.481681,-0.0599259
2.46679,0.586761,-0.0442593
2.53614,0.473709,0
2.66173,0.231934,-0.031105
2.55938,0.349681,-0.328802
2.60773,0.356286,-0.015297
2.49419,0.465872,-0.273312
2.55511,0.477251,0.0604842
2.68166,0.233671,0.0313378
2.51427,0.469624,-0.178856
2.47779,0.589378,0.0741227
2.60738,0.356238,0.0459347
2.4427,0.581031,-0.160917
2.55933,0.47804,0.151627
2.62145,0.358161,0.107793
2.52161,0.470995,-0.119492
2.63073,0.359428,0.216755
2.46512,0.586364,-0.103234
2.66685,0.364364,0.490753
2.53545,0.47358,-0.0600189
2.47282,0.578628,-0.0443291
2.54179,0.465131,0
2.66655,0.22251,-0.0311515
2.56458,0.340821,-0.329308
2.64328,0.220569,-0.247603
2.55291,0.467164,0.0603911
2.68249,0.223841,0.0313378
2.52775,0.462561,-0.179693
2.58855,0.344007,-0.213175
2.48383,0.581204,0.074239
2.62056,0.34826,0.0461442
2.45647,0.574803,-0.161685
2.56499,0.469375,0.151859
2.62275,0.348551,0.107793
2.52332,0.46175,-0.119492
2.59757,0.345205,-0.13733
2.63598,0.35031,0.21708
2.66817,0.354588,0.490753
2.53717,0.464285,-0.0600189
2.47872,0.570891,-0.0443989
2.5479,0.329558,-0.513827
2.53946,0.455549,0
2.6713,0.21352,-0.0311981
2.56575,0.331867,-0.329308
2.47516,0.57007,0.0147623
2.50529,0.449418,-0.274168
2.64007,0.211024,-0.247231
2.55452,0.45825,0.0603911
2.68326,0.214476,0.0313378
2.52542,0.453031,-0.179414
2.59369,0.335481,-0.2135
2.48974,0.573428,0.0743554
2.62572,0.339624,0.046214
2.46235,0.567121,-0.161941
2.57054,0.461125,0.152092
2.63187,0.34042,0.108119
2.53278,0.45435,-0.119864
2.59479,0.335624,-0.13712
2.64114,0.341618,0.217406
2.6772,0.346282,0.492188
2.54665,0.456838,-0.060205
2.4846,0.56312,-0.0444687
2.55292,0.321152,-0.514612
2.54892,0.448068,0
2.67203,0.204195,-0.0311981
2.57477,0.3239,-0.330318
2.48103,0.562312,0.0147855
2.50684,0.440671,-0.274168
2.66064,0.203325,-0.24909
2.56004,0.450024,0.0604842
2.68399,0.205109,0.0313378
2.52699,0.444213,-0.179414
2.59089,0.325929,-0.213175
2.48782,0.563851,0.074239
2.62689,0.330457,0.046214
2.46432,0.558523,-0.161941
2.5682,0.451458,0.151859
2.63305,0.331231,0.108119
2.53042,0.444815,-0.119678
2.60388,0.327562,-0.137539
2.63836,0.3319,0.21708
2.47122,0.560088,-0.103234
2.68229,0.337426,0.492906
2.55217,0.448639,-0.0602981
2.49416,0.557054,-0.0446084
2.55031,0.440057,0
2.57577,0.315809,-0.330318
2.51213,0.433469,-0.274597
2.66524,0.195255,-0.249462
2.56933,0.443338,0.0606703
2.69659,0.197552,0.0314775
2.5323,0.43695,-0.179693
2.49739,0.557775,0.0744718
2.62792,0.322202,0.046214
2.66433,0.195189,-0.15558
2.58141,0.445424,0.152557
2.64201,0.32393,0.108444
2.53574,0.437542,-0.119864
2.61282,0.320351,-0.137958
2.64335,0.324094,0.217406
2.48077,0.554064,-0.103559
2.68725,0.329476,0.493623
2.5575,0.441298,-0.0603911
2.48437,0.545771,-0.0443989
2.55972,0.432486,0
2.5808,0.307286,-0.330823
2.48861,0.546703,0.0148088
2.63335,0.313543,-0.0154132
2.6659,0.185951,-0.249462
2.57086,0.434367,0.0606703
2.70125,0.188417,0.0315241
2.53381,0.428108,-0.179693
2.60487,0.310152,-0.214151
2.50322,0.549912,0.0745881
2.63697,0.313973,0.0463536
2.47576,0.54388,-0.162452
2.58295,0.436411,0.152557
2.64709,0.315179,0.108607
2.54119,0.429354,-0.12005
2.61789,0.311702,-0.138167
2.59936,0.439183,0.323685
2.65634,0.31628,0.218382
2.4905,0.547116,-0.103885
2.68838,0.320095,0.493623
2.55509,0.431702,-0.0602981
2.49417,0.538348,-0.0445385
2.56918,0.424404,0
2.68995,0.177723,-0.0313844
2.58585,0.298279,-0.331328
2.49451,0.538421,0.014832
2.63846,0.304347,-0.0154364
2.51909,0.41613,-0.275025
2.67452,0.176704,-0.250205
2.57243,0.424941,0.0606703
2.70991,0.179042,0.0316172
2.54324,0.420119,-0.180251
2.51695,0.543264,0.0749372
2.6381,0.304306,0.0463536
2.47774,0.534801,-0.162452
2.66965,0.176382,-0.155813
2.5806,0.426289,0.152324
2.6522,0.305932,0.10877
2.54275,0.420037,-0.12005
2.62298,0.302562,-0.138376
2.60095,0.429652,0.323685
2.65748,0.306541,0.218382
2.49639,0.538827,-0.104048
2.69344,0.310689,0.494341
2.5606,0.422986,-0.0603911
2.50377,0.531736,-0.0446782
2.56663,0.415244,0
2.59866,0.291027,-0.332843
2.67509,0.167834,-0.250205
2.57778,0.417047,0.0607633
2.70649,0.169805,0.0315706
2.54462,0.411683,-0.180251
2.6149,0.292846,-0.214802
2.51091,0.533254,0.0747045
2.64307,0.296001,0.0464234
2.4795,0.526582,-0.162452
2.67819,0.168029,-0.156278
2.59776,0.420281,0.153254
2.64923,0.296691,0.108607
2.54412,0.411603,-0.12005
2.62397,0.293863,-0.138376
2.6102,0.422294,0.32466
2.66244,0.298171,0.218708
2.70619,0.30307,0.496493
2.56988,0.41577,-0.0605772
2.5017,0.522176,-0.0446084
2.57754,0.279555,-0.518534
2.56411,0.405656,0
2.59571,0.281526,-0.332338
2.50595,0.523064,0.0148785
2.64445,0.286812,-0.0154597
2.68361,0.158965,-0.250949
2.58317,0.408671,0.0608564
2.71506,0.160828,0.0316637
2.54604,0.402797,-0.180251
2.61194,0.283286,-0.214477
2.51667,0.525302,0.0748209
2.65204,0.287635,0.046563
2.48914,0.519555,-0.162964
2.67876,0.158678,-0.156278
2.59527,0.410586,0.153022
2.65819,0.288303,0.108933
2.55344,0.403968,-0.120423
2.62498,0.284701,-0.138376
2.61166,0.413179,0.32466
2.66743,0.289305,0.219033
2.5,0.521822,-0.104048
2.71114,0.294046,0.49721
2.51143,0.514609,-0.044748
2.57744,0.398088,0
2.60067,0.272424,-0.332843
2.53117,0.390942,-0.275882
2.68815,0.14935,-0.251321
2.59255,0.400422,0.0610425
2.71962,0.151099,0.0317103
2.55539,0.394682,-0.180809
2.61296,0.273712,-0.214477
2.51466,0.515272,0.0747045
2.65308,0.277914,0.046563
2.49103,0.510428,-0.162964
2.69128,0.149524,-0.156975
2.6007,0.401681,0.153254
2.66321,0.278975,0.109096
2.55885,0.395217,-0.120609
2.62998,0.275494,-0.138586
2.61708,0.404211,0.325147
2.66847,0.279527,0.219033
2.50973,0.514261,-0.104373
2.7122,0.284107,0.49721
2.57279,0.39737,-0.0605772
2.50528,0.504698,-0.0446084
2.57874,0.389538,0
2.60156,0.263798,-0.332843
2.59782,0.392419,0.0611355
2.7241,0.142287,0.0317569
2.55668,0.386205,-0.180809
2.62576,0.266251,-0.215453
2.5242,0.508509,0.0749372
2.65398,0.269114,0.046563
2.49662,0.502953,-0.16322
2.59807,0.392458,0.153022
2.67207,0.270948,0.109421
2.5641,0.387326,-0.120795
2.63485,0.267174,-0.138795
2.62233,0.396122,0.325635
2.51142,0.505935,-0.104373
2.72096,0.275905,0.498645
2.57805,0.389432,-0.0606703
2.51095,0.496727,-0.0446782
2.59196,0.382287,0
2.7126,0.132195,-0.0316172
2.61431,0.255877,-0.334358
2.51521,0.497571,0.0149017
2.69308,0.131244,-0.251693
2.59521,0.382767,0.0610425
2.72458,0.132779,0.0317569
2.55801,0.37728,-0.180809
2.63064,0.257474,-0.215779
2.5338,0.501248,0.0751699
2.66287,0.260629,0.0467026
2.49836,0.494237,-0.16322
2.70021,0.131592,-0.15744
2.60733,0.384553,0.153487
2.56148,0.377792,-0.120609
2.63975,0.258366,-0.139004
2.62763,0.387547,0.326122
2.68222,0.262523,0.22001
2.72191,0.266407,0.498645
2.5873,0.3816,-0.0608564
2.52445,0.490246,-0.0448876
2.59681,0.245014,-0.521672
2.72103,0.123086,-0.0317103
2.61519,0.246749,-0.334358
2.52871,0.491075,0.0149715
2.6681,0.251741,-0.0155759
2.70148,0.122202,-0.252436
2.60445,0.374844,0.0612286
2.72902,0.123448,0.0318034
2.56326,0.368916,-0.181088
2.63946,0.249038,-0.21643
2.53161,0.491638,0.0750536
2.66774,0.251707,0.0467725
2.50399,0.486273,-0.163475
2.70066,0.122165,-0.15744
2.61261,0.376018,0.15372
2.67788,0.252663,0.109584
2.5707,0.369986,-0.120981
2.64063,0.249149,-0.139004
2.63289,0.378938,0.32661
2.68709,0.253532,0.220335
2.51881,0.489153,-0.104536
2.72282,0.256904,0.498645
2.59258,0.373135,-0.0609494
2.52623,0.480991,-0.0448876
2.6016,0.23585,-0.522456
2.62793,0.238237,-0.335873
2.5305,0.481804,0.0149715
2.66901,0.241961,-0.0155759
2.70589,0.112466,-0.252808
2.60581,0.365296,0.0612286
2.73345,0.113611,0.03185
2.56855,0.360073,-0.181367
2.63241,0.238643,-0.215779
2.53732,0.483104,0.0751699
2.67661,0.24265,0.0469121
2.50967,0.477839,-0.163731
2.70907,0.112598,-0.157906
2.61792,0.366995,0.153952
2.67878,0.242847,0.109584
2.57203,0.360562,-0.120981
2.64153,0.23947,-0.139004
2.6382,0.369837,0.327097
2.52844,0.481413,-0.104862
2.7355,0.247989,0.500798
2.59789,0.364186,-0.0610425
2.53575,0.473638,-0.0450272
2.60241,0.226766,-0.522456
2.62875,0.229062,-0.335873
2.53216,0.472968,0.0149715
2.71423,0.103322,-0.253551
2.61103,0.356739,0.0613216
2.74183,0.104373,0.0319431
2.57375,0.351645,-0.181646
2.64514,0.23049,-0.216755
2.539,0.474244,0.0751699
2.67745,0.233305,0.0469121
2.5074,0.468342,-0.163475
2.71742,0.103444,-0.158371
2.62314,0.358394,0.154185
2.69554,0.234882,0.110235
2.64633,0.230594,-0.139214
2.64341,0.361162,0.327585
2.52618,0.47185,-0.104699
2.74027,0.23878,0.501515
2.53338,0.464504,-0.0449574
2.60705,0.218462,-0.523241
2.62554,0.220011,-0.335368
2.67458,0.224121,-0.0155992
2.61616,0.348606,0.0614147
2.5749,0.343107,-0.181646
2.64589,0.221717,-0.216755
2.55235,0.467984,0.075519
2.68219,0.224758,0.0469819
2.51287,0.460744,-0.163731
2.71775,0.0944311,-0.158371
2.62036,0.349165,0.153952
2.69232,0.225607,0.110073
2.58235,0.3441,-0.121353
2.65106,0.22215,-0.139423
2.64852,0.352918,0.328072
2.53559,0.464911,-0.105025
2.60823,0.347549,-0.0612286
2.53892,0.456366,-0.0450272
2.61562,0.209989,-0.52481
2.73848,0.0855822,-0.0318966
2.6342,0.211481,-0.336379
2.5432,0.457136,0.015018
2.68332,0.215424,-0.0156457
2.72283,0.0850931,-0.254295
2.61736,0.339472,0.0614147
2.75047,0.085957,0.0320363
2.58399,0.335144,-0.182204
2.65857,0.213437,-0.217731
2.56184,0.460487,0.0757518
2.68296,0.215395,0.0469819
2.52625,0.454089,-0.164499
2.73004,0.0853185,-0.159068
2.62552,0.34053,0.154185
2.69708,0.216529,0.110235
2.66376,0.213854,-0.140051
2.65368,0.344182,0.32856
2.54113,0.456765,-0.105188
2.74968,0.220751,0.50295
2.6134,0.338958,-0.0613216
2.54443,0.448194,-0.045097
2.60851,0.200256,-0.523241
2.55281,0.322043,-0.400306
2.64284,0.202891,-0.337389
2.68805,0.206362,-0.0156689
2.72311,0.0755875,-0.254295
2.61853,0.330333,0.0614147
2.75475,0.0764659,0.0320828
2.58515,0.326122,-0.182204
2.66328,0.20446,-0.218057
2.5595,0.450847,0.0756354
2.69566,0.206946,0.0471913
2.52782,0.445267,-0.164499
2.73431,0.0758985,-0.159301
2.63858,0.332862,0.154882
2.7018,0.207418,0.110398
2.59262,0.327064,-0.121725
2.66051,0.204248,-0.139842
2.65486,0.334916,0.32856
2.75828,0.211754,0.504385
2.61853,0.330333,-0.0614147
2.55379,0.441116,-0.0452366
2.6209,0.192467,-0.525594
2.64745,0.194417,-0.337894
2.55808,0.441857,0.0150877
2.6927,0.19774,-0.0156922
2.62358,0.322136,0.0615077
2.65997,0.195336,-0.217731
2.55704,0.441677,0.075519
2.69633,0.198006,0.0471913
2.53321,0.437562,-0.164755
2.74253,0.0670264,-0.159766
2.63967,0.324111,0.154882
2.71045,0.199043,0.110724
2.59765,0.318952,-0.121912
2.66516,0.195717,-0.140051
2.54025,0.438777,-0.105025
2.76289,0.202894,0.505103
2.61961,0.321648,-0.0614147
2.55137,0.431531,-0.0451668
2.62155,0.183317,-0.525594
2.64416,0.184897,-0.337389
2.55171,0.43159,0.0150412
2.69737,0.188618,-0.0157154
2.63263,0.313922,0.0616939
2.76721,0.0579643,0.0322225
2.59919,0.309935,-0.183041
2.66461,0.186327,-0.218057
2.56645,0.434082,0.0757518
2.697,0.188592,0.0471913
2.53473,0.428716,-0.164755
2.74674,0.0575357,-0.159999
2.64475,0.315367,0.155115
2.7191,0.190138,0.111049
2.60272,0.310355,-0.122098
2.67778,0.187248,-0.140679
2.67679,0.319188,0.330997
2.55358,0.431906,-0.105513
2.76358,0.193248,0.505103
2.55688,0.42283,-0.0452366
2.62612,0.173967,-0.526379
2.62256,0.302977,0
2.7594,0.047684,-0.0321294
2.64878,0.175467,-0.337894
2.55723,0.422888,0.0150645
2.70203,0.178995,-0.0157387
2.7714,0.0478913,0.0322691
2.60428,0.300865,-0.18332
2.66925,0.176824,-0.218382
2.57197,0.425325,0.0758681
2.70566,0.179235,0.0473309
2.54416,0.420726,-0.165266
2.74294,0.0473996,-0.159766
2.7118,0.179643,0.110724
2.68243,0.177697,-0.140888
2.674,0.30892,0.33051
2.55909,0.423196,-0.105676
2.7682,0.183378,0.50582
2.62979,0.303813,-0.0616008
2.56222,0.414988,-0.0453064
2.6306,0.165503,-0.527163
2.77154,0.0387,-0.0322691
2.6533,0.166931,-0.338399
2.57046,0.416323,0.0151342
2.70261,0.170033,-0.0157387
2.63476,0.295535,0.0616939
2.77554,0.0387558,0.0323156
2.6013,0.291781,-0.183041
2.68176,0.168721,-0.219359
2.57731,0.417432,0.0759845
2.71821,0.171015,0.0475404
2.54948,0.412925,-0.165522
2.75107,0.0384141,-0.160231
2.72036,0.17115,0.111049
2.60879,0.292623,-0.122284
2.69098,0.169302,-0.141307
2.69079,0.30182,0.33246
2.56443,0.415346,-0.105839
2.77272,0.174444,0.506538
2.63476,0.295535,-0.0616939
2.5676,0.406669,-0.0453763
2.63116,0.156321,-0.527163
2.77966,0.029111,-0.0323622
2.57371,0.279596,-0.402766
2.66179,0.158141,-0.339409
2.5798,0.408601,0.0151807
2.71517,0.161312,-0.0158084
2.65168,0.288066,0.0620661
2.60626,0.283132,-0.18332
2.68233,0.159361,-0.219359
2.57875,0.408435,0.0759845
2.7148,0.16129,0.0474705
2.5509,0.404025,-0.165522
2.76317,0.0289382,-0.160929
2.72493,0.161892,0.111212
2.61377,0.283948,-0.12247
2.69155,0.159909,-0.141307
2.68393,0.29157,0.331485
2.56981,0.407019,-0.106002
2.78902,0.1657,0.509408
2.57691,0.398927,-0.0455159
2.64344,0.147792,-0.529517
2.66629,0.149069,-0.339914
2.58121,0.399593,0.0151807
2.71571,0.151833,-0.0158084
2.65267,0.278807,0.0620661
2.61517,0.274866,-0.183878
2.68685,0.150219,-0.219684
2.58016,0.399431,0.0759845
2.72333,0.152259,0.0476102
2.55624,0.395728,-0.165778
2.76724,0.01932,-0.161161
2.66875,0.280498,0.156278
2.73346,0.152825,0.111538
2.62667,0.276075,-0.123028
2.70007,0.150958,-0.141726
2.69283,0.283029,0.33246
2.56726,0.397434,-0.105839
2.78958,0.155963,0.509408
2.64869,0.278389,-0.061973
2.57828,0.389929,-0.0455159
2.64394,0.138563,-0.529517
2.6424,0.268405,0
2.78379,0.00971723,-0.0324088
2.5874,0.262818,-0.404611
2.66679,0.139761,-0.339914
2.57863,0.389981,0.0151575
2.72422,0.14277,-0.0158549
2.6576,0.269949,0.0621591
2.79579,0.00975911,0.0325485
2.62406,0.266542,-0.184436
2.6993,0.141464,-0.22066
2.58945,0.391617,0.0762172
2.72784,0.14296,0.04768
2.55761,0.386802,-0.165778
2.77528,0.00968751,-0.161626
2.73797,0.143491,0.111701
2.63557,0.267711,-0.123401
2.70058,0.141531,-0.141726
2.69775,0.274028,0.332947
2.57259,0.389067,-0.106002
2.79797,0.146635,0.510843
2.64965,0.269141,-0.061973
2.57172,0.379758,-0.0453763
2.64832,0.129525,-0.530301
2.65129,0.259961,0
2.79181,4.99215e-07,-0.0325019
2.59224,0.254171,-0.405226
2.67123,0.130645,-0.340419
2.58789,0.382147,0.015204
2.7207,0.133065,-0.0158317
2.65853,0.260671,0.0621591
2.79981,5.00645e-07,0.032595
2.62894,0.257771,-0.184715
2.69978,0.132042,-0.22066
2.59475,0.38316,0.0763336
2.73232,0.133633,0.0477498
2.56289,0.378456,-0.166034
2.7713,4.95548e-07,-0.161394
2.73845,0.133933,0.111701
2.63251,0.25812,-0.123214
2.70904,0.132495,-0.142144
2.70265,0.264997,0.333435
2.57393,0.380085,-0.106002
2.79847,0.136868,0.510843
2.65455,0.260281,-0.0620661
2.57699,0.371349,-0.0454461
2.65268,0.120457,-0.531086
2.65616,0.251081,0
2.79979,-0.00977343,-0.032595
2.60098,0.245864,-0.406455
2.68752,0.122039,-0.342439
2.59713,0.374252,0.0152505
2.72914,0.123929,-0.0158782
2.6634,0.251765,0.0622522
2.80779,-0.00980135,0.0326882
2.62983,0.248592,-0.184715
2.70819,0.122978,-0.221311
2.60003,0.37467,0.0764499
2.73676,0.124275,0.0478196
2.5721,0.370645,-0.166545
2.77927,-0.0097018,-0.161859
2.7429,0.124554,0.111864
2.64135,0.249681,-0.123587
2.71747,0.123399,-0.142563
2.70751,0.255935,0.333922
2.58315,0.372238,-0.106327
2.65942,0.251389,-0.0621591
2.59015,0.364022,-0.0456555
2.66092,0.111526,-0.532655
2.65702,0.241808,0
2.80774,-0.0196017,-0.0326882
2.60576,0.237143,-0.40707
2.68793,0.112658,-0.342439
2.59842,0.365184,0.0152505
2.73355,0.11457,-0.0159014
2.63465,0.239772,-0.184994
2.71657,0.113858,-0.221962
2.60132,0.365592,0.0764499
2.74118,0.11489,0.0478894
2.57338,0.361665,-0.166545
2.78721,-0.0194584,-0.162324
2.74731,0.115147,0.112026
2.64618,0.240822,-0.123773
2.71389,0.113746,-0.142354
2.71234,0.246842,0.33441
2.58444,0.363219,-0.106327
2.81901,0.118152,0.51443
2.66427,0.242467,-0.0622522
2.58744,0.354436,-0.0455857
2.66913,0.102539,-0.534224
2.66183,0.232881,0
2.81166,-0.0294437,-0.0327347
2.61051,0.22839,-0.407685
2.69228,0.103428,-0.342945
2.6076,0.357198,0.015297
2.74193,0.105335,-0.0159479
2.67705,0.234212,0.0625313
2.81565,-0.0294856,0.0327813
2.64342,0.23127,-0.185552
2.72093,0.104529,-0.222288
2.61051,0.357596,0.0766826
2.75355,0.105782,0.0480988
2.58254,0.353764,-0.167057
2.79511,-0.0292705,-0.162789
2.69313,0.235619,0.15744
2.75568,0.105863,0.112352
2.65895,0.232629,-0.124331
2.72225,0.104579,-0.142773
2.72109,0.238066,0.335384
2.58569,0.354196,-0.106327
2.6651,0.233167,-0.0622522
2.59262,0.34593,-0.0456555
2.67731,0.093494,-0.535792
2.67459,0.224591,0
2.81154,-0.0392588,-0.0327347
2.69262,0.0940285,-0.342945
2.60091,0.347035,0.0152505
2.74628,0.0959024,-0.0159711
2.6898,0.225869,0.0628105
2.81953,-0.0393705,0.0328279
2.64819,0.222375,-0.185831
2.72527,0.0951686,-0.222613
2.6157,0.349009,0.076799
2.7539,0.0961685,0.0480988
2.57584,0.343691,-0.166545
2.79898,-0.0390836,-0.163022
2.68996,0.225882,0.157208
2.76003,0.0963824,0.112515
2.66373,0.22368,-0.124517
2.72659,0.0952149,-0.142982
2.72586,0.228897,0.335872
2.59087,0.345696,-0.10649
2.66988,0.224196,-0.0623452
2.68154,0.0842717,-0.536577
2.67934,0.215575,0
2.81938,-0.0492117,-0.0328279
2.61992,0.210794,-0.408915
2.70086,0.0848788,-0.343955
2.60607,0.33847,0.0152737
2.7506,0.0864417,-0.0159944
2.69057,0.216479,0.0628105
2.83138,-0.0494211,0.0329675
2.65691,0.21377,-0.186389
2.72957,0.0857809,-0.222939
2.6169,0.339877,0.076799
2.76222,0.0868069,0.0482385
2.5889,0.33624,-0.167313
2.79883,-0.048853,-0.163022
2.69471,0.216812,0.15744
2.76834,0.0869992,0.112841
2.73889,0.0860737,-0.14361
2.73456,0.220018,0.336847
2.59602,0.337166,-0.106653
2.67064,0.214876,-0.0623452
2.68572,0.0759583,-0.537361
2.68399,0.207466,0
2.82721,-0.058233,-0.032921
2.63239,0.203477,-0.41076
2.70508,0.0765061,-0.34446
2.62696,0.332795,0.0153899
2.75485,0.0779136,-0.0160176
2.80322,-0.0577388,-0.261731
2.69124,0.208026,0.0628105
2.8432,-0.0585624,0.0331072
2.66154,0.20573,-0.186668
2.62193,0.332157,0.0769154
2.77047,0.0783553,0.0483781
2.58994,0.328106,-0.167313
2.80665,-0.0578095,-0.163487
2.69936,0.208654,0.157673
2.7646,0.0781893,0.112678
2.67312,0.206625,-0.12489
2.74314,0.0775823,-0.143819
2.73524,0.211427,0.336847
2.60104,0.329511,-0.106816
2.67529,0.206793,-0.0624383
2.68598,0.0661122,-0.537361
2.68075,0.197331,0
2.83097,-0.0686939,-0.0329675
2.62917,0.193535,-0.410145
2.71328,0.0667842,-0.34547
2.62022,0.322186,0.0153435
2.76312,0.0680109,-0.0160641
2.81095,-0.068208,-0.262474
2.69996,0.198746,0.0629966
2.83897,-0.068888,0.0330607
2.67024,0.196558,-0.187226
2.63106,0.323519,0.0771481
2.77874,0.0683953,0.0485177
2.59509,0.319096,-0.167569
2.8144,-0.0682918,-0.163952
2.71604,0.199929,0.158603
2.77286,0.0682507,0.113003
2.67784,0.197118,-0.125076
2.7434,0.0675257,-0.143819
2.73995,0.20169,0.337334
2.60619,0.320461,-0.106979
2.68002,0.197278,-0.0625313
2.61309,0.311592,-0.0459347
2.69342,0.188342,0
2.8347,-0.0791805,-0.0330141
2.62986,0.183898,-0.410145
2.72144,0.0570059,-0.34648
2.62933,0.313528,0.0153899
2.77534,0.058135,-0.0161339
2.64619,0.18504,-0.285735
2.70466,0.189128,0.0630896
2.67094,0.18677,-0.187226
2.62826,0.313401,0.0770317
2.78297,0.0582947,0.0485875
2.60417,0.310528,-0.16808
2.81413,-0.078606,-0.163952
2.72074,0.190252,0.158836
2.77709,0.0581715,0.113166
2.68652,0.18786,-0.125448
2.75561,0.0577217,-0.144447
2.74068,0.191647,0.337334
2.60735,0.310908,-0.106979
2.69269,0.188291,-0.0628105
2.61803,0.303842,-0.0460045
2.70205,0.0481084,-0.540499
2.70198,0.180413,0
2.83844,-0.0882093,-0.0330607
2.64226,0.176426,-0.41199
2.6303,0.305267,0.0153899
2.77151,0.0493451,-0.0161106
2.65073,0.176991,-0.286163
2.70923,0.180897,0.0631827
2.85443,-0.0887063,0.0332469
2.67549,0.178645,-0.187505
2.63717,0.306065,0.0772645
2.78314,0.049552,0.0485875
2.60117,0.301886,-0.167825
2.82185,-0.087694,-0.164417
2.79324,0.0497319,0.113818
2.75977,0.0491361,-0.144657
2.74919,0.183565,0.338309
2.60831,0.302715,-0.106979
2.69327,0.179832,-0.0628105
2.76255,0.0390583,-0.0804062
2.70662,0.170761,0
2.84609,-0.0988893,-0.0331538
2.64683,0.166989,-0.412604
2.73367,0.0386499,-0.347995
2.63538,0.296072,0.0154132
2.77968,0.0393004,-0.0161571
2.71387,0.171219,0.0632757
2.85808,-0.0993059,0.0332935
2.6841,0.16934,-0.188063
2.64225,0.296844,0.0773808
2.7913,0.0394647,0.0487271
2.60622,0.292796,-0.16808
2.82151,-0.0980354,-0.164417
2.73392,0.172484,0.159533
2.78941,0.0394379,0.113655
2.69571,0.170073,-0.12582
2.76792,0.0391342,-0.145075
2.7538,0.173738,0.338797
2.61338,0.2936,-0.107142
2.68992,0.169708,-0.0627174
2.62406,0.285992,-0.0460744
2.59926,0.155336,-0.728932
2.70717,0.161785,0
2.84974,-0.108478,-0.0332004
2.64737,0.158212,-0.412604
2.74172,0.0296709,-0.349005
2.6443,0.288198,0.0154597
2.78379,0.0301263,-0.0161804
2.66778,0.159431,-0.287877
2.82964,-0.107713,-0.264333
2.71442,0.162219,0.0632757
2.86573,-0.109087,0.0333866
2.68863,0.160677,-0.188342
2.76265,0.0298974,-0.225542
2.64322,0.288081,0.0773808
2.79541,0.030252,0.0487969
2.60718,0.284153,-0.16808
2.73448,0.163417,0.159533
2.69227,0.160895,-0.125634
2.77203,0.029999,-0.145285
2.76229,0.16508,0.339772
2.62228,0.285799,-0.107467
2.69845,0.161265,-0.0629035
2.62902,0.27725,-0.0461442
2.60748,0.146694,-0.731088
2.71571,0.152783,0
2.85734,-0.118758,-0.0332935
2.65975,0.149635,-0.414449
2.74577,0.0201287,-0.34951
2.64529,0.278965,0.0154597
2.79188,0.0204667,-0.0162269
2.66832,0.150117,-0.287877
2.83721,-0.117921,-0.265077
2.72695,0.153416,0.0635549
2.87732,-0.119588,0.0335263
2.68917,0.15129,-0.188342
2.64819,0.279271,0.0774972
2.8035,0.0205519,0.0489365
2.6161,0.275887,-0.168592
2.84073,-0.118068,-0.16558
2.74699,0.154544,0.160231
2.8016,0.020538,0.114143
2.7008,0.151944,-0.126006
2.77612,0.0203512,-0.145494
2.75889,0.155213,0.339284
2.62327,0.276643,-0.107467
2.70699,0.152293,-0.0630896
2.60797,0.137591,-0.731088
2.71622,0.143302,0
2.75376,0.0105738,-0.350521
2.6542,0.27054,0.0155062
2.79593,0.0107357,-0.0162501
2.66883,0.140802,-0.287877
2.84473,-0.128183,-0.26582
2.73545,0.144317,0.063741
2.87289,-0.129452,0.0334798
2.69367,0.142112,-0.188622
2.77076,0.0106391,-0.226193
2.80355,0.010765,0.0489365
2.62101,0.267157,-0.168848
2.85227,-0.128523,-0.166278
2.74752,0.144953,0.160231
2.80965,0.0107884,0.114469
2.70929,0.142936,-0.126379
2.78416,0.0106905,-0.145913
2.77131,0.146208,0.340747
2.71549,0.143263,-0.0632757
2.63885,0.259672,-0.0462838
2.77882,0.000970653,-0.0808717
2.62383,0.129245,-0.735402
2.72994,0.000953577,-0.545991
2.71671,0.13382,0
2.86843,-0.139285,-0.0334332
2.66468,0.131257,-0.415064
2.75775,0.000963292,-0.351026
2.65115,0.260883,0.0154829
2.80795,0.000980828,-0.0163199
2.68916,0.132464,-0.290019
2.73994,0.134965,0.0638341
2.8884,-0.140255,0.033666
2.7061,0.133298,-0.189459
2.77876,0.00097063,-0.226844
2.65803,0.26156,0.0777299
2.80757,0.000980695,0.0490064
2.62193,0.258007,-0.168848
2.85579,-0.138672,-0.16651
2.75997,0.135952,0.160929
2.81766,0.00098422,0.114795
2.71775,0.133872,-0.126751
2.77576,0.136729,0.341234
2.72396,0.134178,-0.0634618
2.63196,0.120437,-0.737558
2.72914,0.124884,0
2.87591,-0.149714,-0.0335263
2.66907,0.122135,-0.415679
2.7617,-0.00867626,-0.351531
2.65603,0.252004,0.0155062
2.80794,-0.00882151,-0.0163199
2.74838,0.125764,0.0640202
2.88789,-0.150337,0.033666
2.71452,0.124215,-0.190017
2.66689,0.253034,0.0779626
2.81156,-0.00883288,0.0490762
2.62679,0.24923,-0.169104
2.85928,-0.148848,-0.166743
2.76442,0.126498,0.161161
2.82165,-0.00886457,0.114957
2.7222,0.124566,-0.126937
2.79615,-0.00878447,-0.146541
2.78019,0.12722,0.341722
2.64591,0.251044,-0.108281
2.72441,0.124668,-0.0634618
2.63621,0.111412,-0.738637
2.73756,0.115695,0
2.87936,-0.159973,-0.0335729
2.66553,0.112651,-0.415064
2.76959,-0.0183684,-0.352541
2.66486,0.243459,0.0155527
2.81589,-0.0186755,-0.0163664
2.694,0.113854,-0.290447
2.85914,-0.158849,-0.267307
2.74481,0.116002,0.0639271
2.90333,-0.161304,0.0338523
2.71494,0.11474,-0.190017
2.66776,0.243724,0.0779626
2.82351,-0.018726,0.0492856
2.63162,0.240423,-0.16936
2.86671,-0.15927,-0.167208
2.76484,0.116849,0.161161
2.8216,-0.0187133,0.114957
2.72262,0.115064,-0.126937
2.78062,0.117515,0.341722
2.83849,-0.0188254,0.231726
2.64279,0.241444,-0.108119
2.72882,0.115326,-0.0635549
2.65732,0.233889,-0.046563
2.63657,0.10267,-0.738637
2.74549,-0.027313,-0.549128
2.73393,0.106462,0
2.8868,-0.16999,-0.033666
2.67773,0.104273,-0.416909
2.77348,-0.0275915,-0.353046
2.67362,0.235323,0.0155992
2.82381,-0.0280922,-0.0164128
2.69436,0.104921,-0.290447
2.75716,0.107366,0.0642063
2.89878,-0.170695,0.0338057
2.71132,0.105581,-0.189738
2.67253,0.235227,0.078079
2.82743,-0.0281282,0.0493554
2.64035,0.232395,-0.169871
2.87016,-0.16901,-0.16744
2.7732,0.107991,0.161626
2.83351,-0.0281887,0.115446
2.73097,0.106346,-0.127309
2.80401,-0.0278952,-0.146959
2.84639,-0.0283168,0.232377
2.65154,0.23338,-0.108444
2.73718,0.106588,-0.063741
2.66211,0.224947,-0.0466328
2.64461,0.0937384,-0.740793
2.74628,0.0973421,0
2.89418,-0.180564,-0.0337591
2.67808,0.094925,-0.416909
2.67044,0.225651,0.0155759
2.8317,-0.0380572,-0.0164593
2.69471,0.0955144,-0.290447
2.76152,0.0978824,0.0642993
2.90615,-0.181312,0.0338988
2.72363,0.0965396,-0.190575
2.79844,-0.0376102,-0.228471
2.83531,-0.0381058,0.049495
2.64115,0.223177,-0.169871
2.88151,-0.179774,-0.168138
2.77755,0.0984505,0.161859
2.84139,-0.0381875,0.115772
2.73132,0.096812,-0.127309
2.80789,-0.0377373,-0.147169
2.79326,0.0990073,0.343184
2.74553,0.0973158,-0.0639271
2.66686,0.215977,-0.0467026
2.75459,0.0880113,0
2.89752,-0.190928,-0.0338057
2.78513,-0.0471549,-0.354561
2.67918,0.216975,0.0156224
2.83555,-0.0480086,-0.0164826
2.70695,0.0864891,-0.291732
2.77383,0.088626,0.0645785
2.91348,-0.19198,0.033992
2.73193,0.0872872,-0.191133
2.83916,-0.0480698,0.0495648
2.64987,0.214601,-0.170383
2.88883,-0.190356,-0.168603
2.84523,-0.0481726,0.115934
2.74362,0.0876607,-0.127868
2.81573,-0.0476731,-0.147587
2.80152,0.0895106,0.344159
2.65709,0.215186,-0.108607
2.75385,0.0879875,-0.0641132
2.75891,0.0775468,0
2.90475,-0.202608,-0.0338988
2.69451,0.0757366,-0.419368
2.78492,-0.057848,-0.354561
2.68,0.206687,0.0156224
2.83534,-0.0588953,-0.0164826
2.70726,0.0760951,-0.291732
2.77815,0.0780876,0.0646715
2.92071,-0.203722,0.0340851
2.73624,0.0769094,-0.191412
2.68688,0.207217,0.0784281
2.84295,-0.0590534,0.0496346
2.65067,0.204425,-0.170383
2.89604,-0.202002,-0.169068
2.78618,0.0783132,0.162324
2.85302,-0.0592624,0.11626
2.81952,-0.0585667,-0.147797
2.80184,0.0787535,0.344159
2.66985,0.205904,-0.109096
2.75417,0.0774134,-0.0641132
2.76316,0.0680136,0
2.90801,-0.21304,-0.0339454
2.69476,0.0663298,-0.419368
2.79264,-0.0677621,-0.355571
2.68868,0.197917,0.0156689
2.83912,-0.0688899,-0.0165058
2.71546,0.0668395,-0.292589
2.77841,0.0683888,0.0646715
2.91998,-0.213916,0.0340851
2.74048,0.0674552,-0.191691
2.69556,0.198424,0.0786608
2.85473,-0.0692686,0.0498441
2.66332,0.19605,-0.17115
2.8993,-0.212402,-0.169301
2.79442,0.0687829,0.162789
2.85679,-0.0693187,0.116423
2.74819,0.067645,-0.128054
2.82729,-0.0686028,-0.148215
2.67454,0.196876,-0.109258
2.76242,0.0679952,-0.0642993
2.68892,0.189443,-0.0470517
2.76336,0.0593318,0
2.91131,-0.22248,-0.033992
2.6989,0.0579478,-0.419983
2.69328,0.18975,0.0156922
2.84688,-0.0780289,-0.0165523
2.71964,0.0583929,-0.293018
2.7866,0.0598307,0.0648576
2.92328,-0.223394,0.0341317
2.7327,0.0586733,-0.191133
2.85449,-0.0782375,0.0498441
2.6679,0.187962,-0.171406
2.91057,-0.222423,-0.169998
2.79462,0.0600029,0.162789
2.86055,-0.0784035,0.116586
2.75638,0.0591817,-0.128426
2.82706,-0.0774855,-0.148215
2.67913,0.188753,-0.109421
2.76661,0.0594015,-0.0643924
2.68957,0.180055,-0.0470517
2.77155,0.0498293,0
2.92248,-0.233597,-0.0341317
2.80799,-0.086773,-0.357592
2.69792,0.180614,0.0157154
2.85859,-0.0883365,-0.0166221
2.73573,0.0491852,-0.294731
2.79079,0.0501752,0.0649507
2.93045,-0.234235,0.0342248
2.74485,0.0493492,-0.19197
2.8622,-0.0884481,0.0499837
2.67252,0.178914,-0.171662
2.91773,-0.233218,-0.170464
2.86825,-0.0886351,0.116911
2.76456,0.0497035,-0.128798
2.83475,-0.0876,-0.148634
2.67977,0.1794,-0.109421
2.7748,0.0498877,-0.0645785
2.69417,0.170919,-0.0471215
2.77171,0.0401544,0
2.9336,-0.244795,-0.0342714
2.7111,0.0392764,-0.421828
2.70252,0.171449,0.0157387
2.73191,0.0395778,-0.294303
2.79895,0.0405491,0.0651368
2.94158,-0.24546,0.0343645
2.75299,0.0398832,-0.192528
2.8329,-0.0974418,-0.231401
2.86187,-0.0984385,0.0499837
2.67711,0.169837,-0.171918
2.81493,0.0407807,0.163952
2.87591,-0.0989214,0.117237
2.76871,0.0401109,-0.128984
2.68437,0.170298,-0.109584
2.69475,0.161514,-0.0471215
2.77983,0.0305671,0
2.94867,-0.25642,-0.0344576
2.71517,0.0298561,-0.422443
2.81525,-0.106675,-0.358602
2.7071,0.162254,0.0157619
2.8579,-0.108291,-0.0166221
2.73601,0.0300852,-0.294731
2.80307,0.0308226,0.0652298
2.95664,-0.257113,0.0345507
2.7571,0.0303171,-0.192807
2.83652,-0.107481,-0.231726
2.8695,-0.108731,0.0501233
2.67769,0.160491,-0.171918
2.92399,-0.254273,-0.170929
2.81506,0.0309545,0.163952
2.88354,-0.109262,0.117563
2.77682,0.030534,-0.129357
2.85004,-0.107993,-0.149472
2.69692,0.161644,-0.110073
2.69929,0.152332,-0.0471913
2.78792,0.0209235,0
2.94776,-0.266711,-0.0344576
2.71921,0.0204078,-0.423058
2.82279,-0.116829,-0.359612
2.70765,0.152803,0.0157619
2.87349,-0.118928,-0.0167151
2.74007,0.0205644,-0.295159
2.80316,0.0210379,0.0652298
2.95971,-0.267792,0.0345973
2.76517,0.0207528,-0.193365
2.72251,0.153642,0.079359
2.8771,-0.119077,0.0502629
2.69019,0.151818,-0.172685
2.81914,0.0211578,0.164185
2.89112,-0.119658,0.117888
2.77691,0.0208409,-0.129357
2.83463,0.0212741,0.348059
2.89588,-0.119854,0.236608
2.70146,0.152454,-0.110235
2.79117,0.0209479,-0.0649507
2.71578,0.143754,-0.0474705
2.83029,-0.127038,-0.360622
2.74808,0.0110316,-0.296016
2.81122,0.011285,0.0654159
2.95876,-0.278122,0.0345973
2.76124,0.0110844,-0.193086
2.72303,0.144138,0.079359
2.88865,-0.129657,0.0504724
2.69868,0.142849,-0.173197
2.82319,0.0113331,0.164417
2.89069,-0.129749,0.117888
2.78096,0.0111636,-0.129543
2.70995,0.143446,-0.110561
2.72026,0.134471,-0.0475404
2.85545,-0.138156,-0.0831989
2.96175,-0.288836,-0.0346439
2.72063,0.134489,0.0158317
2.88058,-0.139372,-0.0167616
2.81524,0.00147406,0.065509
2.96175,-0.288836,0.0346439
2.77323,0.00145206,-0.193923
2.72751,0.134829,0.0794753
2.88818,-0.13974,0.0504724
2.69916,0.133428,-0.173197
2.8352,0.00148451,0.165115
2.89421,-0.140032,0.118051
2.77699,0.00145403,-0.129357
2.84662,0.00149049,0.349521
2.71044,0.133985,-0.110561
2.72871,0.125342,-0.04768
2.79599,-0.00829588,0
2.96072,-0.299173,-0.0346439
2.73113,-0.00810346,-0.424903
2.83726,-0.147205,-0.361632
2.88807,-0.149841,-0.0168081
2.76002,-0.00818917,-0.297301
2.81922,-0.00836483,0.0656021
2.97266,-0.300379,0.0347836
2.77721,-0.00824016,-0.194202
2.73596,0.125675,0.0797081
2.89167,-0.150028,0.0505422
2.70758,0.124371,-0.173709
2.83518,-0.00841218,0.165115
2.90169,-0.150548,0.118377
2.78497,-0.00826319,-0.129729
2.87219,-0.149017,-0.150728
2.71488,0.124707,-0.110724
2.72513,0.115646,-0.0476102
2.80394,-0.0181073,0
2.97557,-0.31117,-0.0348301
2.7469,-0.0177389,-0.427362
2.84465,-0.157547,-0.362642
2.7295,0.115832,0.0158782
2.89152,-0.160142,-0.0168313
2.756,-0.0177977,-0.296873
2.81918,-0.0182057,0.0656021
2.97557,-0.31117,0.0348301
2.78913,-0.0180117,-0.195039
2.74437,0.116463,0.0799408
2.90311,-0.160784,0.0507516
2.71598,0.115258,-0.17422
2.95882,-0.309419,-0.173254
2.83913,-0.0183346,0.165347
2.91312,-0.161338,0.118865
2.78892,-0.0180103,-0.129915
2.86244,-0.0184851,0.351471
2.72329,0.115568,-0.111049
2.81118,-0.0181541,-0.0654159
2.73351,0.106444,-0.0477498
2.80786,-0.0279346,0
2.9864,-0.322844,-0.0349698
2.75868,-0.0274453,-0.429207
2.74188,0.10677,0.0159479
2.90292,-0.17094,-0.016901
2.76387,-0.027497,-0.29773
2.82709,-0.0281259,0.0657882
2.99037,-0.323274,0.0350164
2.79304,-0.0277871,-0.195318
2.75275,0.107193,0.0801735
2.91451,-0.171622,0.050961
2.71636,0.105777,-0.17422
2.84704,-0.0283243,0.165813
2.91253,-0.171506,0.118865
2.79283,-0.0277851,-0.130101
2.86236,-0.0284768,0.351471
2.73566,0.106528,-0.111538
2.74984,0.0979486,-0.048029
2.99326,-0.333632,-0.0350629
2.76647,-0.0366981,-0.430437
2.90633,-0.180814,-0.0169243
2.77172,-0.0367677,-0.298587
2.83098,-0.0375538,0.0658812
2.78894,-0.0369961,-0.195039
2.75708,0.0982067,0.0802899
2.91791,-0.181534,0.0510308
2.72867,0.0971945,-0.174988
2.84693,-0.0377653,0.165813
2.91594,-0.181412,0.119028
2.79672,-0.0370993,-0.130287
2.89044,-0.179825,-0.151774
2.86622,-0.0380212,0.351959
2.73599,0.0974555,-0.111538
2.75018,0.0878693,-0.048029
2.88851,-0.190336,-0.0842462
2.99599,-0.345058,-0.0351095
2.76237,-0.0467705,-0.429822
2.86264,-0.188631,-0.365168
2.75055,0.0878812,0.0159944
2.91363,-0.191991,-0.0169708
2.77554,-0.0469936,-0.299015
2.83882,-0.048065,0.0660673
2.99202,-0.344601,0.0350629
2.79677,-0.047353,-0.195597
2.75743,0.0881008,0.0802899
2.91723,-0.192228,0.0510308
2.73699,0.0874478,-0.1755
2.84677,-0.0481995,0.165813
2.92323,-0.192623,0.119354
2.80056,-0.0474172,-0.130473
2.874,-0.0486606,0.352934
2.74033,0.0875545,-0.111701
2.75047,0.0782688,-0.048029
2.89979,-0.201248,-0.0845953
2.82341,-0.0576631,0
3.00271,-0.356457,-0.0352026
2.77009,-0.0565741,-0.431052
2.75084,0.0782794,0.0159944
2.91693,-0.202437,-0.016994
2.77934,-0.056763,-0.299443
2.84664,-0.0581374,0.0662534
3.01065,-0.3574,0.0352958
2.80855,-0.0573597,-0.196434
2.7737,0.07893,0.0807553
2.92452,-0.202964,0.0511705
2.74126,0.0780069,-0.175755
2.85856,-0.0583809,0.16651
2.93051,-0.20338,0.119679
2.80837,-0.0573558,-0.130846
2.74861,0.0782158,-0.112026
2.75074,0.0681873,-0.048029
3.00932,-0.368432,-0.0352958
2.78172,-0.0670122,-0.432897
2.7631,0.0684939,0.0160641
2.92016,-0.213419,-0.0170173
2.78309,-0.0670452,-0.299872
2.8504,-0.0686667,0.0663465
3.01727,-0.369404,0.0353889
2.8163,-0.0678453,-0.196992
2.76998,0.0686642,0.080639
2.93572,-0.214556,0.0513799
2.74153,0.0679591,-0.175755
2.86232,-0.0689538,0.166743
2.93772,-0.214702,0.120005
2.81613,-0.0678411,-0.131218
2.75687,0.0683392,-0.112352
2.76693,0.0598915,-0.0483083
2.83495,-0.0772066,0
3.01609,-0.378882,-0.0353889
2.78545,-0.0758585,-0.433511
2.7713,0.0599862,0.0161106
2.93144,-0.223504,-0.017087
3.01609,-0.378882,0.0353889
2.82007,-0.0768013,-0.197271
2.78217,0.0602214,0.080988
2.94301,-0.224386,0.0515195
2.74971,0.0595188,-0.176267
2.86209,-0.0779457,0.166743
2.945,-0.224538,0.120331
2.82389,-0.0769054,-0.13159
2.77112,0.0503053,-0.0483781
2.91351,-0.232368,-0.0850607
2.79307,-0.0858238,-0.434741
2.7795,0.0504573,0.0161571
2.80246,-0.0861124,-0.302014
2.84988,-0.0875697,0.0663465
2.81978,-0.0866447,-0.197271
2.78236,0.0505094,0.080988
2.95018,-0.235293,0.0516591
2.75789,0.0500651,-0.176779
2.86978,-0.0881811,0.167208
2.94818,-0.235134,0.120494
2.77128,0.040632,-0.0483781
2.92464,-0.243532,-0.0854098
2.84633,-0.0974067,0
2.7967,-0.0957081,-0.435356
2.77965,0.0407548,0.0161571
2.94177,-0.244959,-0.0171568
2.86155,-0.0979274,0.0666256
2.83142,-0.0968965,-0.198108
2.79052,0.0409141,0.0812208
2.95731,-0.246253,0.0517987
2.9593,-0.246419,0.120982
2.83526,-0.0970279,-0.132148
2.7694,0.0406045,-0.112841
2.85755,-0.0977906,-0.0665326
2.7794,0.0310475,-0.0485177
2.93173,-0.254431,-0.0856425
2.85797,-0.107794,0
2.80425,-0.105768,-0.436586
2.77978,0.0310517,0.0161571
2.95285,-0.256264,-0.0172265
2.80576,-0.105825,-0.302442
2.88117,-0.108669,0.0670909
2.84303,-0.107231,-0.198945
2.79064,0.0311731,0.0812208
2.95644,-0.256575,0.0517987
2.88506,-0.108816,0.168138
2.96638,-0.257438,0.121308
2.84289,-0.107225,-0.132521
2.77752,0.0310265,-0.113166
2.7795,0.0208603,-0.0485177
2.93476,-0.265535,-0.0857589
2.86954,-0.118764,0
2.80384,-0.116045,-0.436586
2.78787,0.0209232,0.0162036
2.95588,-0.267445,-0.0172498
2.81728,-0.116601,-0.303727
2.88075,-0.119228,0.0670909
2.82667,-0.11699,-0.197829
2.80273,0.0210347,0.0815699
2.96344,-0.26813,0.0519384
2.77024,0.0207908,-0.177546
2.97338,-0.269029,0.121633
2.84647,-0.11781,-0.132707
2.78161,0.0208762,-0.113329
2.86477,-0.118567,-0.0667187
2.78755,0.0116766,-0.0486573
2.94581,-0.276386,-0.086108
2.87313,-0.128458,0
2.81529,-0.125872,-0.438431
2.79593,0.0117117,0.0162501
2.82085,-0.126121,-0.304156
2.88034,-0.128781,0.0670909
2.8462,-0.127254,-0.199224
2.81079,0.0117739,0.0818026
2.97448,-0.279076,0.0521478
2.77828,0.0116377,-0.178058
2.89221,-0.129311,0.168603
2.96849,-0.278514,0.121471
2.85405,-0.127605,-0.133079
2.78966,0.0116854,-0.113655
2.79557,0.00195171,-0.0487969
2.94881,-0.287055,-0.0862243
2.87266,-0.138486,0
2.82273,-0.136079,-0.439661
2.80795,0.00196035,0.0163199
2.83231,-0.136541,-0.305441
2.88387,-0.139027,0.067184
2.84574,-0.137188,-0.199224
2.81881,0.00196793,0.0820353
2.98145,-0.290232,0.0522874
2.78229,0.00194243,-0.178314
2.89572,-0.139598,0.168836
2.86157,-0.137952,-0.133451
2.79368,0.00195039,-0.113818
2.87588,-0.138642,-0.0669978
2.79956,-0.00781789,-0.0488667
2.95574,-0.298149,-0.0864571
2.88415,-0.149133,0
2.82223,-0.145931,-0.439661
2.81194,-0.00785246,0.0163431
2.83579,-0.146632,-0.305869
2.89934,-0.149918,0.0675562
2.85321,-0.147533,-0.199783
2.8188,-0.0078716,0.0820353
2.98838,-0.301441,0.052427
2.78627,-0.00778078,-0.178569
2.9032,-0.150118,0.169301
2.86905,-0.148352,-0.133824
2.79767,-0.0078126,-0.11398
2.80352,-0.0176152,-0.0489365
2.97059,-0.310125,-0.0869225
2.8876,-0.15942,0
2.8199,-0.0177182,0.0163896
2.98373,-0.311497,-0.0174357
2.84717,-0.157188,-0.307154
2.91078,-0.160699,0.0678353
2.86463,-0.158152,-0.20062
2.81875,-0.017711,0.0820353
2.98731,-0.31187,0.052427
2.79022,-0.0175317,-0.178825
2.9186,-0.161131,0.170231
2.87251,-0.158586,-0.13401
2.79762,-0.0175782,-0.11398
2.89081,-0.159597,-0.0673701
2.80744,-0.0274403,-0.0490064
2.97347,-0.320922,-0.0870389
2.89901,-0.170202,0
2.81982,-0.0275613,0.0163896
2.99058,-0.322769,-0.0174822
2.85057,-0.167358,-0.307583
2.9102,-0.170859,0.0678353
2.86805,-0.168384,-0.200899
2.83466,-0.0277064,0.0825008
2.99415,-0.323154,0.0525666
2.79413,-0.0273103,-0.179081
2.91404,-0.171084,0.169998
2.8839,-0.169315,-0.134568
2.80154,-0.0273827,-0.114143
2.89024,-0.169687,-0.0673701
2.81132,-0.037293,-0.0490762
2.97233,-0.331299,-0.0870389
2.90239,-0.180569,0
2.8317,-0.0375634,0.0164593
2.99739,-0.334092,-0.0175287
2.85394,-0.177555,-0.308011
2.90959,-0.181016,0.0678353
2.83455,-0.0376011,0.0825008
3.00493,-0.334933,0.0527761
2.802,-0.0371694,-0.179593
2.92139,-0.181751,0.170464
2.81342,-0.0373208,-0.114632
2.89362,-0.180023,-0.0674631
2.81518,-0.0471731,-0.049146
2.98307,-0.343043,-0.087388
2.90573,-0.190961,0
