2.93651,0.523073,-0.0868062
2.84853,0.364905,-0.0334332
2.95346,0.526092,-0.0174357
2.82849,0.362338,-0.266192
2.8525,0.365413,0.0334798
2.93587,0.522958,-0.243443
2.96881,0.528826,0.0526365
2.83598,0.363298,-0.16651
2.94553,0.524679,-0.156799
2.92651,0.510758,-0.0864571
2.84185,0.353972,-0.0333401
2.93952,0.513029,-0.0173428
2.83369,0.352956,-0.266564
2.85375,0.355455,0.0334798
2.92982,0.511336,-0.242792
2.95882,0.516397,0.052427
2.82534,0.351916,-0.165813
2.9316,0.511648,-0.155961
2.92433,0.499865,-0.0863407
2.83115,0.342607,-0.0332004
2.93735,0.50209,-0.0173195
2.81513,0.340669,-0.264705
2.84704,0.344529,0.0333866
2.92766,0.500434,-0.242466
2.82655,0.342051,-0.165813
2.93731,0.502083,-0.156171
2.91423,0.487674,-0.0859916
2.83233,0.332722,-0.0332004
2.93908,0.491833,-0.0173195
2.8084,0.32991,-0.263961
2.8363,0.333188,0.0332469
2.91759,0.488237,-0.24149
2.93868,0.491766,0.0520082
2.81583,0.330784,-0.165115
2.9367,0.491434,0.121308
2.91934,0.48853,-0.155124
2.81758,0.321023,-0.0330141
2.92894,0.479632,-0.0172498
2.80162,0.319204,-0.263218
2.90354,0.475473,-0.240188
2.93249,0.480213,0.0518686
2.813,0.320501,-0.164882
2.93839,0.48118,0.121308
2.91315,0.477046,-0.154705
2.90177,0.464789,-0.0855262
2.81471,0.310747,-0.0329675
2.91875,0.467508,-0.01718
2.79875,0.308986,-0.262846
2.89731,0.464074,-0.239537
2.9223,0.468077,0.0516591
2.81014,0.310243,-0.16465
2.92822,0.469025,0.120819
2.91085,0.466243,-0.154496
3.01299,0.634938,-0.0716505
2.89547,0.45342,-0.0852934
2.8118,0.300496,-0.032921
2.9006,0.454223,-0.0170638
2.7919,0.298369,-0.262102
2.89103,0.452725,-0.238886
2.91601,0.456637,0.0515195
2.80326,0.299583,-0.164185
2.91799,0.456946,0.120331
2.99709,0.620669,-0.142571
2.90457,0.454844,-0.154077
3.00736,0.622795,-0.0714644
2.88115,0.441393,-0.084828
3.00238,0.611388,0
2.80482,0.290345,-0.0328279
2.90209,0.444601,-0.0170638
2.78495,0.288288,-0.261359
2.80482,0.290345,0.0328279
2.8807,0.441323,-0.23791
2.91356,0.446358,0.0514497
2.79629,0.289463,-0.16372
2.90369,0.444845,0.119679
2.89421,0.443395,-0.153449
3.00157,0.611222,-0.0712783
2.78985,0.279449,-0.0326416
2.85681,0.427974,-0.367693
2.89564,0.433791,-0.0170173
2.774,0.277861,-0.260243
2.79383,0.279847,0.0326882
2.8782,0.431178,-0.237584
2.90316,0.434917,0.0512403
2.78532,0.278995,-0.163022
2.90514,0.435215,0.119679
2.87987,0.431428,-0.152612
2.99574,0.599696,-0.0710922
2.87222,0.420036,-0.0844789
2.98685,0.58708,0
2.78285,0.268938,-0.0325485
2.85044,0.41685,-0.366683
2.88922,0.422522,-0.0169708
2.77099,0.267792,-0.259872
2.79081,0.269708,0.0326416
2.85602,0.417667,-0.235632
2.89674,0.423622,0.0511006
2.77435,0.268117,-0.162324
2.89874,0.423914,0.119354
2.88136,0.421372,-0.152612
2.99781,0.589235,-0.0710922
2.85791,0.40725,-0.0840135
2.9772,0.573858,0
2.78381,0.258737,-0.0325485
2.88283,0.410802,-0.0169243
2.76402,0.256898,-0.259128
2.77983,0.258367,0.0325019
2.86148,0.407759,-0.235957
2.89036,0.411874,0.050961
2.76736,0.257209,-0.161859
2.89236,0.412159,0.119028
2.9622,0.570968,-0.140524
2.86706,0.408555,-0.151774
2.9921,0.57673,-0.0709061
2.85139,0.396171,-0.0837807
2.97132,0.561975,0
2.76876,0.247593,-0.0323622
2.87236,0.399084,-0.0168546
2.77275,0.247949,0.0324088
2.84709,0.395573,-0.234655
2.87989,0.400131,0.0507516
2.75631,0.246479,-0.161161
2.8819,0.40041,0.11854
2.86056,0.397444,-0.151356
2.87868,0.399962,0.237259
2.97052,0.561823,-0.0703477
2.96137,0.549926,0
2.76957,0.238409,-0.0323622
2.86574,0.388481,-0.0168081
2.74983,0.23671,-0.257641
2.76558,0.238066,0.0323156
2.94239,0.546401,-0.209269
2.84048,0.385058,-0.234004
2.75314,0.236995,-0.160929
2.87529,0.389776,0.118214
2.94638,0.547142,-0.139593
2.85394,0.386882,-0.150937
2.87604,0.389877,0.236933
2.9645,0.550508,-0.0701616
2.75448,0.226943,-0.032176
2.85525,0.376407,-0.0167383
2.74671,0.226303,-0.257269
2.97437,0.541071,0.0703477
2.75448,0.226943,0.032176
2.83397,0.373603,-0.233353
2.74603,0.226247,-0.160464
2.86878,0.378191,0.117888
2.84346,0.374854,-0.150309
2.86954,0.378292,0.236282
2.9547,0.537492,-0.0698825
2.94554,0.525212,0
2.73931,0.21607,-0.0319897
2.73954,0.216088,-0.256526
2.96837,0.529282,0.0701616
2.75127,0.217013,0.0321294
2.92658,0.521831,-0.207874
2.82735,0.362694,-0.232702
2.7468,0.216661,-0.160464
2.86215,0.367159,0.117563
2.93055,0.522539,-0.138663
2.83683,0.36391,-0.14989
2.85503,0.366245,0.234981
2.95262,0.526474,-0.0697894
2.93554,0.512862,0
2.73605,0.206206,-0.0319431
2.8459,0.354981,-0.0166686
2.74004,0.206507,0.0319897
2.92052,0.51024,-0.207316
2.81673,0.351343,-0.231726
2.73559,0.206172,-0.159766
2.85549,0.356177,0.117237
2.92842,0.511619,-0.138477
2.83015,0.353017,-0.149472
2.84838,0.35529,0.23433
2.94262,0.5141,-0.0695103
2.81421,0.341055,-0.0825008
2.93731,0.502612,0
2.73277,0.196367,-0.0318966
2.83918,0.344082,-0.0166221
2.74474,0.197227,0.0320363
2.91835,0.499368,-0.207037
2.81002,0.340548,-0.231075
2.84673,0.344997,0.0500535
2.72435,0.195762,-0.159068
2.84878,0.345245,0.116911
2.91837,0.499371,-0.137918
2.83137,0.343135,-0.149472
2.83773,0.343906,0.233353
2.92469,0.500452,-0.069045
2.93107,0.491544,0
2.72542,0.186756,-0.0318034
2.79397,0.329205,-0.358097
2.82839,0.33326,-0.0165523
2.71381,0.18596,-0.253923
2.94211,0.493395,0.0694172
2.7334,0.187303,0.0318966
2.90819,0.487707,-0.2062
2.81114,0.331227,-0.231075
2.71303,0.185907,-0.158371
2.83006,0.333457,0.116097
2.91213,0.488369,-0.137546
2.82456,0.332809,-0.149053
2.83885,0.334493,0.233353
2.91844,0.489427,-0.0688589
2.77858,0.317071,-0.559327
2.91706,0.47821,0
2.71811,0.176249,-0.0317103
2.79122,0.318513,-0.357592
2.82164,0.321984,-0.0165058
2.89636,0.474816,-0.316151
2.7105,0.175755,-0.253551
2.936,0.481315,0.0692311
2.73008,0.177025,0.03185
2.90208,0.475754,-0.205642
2.80441,0.320018,-0.230424
2.83318,0.323301,0.0497743
2.70971,0.175704,-0.158138
2.83126,0.323082,0.116097
2.90602,0.476399,-0.137174
2.81385,0.321096,-0.148425
2.82818,0.32273,0.232377
2.90838,0.476787,-0.0685797
2.90687,0.466126,0
2.70673,0.166026,-0.0315706
2.78837,0.308332,-0.357087
2.82275,0.312134,-0.0165058
2.89015,0.463445,-0.315294
2.70712,0.16605,-0.25318
2.92582,0.469165,0.0689519
2.71871,0.16676,0.0317103
2.8919,0.463727,-0.204805
2.79759,0.309351,-0.229773
2.70233,0.165756,-0.157673
2.92166,0.468498,0.172324
2.82046,0.31188,0.115609
2.89583,0.464355,-0.136615
2.80701,0.310394,-0.148006
2.8174,0.311542,0.231401
2.91003,0.466633,-0.0685797
2.79076,0.299725,-0.0816862
2.89646,0.455128,0
2.70324,0.157288,-0.0315241
2.81576,0.302409,-0.0164593
2.8798,0.45251,-0.314009
2.69968,0.157081,-0.252436
2.91938,0.458729,0.0687658
2.71922,0.158218,0.0317103
2.79458,0.300134,-0.229448
2.70284,0.157265,-0.157673
2.93101,0.460556,0.172789
2.81745,0.30259,0.115446
2.89727,0.455255,-0.136615
2.80003,0.30072,-0.147587
2.89568,0.455004,-0.0682075
2.78394,0.288183,-0.0814535
2.75834,0.285533,-0.55462
2.89819,0.444002,0
2.69983,0.14669,-0.0314775
2.79701,0.289535,-0.0163431
2.86972,0.439642,-0.312723
2.69628,0.146497,-0.252064
2.71182,0.147341,0.0316172
2.87929,0.441108,-0.203689
2.78778,0.28858,-0.228797
2.80856,0.290731,0.0492856
2.68748,0.146018,-0.156743
2.91302,0.446274,0.171626
2.80269,0.290123,0.114795
2.8911,0.442916,-0.136243
2.78925,0.288732,-0.146959
2.79968,0.289812,0.229773
2.77299,0.277272,-0.0811044
2.75152,0.275124,-0.553051
2.89181,0.432701,0
2.69634,0.137064,-0.0314309
2.75986,0.275958,-0.353046
2.99268,0.598541,0.017738
2.798,0.279772,-0.0163431
2.86731,0.429035,-0.312295
2.68087,0.136277,-0.250577
2.90289,0.434359,0.0683006
2.70432,0.13747,0.0315241
2.86898,0.429285,-0.202852
2.7848,0.278453,-0.228471
2.80558,0.28053,0.0492158
2.67999,0.136233,-0.156278
2.91061,0.435514,0.171394
2.79971,0.279943,0.114632
2.87287,0.429867,-0.135313
2.79024,0.278996,-0.146959
2.7967,0.279642,0.229448
2.76987,0.268171,-0.080988
2.73675,0.264965,-0.549913
2.87732,0.421294,0
2.68876,0.128209,-0.0313378
2.74886,0.266137,-0.351531
2.9867,0.58759,0.0176915
2.7909,0.270207,-0.0162966
2.85684,0.418294,-0.31101
2.68128,0.127852,-0.250577
2.69276,0.128399,0.0313844
2.77376,0.268548,-0.227495
2.79849,0.270942,0.0490762
2.68041,0.127811,-0.156278
2.90011,0.424631,0.170696
2.79261,0.270373,0.114306
2.87025,0.420258,-0.135126
2.77122,0.268302,-0.145913
2.78963,0.270084,0.228797
2.87259,0.4206,-0.0675562
2.73375,0.255047,-0.549128
2.87085,0.410118,0
2.6812,0.118471,-0.0312447
2.74583,0.256174,-0.351026
2.9848,0.576405,0.0176682
2.77192,0.258608,-0.0161804
2.84647,0.406634,-0.309725
2.6658,0.117791,-0.24909
2.88987,0.412835,0.0679284
2.69319,0.119001,0.0313844
2.85201,0.407426,-0.201457
2.76277,0.257755,-0.226519
2.78747,0.260059,0.0488667
2.68084,0.118455,-0.156278
2.88972,0.412813,0.169998
2.78558,0.259883,0.11398
2.85588,0.407979,-0.134382
2.77214,0.258629,-0.145913
2.87008,0.410007,-0.0674631
2.75977,0.247274,-0.080639
2.73076,0.244675,-0.548344
2.86441,0.39849,0
2.67762,0.108481,-0.0311981
2.73489,0.245045,-0.34951
2.97117,0.562484,0.0175752
2.77285,0.248446,-0.0161804
2.84006,0.395102,-0.308868
2.66621,0.108019,-0.24909
2.87948,0.400586,0.0676492
2.7637,0.247626,-0.226519
2.78044,0.249126,0.0487271
2.66928,0.108143,-0.15558
2.8833,0.401117,0.169533
2.77855,0.248957,0.113655
2.85735,0.397508,-0.134382
2.76511,0.247753,-0.145494
2.85968,0.397831,-0.067184
2.75663,0.237297,-0.0805226
2.72379,0.234469,-0.546775
2.8539,0.386877,0
2.67399,0.0989862,-0.0311515
2.73177,0.235157,-0.349005
2.96525,0.550649,0.0175287
2.76572,0.23808,-0.0161339
2.8296,0.383584,-0.307583
2.66259,0.0985644,-0.248718
2.8769,0.389996,0.0675562
2.84299,0.385399,-0.20062
2.75263,0.236952,-0.225542
2.77332,0.238734,0.0485875
2.65767,0.0983823,-0.154882
2.87677,0.389978,0.169068
2.77144,0.238572,0.113329
2.84685,0.385922,-0.133824
2.758,0.237415,-0.145075
2.85709,0.38731,-0.0670909
2.72068,0.224637,-0.545991
2.85126,0.376389,0
2.66632,0.0893829,-0.0310584
2.76255,0.228094,-0.0161106
2.82698,0.373183,-0.307154
2.65098,0.0888686,-0.247603
2.87032,0.378904,0.0673701
2.83245,0.373905,-0.199783
2.74152,0.226358,-0.224566
2.96595,0.540075,0.087737
2.76218,0.228063,0.0483781
2.65401,0.0889702,-0.15465
2.85832,0.37732,0.167906
2.75633,0.22758,0.112678
2.75483,0.227457,-0.144866
2.76139,0.227998,0.226193
2.85049,0.376287,-0.0669048
2.73431,0.216156,-0.0798244
2.70581,0.213903,-0.542853
2.66662,0.0800757,-0.0310584
2.75137,0.217505,-0.0160409
2.82038,0.3623,-0.306298
2.63933,0.0792563,-0.246488
2.85576,0.366845,0.0669978
2.67062,0.0801958,0.031105
2.74229,0.216787,-0.224566
2.95601,0.527611,0.087388
2.75897,0.218106,0.0483083
2.6543,0.079706,-0.15465
2.84774,0.365815,0.167208
2.75312,0.217643,0.112515
2.73968,0.216581,-0.144029
2.73106,0.206308,-0.0797081
2.69871,0.203865,-0.541284
2.65489,0.070448,-0.0309187
2.7143,0.205042,-0.34648
2.9354,0.513365,0.0173195
2.74015,0.206995,-0.0159711
2.64755,0.0702535,-0.247231
2.84511,0.355386,0.0667187
2.73111,0.206312,-0.22359
2.64658,0.0702277,-0.154185
2.84503,0.355376,0.166975
2.74988,0.20773,0.112352
2.74042,0.207015,-0.144029
2.84511,0.355386,-0.0667187
2.69158,0.19388,-0.539715
2.65112,0.0610887,-0.0308722
2.70313,0.194712,-0.344965
2.74484,0.197716,-0.0159944
2.80704,0.340685,-0.304584
2.63186,0.0606449,-0.245744
2.84237,0.344972,0.0666256
2.72386,0.196205,-0.222939
2.74447,0.19769,0.048029
2.63484,0.0607136,-0.153487
2.84229,0.344962,0.166743
2.7466,0.197843,0.112189
2.81229,0.341321,-0.131962
2.72917,0.196588,-0.143401
2.73976,0.197351,0.22424
2.71249,0.18587,-0.0791263
2.69224,0.184483,-0.539715
2.64731,0.0517553,-0.0308256
2.69588,0.184732,-0.343955
2.73354,0.187313,-0.0159246
2.63205,0.0514569,-0.245744
2.83561,0.334111,0.0664395
2.72055,0.186422,-0.222613
2.92983,0.491336,0.0864571
2.73716,0.187561,0.0478894
2.63104,0.0514371,-0.153254
2.83158,0.333636,0.166045
2.73531,0.187434,0.111701
2.80553,0.330567,-0.13159
2.72586,0.186786,-0.143191
2.85072,0.335892,0.352446
2.73248,0.18724,0.22359
2.68113,0.17432,-0.537361
2.68859,0.174805,-0.342945
2.72221,0.176991,-0.0158549
2.62027,0.0420765,-0.244629
2.82087,0.322394,0.0660673
2.79494,0.31943,-0.196713
2.7172,0.176665,-0.222288
2.91574,0.478516,0.0859916
2.7378,0.178005,0.0478894
2.62322,0.0421239,-0.152789
2.82876,0.323296,0.165813
2.73196,0.177625,0.111538
2.71852,0.176751,-0.142773
2.73312,0.1777,0.22359
2.76057,0.179485,0.504385
2.82484,0.322848,-0.0661604
2.71876,0.168191,-0.0158317
2.61242,0.0337421,-0.243885
2.81392,0.312648,0.0658812
2.70979,0.167636,-0.221637
2.72637,0.168662,0.04768
2.62334,0.0338831,-0.152789
2.82976,0.314408,0.165813
2.72453,0.168548,0.111212
2.7071,0.16747,-0.142144
2.7257,0.168621,0.222939
2.76112,0.170812,0.504385
2.61971,0.0246923,-0.0304996
2.71933,0.158702,-0.0158317
2.60854,0.0245871,-0.243513
2.80704,0.30197,0.0656951
2.78112,0.299182,-0.195597
2.69444,0.157249,-0.220335
2.72295,0.158913,0.0476102
2.61944,0.0246899,-0.152557
2.8229,0.303676,0.165347
2.72111,0.158806,0.111049
2.7849,0.299588,-0.130473
2.69571,0.157323,-0.141516
2.71434,0.158411,0.221962
2.75384,0.160716,0.50295
2.68685,0.146925,-0.0783117
2.78502,0.289277,0
2.6126,0.0150472,-0.243885
2.80415,0.291264,0.0656021
2.77426,0.28816,-0.195039
2.69101,0.147153,-0.22001
2.70754,0.148057,0.0473309
2.61553,0.015064,-0.152324
2.81605,0.292501,0.164882
2.71369,0.148393,0.110724
2.77803,0.288551,-0.130101
2.69627,0.14744,-0.141516
2.83139,0.294094,0.349521
2.70694,0.148024,0.221311
2.74655,0.15019,0.501515
2.68335,0.137343,-0.0781954
2.65586,0.135936,-0.53187
2.78601,0.279556,0
2.61182,0.00592737,-0.0304065
2.69642,0.138012,-0.0156922
2.60069,0.00590212,-0.24277
2.79719,0.280678,0.0654159
2.61982,0.00594553,0.0304996
2.77525,0.278476,-0.195039
2.67957,0.137149,-0.219033
2.70804,0.138606,0.0473309
2.60758,0.00591775,-0.151859
2.80911,0.281873,0.164417
2.71419,0.138921,0.110724
2.77504,0.278455,-0.129915
2.69278,0.137825,-0.141307
2.8245,0.283418,0.348546
2.70346,0.138372,0.220986
2.73527,0.14,0.499363
2.79719,0.280678,-0.0654159
2.65632,0.126663,-0.53187
2.78299,0.269443,0
2.69689,0.128598,-0.0156922
2.58476,-0.00315723,-0.241283
2.78621,0.269755,0.0651368
2.77224,0.268402,-0.19476
2.67605,0.127604,-0.218708
2.70451,0.128962,0.0472611
2.59959,-0.00317535,-0.151394
2.8061,0.271681,0.164185
2.70668,0.129065,0.110398
2.77202,0.268381,-0.129729
2.68526,0.128043,-0.140888
2.81757,0.272791,0.347571
2.70392,0.128933,0.220986
2.73181,0.130263,0.498645
2.64107,0.116698,-0.528732
2.76798,0.258241,0
2.65596,0.117356,-0.338399
2.86685,0.409546,0.0168313
2.68933,0.118831,-0.0156457
2.7481,0.256386,-0.297301
2.5927,-0.0122167,-0.242026
2.78714,0.260028,0.0651368
2.61179,-0.0123067,0.0304065
2.76124,0.257612,-0.193923
2.66851,0.117911,-0.218057
2.69696,0.119168,0.0471215
2.59957,-0.0122491,-0.151394
2.69913,0.119264,0.110073
2.761,0.25759,-0.12917
2.66973,0.117965,-0.140051
2.79874,0.26111,0.345134
2.69241,0.118967,0.22001
2.72045,0.120206,0.496493
2.78316,0.259657,-0.0650437
2.63754,0.107318,-0.527948
2.76488,0.248219,0
2.59574,-0.0212929,-0.0302203
2.64842,0.107761,-0.337389
2.86033,0.398431,0.0167848
2.68573,0.109279,-0.0156224
2.74502,0.246436,-0.296873
2.58468,-0.0212022,-0.241283
2.78006,0.249582,0.0649507
2.59974,-0.0213257,0.0302668
2.75815,0.247614,-0.193644
2.66094,0.10827,-0.217406
2.59152,-0.0212584,-0.150929
2.69553,0.109678,0.10991
2.75791,0.247593,-0.128984
2.67012,0.108644,-0.140051
2.79568,0.250984,0.344647
2.68086,0.109081,0.219033
2.71693,0.110548,0.495776
2.77608,0.249224,-0.0648576
2.63396,0.0984241,-0.527163
2.7617,0.238704,0
2.59565,-0.0299013,-0.0302203
2.68208,0.100222,-0.0155992
2.7379,0.236646,-0.296016
2.77291,0.239672,0.0647646
2.59165,-0.0298552,0.0301737
2.751,0.237778,-0.193086
2.66128,0.0994451,-0.217406
2.68172,0.100209,0.0468423
2.58744,-0.0298068,-0.150696
2.6839,0.10029,0.109421
2.75473,0.238101,-0.128798
2.66249,0.09949,-0.139632
2.79254,0.241369,0.344159
2.70941,0.101244,0.494341
2.76494,0.238983,-0.0645785
2.63431,0.0887701,-0.527163
2.75857,0.228251,0
2.63325,0.0887345,-0.335368
2.84719,0.376356,0.0166918
2.67444,0.0901225,-0.0155527
2.73082,0.225954,-0.295159
2.5765,-0.0391252,-0.240539
2.7439,0.227037,-0.192528
2.65366,0.0894224,-0.216755
2.57534,-0.0391075,-0.149999
2.68425,0.0904531,0.109421
2.75559,0.228003,-0.128798
2.65884,0.0895969,-0.139423
2.78945,0.230805,0.343672
2.67358,0.0900937,0.218382
2.69403,0.0907828,0.491471
2.75384,0.227859,-0.0642993
2.62284,0.0792182,-0.52481
2.75138,0.217987,0
2.63354,0.0795415,-0.335368
2.84451,0.365904,0.0166686
2.72762,0.216105,-0.294731
2.5644,-0.0478962,-0.239424
2.76259,0.218876,0.0644854
2.73672,0.216826,-0.19197
2.65396,0.0801581,-0.216755
2.57519,-0.0480976,-0.149999
2.77061,0.219511,0.161859
2.67656,0.0808407,0.109096
2.74043,0.21712,-0.128054
2.65514,0.080194,-0.139214
2.77836,0.220125,0.342209
2.6699,0.0806395,0.218057
2.69827,0.0814964,0.492188
2.75462,0.218244,-0.0642993
2.61524,0.0703098,-0.523241
2.7481,0.20856,0
2.62586,0.0705951,-0.334358
2.83381,0.354979,0.0165988
2.7204,0.206458,-0.293874
2.75932,0.209412,0.0643924
2.5752,-0.0566406,0.0299874
2.72549,0.206844,-0.191133
2.64225,0.0710359,-0.215779
2.66663,0.0716913,0.046563
2.57102,-0.0565486,-0.149766
2.76336,0.209718,0.161394
2.66882,0.0717502,0.10877
2.73715,0.20773,-0.127868
2.64741,0.0711746,-0.138795
2.77116,0.21031,0.341234
2.67015,0.0717859,0.218057
2.69459,0.072443,0.491471
2.74735,0.208504,-0.0641132
2.63017,0.0615248,-0.0765663
2.61155,0.0610893,-0.522456
2.74482,0.198678,0
2.56699,-0.065425,-0.0298943
2.62609,0.0614293,-0.334358
2.82709,0.344119,0.0165523
2.7211,0.196961,-0.293874
2.74806,0.198913,0.0641132
2.57099,-0.065527,0.0299409
2.71823,0.196754,-0.190575
2.63451,0.0616264,-0.215128
2.66106,0.0622475,0.108444
2.72989,0.197597,-0.127495
2.64365,0.0618401,-0.138586
2.76792,0.20035,0.340747
2.68696,0.0628532,0.490036
2.73211,0.197758,-0.063741
2.62637,0.0522631,-0.0764499
2.60391,0.0518162,-0.520888
2.73751,0.188545,0
2.61438,0.0520247,-0.332843
2.82033,0.333308,0.0165058
2.71384,0.186914,-0.293018
2.56275,-0.07427,0.0298477
2.72288,0.187538,-0.190854
2.63073,0.0523499,-0.214802
2.81918,0.333173,0.0826171
2.55859,-0.0741493,-0.149068
2.74882,0.189324,0.160464
2.72658,0.187792,-0.127309
2.63586,0.052452,-0.138167
2.76068,0.190141,0.339772
2.64667,0.0526671,0.216104
2.7288,0.187945,-0.0636479
2.62253,0.0434877,-0.0763336
2.60799,0.0432465,-0.521672
2.73014,0.178944,0
2.55849,-0.0826383,-0.0298012
2.61058,0.0432895,-0.332338
2.81744,0.323498,0.0164826
2.69857,0.176874,-0.291304
2.73339,0.179157,0.063741
2.55849,-0.0826383,0.0298012
2.70358,0.177203,-0.189459
2.63089,0.0436263,-0.214802
2.8163,0.323367,0.0825008
2.55035,-0.0823752,-0.148603
2.73748,0.179424,0.159766
2.64944,0.0439339,0.107956
2.7232,0.178488,-0.127123
2.63203,0.0436452,-0.137958
2.74941,0.180206,0.338309
2.64683,0.0438907,0.216104
2.67158,0.0443012,0.487166
2.71344,0.177849,-0.0632757
2.61867,0.0338243,-0.0762172
2.59636,0.0335361,-0.519319
2.72279,0.168443,0
2.55418,-0.0918707,-0.0297546
2.60675,0.0336703,-0.331833
2.80271,0.311403,0.0163896
2.69523,0.166737,-0.290876
2.55817,-0.0920145,0.0298012
2.70421,0.167293,-0.189459
2.61508,0.0337779,-0.2135
2.80951,0.31216,0.082268
2.53806,-0.0912909,-0.147906
2.73413,0.169144,0.159533
2.63759,0.0340687,0.107467
2.71586,0.168013,-0.126751
2.62817,0.033947,-0.137748
2.74609,0.169884,0.337822
2.639,0.0340869,0.215453
2.79646,0.310709,-0.114632
2.71408,0.167903,-0.0632757
2.79147,0.300293,-0.0490064
2.61078,0.0246072,-0.0759845
2.5847,0.0243613,-0.516965
2.71139,0.158237,0
2.54585,-0.100471,-0.0296615
2.60288,0.0245327,-0.331328
2.79582,0.300762,0.0163431
2.69182,0.157096,-0.290447
2.72263,0.158893,0.0634618
2.54585,-0.100471,0.0296615
2.69682,0.157387,-0.188901
2.61518,0.0246487,-0.2135
2.80661,0.301923,0.0821517
2.54171,-0.100308,-0.148138
2.72673,0.159133,0.159068
2.63769,0.0248609,0.107467
2.70845,0.158066,-0.126379
2.62029,0.0246968,-0.13733
2.7427,0.160065,0.337334
2.63512,0.0248366,0.215128
2.7856,0.299663,-0.114143
2.71065,0.158194,-0.0631827
2.79245,0.291034,-0.0490064
2.61085,0.0159487,-0.0759845
2.58084,0.0157654,-0.516181
2.7119,0.149244,0
2.53351,-0.108401,-0.0295218
2.59898,0.0158762,-0.330823
2.7968,0.291488,0.0163431
2.68439,0.14773,-0.28959
2.71516,0.149424,0.0632757
2.5415,-0.108743,0.0296149
2.68139,0.147565,-0.187784
2.60728,0.0159269,-0.212849
2.79169,0.290955,0.0816862
2.77921,0.289655,-0.179081
2.53339,-0.108395,-0.147673
2.71927,0.14965,0.158603
2.63377,0.0160887,0.107304
2.69699,0.148424,-0.12582
2.61636,0.0159824,-0.13712
2.73529,0.150532,0.336359
2.62322,0.0160243,0.214151
2.77863,0.289594,-0.113818
2.70318,0.148765,-0.0629966
2.78549,0.280484,-0.0488667
2.60289,0.00681463,-0.0757518
2.57303,0.00673647,-0.514612
2.70441,0.139366,0
2.52513,-0.116873,-0.0294287
2.59109,0.00678373,-0.329813
2.67297,0.137746,-0.288305
2.71167,0.13974,0.0631827
2.54111,-0.117613,0.0296149
2.68587,0.138411,-0.188063
2.60732,0.00682622,-0.212849
2.79269,0.281209,0.0816862
2.76829,0.278753,-0.178314
2.529,-0.117053,-0.147441
2.71579,0.139952,0.158371
2.6935,0.138804,-0.125634
2.61241,0.00683955,-0.136911
2.72787,0.140575,0.335384
2.62326,0.00686797,0.214151
2.77963,0.279894,-0.113818
2.69569,0.138917,-0.0628105
2.5949,-0.00226367,-0.075519
2.63552,0.126594,-0.738637
2.57304,-0.0022446,-0.514612
2.69689,0.129542,0
2.5247,-0.125686,-0.0294287
2.58316,-0.00225343,-0.328802
2.66152,0.127843,-0.28702
2.70016,0.129699,0.0629035
2.53669,-0.126283,0.0295684
2.67836,0.128652,-0.187505
2.59935,-0.00226755,-0.212199
2.77774,0.269913,0.0812208
2.76528,0.268702,-0.178058
2.51661,-0.125284,-0.146743
2.70031,0.129706,0.15744
2.69397,0.129401,-0.125634
2.60043,-0.00226849,-0.136283
2.72438,0.130862,0.334897
2.61929,-0.00228494,0.213826
2.76865,0.26903,-0.113329
2.64047,-0.00230342,0.481426
2.68817,0.129123,-0.0626244
2.76349,0.258794,-0.0484479
2.59488,-0.0113222,-0.075519
2.62825,0.11705,-0.73648
2.5691,-0.0112098,-0.513827
2.68534,0.119593,0
2.64947,0.117995,-0.412604
2.57917,-0.0112537,-0.328297
2.76784,0.259202,0.0161571
2.65797,0.118374,-0.286592
2.6926,0.119916,0.0627174
2.52425,-0.134499,0.0294287
2.66285,0.118591,-0.186389
2.59534,-0.0113243,-0.211873
2.77866,0.260215,0.0812208
2.75427,0.257931,-0.17729
2.51616,-0.134068,-0.146743
2.69675,0.120101,0.157208
2.67844,0.119285,-0.12489
2.60332,-0.0113591,0.212524
2.75764,0.258246,-0.112841
2.68461,0.11956,-0.0625313
2.76039,0.248787,-0.0483781
2.58283,-0.0202852,-0.0751699
2.62095,0.10756,-0.734323
2.5612,-0.0201154,-0.512258
2.67775,0.109891,0
2.51977,-0.143082,-0.0293821
2.64197,0.108422,-0.411375
2.57911,-0.020256,-0.328297
2.65042,0.108769,-0.285735
2.50903,-0.142473,-0.234591
2.68501,0.110189,0.0625313
2.51977,-0.143082,0.0293821
2.65528,0.108969,-0.185831
2.77159,0.249796,0.080988
2.60352,-0.0204478,0.0454461
2.74721,0.247599,-0.176779
2.51169,-0.142624,-0.14651
2.68918,0.11036,0.156743
2.60975,-0.0204967,0.106327
2.67884,0.109936,-0.12489
2.59236,-0.0203601,-0.135864
2.70539,0.111025,0.33246
2.60326,-0.0204457,0.212524
2.63252,-0.0206755,0.479991
2.68102,0.110025,-0.0624383
2.75726,0.238804,-0.0483083
2.59074,-0.0293923,-0.0754027
2.61746,0.0982652,-0.733245
2.55719,-0.0290117,-0.511474
2.66612,0.100092,0
2.50329,-0.150915,-0.0291958
2.57506,-0.0292144,-0.327792
2.65079,0.0995164,-0.285735
2.68139,0.100665,0.0624383
2.51526,-0.151637,0.0293355
2.65564,0.0996986,-0.185831
2.58324,-0.0293072,-0.210897
2.76049,0.239085,0.080639
2.7401,0.237318,-0.176267
2.49922,-0.15067,-0.145813
2.67358,0.100372,0.155813
2.59768,-0.029471,0.105839
2.66323,0.0999837,-0.124145
2.58828,-0.0293644,-0.135655
2.70179,0.101431,0.331972
2.5952,-0.0294429,0.211873
2.67739,0.100515,-0.0623452
2.7501,0.228516,-0.0481686
2.57862,-0.038257,-0.0750536
2.55315,-0.037879,-0.510689
2.65446,0.0903772,0
2.50673,-0.159906,-0.0292424
2.55907,-0.0379668,-0.325772
2.6392,0.0898574,-0.28445
2.67373,0.0910331,0.0622522
2.51073,-0.160161,0.029289
2.648,0.090157,-0.185273
2.57515,-0.0382054,-0.210246
2.59132,-0.0384453,0.0452366
2.49868,-0.159392,-0.145813
2.67392,0.0910396,0.155813
2.59356,-0.0384786,0.105676
2.65957,0.0905512,-0.123959
2.58417,-0.0383392,-0.135445
2.69419,0.09173,0.330997
2.58312,-0.0383237,0.210897
2.66973,0.090897,-0.0621591
2.73494,0.217646,-0.0478894
2.57448,-0.0471852,-0.0749372
2.54908,-0.0467198,-0.509905
2.65076,0.080988,0
2.49419,-0.16785,-0.0291027
2.6232,0.080146,-0.4083
2.55892,-0.0469001,-0.325772
2.67403,0.0816988,0.0622522
2.49818,-0.168119,0.0291493
2.63633,0.080547,-0.184436
2.74615,0.218538,0.0801735
2.49014,-0.167578,-0.145348
2.66624,0.0814607,0.155347
2.58942,-0.047459,0.105513
2.65987,0.0812663,-0.123959
2.68259,0.0819605,0.329535
2.58297,-0.0473409,0.210897
2.61249,-0.0478818,0.476404
2.66204,0.0813324,-0.061973
2.73568,0.208097,-0.0478894
2.56231,-0.0559106,-0.0745881
2.54498,-0.0555325,-0.509121
2.65103,0.0717339,0
2.4896,-0.176274,-0.0290561
2.55477,-0.0557462,-0.325267
2.57934,-0.0562823,-0.0149947
2.62386,0.0709986,-0.282736
2.48296,-0.175804,-0.23236
2.65431,0.0718226,0.0617869
2.50157,-0.177121,0.0291958
2.63659,0.0713433,-0.184436
2.56685,-0.0560097,-0.209595
2.58299,-0.0563619,0.045097
2.48157,-0.175706,-0.144882
2.65453,0.0718286,0.15465
2.57725,-0.0562366,0.105025
2.63618,0.0713319,-0.122842
2.57186,-0.056119,-0.134817
2.68286,0.0725952,0.329535
2.57482,-0.0561836,0.210246
2.72984,0.207653,-0.111538
2.60837,-0.0569157,0.475686
2.65831,0.0719308,-0.06188
2.72442,0.197679,-0.04768
2.56609,-0.0649546,-0.0747045
2.59162,0.0610749,-0.725697
2.53693,-0.0642165,-0.507552
2.63927,0.0621978,0
2.48498,-0.184666,-0.0290096
2.54663,-0.064462,-0.324257
2.66254,0.0627462,0.061973
2.48897,-0.184962,0.0290561
2.71528,0.197015,-0.174476
2.47298,-0.183774,-0.144417
2.65476,0.062563,0.15465
2.56905,-0.0650294,0.104699
2.63241,0.0620363,-0.122656
2.56366,-0.0648931,-0.134399
2.66722,0.0628566,0.327585
2.57062,-0.0650693,0.20992
2.72258,0.197545,-0.111212
2.65454,0.0625578,-0.0617869
2.71712,0.187617,-0.0475404
2.55386,-0.0735662,-0.0743554
2.58412,0.0518735,-0.72354
2.53669,-0.0730716,-0.507552
2.63947,0.0529846,0
2.47634,-0.192718,-0.0289165
2.54242,-0.0732368,-0.323752
2.61236,0.0524404,-0.281451
2.65475,0.0532913,0.0617869
2.48831,-0.193649,0.0290561
2.55444,-0.0735829,-0.208619
2.70798,0.186986,-0.173965
2.47232,-0.192405,-0.144417
2.64698,0.0531355,0.154185
2.5728,-0.0741118,0.104862
2.62862,0.0527669,-0.12247
2.66743,0.0535459,0.327585
2.55758,-0.0826095,-0.0744718
2.58043,0.0427891,-0.722462
2.5325,-0.0817993,-0.506767
2.63164,0.0436382,0
2.47566,-0.201361,-0.0289165
2.52629,-0.0815987,-0.321731
2.61253,0.0433213,-0.281451
2.64692,0.0438916,0.0616008
2.48363,-0.20201,0.0290096
2.61326,0.0433334,-0.182762
2.47562,-0.201358,-0.14465
2.63916,0.043763,0.15372
2.56453,-0.082834,0.104536
2.62479,0.0435247,-0.122284
2.54531,-0.0906633,-0.0741227
2.58056,0.0342318,-0.722462
2.62777,0.0348581,0
2.47099,-0.209232,-0.0288699
2.52997,-0.0901169,-0.322237
2.60073,0.0344994,-0.280166
2.63905,0.0350078,0.0614147
2.47896,-0.209907,0.028963
2.45902,-0.208219,-0.14372
2.6353,0.034958,0.153487
2.56025,-0.0911956,0.104373
2.62093,0.0347673,-0.122098
2.65185,0.0351775,0.325635
2.63506,0.0349547,-0.0613216
2.53301,-0.0986366,-0.0737736
2.5691,0.0255592,-0.719227
2.61187,0.0259847,0
2.4663,-0.217074,-0.0288233
2.52173,-0.0981973,-0.321226
2.55002,-0.0992992,-0.014832
2.45579,-0.216149,-0.23013
2.63116,0.0261766,0.0612286
2.60152,0.0258817,-0.181925
2.45434,-0.216022,-0.143487
2.6354,0.0262189,0.153487
2.54396,-0.0990631,0.103722
2.64798,0.026344,0.325147
2.5456,-0.0991268,0.207968
2.63116,0.0261766,-0.0612286
2.69146,0.149063,-0.0470517
2.52865,-0.107308,-0.0736572
2.56532,0.0165664,-0.718149
2.50411,-0.106267,-0.501276
2.46552,-0.225682,-0.0288233
2.5174,-0.106831,-0.320721
2.62723,0.0169662,0.0611355
2.46552,-0.225682,0.0288233
2.45357,-0.224588,-0.143487
2.63149,0.0169936,0.153254
2.5436,-0.107943,0.103722
2.53424,-0.107545,-0.132933
2.63615,0.0170237,0.323685
2.54125,-0.107843,0.207642
2.52025,-0.116207,-0.0734245
2.50762,-0.115625,-0.50206
2.59999,0.00726056,0
2.45274,-0.23358,-0.0286836
2.51303,-0.115874,-0.320216
2.69236,0.139216,0.0156689
2.53726,-0.116991,-0.0147623
2.58504,0.0072188,-0.278452
2.46468,-0.234717,0.0288233
2.59366,0.00724287,-0.181367
2.52491,-0.116422,-0.20634
2.45273,-0.233579,-0.143487
2.63153,0.00734864,0.153254
2.53919,-0.117081,0.103559
2.60517,0.00727501,-0.121353
2.52984,-0.116649,-0.132724
2.63222,0.00735057,0.323198
2.52385,-0.124761,-0.0735409
2.49939,-0.123552,-0.500491
2.6,-0.00136136,0
2.45593,-0.242104,-0.0287302
2.50471,-0.123815,-0.319206
2.57709,-0.00134936,-0.277596
2.45991,-0.242497,0.0287768
2.58569,-0.00135386,-0.180809
2.53652,-0.125388,0.0443291
2.62355,-0.00137369,0.152789
2.53081,-0.125106,0.103234
2.58919,-0.0013557,-0.120609
2.63223,-0.00137823,0.323198
2.52849,-0.124991,0.206666
2.51541,-0.133148,-0.0733081
2.49503,-0.132069,-0.499707
2.59598,-0.010421,0
2.45109,-0.250269,-0.0286836
2.50426,-0.132558,-0.319206
2.67726,0.120169,0.0155759
2.52442,-0.133625,-0.0146925
2.58567,-0.0103796,-0.180809
2.5161,-0.133184,-0.205689
2.53207,-0.13403,0.0442593
2.43519,-0.248646,-0.142557
2.61555,-0.0104995,0.152324
2.53036,-0.133939,0.103234
2.58118,-0.0103616,-0.120236
2.62427,-0.0105346,0.322223
2.52008,-0.133395,0.206015
2.60327,-0.0104503,-0.0605772
2.50296,-0.141252,-0.0729591
2.49063,-0.140556,-0.498922
2.58793,-0.0194225,0
2.49586,-0.140851,-0.318196
2.67367,0.110657,0.0155527
2.51196,-0.14176,-0.0146228
2.56509,-0.0192511,-0.27631
2.42788,-0.256466,-0.227899
2.59922,-0.0195073,0.0604842
2.58162,-0.0193752,-0.18053
2.67258,0.110612,0.0778463
2.43431,-0.257145,-0.142557
2.60751,-0.0195695,0.151859
2.52189,-0.14232,0.102908
2.58113,-0.0193715,-0.120236
2.61231,-0.0196055,0.32076
2.5196,-0.142191,0.206015
2.59522,-0.0194773,-0.0603911
2.49444,-0.149945,-0.0727263
2.48227,-0.149213,-0.497353
2.58384,-0.028863,0
2.43731,-0.266498,-0.0285439
2.49533,-0.149998,-0.318196
2.66606,0.100556,0.0155062
2.51542,-0.151206,-0.014646
2.56898,-0.028697,-0.276739
2.42296,-0.26493,-0.227527
2.59913,-0.0290338,0.0604842
2.44128,-0.266933,0.0285905
2.57355,-0.0287481,-0.179972
2.42541,-0.265197,-0.142092
2.52135,-0.151563,0.102908
2.57704,-0.0287871,-0.12005
2.50404,-0.150522,-0.131468
2.60825,-0.0291356,0.320273
2.51508,-0.151185,0.205689
2.59514,-0.0289892,-0.0603911
2.49393,-0.158216,-0.0727263
2.47393,-0.156947,-0.495785
2.57573,-0.0373152,0
2.42449,-0.273235,-0.0284042
2.49085,-0.158021,-0.317691
2.66638,0.0917142,0.0155062
2.50692,-0.15904,-0.0145995
2.56092,-0.0371006,-0.275882
2.56946,-0.0372243,-0.179693
2.49467,-0.158263,-0.204062
2.42849,-0.273686,-0.142324
2.59932,-0.037657,0.151394
2.51286,-0.159417,0.102582
2.57294,-0.0372748,-0.119864
2.49555,-0.158319,-0.131049
2.60417,-0.0377272,0.319785
2.50661,-0.15902,0.205038
2.49333,-0.167355,-0.0727263
2.47334,-0.166014,-0.495785
2.57558,-0.0467555,0
2.42744,-0.282582,-0.0284508
2.47046,-0.16582,-0.315165
2.50233,-0.167959,-0.0145763
2.55679,-0.0464144,-0.275454
2.4171,-0.281378,-0.227155
2.56531,-0.0465692,-0.179414
2.4901,-0.167138,-0.203737
2.65362,0.0815391,0.0772645
2.41953,-0.281662,-0.141859
2.50827,-0.168358,0.10242
2.5648,-0.0465598,-0.119492
2.49894,-0.167732,-0.131259
2.59607,-0.0471276,0.31881
2.57888,-0.0468154,-0.0600189
2.48476,-0.175494,-0.0724936
2.46101,-0.173817,-0.493431
2.5714,-0.0556591,0
2.4185,-0.290101,-0.0283577
2.46987,-0.174443,-0.315165
2.64697,0.0720873,0.0153899
2.49774,-0.176411,-0.014553
2.54866,-0.0551668,-0.274597
2.42644,-0.291054,0.0284508
2.55716,-0.0553508,-0.178856
2.65389,0.0722758,0.0772645
2.50139,-0.176669,0.0437706
2.58701,-0.055997,0.150696
2.50368,-0.176831,0.102257
2.56062,-0.0554259,-0.119306
2.48639,-0.175609,-0.130631
2.59589,-0.0561893,0.31881
2.5707,-0.055644,-0.0598328
2.47622,-0.182711,-0.0722609
2.56721,-0.063638,0
2.47327,-0.182493,-0.315671
2.64319,0.0636749,0.0153667
2.49318,-0.183963,-0.0145298
2.54847,-0.0631734,-0.274597
2.40332,-0.295942,-0.22604
2.57851,-0.063918,0.0600189
2.55298,-0.0632852,-0.178577
2.48098,-0.183062,-0.203086
2.64611,0.0637454,0.0770317
2.57884,-0.0639261,0.150231
2.49514,-0.184107,0.101931
2.55245,-0.063272,-0.118934
2.58777,-0.0641475,0.317835
2.57051,-0.0637198,-0.0598328
2.46759,-0.190737,-0.0720282
2.55498,-0.0722596,0
2.46075,-0.190208,-0.314155
2.6394,0.0543657,0.0153435
2.54028,-0.071844,-0.27374
2.40227,-0.30433,-0.22604
2.41255,-0.305632,0.0283111
2.54875,-0.0720835,-0.178298
2.64232,0.054426,0.0769154
2.57461,-0.0728147,0.149999
2.4905,-0.192508,0.101768
2.55221,-0.0721813,-0.118934
2.48118,-0.191788,-0.130421
2.58356,-0.0730678,0.317348
2.48828,-0.192336,0.203737
2.62526,0.0540747,-0.106979
2.56228,-0.0724661,-0.0596467
2.46684,-0.200211,-0.0720282
2.55068,-0.081941,0
2.40343,-0.313857,-0.028218
2.46,-0.199655,-0.314155
2.62759,0.0440298,0.0152737
2.53999,-0.0815974,-0.27374
2.56198,-0.082304,0.0596467
2.53649,-0.0814852,-0.17746
2.63052,0.0440789,0.0765663
2.57032,-0.0825717,0.149766
2.48177,-0.201423,0.101443
2.55192,-0.0819805,-0.118934
2.47247,-0.200667,-0.130003
2.57929,-0.0828599,0.31686
2.55799,-0.0821756,-0.0595536
2.61537,0.0346936,-0.0456555
2.45417,-0.207808,-0.0716791
2.55038,-0.090844,0
2.39836,-0.321713,-0.0281714
2.44742,-0.207237,-0.31264
2.53571,-0.0903215,-0.273312
2.39208,-0.320872,-0.225296
2.53619,-0.0903387,-0.17746
2.63065,0.0348964,0.0765663
2.56203,-0.091259,0.149301
2.47707,-0.209747,0.10128
2.54363,-0.0906034,-0.118561
2.46777,-0.20896,-0.129793
2.57502,-0.0917215,0.316373
2.47091,-0.209225,0.202435
2.55369,-0.0909618,-0.0594606
2.45742,-0.216725,-0.0717954
2.54605,-0.0995896,0
2.44669,-0.215779,-0.31264
2.61583,0.0255675,0.015204
2.51949,-0.0985505,-0.271598
2.40118,-0.330629,0.028218
2.5239,-0.0987232,-0.176623
2.46222,-0.217149,-0.201784
2.38541,-0.328458,-0.140231
2.47234,-0.218041,0.101117
2.5393,-0.0993256,-0.118375
2.56675,-0.100399,0.315398
2.60571,0.0254686,-0.106165
2.53737,-0.0992501,-0.0590884
2.60755,0.0172942,-0.0455159
2.53374,-0.107081,0
2.39221,-0.337054,-0.0281249
2.44204,-0.223103,-0.312135
2.6119,0.017323,0.0151807
2.51917,-0.106465,-0.271598
2.37807,-0.335063,-0.224181
2.54903,-0.107728,0.0593675
2.52757,-0.10682,-0.176902
2.61883,0.017369,0.0762172
2.46934,-0.225597,0.043282
2.55339,-0.107912,0.148836
2.46767,-0.225444,0.100954
2.53099,-0.106965,-0.118003
2.56245,-0.108295,0.31491
2.46153,-0.224883,0.201784
2.53305,-0.107052,-0.0589953
2.59959,0.00771316,-0.0453763
2.52933,-0.116183,0
2.387,-0.345248,-0.0280783
2.49532,-0.114621,-0.388623
2.44121,-0.232052,-0.312135
2.60394,0.00772607,0.0151342
2.51876,-0.115698,-0.271598
2.37908,-0.344102,0.0279852
2.5152,-0.115534,-0.176065
2.61488,0.00775852,0.0761008
2.54899,-0.117086,0.148603
2.46285,-0.234109,0.100791
2.53058,-0.116241,-0.118003
2.44958,-0.232848,-0.128956
2.55411,-0.117321,0.313935
2.53264,-0.116336,-0.0589953
2.5996,-0.000907436,-0.0453763
2.4352,-0.239632,-0.0712136
2.52494,-0.124374,0
2.37397,-0.351404,-0.0279386
2.43648,-0.239758,-0.31163
2.60396,-0.000908956,0.0151342
2.4561,-0.241688,-0.0143438
2.51439,-0.123854,-0.27117
2.37173,-0.351073,-0.223809
2.38188,-0.352576,0.0280317
2.51082,-0.123678,-0.175786
2.6069,-0.000909982,0.0758681
2.5446,-0.125342,0.148371
2.45808,-0.241883,0.100628
2.5222,-0.124239,-0.117631
2.44482,-0.240578,-0.128746
2.54974,-0.125595,0.313448
2.45196,-0.241281,0.201133
2.52426,-0.12434,-0.0588092
2.59158,-0.0104033,-0.0452366
2.43829,-0.248962,-0.07133
2.51648,-0.133204,0
2.42374,-0.247477,-0.310115
2.50995,-0.132859,-0.270741
2.53177,-0.134014,0.0589953
2.37662,-0.360703,0.0279852
2.51433,-0.133091,-0.176065
2.43916,-0.249051,-0.200157
2.45486,-0.250654,0.0430725
2.53615,-0.134245,0.147906
2.44922,-0.250079,0.100303
2.52173,-0.133482,-0.117631
2.44392,-0.249537,-0.128746
2.44313,-0.249456,0.200482
2.5158,-0.133168,-0.0586231
2.58353,-0.0193896,-0.045097
2.42945,-0.256632,-0.0710973
2.51999,-0.142213,0
2.44237,-0.257996,-0.0142741
2.50153,-0.141171,-0.269885
2.49792,-0.140967,-0.174949
2.59483,-0.0194743,0.075519
2.5237,-0.142422,0.147208
2.44834,-0.258627,0.100303
2.50928,-0.141609,-0.117072
2.51132,-0.141724,-0.0585301
2.57946,-0.0279135,-0.0450272
2.42064,-0.26382,-0.0708645
2.51152,-0.150092,0
2.36621,-0.375618,-0.027892
2.41806,-0.263539,-0.30961
2.43355,-0.265227,-0.0142276
2.4931,-0.148991,-0.269028
2.35613,-0.374017,-0.222694
2.51882,-0.150528,0.0587162
2.5054,-0.149726,-0.175507
2.58675,-0.0279924,0.0752863
2.57058,-0.0278174,-0.164755
2.36237,-0.375008,-0.139301
2.52322,-0.15079,0.147208
2.44349,-0.266311,0.10014
2.50481,-0.149691,-0.116886
2.43741,-0.265648,0.200157
2.57371,-0.0278513,-0.104862
2.50685,-0.149812,-0.058437
2.57134,-0.0368028,-0.0448876
2.41573,-0.271821,-0.0707482
2.499,-0.1581,0
2.4693,-0.15622,-0.384934
2.43261,-0.273721,-0.0142276
2.4886,-0.157442,-0.268599
2.51429,-0.159067,0.0586231
2.36094,-0.383234,0.0278455
2.48893,-0.157463,-0.174391
2.42458,-0.272818,-0.19918
2.57465,-0.0368501,0.0749372
2.56248,-0.0366759,-0.164243
2.5147,-0.159093,0.146743
2.4346,-0.273945,0.0998143
2.4963,-0.157929,-0.116514
2.42138,-0.272457,-0.1277
2.52396,-0.159679,0.310523
2.42854,-0.273263,0.199506
2.50232,-0.158309,-0.058344
2.56719,-0.0461552,-0.0448178
2.40677,-0.27975,-0.0705155
2.49841,-0.167258,0
2.48007,-0.16603,-0.267743
2.35952,-0.391885,0.0278455
2.48436,-0.166318,-0.174112
2.5705,-0.0462145,0.0748209
2.56233,-0.0460677,-0.164243
2.50613,-0.167775,0.146278
2.43358,-0.282867,0.0998143
2.4957,-0.167077,-0.116514
2.42433,-0.281791,-0.127909
2.42357,-0.281702,0.19918
2.55746,-0.0459802,-0.104211
2.49773,-0.167213,-0.0582509
2.56704,-0.05422,-0.0448178
2.40985,-0.287784,-0.0706318
2.49388,-0.174826,0
2.46029,-0.172472,-0.383704
2.40339,-0.287013,-0.308094
2.47557,-0.173543,-0.267314
2.4878,-0.174401,-0.174391
2.5502,-0.0538643,-0.163475
2.5056,-0.175648,0.146278
2.42871,-0.290037,0.0996514
2.49118,-0.174637,-0.116328
2.4155,-0.288458,-0.12749
2.51886,-0.176577,0.310036
2.41871,-0.288842,0.198855
2.55331,-0.0539301,-0.104048
2.4932,-0.174779,-0.0581579
2.55484,-0.062885,-0.0446084
2.40089,-0.295218,-0.0703991
2.48528,-0.182943,0
2.45179,-0.180479,-0.382474
2.40238,-0.2954,-0.308094
2.46702,-0.181599,-0.266457
2.34898,-0.406162,0.0277523
2.47922,-0.182498,-0.173833
2.40977,-0.29631,-0.198204
2.55814,-0.0629664,0.0744718
2.49302,-0.183513,0.14558
2.42372,-0.298025,0.0994886
2.41051,-0.296401,-0.127281
2.42165,-0.29777,0.19918
2.55311,-0.0628425,-0.104048
2.4846,-0.182894,-0.0579717
2.54659,-0.0720224,-0.0444687
2.4806,-0.191743,0
2.3396,-0.413377,-0.0276592
2.44717,-0.189159,-0.381859
2.38947,-0.302708,-0.306579
2.46633,-0.19064,-0.266457
2.47594,-0.191383,0.0577856
2.47058,-0.190968,-0.173275
2.55789,-0.072342,0.0744718
2.54576,-0.0719988,-0.16322
2.48039,-0.191726,0.144882
2.41468,-0.305902,0.0991629
2.47393,-0.191227,-0.115583
2.54487,-0.0719737,-0.103722
2.47993,-0.191691,-0.0578787
2.54234,-0.0803405,-0.0443989
2.38688,-0.310425,-0.07005
2.47596,-0.199646,0
2.33822,-0.421133,-0.0276592
2.44653,-0.197273,-0.381859
2.46172,-0.198498,-0.266029
2.48327,-0.200235,0.0579717
2.33428,-0.420424,0.0276127
2.458,-0.198198,-0.172438
2.54965,-0.0805713,0.074239
2.53752,-0.0801882,-0.162708
2.47974,-0.19995,0.144882
2.41365,-0.313907,0.0991629
2.4693,-0.199109,-0.115397
2.40046,-0.312192,-0.126862
2.49708,-0.201349,0.307598
2.40765,-0.313126,0.198204
2.53663,-0.0801599,-0.103397
2.47928,-0.199914,-0.0578787
2.54604,-0.0893547,-0.0444687
2.38578,-0.318755,-0.07005
2.46728,-0.207617,0
2.3328,-0.42857,-0.0276127
2.43795,-0.205149,-0.380629
2.38735,-0.318965,-0.306579
2.45705,-0.206756,-0.265601
2.47857,-0.208567,0.0578787
2.3328,-0.42857,0.0276127
2.45332,-0.206442,-0.172159
2.39468,-0.319945,-0.197227
2.47107,-0.207935,0.144417
2.40066,-0.320743,0.0986745
2.46859,-0.207727,-0.115397
2.3954,-0.32004,-0.126653
2.48845,-0.209398,0.306623
2.47458,-0.208231,-0.0577856
2.5417,-0.098531,-0.0443989
2.3846,-0.327497,-0.07005
2.45853,-0.215959,0
2.32728,-0.43638,-0.0275661
2.43325,-0.213737,-0.380014
2.37831,-0.326633,-0.305569
2.45628,-0.215761,-0.265601
2.4738,-0.2173,0.0577856
2.32728,-0.43638,0.0275661
2.44857,-0.215083,-0.17188
2.47029,-0.216991,0.144417
2.39155,-0.328452,0.0983488
2.45985,-0.216074,-0.115025
2.39025,-0.328274,-0.126444
2.48767,-0.218518,0.306623
2.52938,-0.106454,-0.0441895
2.37954,-0.334846,-0.0699336
2.4578,-0.22411,0
2.43252,-0.221805,-0.380014
2.43971,-0.22246,-0.263887
2.4651,-0.224776,0.0575995
2.32582,-0.444095,0.0275661
2.44784,-0.223202,-0.17188
2.3845,-0.335544,-0.196577
2.45762,-0.224094,0.14372
2.39836,-0.337495,0.0986745
2.48693,-0.226766,0.306623
2.45714,-0.22405,-0.0574134
2.52098,-0.115359,-0.0440499
2.37038,-0.342422,-0.0697009
2.46095,-0.233495,0
2.31633,-0.451087,-0.027473
2.43563,-0.231093,-0.380629
2.44679,-0.232152,-0.264744
2.4563,-0.233054,0.0574134
2.44304,-0.231795,-0.171601
2.31256,-0.450355,-0.137208
2.46076,-0.233477,0.143952
2.38524,-0.344568,0.098186
2.45033,-0.232487,-0.114653
2.51528,-0.115098,-0.102582
2.46028,-0.233432,-0.0575065
2.51657,-0.123961,-0.0439801
2.36522,-0.350108,-0.0695846
2.44021,-0.240125,0
2.42694,-0.238819,-0.379399
2.44201,-0.240302,-0.264316
2.45149,-0.241235,0.0573204
2.31474,-0.45917,0.027473
2.42633,-0.238759,-0.170485
2.50781,-0.12353,-0.160917
2.45198,-0.241283,0.143487
2.37612,-0.351722,0.0978603
2.44552,-0.240648,-0.114467
2.50688,-0.123484,-0.102257
2.51212,-0.132534,-0.0439103
2.36398,-0.358362,-0.0695846
2.43538,-0.248236,0
2.29744,-0.464079,-0.0272867
2.4143,-0.246087,-0.377555
2.50847,-0.132341,0.0145995
2.43324,-0.248018,-0.263459
2.45064,-0.249791,0.0573204
2.29744,-0.464079,0.0272867
2.36896,-0.359118,-0.1956
2.45113,-0.249841,0.143487
2.37883,-0.360613,0.0980231
2.44467,-0.249183,-0.114467
2.50368,-0.140416,-0.0437706
2.36278,-0.3662,-0.0695846
2.43057,-0.255892,0
2.2998,-0.4725,-0.0273333
2.40954,-0.253678,-0.37694
2.4245,-0.255253,-0.262602
2.44582,-0.257497,0.0572273
2.44631,-0.257549,0.143255
2.36972,-0.367275,0.0976975
2.42793,-0.255615,-0.113722
2.49919,-0.148917,-0.0437008
2.36149,-0.374445,-0.0695846
2.29814,-0.480525,-0.0273333
2.41257,-0.262515,-0.377555
2.49952,-0.148937,0.014553
2.3664,-0.375224,-0.0139253
2.41964,-0.263284,-0.262174
2.43695,-0.265168,0.0570412
2.41581,-0.262867,-0.169927
2.43746,-0.265223,0.142789
2.36447,-0.374919,0.0975347
2.43497,-0.264953,-0.114094
2.49865,-0.15764,-0.0437008
2.35622,-0.382046,-0.0694682
2.42077,-0.271961,0
2.495,-0.157409,0.0145298
2.4108,-0.270841,-0.261317
2.43204,-0.273227,0.0569482
2.40694,-0.270407,-0.169369
2.36475,-0.38343,0.041816
2.43652,-0.27373,0.142789
2.35921,-0.382531,0.0973718
2.41418,-0.27122,-0.113164
2.49013,-0.165394,-0.0435612
2.34705,-0.388551,-0.0692355
2.41588,-0.279527,0
2.287,-0.494467,-0.0272401
2.49047,-0.165417,0.0145065
2.40989,-0.278834,-0.261317
2.43509,-0.28175,0.0570412
2.43163,-0.281349,0.142557
2.35398,-0.389699,0.097209
2.41327,-0.279224,-0.113164
2.35271,-0.389488,-0.124978
2.48047,-0.164753,-0.10128
2.48156,-0.173528,-0.0434216
2.34174,-0.396075,-0.0691191
2.27354,-0.49987,-0.0271004
2.48988,-0.174109,0.0145065
2.4089,-0.287244,-0.261317
2.42615,-0.289301,0.0568551
2.4346,-0.290308,0.142789
2.35655,-0.39858,0.0973718
2.40434,-0.2867,-0.112791
2.47692,-0.182328,-0.0433518
2.33633,-0.403974,-0.0690027
2.40191,-0.295343,0
2.27559,-0.509073,-0.027147
2.48124,-0.182647,0.01446
2.39599,-0.294615,-0.260032
2.42111,-0.297703,0.0567621
2.3921,-0.294137,-0.168532
2.42559,-0.298255,0.142324
2.40724,-0.295998,-0.112978
2.33498,-0.411719,-0.0690027
2.39695,-0.302805,0
2.47664,-0.190567,0.0144368
2.3438,-0.413276,-0.0138324
2.395,-0.302559,-0.260032
2.41614,-0.305229,0.056669
2.39111,-0.302068,-0.168532
2.41667,-0.305296,0.141859
2.39435,-0.302477,-0.112419
2.46366,-0.198222,-0.0431423
2.32959,-0.419159,-0.0688864
2.47596,-0.199211,0.0144368
2.33841,-0.420746,-0.0138091
2.3821,-0.309381,-0.258747
2.41109,-0.313146,0.056576
2.38608,-0.309898,-0.168253
2.34203,-0.421398,0.0415367
2.41954,-0.314244,0.142092
2.38932,-0.310318,-0.112233
2.45897,-0.206486,-0.0430725
2.32418,-0.426567,-0.06877
2.47126,-0.207518,0.0144135
2.37312,-0.316642,-0.25789
2.40206,-0.320503,0.0563898
2.38103,-0.317698,-0.167974
2.38426,-0.318128,-0.112047
2.45332,-0.206011,-0.100303
2.45421,-0.215147,-0.0430027
2.31474,-0.43361,-0.0685373
2.38566,-0.32722,0
2.4665,-0.216224,0.0143903
2.37588,-0.325878,-0.258318
2.3969,-0.328761,0.0562968
2.37985,-0.326422,-0.167974
2.45753,-0.215438,0.0717954
2.44558,-0.214391,-0.157336
2.38308,-0.326865,-0.112047
2.4495,-0.222922,-0.0429329
2.31722,-0.442033,-0.0686537
2.3806,-0.334572,0
2.4578,-0.223677,0.0143438
2.36691,-0.332648,-0.257461
2.3958,-0.336708,0.0562968
2.37085,-0.333202,-0.167416
2.46078,-0.223949,0.0719118
2.32177,-0.442902,0.0412575
2.37803,-0.33421,-0.111861
2.31174,-0.449356,-0.0685373
2.37546,-0.342309,0
2.45701,-0.232255,0.0143438
2.3166,-0.450302,-0.0137161
2.3618,-0.340341,-0.257033
2.37758,-0.342614,-0.167974
2.45601,-0.232161,0.0717954
2.39516,-0.345148,0.140929
2.37289,-0.341939,-0.111675
2.30623,-0.456646,-0.0684209
2.37425,-0.350599,0
2.44424,-0.23966,0.0142741
2.31502,-0.458385,-0.0137161
2.35666,-0.348002,-0.256605
2.38548,-0.352257,0.0561107
2.36847,-0.349745,-0.167416
2.4512,-0.240342,0.0716791
2.37168,-0.35022,-0.111675
2.4343,-0.238685,-0.0996514
2.43112,-0.246944,-0.0426537
2.28894,-0.461532,-0.0679555
2.36511,-0.357689,0
2.44737,-0.248594,0.0142973
2.30948,-0.465673,-0.0136929
2.3515,-0.355631,-0.256176
2.38028,-0.359984,0.0560176
2.35934,-0.356817,-0.166857
2.44637,-0.248493,0.0715627
2.42254,-0.246073,-0.156056
2.36649,-0.357899,-0.111489
2.43345,-0.247181,-0.0996514
2.43024,-0.255429,-0.0426537
2.29124,-0.470323,-0.0680718
2.36384,-0.365942,0
2.44648,-0.257136,0.0142973
2.35811,-0.365054,-0.257033
2.36203,-0.365661,-0.167137
2.43754,-0.256195,0.07133
2.4177,-0.25411,-0.155801
2.36128,-0.365546,-0.111302
2.42065,-0.25442,-0.0991629
2.42536,-0.263478,-0.0425839
2.29349,-0.479136,-0.0681882
2.36255,-0.374191,0
2.43762,-0.26481,0.0142508
2.37376,-0.375967,0.0559246
2.35285,-0.372656,-0.166578
2.43265,-0.264271,0.0712136
2.41283,-0.262117,-0.155545
2.35999,-0.373786,-0.111302
2.28807,-0.485509,-0.0680718
2.35741,-0.380973,0
2.43677,-0.272467,0.0142508
2.289,-0.485706,-0.0135999
2.35561,-0.380682,-0.166857
2.43181,-0.271912,0.0712136
2.40802,-0.269252,-0.155289
2.35881,-0.381198,-0.111302
2.41493,-0.270025,-0.0990001
2.41164,-0.278183,-0.0423744
2.27854,-0.491806,-0.0678391
2.35607,-0.3892,0
2.43183,-0.280513,0.0142276
2.34639,-0.387602,-0.166299
2.42687,-0.27994,0.0710973
2.4031,-0.277198,-0.155033
2.34958,-0.388127,-0.11093
2.41001,-0.277995,-0.0988373
2.41457,-0.287493,-0.0424443
2.27282,-0.499296,-0.0677228
2.3428,-0.395834,0
2.34102,-0.395534,-0.16602
2.42583,-0.288833,0.0710973
2.40207,-0.286004,-0.155033
2.40897,-0.286826,-0.0988373
2.4017,-0.294041,-0.0422348
2.26725,-0.505959,-0.0676064
2.34147,-0.4036,0
2.3397,-0.403295,-0.16602
2.41295,-0.295419,0.0707482
2.39318,-0.292998,-0.154521
2.34287,-0.403842,-0.110744
2.40007,-0.293842,-0.0985116
2.40463,-0.302922,-0.0423046
2.26157,-0.512986,-0.06749
2.34005,-0.411771,0
2.41686,-0.304463,0.0141578
2.41588,-0.304339,0.0708645
2.39215,-0.30135,-0.154521
2.39507,-0.301718,-0.0983488
2.39551,-0.311123,-0.042165
2.25569,-0.520766,-0.0673737
2.33845,-0.420753,0
2.4117,-0.313226,0.0141346
2.41072,-0.313098,0.0707482
2.38701,-0.310019,-0.154266
2.39389,-0.310912,-0.0983488
2.39452,-0.318647,-0.042165
2.40278,-0.319745,0.0140881
2.33648,-0.427982,0.0552732
2.32357,-0.425617,-0.165183
2.4018,-0.319615,0.0705155
2.38207,-0.31699,-0.15401
2.38498,-0.317377,-0.0980231
2.38943,-0.326462,-0.0420952
2.32381,-0.43405,0
2.40165,-0.328131,0.0140881
2.32207,-0.433725,-0.165183
2.40067,-0.327997,0.0705155
2.38491,-0.325843,-0.154266
2.38782,-0.326241,-0.098186
2.38828,-0.334801,-0.0420952
2.32621,-0.442907,0
2.39653,-0.335957,0.0140648
2.31662,-0.441082,-0.164904
2.39555,-0.33582,0.0703991
2.37585,-0.333058,-0.153754
2.37875,-0.333464,-0.0978603
2.37918,-0.341997,-0.0419556
2.32072,-0.450262,0
2.38742,-0.343182,0.0140183
2.39436,-0.34418,0.0703991
2.36282,-0.339645,-0.152986
2.37757,-0.341766,-0.0978603
2.37401,-0.349717,-0.0418858
2.31521,-0.457585,0
2.38225,-0.35093,0.0139951
2.38919,-0.351953,0.0702827
2.36162,-0.347891,-0.152986
2.37241,-0.349481,-0.0976975
2.36882,-0.357405,-0.041816
2.38101,-0.359244,0.0139951
2.37609,-0.358501,0.0699336
2.36039,-0.356132,-0.152986
