2.77091,0.730519,-0.117549
2.75589,0.710349,-0.0135604
2.75341,0.69172,-0.0135271
2.74865,0.68869,-0.116237
2.74049,0.567609,0.114656
2.74588,0.551176,0.114738
2.7471,0.654404,-0.0134556
2.7404,0.547737,-0.0885073
2.76202,0.654342,-0.220252
2.74627,0.533746,0.114615
2.73604,0.53037,0.0133766
2.74619,0.636407,-0.0134318
2.74665,0.531482,-0.0886023
2.7522,0.529468,-0.293534
2.73869,0.514854,0.114165
2.74022,0.513756,0.0133814
2.74419,0.618226,-0.0134032
2.74789,0.514251,-0.088539
2.7533,0.616694,-0.218937
2.74376,0.498397,0.114247
2.73769,0.599686,0.0884671
2.74136,0.496576,0.0133718
2.76976,0.711586,-0.0406805
2.74018,0.495425,-0.0881908
2.76882,0.709798,-0.144498
2.73988,0.480345,0.11396
2.73746,0.478541,0.0133382
2.76438,0.692149,-0.0405383
2.7471,0.479289,-0.0883174
2.74895,0.580388,-0.218009
2.74266,0.472941,-0.39481
2.72882,0.462194,0.214759
2.73506,0.564026,0.0881516
2.74034,0.461735,0.0133382
2.75983,0.673042,-0.0404103
2.73064,0.456965,-0.188114
2.75149,0.56331,-0.217931
2.72865,0.44496,0.214527
2.73259,0.546059,0.0879623
2.74213,0.444752,0.0133334
2.76002,0.655172,-0.0403534
2.73931,0.441154,-0.188521
2.74609,0.544671,-0.217235
2.75239,0.650825,-0.246349
2.73965,0.542251,-0.319384
2.73133,0.428209,0.214527
2.7349,0.529092,0.0879307
2.73394,0.426224,0.0132806
2.76009,0.637324,-0.0402965
2.76769,0.744972,-0.067896
2.73768,0.425877,-0.0877476
2.7455,0.632442,-0.142428
2.73408,0.423117,-0.187979
2.73861,0.525744,-0.216384
2.76022,0.634817,-0.246696
2.73902,0.524683,-0.31893
2.74101,0.418412,-0.497251
2.727,0.410403,0.213986
2.73319,0.511382,0.087773
2.73156,0.408701,0.0132566
2.75517,0.618406,-0.0401684
2.7635,0.725691,-0.0676829
2.73234,0.40789,-0.0874944
2.73169,0.508782,-0.113983
2.73366,0.405893,-0.187775
2.74178,0.50893,-0.216384
2.75001,0.509314,-0.319839
2.71861,0.392097,0.213135
2.73596,0.496222,0.188831
2.73627,0.494601,0.087773
2.74842,0.600759,0.0624182
2.73105,0.391507,0.0132422
2.72884,0.492718,-0.0132126
2.75012,0.599572,-0.0400404
2.76403,0.707729,-0.0675882
2.73281,0.390834,-0.0874311
2.73279,0.491657,-0.113901
2.75983,0.706498,-0.171846
2.72918,0.388129,-0.187301
2.73897,0.491041,-0.21592
2.76098,0.599418,-0.246089
2.74525,0.491031,-0.31893
2.73011,0.477877,0.188221
2.72744,0.475742,0.0873944
2.7452,0.582431,0.062263
2.73043,0.374335,0.0132278
2.7469,0.581237,-0.0399409
2.75959,0.688577,-0.067375
2.73318,0.373788,-0.0873678
2.72886,0.473684,-0.113614
2.7583,0.688102,-0.171485
2.72459,0.370435,-0.186826
2.74193,0.474226,-0.21592
2.75876,0.581233,-0.245568
2.74234,0.473164,-0.318248
2.74795,0.472355,-0.421933
2.71531,0.357665,0.212516
2.72807,0.460286,0.187882
2.73129,0.459163,0.0874259
2.74089,0.563964,0.0620855
2.72772,0.356925,0.0132038
2.72581,0.457703,-0.0131697
2.74453,0.563166,-0.0398555
2.75308,0.669035,-0.0671145
2.73244,0.356622,-0.0872728
2.73769,0.560268,-0.141266
2.75471,0.669279,-0.171003
2.72583,0.353582,-0.186758
2.74184,0.456901,-0.215688
2.75544,0.562899,-0.244961
2.74225,0.45584,-0.317907
2.73324,0.452577,-0.41924
2.71647,0.340873,0.212438
2.72789,0.443058,0.187679
2.72842,0.341357,0.11265
2.73011,0.441757,0.0872997
2.7345,0.545181,0.0618637
2.72588,0.339687,0.0131846
2.72264,0.440012,-0.0131411
2.74107,0.54495,-0.039756
2.73161,0.33948,-0.0871778
2.7352,0.542294,-0.140963
2.75294,0.650985,-0.170642
2.72695,0.336727,-0.186691
2.73868,0.439122,-0.215224
2.75298,0.544821,-0.24444
2.74107,0.438377,-0.317453
2.73694,0.435953,-0.419389
2.71356,0.323608,0.212052
2.72661,0.425696,0.187408
2.72848,0.324374,0.112568
2.72685,0.424076,0.0871104
2.73779,0.528392,0.0618637
2.72295,0.322367,0.0131606
2.72331,0.422991,-0.0131316
2.74142,0.527554,-0.0397133
2.74939,0.632511,-0.0668303
2.73165,0.322478,-0.0871145
2.73259,0.524372,-0.140661
2.7491,0.632291,-0.17016
2.72501,0.319524,-0.18642
2.72753,0.420185,-0.21414
2.74845,0.52642,-0.243746
2.73332,0.319676,-0.288222
2.73586,0.420343,-0.316544
2.73859,0.419002,-0.41924
2.73373,0.312665,-0.599029
2.71153,0.306504,0.211742
2.72819,0.40881,0.18734
2.73394,0.510912,0.162218
2.72742,0.407041,0.0870473
2.73705,0.51085,0.061775
2.72389,0.305542,0.0131558
2.72091,0.405536,-0.0131078
2.73576,0.509077,-0.0395853
2.74249,0.613229,-0.0665698
2.73379,0.507231,-0.14056
2.72791,0.302908,-0.186487
2.73203,0.403732,-0.214295
2.74477,0.508276,-0.243139
2.74232,0.404128,-0.316998
2.73915,0.401904,-0.418941
2.72719,0.398544,-0.52118
2.70939,0.289437,0.211433
2.73163,0.392205,0.187408
2.73605,0.49395,0.16216
2.72195,0.389166,0.0867949
2.72931,0.492095,0.061531
2.72074,0.288296,0.0131318
2.72137,0.38855,-0.0130982
2.73784,0.492104,-0.039571
2.73936,0.594905,-0.0664041
2.71936,0.38652,-0.112671
2.73685,0.490447,-0.14056
2.74202,0.595331,-0.169257
2.72674,0.285852,-0.186284
2.73445,0.386961,-0.214295
2.74097,0.490197,-0.242531
2.7561,0.596072,-0.272958
2.73471,0.384126,-0.417893
2.73348,0.382347,-0.521923
2.70913,0.272607,0.211278
2.72608,0.37435,0.186866
2.73706,0.47681,0.162043
2.72206,0.2729,0.112077
2.71637,0.371374,0.0865425
2.72538,0.474139,0.0613757
2.74232,0.579049,0.0348802
2.71847,0.271199,0.0131126
2.72172,0.371574,-0.0130887
2.73392,0.4741,-0.0394715
2.73807,0.577054,-0.0662856
2.7232,0.270759,-0.0866714
2.73976,0.577261,-0.168896
2.72347,0.268626,-0.185945
2.7269,0.368839,-0.213522
2.74196,0.473031,-0.242358
2.75094,0.57731,-0.272091
2.73525,0.368852,-0.315635
2.72969,0.469687,-0.343328
2.73604,0.367207,-0.417744
2.73285,0.365177,-0.521366
2.71679,0.356538,0.286302
2.70778,0.255698,0.211046
2.72239,0.356838,0.186459
2.73895,0.459842,0.161985
2.72627,0.457077,0.0613313
2.73602,0.560206,0.0347557
2.7171,0.254234,0.0130982
2.71899,0.354221,-0.0130649
2.72987,0.456162,-0.0393719
2.73862,0.559643,-0.0662146
2.72382,0.253951,-0.0866397
2.71696,0.352221,-0.112384
2.73738,0.55924,-0.168534
2.7211,0.251542,-0.185674
2.72713,0.351845,-0.213367
2.74285,0.455871,-0.242184
2.7515,0.559824,-0.271802
2.73451,0.351681,-0.315294
2.73628,0.350161,-0.417444
2.737,0.452788,-0.447136
2.73309,0.348153,-0.520994
2.72189,0.340232,0.286614
2.70632,0.238816,0.210814
2.72156,0.339757,0.186256
2.74887,0.546432,0.136975
2.71179,0.336903,0.0862586
2.72804,0.440181,0.0613092
2.71861,0.237558,0.0130982
2.71715,0.337039,-0.0130458
2.73064,0.439086,-0.0393435
2.7469,0.543799,-0.066333
2.72234,0.236974,-0.0865447
2.71312,0.334809,-0.112139
2.72372,0.43651,-0.139449
2.71762,0.234413,-0.185335
2.72924,0.335105,-0.213367
2.73871,0.437931,-0.241577
2.74805,0.541584,-0.271128
2.73366,0.334534,-0.314953
2.73347,0.332768,-0.416696
2.73875,0.43583,-0.446977
2.718,0.32282,0.28599
2.70773,0.222206,0.210814
2.7226,0.322934,0.186188
2.74923,0.528989,0.136828
2.7148,0.320375,0.0862901
2.72575,0.422668,0.0611982
2.73876,0.525835,0.034706
2.71802,0.22071,0.0130886
2.71221,0.319541,-0.0130125
2.73329,0.422323,-0.0393435
2.73841,0.524677,-0.0660488
2.71215,0.317806,-0.112016
2.71304,0.217255,-0.184928
2.72827,0.318006,-0.213135
2.7374,0.420514,-0.24123
2.74448,0.523407,-0.270453
2.73072,0.317181,-0.314385
2.74671,0.523087,-0.374169
2.73448,0.315876,-0.416547
2.74235,0.419167,-0.447136
2.73325,0.314139,-0.520251
2.72025,0.310577,-0.623398
2.71696,0.305803,0.285679
2.72139,0.406803,0.26122
2.70805,0.205512,0.210736
2.7166,0.305331,0.185646
2.74555,0.510831,0.136486
2.71598,0.205112,0.111586
2.71771,0.303822,0.0863217
2.72532,0.405494,0.0611317
2.73899,0.508473,0.0346686
2.71434,0.203654,0.0130646
2.71213,0.302672,-0.013003
2.72989,0.404664,-0.0392581
2.73666,0.506954,-0.0659304
2.71504,0.301269,-0.112057
2.71532,0.200678,-0.184996
2.72819,0.301041,-0.21298
2.73796,0.403419,-0.241056
2.74372,0.505835,-0.270068
2.73064,0.300203,-0.314158
2.72763,0.400681,-0.341729
2.75084,0.506404,-0.374302
2.73024,0.296831,-0.519322
2.71595,0.388968,0.260464
2.70628,0.188684,0.210504
2.71445,0.288235,0.185375
2.71555,0.286721,0.0861955
2.72479,0.388341,0.0610652
2.7391,0.491128,0.0346313
2.71055,0.186652,0.0130406
2.7343,0.388187,-0.0392866
2.73283,0.48892,-0.0657647
2.71584,0.2845,-0.112016
2.71943,0.384623,-0.138843
2.7165,0.184013,-0.184996
2.72602,0.283883,-0.212671
2.73841,0.386333,-0.240882
2.74873,0.489339,-0.270261
2.72453,0.282622,-0.313249
2.72414,0.383107,-0.340991
2.74512,0.487954,-0.373108
2.73751,0.38411,-0.445545
2.73103,0.279973,-0.519136
2.71336,0.37162,0.259991
2.70241,0.171758,0.210118
2.71716,0.271673,0.185443
2.71129,0.26946,0.0860062
2.72613,0.371479,0.061043
2.73911,0.4738,0.034594
2.70965,0.169892,0.013031
2.72871,0.370327,-0.0391728
2.73085,0.471292,-0.0656462
2.71257,0.267341,-0.111811
2.71976,0.367662,-0.138742
2.72573,0.266957,-0.212516
2.73579,0.368858,-0.240449
2.74776,0.47179,-0.269875
2.72225,0.265513,-0.312794
2.72742,0.366517,-0.341114
2.74513,0.470599,-0.37271
2.72703,0.26425,-0.414602
2.73492,0.36665,-0.444749
2.73182,0.364391,-0.548156
2.71817,0.255369,0.285263
2.71657,0.355094,0.260086
2.70042,0.155002,0.209885
2.71779,0.254902,0.185375
2.7109,0.252634,0.0859431
2.71745,0.353327,0.060799
2.73802,0.456327,0.0345442
2.71164,0.153319,0.0130358
2.72498,0.352807,-0.0390874
2.71216,0.250508,-0.111729
2.71998,0.350712,-0.138641
2.71556,0.150498,-0.184793
2.74667,0.454272,-0.26949
2.7268,0.249076,-0.313135
2.73159,0.350028,-0.34136
2.74796,0.453746,-0.37271
2.72664,0.247334,-0.414302
2.7381,0.349987,-0.444908
2.73887,0.34824,-0.549131
2.72166,0.338787,0.260369
2.69933,0.138328,0.209731
2.71632,0.23796,0.185172
2.7114,0.235909,0.0859115
2.72255,0.337015,0.0608655
2.73682,0.438885,0.0344944
2.70953,0.136527,0.0130214
2.72114,0.335346,-0.0390021
2.71365,0.233862,-0.111729
2.72506,0.334381,-0.138792
2.72536,0.435827,-0.166487
2.72383,0.233063,-0.212129
2.7322,0.33429,-0.239754
2.72975,0.33278,-0.340868
2.72515,0.230349,-0.413853
2.73529,0.332584,-0.444113
2.72593,0.228834,-0.517278
2.72468,0.322198,0.260464
2.7373,0.424051,0.236105
2.69615,0.121583,0.209421
2.71773,0.221289,0.185172
2.70881,0.218945,0.0857853
2.7186,0.319603,0.0607324
2.73452,0.421322,0.0344322
2.70233,0.119546,0.012983
2.72314,0.318643,-0.0390021
2.72424,0.418668,-0.065291
2.70703,0.118854,-0.0858167
2.71006,0.216808,-0.111524
2.72011,0.316845,-0.138439
2.72403,0.41849,-0.166246
2.71222,0.116948,-0.184454
2.71924,0.215872,-0.211665
2.73222,0.317289,-0.239581
2.73075,0.31591,-0.340745
2.74393,0.418068,-0.47529
2.72141,0.211647,-0.516163
2.72364,0.305141,0.26018
2.73493,0.406514,0.235681
2.69684,0.105037,0.209421
2.71605,0.204385,0.184969
2.70313,0.201799,0.0855645
2.72151,0.303027,0.0607546
2.73507,0.404243,0.0344073
2.69801,0.102772,0.012959
2.72008,0.301378,-0.038931
2.73171,0.402674,-0.0654094
2.70571,0.102167,-0.0857534
2.70137,0.19944,-0.111114
2.72101,0.300039,-0.138389
2.72457,0.401477,-0.166126
2.70391,0.0999721,-0.183844
2.71654,0.198891,-0.211355
2.73016,0.300083,-0.239234
2.72376,0.298177,-0.339638
2.74157,0.400511,-0.474446
2.72168,0.194874,-0.515977
2.73409,0.296604,-0.546985
2.71382,0.0926079,-0.591158
2.71369,0.187898,0.284224
2.72249,0.288109,0.259897
2.73342,0.389164,0.235341
2.69245,0.0883241,0.209035
2.71227,0.187372,0.18463
2.69933,0.184868,0.0854067
2.72232,0.286218,0.0607324
2.72859,0.386193,0.0342953
2.69359,0.0860555,0.012935
2.69868,0.184303,-0.0128886
2.72088,0.284578,-0.0389167
2.72819,0.385067,-0.0652673
2.70529,0.0855312,-0.0857217
2.70354,0.182928,-0.111155
2.71982,0.283027,-0.138237
2.72303,0.384194,-0.165885
2.70248,0.0833178,-0.183708
2.71373,0.181953,-0.211046
2.72898,0.283017,-0.238973
2.72159,0.281051,-0.339146
2.74007,0.383135,-0.473771
2.71988,0.177978,-0.51542
2.7114,0.0758725,-0.59052
2.70785,0.170805,0.283496
2.7143,0.270412,0.258952
2.73181,0.371847,0.235001
2.69195,0.0717753,0.208957
2.71238,0.170663,0.184562
2.69842,0.168177,0.0853436
2.72204,0.269312,0.0606881
2.72298,0.368371,0.0341958
2.69207,0.0694747,0.0129254
2.69677,0.167555,-0.0128743
2.72158,0.26778,-0.0389025
2.72852,0.368052,-0.06522
2.70177,0.0688284,-0.0855951
2.70461,0.166336,-0.111155
2.71853,0.266042,-0.138086
2.72633,0.367612,-0.165945
2.69596,0.0665617,-0.183233
2.7138,0.165237,-0.210969
2.7203,0.264058,-0.338777
2.73944,0.365924,-0.473264
2.72776,0.262092,-0.545035
2.70596,0.0591062,-0.589244
2.70587,0.154017,0.283185
2.71888,0.25403,0.259235
2.68935,0.0551951,0.208725
2.71038,0.153847,0.184359
2.70239,0.151785,0.0854383
2.71767,0.25205,0.060555
2.72123,0.351144,0.034146
2.69245,0.0529552,0.0129254
2.69475,0.150837,-0.01286
2.72019,0.2508,-0.0388598
2.73271,0.351559,-0.0652673
2.69415,0.0520948,-0.0853418
2.70159,0.149517,-0.110991
2.72011,0.249356,-0.138086
2.72853,0.350876,-0.165945
2.69432,0.0499814,-0.183098
2.71178,0.148419,-0.210736
2.71626,0.147571,-0.31109
2.71396,0.246643,-0.337793
2.71891,0.144431,-0.514862
2.72835,0.347562,-0.57569
2.70431,0.042471,-0.588818
2.70378,0.13726,0.282873
2.68665,0.0386495,0.208493
2.70829,0.137063,0.184156
2.70527,0.135301,0.0855014
2.71119,0.234681,0.0603775
2.72928,0.335171,0.0342207
2.69072,0.0364066,0.0129158
2.69263,0.13415,-0.0128457
2.7157,0.23359,-0.0387745
2.69242,0.0355365,-0.0852785
2.71761,0.232321,-0.137884
2.72667,0.333643,-0.165704
2.69059,0.0333988,-0.182827
2.70965,0.131632,-0.210504
2.71116,0.130615,-0.310408
2.71542,0.229986,-0.337793
2.71386,0.127469,-0.513748
2.72654,0.330343,-0.574871
2.69573,0.0257927,-0.586904
2.70862,0.022512,-0.697193
2.70258,0.120579,0.282665
2.68783,0.022172,0.20857
2.70708,0.120354,0.18402
2.69507,0.118217,0.0851543
2.71358,0.218121,0.0603997
2.72732,0.317955,0.0341709
2.6889,0.0198811,0.0129062
2.71309,0.216604,-0.0387176
2.69358,0.0190225,-0.0853102
2.71201,0.215089,-0.13753
2.72173,0.3161,-0.165283
2.69374,0.0169078,-0.18303
2.70642,0.114835,-0.210195
2.72219,0.21494,-0.237845
2.70695,0.113768,-0.30984
2.71777,0.213398,-0.337916
2.71165,0.110695,-0.51319
2.72528,0.211308,-0.543669
2.72755,0.313495,-0.574666
2.69388,0.00924478,-0.586479
2.69401,0.204032,0.456381
2.6983,0.103803,0.282145
2.68592,0.00567519,0.208416
2.69274,0.00470266,0.110317
2.69374,0.101603,0.0850912
2.70789,0.200949,0.0602445
2.68697,0.00337948,0.0128966
2.70739,0.199439,-0.038618
2.68965,0.00249093,-0.0851836
2.70929,0.198153,-0.137328
2.72262,0.299285,-0.165223
2.68681,0.00037808,-0.182556
2.70608,0.0981899,-0.210118
2.71948,0.197944,-0.237498
2.70123,-0.000421361,-0.282909
2.70958,0.097228,-0.310067
2.72002,0.19679,-0.338039
2.70288,-0.00518621,-0.484718
2.70344,0.0937477,-0.511518
2.72455,0.296225,-0.573641
2.69487,-0.00728739,-0.586691
2.6961,-0.0106788,-0.693953
2.70603,0.188251,0.458213
2.69491,0.0871159,0.28173
2.67793,-0.0107733,0.207797
2.70138,0.0869,0.183546
2.69172,-0.0118154,0.110276
2.69831,0.0851985,0.0852174
2.70707,0.184194,0.0602001
2.68394,-0.0130929,0.0128822
2.70856,0.182823,-0.038618
2.72659,0.282944,-0.0649358
2.68962,-0.0140125,-0.0851836
2.70647,0.181258,-0.137126
2.72143,0.282264,-0.165042
2.68077,-0.016072,-0.182149
2.70364,0.0814938,-0.209885
2.70673,0.180326,-0.236283
2.69918,-0.0169832,-0.282701
2.70417,0.0804233,-0.309386
2.71325,0.179572,-0.337055
2.6999,-0.0193911,-0.383013
2.70101,0.0770738,-0.510961
2.71756,0.278603,-0.571797
2.69086,-0.0237881,-0.58584
2.69889,-0.0272509,-0.694701
2.70714,0.171644,0.458213
2.6944,0.0705525,0.281626
2.70751,0.16939,0.257534
2.6808,-0.027235,0.208029
2.69887,0.0702452,0.183343
2.69259,-0.0283417,0.110317
2.69579,0.0685642,0.0851228
2.70316,0.167271,0.0600892
2.68581,-0.029583,0.0128918
2.68611,0.0678022,-0.0128028
2.70864,0.166139,-0.0386038
2.68348,-0.0304474,-0.0849936
2.70853,0.164709,-0.137177
2.71417,0.264689,-0.1645
2.70409,0.064903,-0.209885
2.70281,0.163414,-0.23585
2.70362,0.0638058,-0.309272
2.71034,0.162683,-0.336562
2.69676,-0.0359174,-0.382591
2.70647,0.0621715,-0.409664
2.69867,-0.0382984,-0.484012
2.70144,0.0604993,-0.510961
2.71794,0.160473,-0.541523
2.72214,0.262205,-0.572412
2.68969,-0.0402838,-0.585628
2.69964,-0.0438262,-0.69495
2.70518,0.154861,0.457713
2.68918,-0.0430255,0.307098
2.69578,0.0540386,0.28173
2.70452,0.15255,0.257156
2.6746,-0.0435861,0.207565
2.69326,0.0535649,0.182936
2.68837,-0.044796,0.110153
2.68916,0.0518869,0.0849019
2.70015,0.150459,0.0600005
2.67758,-0.045925,0.0128534
2.70761,0.149406,-0.0385754
2.68324,-0.0469123,-0.0849936
2.7075,0.147978,-0.137076
2.71773,0.248212,-0.164621
2.68037,-0.0489679,-0.182149
2.70045,0.0482386,-0.209576
2.70973,0.147151,-0.23637
2.698,0.0471114,-0.30859
2.70634,0.145782,-0.335947
2.69649,-0.0524638,-0.382591
2.69691,0.0453974,-0.408168
2.69543,-0.0547964,-0.483482
2.70274,0.0439384,-0.511146
2.69232,-0.0568486,-0.586266
2.70542,0.0419512,-0.616072
2.71745,0.142528,-0.646822
2.69835,-0.0603684,-0.694701
2.70608,0.138259,0.457713
2.70254,0.236433,0.431714
2.69507,0.0374827,0.281626
2.70242,0.135802,0.256873
2.6713,-0.0599292,0.207333
2.69853,0.0371069,0.183275
2.68543,0.0353329,0.0847757
2.70202,0.133938,0.0600226
2.70348,0.132544,-0.0385042
2.71839,0.231605,-0.0646279
2.68291,-0.0633755,-0.0849936
2.69738,0.13083,-0.136521
2.7192,0.231531,-0.164621
2.67803,-0.0653648,-0.182013
2.68873,0.0315277,-0.208648
2.71158,0.13057,-0.236457
2.69824,0.0305559,-0.30859
2.70718,0.129174,-0.335947
2.69315,-0.0689321,-0.38217
2.69318,0.0288063,-0.407569
2.71389,0.128639,-0.437907
2.69406,-0.0713082,-0.483306
2.70001,0.0273241,-0.510589
2.71676,0.12697,-0.540938
2.68899,-0.0732874,-0.585628
2.70271,0.0253228,-0.615406
2.71535,0.125717,-0.646128
2.68341,-0.07651,-0.690962
2.70766,0.0237624,-0.72443
2.67857,-0.075603,0.506032
2.69311,0.0221509,0.380901
2.69326,0.0209299,0.281418
2.70122,0.11913,0.256684
2.67088,-0.0763189,0.207333
2.69671,0.0205331,0.183139
2.6846,0.0188478,0.0847442
2.70179,0.117313,0.0600005
2.67381,-0.0786913,0.012839
2.70025,0.115782,-0.0384473
2.71378,0.214449,-0.0644858
2.67947,-0.0797471,-0.0848987
2.68269,0.0166337,-0.110048
2.69314,0.114065,-0.136268
2.70962,0.213978,-0.163958
2.67857,-0.0818261,-0.182081
2.68489,0.0150071,-0.208338
2.71133,0.113887,-0.23637
2.69099,-0.0830048,-0.281972
2.69341,0.0139735,-0.308022
2.70395,0.112396,-0.335455
2.69168,-0.0854242,-0.382029
2.69331,0.0122807,-0.407569
2.72303,0.211642,-0.467694
2.69357,-0.0878373,-0.483306
2.69128,0.0107214,-0.508917
2.71455,0.110178,-0.540353
2.72455,0.211903,-0.572002
2.69044,-0.0898506,-0.586053
2.70086,0.00873251,-0.614962
2.7151,0.109014,-0.645897
2.67805,-0.092806,-0.689715
2.701,0.00713014,-0.722621
2.68936,0.00439752,0.281002
2.69792,0.102403,0.256306
2.67036,-0.0927056,0.207333
2.6928,0.00398016,0.182868
2.67966,0.0023706,0.0845864
2.70146,0.100696,0.0599783
2.67128,-0.0950249,0.0128294
2.67897,0.00185566,-0.0127647
2.69491,0.0989915,-0.038362
2.71803,0.198011,-0.0645569
2.6918,0.0974659,-0.136167
2.7079,0.19713,-0.163778
2.67702,-0.0982234,-0.182013
2.68293,-0.00146624,-0.208184
2.70402,0.0969633,-0.235676
2.68251,-0.00254284,-0.306772
2.70558,0.0958374,-0.335578
2.68839,-0.00423758,-0.406821
2.70934,0.0951184,-0.436952
2.6861,-0.104096,-0.48207
2.68737,-0.00578379,-0.508173
2.71223,0.0934188,-0.539768
2.68496,-0.106164,-0.584989
2.69599,-0.00782567,-0.613852
2.71475,0.0923195,-0.645665
2.69423,-0.00941936,-0.720812
2.68933,-0.0121041,0.281002
2.70248,0.0859734,0.256684
2.7119,0.184124,0.231689
2.67372,-0.109252,0.207642
2.68279,-0.0124961,0.182191
2.68447,-0.110676,0.110071
2.67763,-0.0140611,0.0845233
2.70103,0.0840869,0.0599561
2.71569,0.182143,0.0338722
2.66865,-0.11133,0.0128198
2.67993,-0.0145877,-0.0127695
2.69946,0.0825763,-0.0384189
2.71005,0.180578,-0.163838
2.67836,-0.114733,-0.182149
2.68188,-0.0179217,-0.208106
2.70157,0.0802811,-0.235416
2.68779,-0.115935,-0.281763
2.6904,-0.0190587,-0.307681
2.70315,0.0791473,-0.335209
2.68436,-0.0207026,-0.406223
2.70889,0.0784638,-0.436793
2.68443,-0.120532,-0.481894
2.68434,-0.0222486,-0.507616
2.70589,0.0765809,-0.538402
2.71718,0.177813,-0.569954
2.68328,-0.122592,-0.584777
2.69589,-0.0243678,-0.613852
2.70748,0.0754436,-0.643815
2.69509,-0.02596,-0.72107
2.68523,-0.028563,0.280587
2.70096,0.0693386,0.256495
2.674,-0.125702,0.207719
2.68266,-0.0289572,0.182191
2.67749,-0.0304904,0.0845233
2.69849,0.0674372,0.0598896
2.71376,0.165294,0.0338349
2.67091,-0.127846,0.0128342
2.70192,0.06606,-0.0384473
2.68553,-0.129439,-0.0851519
2.70912,0.163825,-0.163717
2.67661,-0.131116,-0.182081
2.67773,-0.034326,-0.207797
2.70202,0.0637031,-0.235416
2.69023,-0.0355663,-0.307681
2.70656,0.0626285,-0.335578
2.70438,0.0617282,-0.435997
2.6856,-0.137101,-0.482247
2.6812,-0.0386765,-0.507059
2.70729,0.0599981,-0.538597
2.71333,0.160848,-0.568929
2.67955,-0.138902,-0.584139
2.69276,-0.0408646,-0.613186
2.70109,0.0586815,-0.642197
2.69488,-0.0424962,-0.72107
2.685,-0.0450387,0.280587
2.67417,-0.14216,0.207797
2.68244,-0.0454172,0.182191
2.67825,-0.0469361,0.0845549
2.69486,0.0508029,0.0598008
2.70973,0.148367,0.0337727
2.67407,-0.144448,0.0128534
2.69728,0.0493886,-0.0383762
2.71024,0.14735,-0.0642964
2.67271,-0.145264,-0.0847721
2.68814,0.0478134,-0.135915
2.70908,0.147145,-0.163657
2.67974,-0.147757,-0.182352
2.69837,0.0470531,-0.235069
2.68996,-0.0520726,-0.307681
2.70391,0.0459696,-0.335209
2.6839,-0.0536423,-0.406223
2.70274,0.0451003,-0.435679
2.68373,-0.153521,-0.48207
2.68091,-0.0551273,-0.507059
2.70467,0.0433382,-0.538012
2.71134,0.144041,-0.568315
2.6845,-0.155681,-0.585415
2.69539,-0.0574487,-0.613852
2.69653,0.042031,-0.64104
2.71538,0.143543,-0.676252
2.68684,-0.0588616,-0.719003
2.68559,-0.0603144,0.379921
2.67871,-0.0613761,0.279963
2.69166,0.036055,0.25555
2.70289,0.133585,0.23067
2.67027,-0.158389,0.207565
2.67912,-0.0618064,0.181988
2.67792,-0.0633687,0.0845549
2.69612,0.0342793,0.059823
2.67313,-0.160853,0.0128534
2.69053,0.0327523,-0.0382767
2.66678,-0.161359,-0.0846138
2.68339,0.0312602,-0.135662
2.70395,0.130232,-0.163296
2.67978,-0.164257,-0.18242
2.69363,0.0304391,-0.234635
2.68661,-0.0685009,-0.30734
2.70117,0.0293455,-0.33484
2.68649,-0.0701869,-0.406672
2.69309,0.0284116,-0.434088
2.67488,-0.169487,-0.480658
2.67856,-0.0715236,-0.506687
2.699,0.0266837,-0.536841
2.7063,0.127126,-0.567085
2.6757,-0.171649,-0.583713
2.69401,-0.0739594,-0.61363
2.69577,0.0254754,-0.640809
2.71136,0.126652,-0.675045
2.67967,-0.075157,-0.717194
2.67729,-0.0777823,0.279859
2.69481,0.0195603,0.255833
2.70366,0.116998,0.23067
2.66327,-0.174379,0.2071
2.67669,-0.0781857,0.181852
2.67648,-0.0797691,0.0845233
2.69428,0.0177224,0.0597786
2.70935,0.115018,0.0337478
2.67409,-0.177384,0.012863
2.68168,0.0161886,-0.0381486
2.67472,-0.178317,-0.0848987
2.68253,0.0147891,-0.135612
2.69971,0.113429,-0.162995
2.67275,-0.180294,-0.182013
2.67366,-0.083515,-0.207565
2.69675,0.0139261,-0.234895
2.71201,0.111764,-0.262745
2.68614,-0.0849843,-0.30734
2.68939,0.0127146,-0.333364
2.68205,-0.086542,-0.406073
2.69124,0.0118779,-0.43377
2.68164,-0.186443,-0.48207
2.69028,0.0100894,-0.535086
2.70214,0.110318,-0.566061
2.67069,-0.18779,-0.582862
2.68863,-0.0903244,-0.61252
2.69684,0.00893722,-0.64104
2.71694,0.11021,-0.676252
2.7072,0.00788479,-0.753066
2.68074,-0.0943483,0.280275
2.68891,0.00301821,0.255266
2.69835,0.100185,0.23016
2.66912,-0.191216,0.207642
2.67417,-0.0945376,0.181716
2.66795,-0.095903,0.0842709
2.68634,0.00118679,0.0596012
2.70601,0.0982464,0.033698
2.67395,-0.193861,0.0128678
2.68073,-0.000266104,-0.0381344
2.70649,0.0972236,-0.0641543
2.68357,-0.0016715,-0.135662
2.69736,0.096754,-0.162814
2.67657,-0.197057,-0.182352
2.67309,-0.0999187,-0.207565
2.68683,-0.00261141,-0.234027
2.71066,0.0950519,-0.262553
2.6816,-0.101315,-0.306886
2.68942,-0.00378741,-0.333364
2.67752,-0.102845,-0.405475
2.68731,-0.00462869,-0.433133
2.70473,0.0938042,-0.566471
2.67923,-0.204918,-0.584989
2.68608,-0.106742,-0.612076
2.69393,-0.00760224,-0.640347
2.71368,0.0934035,-0.675286
2.70045,-0.00870468,-0.75119
2.6821,-0.110877,0.280483
2.68888,-0.0134807,0.255266
2.69294,0.0834411,0.229651
2.66491,-0.207358,0.20741
2.67453,-0.110986,0.181784
2.6863,-0.0152963,0.0596012
2.69656,0.0813394,0.0335736
2.68668,-0.0167521,-0.0382198
2.70304,0.080496,-0.0640596
2.66834,-0.210812,-0.0847721
2.67852,-0.0181038,-0.13541
2.66934,-0.213,-0.181945
2.67143,-0.116275,-0.207487
2.67979,-0.0190478,-0.23342
2.67596,-0.117549,-0.306318
2.68934,-0.0202893,-0.333364
2.67585,-0.119228,-0.405325
2.68625,-0.0211099,-0.432974
2.67915,-0.219337,-0.48207
2.71014,0.0773461,-0.567495
2.6844,-0.123177,-0.611854
2.68508,-0.0240533,-0.638265
2.71129,0.0766686,-0.674562
2.69072,-0.025184,-0.74851
2.67909,-0.02599,0.554545
2.67638,-0.125878,0.378941
2.68037,-0.127285,0.280379
2.68277,-0.0299125,0.254699
2.68941,0.0668169,0.229311
2.66557,-0.223873,0.207565
2.6748,-0.127442,0.181852
2.67326,-0.225504,0.109908
2.67915,-0.031696,0.0594459
2.68902,0.0645999,0.033474
2.67536,-0.226998,0.012887
2.68752,-0.0332493,-0.038234
2.70249,0.0638853,-0.0640359
2.667,-0.22718,-0.0847721
2.69136,0.0634812,-0.162393
2.66898,-0.22946,-0.182013
2.67166,-0.132714,-0.207565
2.67862,-0.0354772,-0.233333
2.67817,-0.134115,-0.306659
2.68917,-0.0367904,-0.333364
2.67309,-0.135545,-0.405026
2.68903,-0.0376335,-0.433451
2.7079,0.060514,-0.463813
2.67972,-0.235944,-0.482423
2.68119,-0.0393023,-0.53333
2.69784,0.0604306,-0.564832
2.68457,-0.139697,-0.612076
2.70686,0.0599236,-0.673356
2.67753,-0.142403,0.379221
2.67954,-0.143729,0.280379
2.67856,-0.0463043,0.254321
2.66117,-0.239955,0.207333
2.67297,-0.143798,0.181784
2.66673,-0.145049,0.0843024
2.67691,-0.0480985,0.0594016
2.69636,0.0482244,0.0335611
2.69027,-0.0497946,-0.0382767
2.69483,0.047162,-0.0638464
2.66854,-0.243813,-0.084867
2.66752,-0.245833,-0.182013
2.67578,-0.149383,-0.207951
2.67835,-0.0519122,-0.233333
2.67432,-0.150378,-0.306318
2.68294,-0.0531721,-0.332626
2.67419,-0.152056,-0.405325
2.6848,-0.0540528,-0.432815
2.67822,-0.252382,-0.482423
2.69229,0.0437803,-0.563603
2.68853,-0.15645,-0.613186
2.68069,-0.0569189,-0.63734
2.69748,0.0431582,-0.670942
2.6776,-0.158888,0.379361
2.67464,-0.15993,0.279963
2.67723,-0.0627154,0.254226
2.698,0.0339088,0.22999
2.65866,-0.256184,0.207255
2.66805,-0.159957,0.181513
2.66479,-0.161349,0.0842709
2.68256,-0.0646673,0.0595347
2.69461,0.0316554,0.0335362
2.68791,-0.0662515,-0.0382482
2.69407,0.0306145,-0.0638227
2.66302,-0.259794,-0.0847404
2.66795,-0.262391,-0.182149
2.67581,-0.16586,-0.208029
2.70321,0.0284064,-0.261685
2.67334,-0.166784,-0.306318
2.68157,-0.0696076,-0.332503
2.67616,-0.168648,-0.405774
2.68146,-0.0704477,-0.432337
2.70647,0.0272595,-0.463475
2.67466,-0.268614,-0.48207
2.6846,-0.172755,-0.61252
2.68029,-0.0733662,-0.63734
2.69963,0.0266252,-0.671425
2.67261,-0.176273,0.279859
2.67978,-0.0792296,0.25451
2.66398,-0.273204,0.207797
2.67001,-0.176523,0.181716
2.66674,-0.177896,0.0843655
2.68211,-0.081126,0.0595347
2.69275,0.0151098,0.0335114
2.67072,-0.276205,0.012887
2.67646,-0.0824045,-0.0380918
2.68821,0.0140521,-0.0636806
2.67026,-0.279171,-0.18242
2.67275,-0.182139,-0.207874
2.69737,0.0117931,-0.261107
2.67723,-0.183524,-0.306886
2.67311,-0.184929,-0.405475
2.67999,-0.0868675,-0.432178
2.70363,0.0106408,-0.462969
2.67394,-0.285125,-0.482247
2.67609,-0.0885179,-0.53255
2.68173,-0.089876,-0.637803
2.70168,0.0100673,-0.671907
2.68123,-0.095742,0.254699
2.69523,0.00079675,0.229736
2.66126,-0.289437,0.207719
2.66788,-0.19283,0.181649
2.68568,-0.0971211,0.156745
2.67058,-0.194619,0.0845233
2.67557,-0.0973635,0.0594016
2.69279,-0.00141288,0.0335114
2.65904,-0.291497,0.012839
2.6769,-0.0988623,-0.038106
2.68325,-0.00243816,-0.0635622
2.68512,-0.00258046,-0.161971
2.66849,-0.29555,-0.18242
2.67158,-0.198536,-0.207874
2.67695,-0.101203,-0.233333
2.70037,-0.00476312,-0.261396
2.67902,-0.20017,-0.307227
2.67093,-0.201253,-0.405325
2.67743,-0.103234,-0.43186
2.70167,-0.00594424,-0.462631
2.67116,-0.301416,-0.48207
2.67648,-0.104975,-0.532745
2.68016,-0.106291,-0.637571
2.69005,-0.00648208,-0.669011
2.68172,-0.109989,0.453382
2.68258,-0.112275,0.254888
2.6892,-0.015706,0.229226
2.66241,-0.306103,0.207951
2.66764,-0.209274,0.181716
2.68403,-0.113556,0.156687
2.66934,-0.211002,0.0845233
2.67193,-0.113651,0.059335
2.68773,-0.0179022,0.0334491
2.66713,-0.308958,0.012887
2.68224,-0.115544,-0.0381913
2.68118,-0.0188881,-0.0635149
2.68106,-0.0190276,-0.16173
2.66663,-0.311918,-0.18242
2.6723,-0.215084,-0.208029
2.67627,-0.117627,-0.233333
2.69432,-0.021285,-0.260818
2.66982,-0.215964,-0.306318
2.67063,-0.217719,-0.405475
2.67971,-0.119793,-0.432337
2.69961,-0.0225048,-0.462293
2.6722,-0.318149,-0.4826
2.67284,-0.121262,-0.53216
2.67557,-0.122556,-0.636646
2.68705,-0.0229629,-0.668287
2.66792,-0.225354,0.279755
2.67587,-0.128447,0.254321
2.68806,-0.0321944,0.229141
2.6585,-0.322193,0.207797
2.66929,-0.225891,0.18192
2.66302,-0.226952,0.0843655
2.66519,-0.129752,0.0592019
2.68857,-0.0344063,0.0334616
2.65929,-0.227148,-0.0127171
2.67549,-0.131705,-0.038106
2.68401,-0.0353787,-0.0635859
2.6789,-0.0354515,-0.16161
2.66566,-0.328396,-0.182488
2.66994,-0.231391,-0.207951
2.67351,-0.133946,-0.23316
2.69115,-0.0377748,-0.260529
2.67043,-0.232514,-0.306545
2.6722,-0.23436,-0.405923
2.67793,-0.136183,-0.432178
2.69548,-0.0390119,-0.461618
2.67768,-0.139122,-0.63734
2.68298,-0.0393929,-0.667322
2.66748,-0.241809,0.279859
2.67603,-0.144917,0.254415
2.6898,-0.0487235,0.229311
2.65647,-0.338499,0.207797
2.66984,-0.242446,0.182055
2.66356,-0.24347,0.0844287
2.66833,-0.146322,0.0592907
2.68231,-0.0507888,0.0333869
2.65884,-0.243552,-0.0127218
2.66864,-0.147787,-0.0380206
2.67975,-0.0517696,-0.0634912
2.65875,-0.341997,-0.0848987
2.67563,-0.0518303,-0.161429
2.66847,-0.247769,-0.207951
2.66966,-0.15018,-0.232899
2.68988,-0.0542666,-0.260433
2.67389,-0.249356,-0.307113
2.6717,-0.250845,-0.406073
2.67803,-0.152668,-0.432337
2.69322,-0.0555096,-0.461281
2.67872,-0.155662,-0.637803
2.66298,-0.257884,0.279547
2.68846,-0.0652027,0.229226
2.66202,-0.259808,0.0844287
2.67138,-0.162935,0.0593794
2.67695,-0.0671209,0.0333247
2.66227,-0.260349,-0.0127457
2.66669,-0.164097,-0.0380064
2.67938,-0.0682113,-0.0634912
2.66646,-0.165485,-0.135056
2.66044,-0.360949,-0.18242
2.66789,-0.264236,-0.208029
2.67067,-0.166682,-0.233073
2.6885,-0.0707442,-0.260337
2.67528,-0.266053,-0.307454
2.68197,-0.169408,-0.433133
2.69184,-0.0720075,-0.461112
2.6653,-0.274627,0.279963
2.67008,-0.177481,0.254037
2.68303,-0.0815462,0.228801
2.66137,-0.276241,0.0844602
2.67132,-0.17939,0.0594016
2.67049,-0.0833579,0.03325
2.66073,-0.374598,0.0128966
2.65764,-0.276369,-0.0127314
2.66463,-0.180389,-0.0379922
2.65435,-0.374598,-0.0848987
2.66838,-0.182047,-0.135208
2.66721,-0.280705,-0.208106
2.67059,-0.183134,-0.23316
2.68702,-0.0872069,-0.26024
2.66522,-0.183934,-0.33115
2.69255,-0.0880919,-0.360507
2.67793,-0.185656,-0.432656
2.69135,-0.088523,-0.461112
2.6671,-0.186683,-0.53177
2.6749,-0.194294,0.254604
2.66691,-0.291765,0.182191
2.6636,-0.293002,0.0845864
2.67217,-0.195924,0.0594459
2.67293,-0.0998542,0.0332874
2.65541,-0.390481,0.0128822
2.65788,-0.29289,-0.0127409
2.66846,-0.197104,-0.0380633
2.68334,-0.101275,-0.0636096
2.66522,-0.198268,-0.135107
2.67123,-0.100958,-0.161249
2.65482,-0.393423,-0.182352
2.66742,-0.297287,-0.208261
2.67141,-0.199666,-0.233333
2.68942,-0.103808,-0.260529
2.66799,-0.200581,-0.331642
2.687,-0.104419,-0.359844
2.66958,-0.300311,-0.406522
2.67674,-0.202084,-0.432656
2.69174,-0.105074,-0.461281
2.66786,-0.203194,-0.53216
2.66374,-0.309571,0.0846495
2.67191,-0.212396,0.0594681
2.67726,-0.11647,0.0333496
2.65297,-0.406767,0.0128822
2.66001,-0.309655,-0.01276
2.67019,-0.213713,-0.038106
2.66396,-0.214618,-0.135107
2.65334,-0.409858,-0.18242
2.66554,-0.313648,-0.208261
2.67212,-0.216214,-0.233507
2.68774,-0.120263,-0.260433
2.6677,-0.217028,-0.331765
2.68433,-0.120815,-0.359579
2.66098,-0.414273,-0.382029
2.66867,-0.316802,-0.406672
2.6725,-0.218264,-0.432178
2.68809,-0.121454,-0.460774
2.6695,-0.219801,-0.532745
2.68207,-0.130967,0.228886
2.66115,-0.324229,0.182055
2.66079,-0.325788,0.084618
2.67056,-0.228786,0.0594681
2.6765,-0.132896,0.0333496
2.65338,-0.42351,0.0128966
2.65607,-0.325728,-0.0127504
2.67082,-0.230264,-0.0381344
2.68489,-0.134346,-0.0636806
2.65069,-0.326758,-0.109556
2.66557,-0.231218,-0.135258
2.67179,-0.13383,-0.161369
2.66357,-0.329998,-0.208261
2.67471,-0.232951,-0.233854
2.67999,-0.136398,-0.259758
2.66893,-0.33175,-0.307568
2.66533,-0.233307,-0.331642
2.68453,-0.137334,-0.359711
2.65937,-0.430751,-0.38217
2.66569,-0.333048,-0.406522
2.67209,-0.234744,-0.432337
2.68533,-0.137845,-0.460437
2.66419,-0.235831,-0.531965
2.67347,-0.137096,-0.560325
2.65713,-0.340298,0.18192
2.64982,-0.34096,0.084334
2.6711,-0.245351,0.0595125
2.67763,-0.149427,0.0333745
2.65271,-0.44011,0.0129062
2.65303,-0.341891,-0.0127457
2.66338,-0.246096,-0.0380491
2.67503,-0.150313,-0.0634675
2.64963,-0.343145,-0.109597
2.66609,-0.247754,-0.135359
2.67291,-0.150334,-0.161489
2.64516,-0.441895,-0.182217
2.65853,-0.345949,-0.208029
2.67621,-0.249636,-0.234114
2.68208,-0.15301,-0.260047
2.66879,-0.250119,-0.332257
2.66458,-0.349527,-0.406672
2.67158,-0.251228,-0.432497
2.68541,-0.154376,-0.460606
2.66074,-0.251989,-0.531574
2.67161,-0.153442,-0.56012
2.65895,-0.357126,0.182191
2.65263,-0.357881,0.0844918
2.66967,-0.165421,0.0332874
2.65088,-0.358163,-0.0127457
2.66879,-0.26312,-0.0381486
2.67206,-0.166599,-0.0634201
2.65143,-0.359934,-0.109761
2.66452,-0.264109,-0.135359
2.67293,-0.166794,-0.16155
2.64928,-0.45931,-0.182691
2.65635,-0.362255,-0.208029
2.68209,-0.169527,-0.260144
2.67017,-0.266786,-0.332626
2.6614,-0.365735,-0.406522
2.6749,-0.268108,-0.433292
2.6854,-0.170913,-0.460774
2.6494,-0.374011,0.0844602
2.66462,-0.181527,0.0332376
2.64765,-0.374282,-0.0127409
2.67498,-0.183265,-0.0635149
2.64861,-0.473804,-0.0852152
2.66285,-0.280453,-0.135359
2.67186,-0.183192,-0.16155
2.64445,-0.475204,-0.182556
2.65507,-0.378688,-0.208106
2.67802,-0.185774,-0.259855
2.65263,-0.477486,-0.282284
2.66336,-0.380961,-0.307681
2.66651,-0.282955,-0.33238
2.65422,-0.381355,-0.405774
2.68528,-0.187456,-0.460943
2.66757,-0.186078,-0.55971
2.66593,-0.292617,0.254604
2.64705,-0.39026,0.0844602
2.67741,-0.19891,0.0334118
2.64907,-0.489772,0.0129302
2.64332,-0.390229,-0.0127314
2.66834,-0.296182,-0.0381913
2.67879,-0.200047,-0.0636333
2.64663,-0.490229,-0.0852469
2.66406,-0.297119,-0.135511
2.66869,-0.199434,-0.161429
2.64246,-0.491603,-0.182623
2.65072,-0.394678,-0.207951
2.6798,-0.202427,-0.260144
2.64965,-0.493753,-0.282284
2.659,-0.397002,-0.307454
2.66472,-0.299311,-0.33238
2.64596,-0.396754,-0.404876
2.66945,-0.300692,-0.432974
2.66638,-0.202443,-0.55971
2.64856,-0.407102,0.0845864
2.66449,-0.312316,-0.0381629
2.66456,-0.215432,-0.0633254
2.64652,-0.507023,-0.0853418
2.66417,-0.313693,-0.135612
2.66742,-0.215805,-0.161429
2.63842,-0.507619,-0.182556
2.65121,-0.411394,-0.208184
2.64364,-0.509437,-0.281972
2.65357,-0.412852,-0.307113
2.66481,-0.31589,-0.332626
2.66755,-0.317066,-0.432974
2.64799,-0.423662,0.0846495
2.66033,-0.326927,0.0594681
2.66979,-0.23132,0.0333496
2.63735,-0.422479,-0.0127266
2.66418,-0.231864,-0.0633491
2.64434,-0.523446,-0.0853735
2.66616,-0.330525,-0.135814
2.66903,-0.232427,-0.16161
2.6333,-0.52341,-0.18242
2.64568,-0.427177,-0.207951
2.66729,-0.331611,-0.234114
2.63656,-0.524872,-0.281555
2.65393,-0.429602,-0.307454
2.67046,-0.33404,-0.43377
2.65027,-0.440721,0.0848073
2.65728,-0.343116,0.0594459
2.66832,-0.247697,0.0333496
2.6647,-0.248393,-0.0633965
2.64108,-0.539662,-0.0853735
2.63816,-0.440932,-0.10972
2.67053,-0.249078,-0.161791
2.6359,-0.540761,-0.182827
2.64104,-0.443073,-0.207797
2.66422,-0.347842,-0.234027
2.64108,-0.542641,-0.282388
2.64635,-0.445055,-0.306886
2.6627,-0.348825,-0.332872
2.66738,-0.350291,-0.43361
2.65711,-0.359683,0.0594903
2.63393,-0.455152,-0.0127361
2.66225,-0.361846,-0.0382198
2.6671,-0.265134,-0.0634912
2.63772,-0.555857,-0.0853735
2.65893,-0.362813,-0.135662
2.66796,-0.26536,-0.16173
2.63253,-0.556924,-0.182827
2.63631,-0.458927,-0.207642
2.66499,-0.364588,-0.234288
2.64259,-0.461113,-0.306772
2.66149,-0.365292,-0.332995
2.6642,-0.366516,-0.433451
2.65386,-0.37584,0.0594681
2.63897,-0.472715,-0.0127742
2.65899,-0.378034,-0.0382055
2.6704,-0.282019,-0.0636096
2.63035,-0.571183,-0.0852469
2.65765,-0.379263,-0.135713
2.67025,-0.282145,-0.161971
2.62906,-0.573066,-0.182827
2.63443,-0.475272,-0.207719
2.63775,-0.476966,-0.306545
2.66313,-0.382179,-0.333487
2.66092,-0.382716,-0.433292
2.67265,-0.285747,-0.460268
2.65249,-0.392263,0.0594903
2.63896,-0.489446,-0.0127885
2.62777,-0.58753,-0.0852785
2.63254,-0.489965,-0.109843
2.65231,-0.395121,-0.135561
2.62842,-0.589843,-0.18303
2.63538,-0.49216,-0.208029
2.65933,-0.397117,-0.234201
2.63868,-0.493873,-0.307
2.6519,-0.39719,-0.33238
2.65102,-0.408683,0.0595125
2.63689,-0.505817,-0.0127933
2.65514,-0.410788,-0.0382198
2.66673,-0.314768,-0.0636096
2.64786,-0.411081,-0.13546
2.62281,-0.60551,-0.182895
2.63623,-0.509077,-0.208338
2.65291,-0.412814,-0.233854
2.64549,-0.412842,-0.331888
2.64452,-0.424308,0.0594237
2.6357,-0.522376,-0.0128028
2.64763,-0.426277,-0.0381486
2.64627,-0.42748,-0.135511
2.6656,-0.331371,-0.162031
2.63403,-0.525438,-0.208416
2.65033,-0.429084,-0.233854
2.63989,-0.440198,0.0593794
2.64694,-0.442845,-0.0381771
2.6436,-0.443709,-0.135511
2.66451,-0.34785,-0.162092
2.61712,-0.638123,-0.18303
2.62978,-0.541389,-0.208338
2.65059,-0.445834,-0.234114
2.66776,-0.351638,-0.460774
2.63517,-0.456046,0.059335
2.64614,-0.45942,-0.0382055
2.65851,-0.363529,-0.0635622
2.66232,-0.364193,-0.162092
2.64192,-0.461061,-0.233594
2.64708,-0.474855,0.0596677
2.64721,-0.476356,-0.0382624
2.65821,-0.380118,-0.0636096
2.63501,-0.475584,-0.135359
2.65806,-0.380239,-0.161971
2.6361,-0.476731,-0.233333
2.64522,-0.492773,-0.0382767
2.65187,-0.395831,-0.0635149
2.63204,-0.491744,-0.135359
2.65469,-0.396394,-0.161911
2.63606,-0.493447,-0.233594
2.64509,-0.509562,-0.0383193
2.64939,-0.412095,-0.0635149
2.63093,-0.508263,-0.13546
2.65517,-0.413136,-0.162092
2.63494,-0.509991,-0.233767
2.63995,-0.525392,-0.0382909
2.65273,-0.429302,-0.063657
2.62874,-0.524592,-0.135511
2.64273,-0.427824,-0.161489
2.6589,-0.433349,-0.360507
2.65273,-0.444974,0.033474
2.63276,-0.540776,-0.038234
2.63808,-0.443701,-0.161369
2.62946,-0.542489,-0.233854
2.64995,-0.461242,0.033474
2.62608,-0.558612,-0.233854
2.65196,-0.464979,-0.260626
2.64655,-0.464745,-0.359579
2.64707,-0.477493,0.033474
2.63848,-0.47699,-0.0635149
2.63932,-0.477284,-0.161791
2.62552,-0.575355,-0.234114
2.64808,-0.481064,-0.260529
2.64507,-0.49391,0.0334865
2.64042,-0.49409,-0.0636333
2.63339,-0.492919,-0.16161
2.64508,-0.497304,-0.260529
2.63145,-0.509142,-0.0634912
2.63326,-0.509637,-0.161791
2.63904,-0.512954,-0.26024
2.63317,-0.526259,-0.0636096
2.63106,-0.52598,-0.161851
2.63585,-0.529138,-0.26024
2.62989,-0.542405,-0.0636096
2.62974,-0.542517,-0.161971
2.63937,-0.546714,-0.260915
2.62929,-0.559266,-0.162152
2.635,-0.562691,-0.260818
2.62581,-0.575389,-0.162152
