2.14219,0.357711,-0.0252844
2.13674,0.341485,-0.0251913
2.13408,0.332662,-0.0251447
2.13116,0.325353,-0.0250982
2.12047,0.315772,-0.0249585
2.12838,0.316951,0.0250516
2.10963,0.30701,-0.0248188
2.13387,0.310537,-0.12558
2.10673,0.299082,-0.0247722
2.11465,0.300206,0.0248654
2.12308,0.301402,-0.124883
2.10385,0.290811,-0.0247257
2.11574,0.292454,0.0248654
2.11626,0.292526,-0.124418
2.10485,0.283465,-0.0247257
2.10089,0.282931,0.0246791
2.11331,0.284603,-0.124185
2.10177,0.27633,-0.0246791
2.10177,0.27633,0.0246791
2.10627,0.276922,-0.12372
2.09087,0.267105,-0.0245394
2.09483,0.267611,0.024586
2.10728,0.269201,-0.12372
2.07992,0.257963,-0.0243997
2.0958,0.259932,0.024586
2.10428,0.260984,-0.123487
2.08072,0.251427,-0.0243997
2.10349,0.254178,-0.197785
2.08469,0.251907,0.0244463
2.08924,0.252456,-0.122557
2.08556,0.244629,-0.0244463
2.08854,0.244978,-0.196298
2.08556,0.244629,0.0244463
2.09011,0.245162,-0.122557
2.13872,0.349462,-0.0630683
2.07452,0.235628,-0.0243066
2.08547,0.236872,-0.195926
2.07849,0.23608,0.0243531
2.08305,0.236598,-0.122092
2.13203,0.340733,-0.0628356
2.07135,0.227948,-0.02426
2.08628,0.229591,-0.195926
2.07931,0.228823,0.0243531
2.07593,0.228452,-0.121627
2.1292,0.333043,-0.0627192
2.06812,0.220653,-0.0242135
2.07911,0.221826,-0.195183
2.07608,0.221502,0.0243066
2.07668,0.221566,-0.121627
2.12645,0.324634,-0.0626028
2.06494,0.212662,-0.0241669
2.13522,0.325973,-0.0125537
2.07991,0.214204,-0.195183
2.0735,0.213544,-0.121394
2.11565,0.31581,-0.0622537
2.06165,0.205418,-0.0241203
2.13629,0.318891,-0.0125537
2.06476,0.205727,-0.193695
2.06625,0.205876,-0.120929
2.13735,0.319049,-0.113255
2.11674,0.308422,-0.0622537
2.06634,0.198602,-0.0241669
2.12552,0.309701,-0.012484
2.06943,0.198899,-0.194067
2.06236,0.198219,0.0241203
2.06696,0.198661,-0.120929
2.12264,0.309282,-0.112418
2.10989,0.299907,-0.062021
2.05109,0.189913,-0.0239806
2.12659,0.30228,-0.012484
2.05507,0.190282,0.0240272
2.1263,0.302239,0.0374878
2.05968,0.190709,-0.120464
2.12766,0.302433,-0.112627
2.10691,0.292359,-0.0619047
2.04772,0.182755,-0.0239341
2.11965,0.294128,-0.0124375
2.05569,0.183466,0.0240272
2.06031,0.183879,-0.120464
2.1247,0.294827,-0.112418
2.10396,0.284467,-0.0617883
2.04038,0.174923,-0.0238409
2.10878,0.285118,-0.0123678
2.05298,0.176003,-0.119999
2.12176,0.286873,-0.112208
2.04499,0.16777,-0.0238875
2.10584,0.276866,-0.0123445
2.05215,0.168358,-0.192208
2.1068,0.276992,-0.173469
2.04565,0.167825,-0.119534
2.11487,0.278054,-0.11179
2.09404,0.267882,-0.0614392
2.04158,0.160317,-0.0238409
2.09489,0.267991,-0.0122748
2.04479,0.16057,-0.191465
2.09985,0.268624,-0.172818
2.04622,0.160682,-0.119534
2.10394,0.269149,-0.111162
2.08306,0.259091,-0.0610901
2.03415,0.152592,-0.0237478
2.09582,0.260677,-0.0122748
2.04136,0.153134,-0.191093
2.10077,0.261293,-0.172818
2.04279,0.15324,-0.119301
2.09694,0.260817,-0.110743
2.08788,0.252661,-0.0612065
2.02666,0.145273,-0.0236547
2.08476,0.252283,-0.012205
2.03789,0.146078,-0.190721
2.08579,0.252409,-0.171516
2.09241,0.25321,0.0367897
2.03532,0.145894,-0.118836
2.0978,0.253862,-0.110743
2.08478,0.244905,-0.0610901
2.08165,0.244538,-0.0121818
2.03441,0.138692,-0.190349
2.09062,0.245591,-0.171842
2.08931,0.245438,0.0367199
2.02785,0.138245,-0.118371
2.0947,0.246071,-0.110534
2.07374,0.235907,-0.060741
2.02765,0.130767,-0.0236547
2.08253,0.236907,-0.0121818
2.02298,0.130466,-0.189234
2.09151,0.237928,-0.171842
2.0743,0.235971,0.0364406
2.02834,0.130812,-0.118371
2.14513,0.350895,-0.101252
2.09162,0.237941,-0.110324
2.14688,0.35118,-0.0506206
2.07054,0.22859,-0.0606247
2.07933,0.229561,-0.0121585
2.01546,0.123271,-0.188491
2.08436,0.230116,-0.171191
2.07905,0.22953,0.0365104
2.02079,0.123598,-0.117906
2.07367,0.228936,0.0849968
2.08049,0.229689,-0.109696
2.14408,0.343427,-0.0505275
2.07614,0.221876,-0.0121353
2.02383,0.116693,-0.189234
2.07326,0.221567,-0.170214
2.02121,0.116542,-0.117906
2.06651,0.220846,0.0846712
2.13563,0.334431,-0.100693
2.0773,0.222,-0.109487
2.14132,0.335321,-0.0504345
2.06413,0.213308,-0.060392
2.06895,0.213805,-0.0120888
2.00434,0.108551,-0.187375
2.01291,0.109016,0.0234684
2.07798,0.214739,-0.17054
2.07265,0.214188,0.0363708
2.01762,0.109271,-0.117673
2.07124,0.214043,0.084834
2.12888,0.325766,-0.100321
2.07012,0.213927,-0.109068
2.14248,0.327845,-0.0504345
2.0569,0.205306,-0.0601592
2.12836,0.318086,0
2.0571,0.205326,-0.263143
2.06172,0.205787,-0.0120423
2.01266,0.101957,-0.188119
2.07079,0.206692,-0.169889
2.05746,0.205362,0.0360916
2.01001,0.101823,-0.117208
2.068,0.206414,0.0846712
2.12606,0.317741,-0.100135
2.06688,0.206302,-0.108859
2.12779,0.318,-0.0500623
2.05363,0.197741,-0.0600429
2.1255,0.310077,0
2.06641,0.198972,-0.0120655
2.00107,0.0943674,-0.187003
2.06753,0.19908,-0.169564
2.05419,0.197795,0.0360218
2.00637,0.0946173,-0.116976
2.06075,0.198427,0.0843455
2.11529,0.308587,-0.0995766
2.06759,0.199085,-0.108859
2.12493,0.309993,-0.0499692
2.04634,0.189834,-0.0598101
2.11469,0.300966,0
2.04663,0.189861,-0.261628
2.06311,0.191389,-0.0120423
2.00138,0.0873831,-0.187003
2.06027,0.191126,-0.168913
2.04949,0.190127,0.083857
2.1124,0.30064,-0.0993905
2.05634,0.190761,-0.108231
2.11412,0.300884,-0.0496901
2.03903,0.181979,-0.0595774
2.11177,0.293032,0
2.04333,0.182362,-0.261123
1.99372,0.0800763,-0.18626
2.11057,0.292867,-0.149
2.04901,0.18287,-0.167936
2.05552,0.18345,0.0360218
2.05014,0.182971,0.083857
2.11739,0.293813,-0.0995766
2.05301,0.183227,-0.108021
2.11119,0.292953,-0.049597
2.03567,0.174519,-0.0594611
2.10881,0.285123,0
1.99053,0.07299,-0.023189
2.04,0.17489,-0.260618
1.99001,0.0729709,-0.185888
2.10763,0.284963,-0.148721
2.04567,0.175376,-0.167611
2.10653,0.284815,-0.0990182
2.04966,0.175718,-0.107812
2.10824,0.285046,-0.049504
2.03228,0.167084,-0.0593447
2.10583,0.277238,0
2.03664,0.167443,-0.260113
2.04905,0.168463,-0.0119493
1.98627,0.0658914,-0.185516
2.10861,0.277604,-0.148721
2.05024,0.168561,-0.167936
1.98754,0.0659336,-0.115813
2.10355,0.276938,-0.0988321
2.04628,0.168235,-0.107603
2.09733,0.276119,-0.0492248
2.10282,0.269377,0
2.0293,0.159709,-0.259102
2.04165,0.160681,-0.0119028
1.97454,0.0586027,-0.184401
2.09374,0.268213,-0.147605
2.03889,0.160464,-0.16696
1.98776,0.0589948,-0.115813
2.03203,0.159924,0.0830429
2.09658,0.268577,-0.0984599
2.04685,0.16109,-0.107603
2.09828,0.268796,-0.0492248
2.09977,0.261541,0
2.02985,0.152625,-0.259102
2.03821,0.153254,-0.0118796
1.97872,0.0518145,-0.184773
1.97919,0.0518269,0.0230493
2.0907,0.26041,-0.147326
2.03149,0.152748,-0.166309
2.03656,0.15313,0.0832057
2.0975,0.261257,-0.0984599
2.03545,0.153047,-0.106975
2.02751,0.15245,0.165984
2.09524,0.260976,-0.0491318
2.08872,0.253133,0
2.02638,0.145609,-0.258597
1.9749,0.045162,-0.184401
1.97535,0.0451723,0.0230028
2.08363,0.252516,-0.146768
2.02403,0.14544,-0.165658
1.98013,0.0452816,-0.115348
2.02908,0.145803,0.08288
2.09042,0.253339,-0.0980876
2.03595,0.146296,-0.106975
2.02005,0.145154,0.165333
2.08815,0.253064,-0.0489456
2.01046,0.137412,-0.0586465
2.08959,0.24584,0
2.01896,0.137993,-0.257587
2.07757,0.244426,-0.225332
1.97106,0.0381903,-0.184029
1.9675,0.0381213,0.0229097
2.0845,0.245241,-0.146768
2.02453,0.138373,-0.165658
2.03095,0.138812,0.0355331
2.02958,0.138719,0.08288
2.08733,0.245574,-0.0979015
2.03246,0.138916,-0.106765
2.01657,0.13783,0.165007
2.08505,0.245306,-0.0488526
2.13511,0.350402,-0.037767
2.0109,0.130743,-0.0586465
2.08244,0.238,0
2.01545,0.131039,-0.257082
2.02768,0.131835,-0.0118098
1.97118,0.0316533,-0.184029
2.0853,0.238327,-0.146768
2.021,0.1314,-0.165333
2.02205,0.131468,0.0825544
2.08813,0.23865,-0.0979015
2.02893,0.131915,-0.106556
2.00906,0.130624,0.164356
2.08188,0.237936,-0.0487595
2.13243,0.341941,-0.0376972
2.00738,0.123128,-0.0585302
2.07535,0.229487,0
1.96372,0.0243351,-0.0228631
2.01592,0.123652,-0.257082
2.07132,0.229042,-0.224475
1.95535,0.0242314,-0.182542
2.08274,0.230304,0.0487595
1.95972,0.0242855,0.0228165
2.07823,0.229805,-0.14621
2.02146,0.123992,-0.165333
2.01055,0.123323,0.0820659
2.08105,0.230117,-0.0975292
2.02142,0.123989,-0.106137
2.00555,0.123016,0.164031
2.06684,0.228546,-0.0483873
2.12966,0.333878,-0.0376274
2.07216,0.221817,0
2.01237,0.116386,-0.256577
2.07211,0.221811,-0.224475
1.96339,0.0174781,-0.183286
2.07955,0.222608,0.0486665
1.95179,0.0173749,0.0227234
2.06711,0.221277,-0.145372
2.01392,0.116476,-0.164682
2.06469,0.221017,0.120929
2.07786,0.222428,-0.0973431
2.01387,0.116473,-0.105719
2.00994,0.116246,0.164356
2.0716,0.221757,-0.0484804
2.13081,0.326441,-0.0376274
2.0002,0.108678,-0.0582974
2.06894,0.21417,0
1.95584,0.0105828,-0.02277
2.00881,0.109145,-0.256072
2.06496,0.213757,-0.223619
1.95547,0.0105809,-0.182542
1.94784,0.0105396,0.0226768
2.05994,0.213238,-0.144814
2.00636,0.109012,-0.164031
2.00338,0.108851,0.0817402
2.07068,0.21435,-0.0969709
2.01027,0.109225,-0.105509
1.99441,0.108363,0.163054
2.06838,0.214112,-0.0483873
2.12798,0.318409,-0.0375576
1.99658,0.101492,-0.0581811
2.00172,0.101753,-0.400864
2.0657,0.206548,0
1.94786,0.00373975,-0.0226768
2.00521,0.101931,-0.255567
2.06569,0.206548,-0.223619
1.95151,0.00374675,-0.18217
1.94786,0.00373975,0.0226768
2.06067,0.206045,-0.144814
2.00274,0.101805,-0.163705
2.0091,0.102128,0.0351142
2.00774,0.102059,0.0819031
2.06346,0.206325,-0.0965986
2.01064,0.102207,-0.105509
1.99478,0.1014,0.163054
2.06116,0.206095,-0.0482012
1.99289,0.0950287,-0.0580647
2.05838,0.199287,0
1.99759,0.095253,-0.254557
2.10947,0.308867,0.012391
2.0505,0.198524,-0.221905
1.94753,-0.00237887,-0.181799
1.94787,-0.00237928,0.0226768
2.05336,0.198802,-0.144256
1.99509,0.0951335,-0.163054
2.11309,0.309397,-0.136869
1.9487,-0.00238029,-0.113487
2.05092,0.198565,0.119999
1.99607,0.0951805,0.0814146
2.06012,0.199457,-0.0964125
2.00696,0.0956997,-0.1053
1.98314,0.0945638,0.162078
2.05384,0.198848,-0.0480151
1.98522,0.087719,-0.057832
2.05906,0.192101,0
1.99791,0.0882799,-0.254557
2.11054,0.301502,0.012391
2.04722,0.190997,-0.221477
1.94353,-0.00915784,-0.181427
2.05007,0.191263,-0.143977
1.99939,0.0883451,-0.16338
2.0516,0.191406,0.119999
1.9924,0.0880363,0.0812517
2.05683,0.191893,-0.0962264
2.00329,0.0885176,-0.105091
1.98346,0.0876412,0.162078
2.0585,0.192049,-0.0481082
1.98554,0.0800952,-0.057832
2.04384,0.182768,0
1.99427,0.0804474,-0.254052
2.10376,0.292295,0.0123445
2.04793,0.183134,-0.221477
1.9395,-0.0165868,-0.181055
2.05524,0.183787,0.0480151
1.9358,-0.0165551,0.0225371
2.04681,0.183034,-0.143698
1.99175,0.0803455,-0.162729
2.05232,0.183526,0.119999
1.98873,0.0802238,0.0810889
2.04959,0.183282,-0.0958541
1.99564,0.0805023,-0.104672
1.9798,0.0798635,0.161753
2.10205,0.292058,-0.0864623
2.05524,0.183787,-0.0480151
2.10052,0.284374,-0.0369991
1.98581,0.0731633,-0.057832
2.0365,0.174948,0
1.93573,-0.0233128,-0.0225371
1.99454,0.073485,-0.254052
2.09684,0.283876,0.012298
2.04856,0.175984,-0.221477
1.93943,-0.0233573,-0.181055
2.05189,0.176269,0.0479221
1.93173,-0.0232646,0.0224906
2.03949,0.175204,-0.14314
1.98803,0.0732452,-0.162403
2.04101,0.175335,0.119301
2.0542,0.176468,-0.0960402
1.9959,0.0735352,-0.104672
1.9721,0.0726581,0.161102
2.04392,0.175585,-0.047736
1.98206,0.0660983,-0.0577156
2.04108,0.168167,0
1.92364,-0.0298828,-0.0223974
1.98686,0.0662583,-0.253042
2.04124,0.168179,-0.22062
1.92764,-0.0299449,0.022444
2.04407,0.168412,-0.143419
1.98429,0.0661728,-0.162078
2.09355,0.275994,-0.135334
2.04559,0.168538,0.119534
1.98125,0.0660715,0.0807633
2.04684,0.168641,-0.095668
1.96437,0.0655084,0.160451
2.09215,0.275808,-0.0859738
2.08658,0.267668,-0.0367199
1.98228,0.0591796,-0.0577156
1.97597,0.0589913,-0.395372
2.03767,0.160727,0
1.91152,-0.0363687,-0.0222578
2.03709,0.160681,-0.317908
1.98311,0.0592044,-0.252536
2.08686,0.267704,0.0122283
2.03388,0.160428,-0.219763
1.91952,-0.0365209,0.0223509
2.03271,0.160335,-0.142582
1.97654,0.0590084,-0.161427
2.09055,0.268177,-0.135078
1.92838,-0.0366894,-0.112325
2.03024,0.160141,0.118604
1.97348,0.0589171,0.0804376
2.04343,0.161181,-0.0954819
2.08913,0.267996,-0.085811
2.03313,0.160369,-0.0474568
1.97048,0.0519432,-0.0573665
2.03024,0.153011,0
1.91538,-0.0431315,-0.0223043
1.9833,0.0522812,-0.252536
2.07985,0.259428,0.0121818
2.0265,0.152729,-0.218906
1.92713,-0.043396,-0.17994
2.03767,0.153571,0.0475499
1.91538,-0.0431315,0.0223043
2.0253,0.152639,-0.142024
1.97674,0.0521081,-0.161427
1.92824,-0.0434211,-0.112325
2.03079,0.153053,0.118604
1.96968,0.0519221,0.0802748
2.03203,0.153146,-0.0949235
1.95681,0.0515828,0.1598
2.09006,0.260701,-0.085811
2.03368,0.15327,-0.0474568
2.08046,0.252132,-0.0365802
1.97065,0.045065,-0.0573665
2.0188,0.145064,0
1.91522,-0.0498168,-0.0223043
2.02239,0.145322,-0.315449
1.97554,0.0451769,-0.251526
2.07677,0.251685,0.0121585
1.92299,-0.0500187,-0.179568
2.0342,0.146171,0.0474568
1.90323,-0.0495048,0.0221646
1.97691,0.0452081,-0.161427
2.08444,0.252615,-0.134567
2.02733,0.145677,0.118371
1.97385,0.0451381,0.0804376
2.02458,0.145479,-0.0945512
1.95299,0.0446612,0.159474
2.08699,0.252923,-0.0856481
2.0342,0.146171,-0.0474568
2.07727,0.245126,-0.0365104
1.96678,0.0387944,-0.0572502
2.01525,0.138446,0
1.90306,-0.0554842,-0.0221646
1.9717,0.0388915,-0.251021
2.07755,0.245159,0.0121585
2.01556,0.138468,-0.217621
1.91884,-0.0559442,-0.179196
1.90706,-0.0556008,0.0222112
1.96907,0.0388394,-0.160776
2.0773,0.245129,-0.134055
2.02778,0.139307,0.118371
1.96599,0.0387787,0.0801119
2.02901,0.139392,-0.0947374
2.07586,0.24496,-0.0851596
2.03066,0.139505,-0.0473638
2.07021,0.236603,-0.0363708
1.96292,0.0315218,-0.0571338
2.01175,0.1308,0
1.89485,-0.0621961,-0.0220715
1.96787,0.0316013,-0.250516
2.07049,0.236635,0.012112
2.01209,0.130822,-0.217193
1.90285,-0.0624585,0.0221646
2.01482,0.130999,-0.141187
1.96919,0.0316226,-0.160776
2.06965,0.236539,0.0606247
2.02429,0.131615,0.118138
1.96212,0.031509,0.0799491
2.02154,0.131436,-0.0943651
1.94129,0.0311745,0.158498
2.06881,0.236443,-0.084834
1.96301,0.0246692,-0.0571338
1.95708,0.0245947,-0.39145
2.0082,0.123531,0
1.89862,-0.0689556,-0.0221181
1.964,0.0246816,-0.250011
1.95581,0.0245787,-0.0113681
1.91441,-0.0695291,-0.178824
1.90661,-0.069246,0.0222112
2.0073,0.123475,-0.140629
1.96531,0.024698,-0.160451
2.06251,0.228432,0.060392
1.9115,-0.0694234,-0.111394
1.95023,0.0245085,0.0794606
2.01401,0.123887,-0.0939929
1.94139,0.0243974,0.158498
2.07359,0.229659,-0.0849968
2.02363,0.124479,-0.0471777
1.95509,0.0180859,-0.0569011
1.94931,0.0180325,-0.389881
2.00062,0.116406,0
1.89039,-0.0749341,-0.0220249
2.0084,0.116859,-0.312989
1.95613,0.0180956,-0.249001
2.06012,0.221254,0.0120423
1.91019,-0.075719,-0.178453
2.00371,0.116586,-0.14035
1.9574,0.0181073,-0.1598
1.90727,-0.0756032,-0.111162
2.00919,0.116905,0.117208
1.94231,0.0179677,0.079135
2.00643,0.116744,-0.0936206
1.93747,0.0179229,0.158173
2.06242,0.221502,-0.0845083
1.93994,0.0179457,0.353715
1.94715,0.0108749,-0.0566684
1.94936,0.0108873,-0.389881
2.00103,0.109072,0
1.8901,-0.0818627,-0.0220249
2.00487,0.109282,-0.312374
1.95619,0.0109254,-0.249001
2.05694,0.213289,0.012019
1.90194,-0.0823755,-0.177709
2.01247,0.109696,0.0468985
1.8861,-0.0816896,0.0219784
1.95347,0.0109102,-0.159474
2.05212,0.21279,0.0600429
1.90299,-0.0824209,-0.110929
2.00961,0.10954,0.117208
1.94636,0.0108705,0.0792978
1.99886,0.108954,-0.0932484
2.05527,0.213116,-0.0841827
1.93212,0.0107909,0.35228
2.01646,0.109913,-0.0469915
2.05739,0.20608,-0.0360916
1.95117,0.00408679,-0.0567847
1.98941,0.101476,0
1.8898,-0.0884594,-0.0220249
1.95621,0.00409735,-0.249001
2.05767,0.206108,0.012019
1.99783,0.101905,-0.215479
1.90164,-0.0890136,-0.177709
1.8898,-0.0884594,0.0220249
1.94951,0.00408331,-0.159149
2.04888,0.205228,0.0599265
2.05349,0.20569,-0.132264
1.93839,0.00406002,0.0789721
1.99524,0.101773,-0.0930622
1.92559,0.00403321,0.157196
2.05202,0.205543,-0.0840198
1.93214,0.00404694,0.35228
1.94717,-0.00237828,-0.0566684
1.94155,-0.0023714,-0.388312
1.98974,0.0948786,0
1.87751,-0.0941246,-0.0218852
1.94431,-0.00237478,-0.247486
2.05038,0.198513,0.0119725
1.99021,0.0949011,-0.214623
1.89736,-0.0951194,-0.177337
1.88151,-0.0943249,0.0219318
1.98888,0.0948375,-0.139234
1.94951,-0.00238113,-0.159149
2.04954,0.198433,0.0599265
1.9477,-0.00237892,0.0339973
1.89441,-0.0949715,-0.110464
1.93439,-0.00236267,0.0788093
1.99158,0.0949661,-0.0928761
1.92821,-0.00235511,0.351563
1.93916,-0.00947643,-0.0564356
1.93368,-0.00944968,-0.386743
1.98208,0.0872329,0
1.88115,-0.101221,-0.0219318
1.94032,-0.00948212,-0.246981
2.05109,0.190996,0.0119725
1.94394,-0.00949983,-0.0112984
1.89302,-0.101859,-0.176966
1.88115,-0.101221,0.0219318
1.9932,0.0877222,-0.139513
1.94949,-0.00952694,-0.159149
2.03832,0.189807,0.0595774
1.9907,0.0876121,0.116045
1.93038,-0.00943352,0.0786465
1.9959,0.0878411,-0.0930622
1.99507,0.0878046,0.245201
1.9176,-0.00937108,0.156545
1.92425,-0.00940361,0.350845
1.93111,-0.0161779,-0.0562029
1.93756,-0.0162319,-0.387528
1.97838,0.0801521,0
1.88478,-0.108015,-0.0219784
1.94028,-0.0162546,-0.246981
2.04776,0.183479,0.0119493
1.9399,-0.0162515,-0.0112751
1.88868,-0.108238,-0.176594
1.88079,-0.107786,0.0219318
1.94147,-0.0162647,-0.158498
2.03498,0.182334,0.0594611
1.88172,-0.10784,-0.109766
1.99099,0.0806631,0.116045
1.92234,-0.0161044,0.0783208
1.98023,0.080227,-0.0923178
2.03814,0.182617,-0.0833685
1.92027,-0.0160871,0.350128
2.03211,0.175644,-0.0356029
1.93105,-0.0222442,-0.0562029
1.87245,-0.113211,-0.0218387
1.92831,-0.0222126,-0.245465
2.04434,0.176701,0.011926
1.93184,-0.0222533,-0.0112286
1.88038,-0.11369,-0.17585
1.87245,-0.113211,0.0218387
1.94141,-0.0223635,-0.158498
2.03156,0.175596,0.0593447
2.03622,0.175998,-0.130985
1.91429,-0.022051,0.0779952
1.97974,0.0739787,0.243251
2.03472,0.175869,-0.0832057
1.93096,-0.0293231,-0.0562029
1.92172,-0.0291828,-0.38439
1.96688,0.0662788,0
1.86005,-0.119307,-0.021699
1.92822,-0.0292815,-0.245465
2.037,0.168546,0.0118796
1.93174,-0.0293351,-0.0112286
1.87602,-0.120331,0.0218852
1.93334,-0.0293594,-0.157847
2.02422,0.167488,0.059112
1.88094,-0.120647,-0.109766
1.97952,0.0667046,0.115348
1.91419,-0.0290685,0.0779952
1.97673,0.0666107,-0.0921316
1.99033,0.0670689,-0.0463402
2.02534,0.160466,-0.0354633
1.92685,-0.0359873,-0.0560866
1.9216,-0.0358893,-0.38439
1.9671,0.059414,0
1.85962,-0.125797,-0.021699
1.92017,-0.0358626,-0.244455
2.03359,0.16112,0.0118563
1.87951,-0.127143,-0.17585
1.97029,0.0595102,-0.137839
1.93323,-0.0361065,-0.157847
2.02878,0.160738,0.0592283
1.91937,-0.0358477,0.0335086
1.87652,-0.126941,-0.109534
1.97974,0.0597957,0.115348
1.91008,-0.0356742,0.0778323
1.98095,0.0598322,-0.0923178
2.02397,0.160357,-0.0827172
1.92271,-0.0426249,-0.0559702
1.9633,0.0524398,0
1.85518,-0.132005,-0.0216524
1.92003,-0.0425655,-0.244455
2.02617,0.153415,0.0118098
1.9155,-0.0424649,-0.0111356
1.86715,-0.132856,0.0217921
1.9665,0.0525252,-0.13756
1.92911,-0.0427667,-0.157522
2.02136,0.153051,0.0589956
1.92323,-0.0426365,0.0335784
1.8681,-0.132924,-0.109069
1.97195,0.052671,0.114883
1.90995,-0.0423419,0.0778323
1.97316,0.0527031,-0.0919455
1.90121,-0.0421481,0.155243
2.02452,0.153291,-0.0827172
1.98276,0.0529595,-0.0461541
1.91056,-0.0490288,-0.0556211
1.91346,-0.0491032,-0.382821
1.95547,0.0454003,0
1.85471,-0.13848,-0.0216524
1.90797,-0.0489623,-0.24294
2.01871,0.145765,0.0117633
1.90734,-0.0489461,-0.0110891
1.87064,-0.139669,-0.175107
1.86668,-0.139373,0.0217921
1.96667,0.0456602,-0.13756
1.92496,-0.0493983,-0.157196
2.01789,0.145706,0.0588792
1.91908,-0.0492473,0.0335086
2.01859,0.145757,-0.129706
1.87161,-0.139742,-0.109301
1.96813,0.0456943,0.11465
1.9018,-0.0488038,0.0775067
1.96933,0.0457221,-0.0917594
1.96868,0.045707,0.241789
2.01707,0.145647,-0.0823915
1.97493,0.0458521,-0.045968
1.90639,-0.0552483,-0.0555047
1.95561,0.0389155,0
1.85823,-0.144941,-0.021699
1.91573,-0.055519,-0.24395
2.02317,0.139345,0.0117866
1.91117,-0.0553867,-0.0111124
1.85823,-0.144941,0.021699
1.95883,0.0389795,-0.137002
1.91682,-0.0555504,-0.156545
2.01836,0.139014,0.0588792
1.9149,-0.055495,0.0334388
1.85919,-0.145016,-0.108604
1.96827,0.0391674,0.11465
1.90162,-0.0551101,0.0775067
1.95749,0.0389528,-0.091201
1.96485,0.0390994,0.241301
1.89291,-0.0548575,0.154593
2.01754,0.138957,-0.0823915
1.97108,0.0392232,-0.0458749
2.00743,0.13087,-0.0351142
1.89818,-0.0619743,-0.055272
1.95174,0.0316826,0
1.84174,-0.150448,-0.0215127
1.90758,-0.0622812,-0.24294
2.01569,0.131408,0.0117401
1.91095,-0.0623911,-0.0111124
1.86168,-0.152077,-0.174363
1.8537,-0.151425,0.0216524
1.95098,0.0316702,-0.136444
1.90863,-0.0623154,-0.155894
2.00689,0.130835,0.0585302
1.86263,-0.152154,-0.108836
1.90141,-0.0620796,0.0775067
1.96561,0.0319077,-0.0915733
1.91635,-0.0625673,-0.100485
1.95704,0.0317687,0.240326
2.00788,0.123862,-0.0351142
1.90195,-0.0687442,-0.0553884
1.95184,0.0248696,0
1.83722,-0.156536,-0.0214662
1.89942,-0.0686529,-0.24193
2.00815,0.123879,0.0116936
1.90672,-0.0689167,-0.0110891
1.85717,-0.158236,-0.173991
1.84917,-0.157555,0.0216059
1.95507,0.0249107,-0.136723
1.9084,-0.0689773,-0.155894
2.00733,0.123829,0.0585302
1.85811,-0.158316,-0.108604
1.96052,0.0249801,0.114185
1.89319,-0.0684276,0.077181
1.95772,0.0249444,-0.091201
1.88972,-0.0749078,-0.0550393
1.90475,-0.0755039,-0.381252
1.94392,0.0179822,0
1.84463,-0.163655,-0.0215593
1.89917,-0.0752827,-0.24193
2.00458,0.116636,0.0116703
1.89848,-0.0752551,-0.0110426
1.94467,0.0179892,-0.209482
1.8566,-0.164718,-0.173991
1.8526,-0.164362,0.0216524
1.94716,0.0180122,-0.136165
1.90815,-0.0756385,-0.155894
1.99977,0.116357,0.0582974
1.89422,-0.0750865,0.0330898
1.85357,-0.164448,-0.108371
1.94861,0.0180257,0.113487
1.89294,-0.0750357,0.077181
1.95779,0.0181106,-0.091201
1.94928,0.0180318,0.239351
1.88026,-0.0745331,0.153616
2.00295,0.116542,-0.0817402
1.95939,0.0181253,-0.0455958
1.88546,-0.0810023,-0.0549229
1.94397,0.0115359,0
1.83611,-0.169038,-0.0214662
1.89098,-0.0812395,-0.24092
2.00096,0.109769,0.0116471
1.89022,-0.0812069,-0.0109961
1.84812,-0.170143,-0.173248
1.84806,-0.170138,0.0216059
1.94322,0.0115314,-0.135886
1.99615,0.109505,0.0581811
1.89796,-0.0815392,0.0331596
1.85301,-0.170594,-0.108371
1.8807,-0.0807979,0.0766925
1.94586,0.0115471,-0.0906426
1.94536,0.0115441,0.238864
1.99534,0.109461,-0.0814146
1.95144,0.0115802,-0.0454097
1.99309,0.102012,-0.034835
1.88116,-0.087726,-0.0548066
1.932,0.00438357,0
1.83548,-0.175767,-0.0214662
1.89464,-0.0883546,-0.241425
2.00534,0.102639,0.0116703
1.89391,-0.0883207,-0.0110194
1.93679,0.00439445,-0.208625
1.84352,-0.176536,-0.172876
1.83946,-0.176148,0.0215127
1.93926,0.00440005,-0.135607
1.89164,-0.0882151,-0.154593
1.99654,0.102188,0.0581811
1.84442,-0.176623,-0.107906
1.8804,-0.0876904,0.0766925
1.94189,0.00440602,-0.0904565
1.94539,0.00441395,0.238864
1.99573,0.102147,-0.0814146
1.98944,0.0948634,-0.0347652
1.88084,-0.094292,-0.0548066
1.932,-0.00236038,0
1.82689,-0.181382,-0.021373
1.89035,-0.0947689,-0.24092
1.9977,0.0952573,0.0116238
1.8896,-0.0947309,-0.0109961
1.83892,-0.182577,-0.172504
1.83883,-0.182568,0.0215127
1.93926,-0.00236925,-0.135607
1.87938,-0.0942188,-0.153616
1.9889,0.0948377,0.0579483
1.88934,-0.094718,0.03302
1.83187,-0.181877,-0.107208
1.87609,-0.0940536,0.0765297
1.94189,-0.00237247,-0.0904565
1.89502,-0.0950026,-0.0994383
1.93745,-0.00236704,0.237889
1.98809,0.0947993,-0.0810889
1.94747,-0.00237928,-0.0453166
1.98974,0.0882657,-0.0347652
1.88451,-0.100742,-0.0549229
1.92798,-0.00874896,0
1.8223,-0.187031,-0.0213265
1.87814,-0.100402,-0.239405
1.98202,0.0879231,0.0115308
1.88128,-0.100569,-0.0109496
1.83831,-0.188674,-0.172504
1.83026,-0.187848,0.0214196
1.93525,-0.00878197,-0.135328
1.88304,-0.100663,-0.153942
1.98121,0.0878874,0.0577156
1.88901,-0.100983,0.03302
1.83921,-0.188766,-0.107673
1.94069,-0.00880664,0.113022
1.87576,-0.100274,0.0765297
1.94187,-0.00881201,-0.0904565
1.8907,-0.101073,-0.099229
1.93743,-0.00879184,0.237889
1.86711,-0.099812,0.15264
1.9844,0.0880289,-0.0809261
1.97805,0.0808298,-0.0345558
1.87217,-0.106637,-0.0545738
1.92794,-0.0154788,0
1.82164,-0.193391,-0.0213265
1.87382,-0.106731,-0.238899
1.97832,0.0808408,0.0115076
1.87693,-0.106908,-0.0109264
1.83764,-0.19509,-0.172504
1.83357,-0.194658,0.0214662
1.92723,-0.0154731,-0.134769
1.88268,-0.107236,-0.153942
1.98151,0.0809712,0.0577156
1.87667,-0.106894,0.0328105
1.82662,-0.19392,-0.106976
1.92867,-0.0154847,0.112325
1.87141,-0.106594,0.0763669
1.94183,-0.0155904,-0.0904565
1.88635,-0.107445,-0.0990196
1.93342,-0.0155228,0.237402
1.93941,-0.0155709,-0.0451305
1.8678,-0.112931,-0.0544575
1.87537,-0.113388,-0.375761
1.93587,-0.0223006,0
1.82493,-0.200185,-0.021373
1.87344,-0.113271,-0.238899
1.97859,0.0739346,0.0115076
1.87654,-0.113459,-0.0109264
1.83299,-0.201069,-0.172132
1.93535,-0.0222946,0.0450374
1.93116,-0.0222463,-0.135049
1.88627,-0.114047,-0.154267
1.97778,0.0739046,0.0575993
1.8723,-0.113203,0.0327407
1.82197,-0.199859,-0.106743
1.9286,-0.0222169,0.112325
1.86704,-0.112885,0.076204
1.93377,-0.0222765,-0.0900843
1.88596,-0.114029,-0.0990196
1.92938,-0.0222259,0.236914
1.85841,-0.112363,0.151989
1.93135,-0.0222485,-0.0449444
1.97457,0.0668832,-0.034486
1.86739,-0.11945,-0.0544575
1.91578,-0.0287578,0
1.82024,-0.206104,-0.0213265
1.86511,-0.119304,-0.237889
1.97883,0.0670277,0.0115076
1.87214,-0.119754,-0.0109032
1.92067,-0.0288311,-0.206912
1.82832,-0.207018,-0.171761
1.82024,-0.206104,0.0213265
1.92309,-0.0288674,-0.13449
1.8779,-0.120122,-0.153616
1.97803,0.0670004,0.0575993
1.87189,-0.119737,0.0327407
1.97082,0.0667564,-0.12638
1.81729,-0.205769,-0.106511
1.92053,-0.028829,0.111859
1.86663,-0.119401,0.076204
1.92969,-0.0289665,-0.0898981
1.87758,-0.120101,-0.0986009
1.91738,-0.0287818,0.235452
1.85403,-0.118595,0.151663
1.97323,0.0668379,-0.0804376
1.92726,-0.02893,-0.0448513
1.97079,0.0598688,-0.0344161
1.85898,-0.125429,-0.0542248
1.91167,-0.0353709,0
1.81157,-0.211528,-0.0212333
1.8726,-0.126348,-0.238899
1.97506,0.0599984,0.0114843
1.86373,-0.125749,-0.0108567
1.92454,-0.0356089,-0.20734
1.82363,-0.212936,-0.171389
1.81951,-0.212456,0.0213265
1.91899,-0.0355062,-0.134211
1.87349,-0.126408,-0.153291
1.97425,0.059974,0.0574829
1.86747,-0.126002,0.0326709
1.96706,0.0597553,-0.126124
1.82449,-0.213037,-0.106976
1.85424,-0.125109,0.0757155
1.92558,-0.0356283,-0.089712
1.87316,-0.126386,-0.0983916
1.9133,-0.0354011,0.234964
1.96546,0.0597069,-0.0801119
1.92315,-0.0355833,-0.0447583
1.96299,0.0527741,-0.0342765
1.91554,-0.0421316,0
1.81082,-0.217851,-0.0212333
1.96326,0.0527813,0.0114146
1.86328,-0.132254,-0.0108567
1.81497,-0.218349,-0.170645
1.81479,-0.218328,0.0212799
1.91885,-0.0422045,-0.134211
1.86111,-0.1321,-0.152314
1.96646,0.0528673,0.0572502
1.85904,-0.131953,0.0325313
1.81977,-0.218928,-0.106743
1.92028,-0.042236,0.111859
1.85778,-0.131864,0.0758784
1.92145,-0.0422617,-0.0895259
1.86474,-0.132358,-0.0979729
1.9092,-0.0419922,0.234477
1.91902,-0.0422082,-0.0446652
1.95917,0.0458282,-0.0342067
1.85408,-0.138107,-0.0541084
1.91138,-0.0487159,0
1.80608,-0.223679,-0.0211868
1.95543,0.0457408,0.0113681
1.85882,-0.13846,-0.0108334
1.90834,-0.0486384,-0.205626
1.81419,-0.224683,-0.170645
1.9147,-0.0488006,-0.133932
1.86064,-0.138596,-0.152314
1.96263,0.0459093,0.0571338
1.85857,-0.138442,0.0325313
1.80711,-0.223806,-0.106046
1.90415,-0.0485318,0.110929
1.85731,-0.138348,0.0758784
1.9173,-0.0488668,-0.0893398
1.86029,-0.13857,-0.0977636
1.90904,-0.0486563,0.234477
1.95784,0.0457972,-0.0797863
1.91086,-0.0487028,-0.0444791
1.90721,-0.0549389,0
1.80136,-0.229162,-0.0211402
1.85537,-0.144392,-0.236879
1.96357,0.0394167,0.0114146
1.85436,-0.144313,-0.0108102
1.91214,-0.0550809,-0.206055
1.80554,-0.229693,-0.169902
1.91469,-0.0551543,0.0445722
1.81326,-0.230676,0.0212799
1.91054,-0.0550348,-0.133653
1.85619,-0.144456,-0.151989
1.95478,0.0392402,0.0569011
1.85411,-0.144294,0.0324615
1.95559,0.0392565,-0.125357
1.81428,-0.230805,-0.106511
1.90398,-0.0548459,0.110929
1.85286,-0.144196,0.0757155
1.90914,-0.0549944,-0.0889675
1.85982,-0.144738,-0.0977636
1.9049,-0.0548723,0.233989
1.8403,-0.143219,0.150687
1.95399,0.0392243,-0.0796234
1.91069,-0.0550391,-0.0444791
1.89901,-0.0613377,0
1.80451,-0.235967,-0.0211868
1.84695,-0.150224,-0.235869
1.9517,0.0323634,0.0113449
1.85783,-0.15111,-0.0108334
1.90399,-0.0614984,-0.205198
1.80472,-0.235994,-0.169902
1.91049,-0.0617084,0.0444791
1.80055,-0.235448,0.0211402
1.89837,-0.0613171,-0.132816
1.85568,-0.150934,-0.151989
1.9549,0.0324165,0.0569011
1.8536,-0.150765,0.0324615
1.95173,0.0323638,-0.125101
1.80158,-0.235584,-0.105813
1.8958,-0.0612339,0.110464
1.84437,-0.150015,0.0753899
1.90494,-0.0615292,-0.0887814
1.84736,-0.150257,-0.0971355
1.89279,-0.0611368,0.232527
1.83978,-0.149642,0.150687
1.95411,0.0324034,-0.0796234
1.90249,-0.0614502,-0.044293
1.94354,0.0254423,-0.0339275
1.89479,-0.067823,0
1.80368,-0.242264,-0.0211868
1.84641,-0.15667,-0.235869
1.9558,0.0256028,0.0113681
1.84932,-0.156917,-0.0107869
1.80389,-0.242292,-0.169902
1.90227,-0.0680907,0.044293
1.79575,-0.2412,0.0210936
1.89416,-0.0678005,-0.132537
1.84322,-0.1564,-0.151012
1.84907,-0.156896,0.0323917
1.94784,0.0254986,-0.124845
1.80471,-0.242403,-0.106046
1.89956,-0.0679939,0.110697
1.83587,-0.155776,0.0750642
1.90072,-0.0680354,-0.0885953
1.85478,-0.15738,-0.0975542
1.89653,-0.0678855,0.233014
1.94622,0.0254774,-0.0792978
1.90626,-0.0682338,-0.0443861
1.89053,-0.0746095,0
1.78693,-0.246686,-0.0210005
1.84874,-0.163694,-0.0107869
1.89555,-0.0748077,-0.204341
1.7951,-0.247813,-0.169158
1.89801,-0.0749047,0.0442
1.79485,-0.24778,0.0210936
1.83867,-0.162803,-0.150687
1.93909,0.0182761,0.0564356
1.8445,-0.163319,0.0323219
1.79985,-0.248469,-0.105813
1.89531,-0.0747983,0.110464
1.83529,-0.162504,0.0750642
1.90844,-0.0753165,-0.0889675
1.84225,-0.163121,-0.0969262
1.89231,-0.0746796,0.232527
1.83072,-0.1621,0.150036
1.9423,0.0183063,-0.079135
1.89801,-0.0749047,-0.0442
1.83148,-0.168611,-0.0535266
1.89026,-0.0812083,0
1.78606,-0.252922,-0.0210005
1.83734,-0.169151,-0.234859
1.94393,0.0115357,0.0112984
1.84019,-0.169413,-0.0107404
1.79422,-0.254078,-0.169158
1.79002,-0.253483,0.0210471
1.88964,-0.0811817,-0.132258
1.83809,-0.16922,-0.150687
1.93914,0.0115072,0.0564356
1.84392,-0.169757,0.0323219
1.93999,0.0115122,-0.124333
1.79107,-0.253631,-0.105348
1.89105,-0.0812423,0.110232
1.83869,-0.169276,0.0752271
1.90418,-0.0818063,-0.0887814
1.84167,-0.16955,-0.0969262
1.88807,-0.0811142,0.232039
1.82618,-0.168123,0.149711
1.94235,0.0115263,-0.079135
1.89374,-0.0813579,-0.0441069
1.88998,-0.0874761,0
1.78521,-0.258843,-0.0210005
1.93596,0.00506836,0.0112519
1.8436,-0.175895,-0.0107637
1.88308,-0.0871569,-0.203056
1.78943,-0.259455,-0.168786
1.89346,-0.0876373,0.0441069
1.79313,-0.259991,0.0210936
1.88936,-0.0874475,-0.132258
1.83752,-0.175314,-0.150687
1.93517,0.0050663,0.0563193
1.83937,-0.175491,0.032252
1.93602,0.00506852,-0.124078
1.79812,-0.260715,-0.105813
1.88678,-0.0873281,0.109999
1.82619,-0.174233,0.0747386
1.89192,-0.0875661,-0.088223
1.83712,-0.175277,-0.0967169
1.88382,-0.0871912,0.231552
1.93439,0.00506425,-0.0788093
1.88947,-0.0874524,-0.0440139
1.88167,-0.0936751,0
1.7843,-0.265073,-0.0210005
1.82825,-0.180873,-0.233849
1.93597,-0.00168945,0.0112519
1.83501,-0.181541,-0.0107172
1.88276,-0.0937295,-0.203056
1.78457,-0.265114,-0.168415
1.88915,-0.0940474,0.0440139
1.79221,-0.266249,0.0210936
1.88506,-0.0938437,-0.131979
1.83292,-0.181335,-0.150362
1.93118,-0.00168527,0.0562029
1.83476,-0.181517,0.0321822
1.93204,-0.00168602,-0.123822
1.7893,-0.265816,-0.105348
1.87849,-0.0935166,0.109534
1.82954,-0.181,0.0749014
1.88362,-0.0937723,-0.0878508
1.84048,-0.182082,-0.0969262
1.87557,-0.0933716,0.230577
1.93439,-0.00168808,-0.0788093
1.88915,-0.0940474,-0.0440139
1.92369,-0.00839372,-0.0335784
1.88133,-0.100243,0
1.78336,-0.2713,-0.0210005
1.8787,-0.100103,-0.292697
1.93195,-0.00842976,0.0112286
1.83835,-0.188353,-0.0107404
1.87845,-0.100089,-0.202628
1.7797,-0.270743,-0.168043
1.88482,-0.100428,0.0439208
1.77545,-0.270097,0.0209074
1.87675,-0.0999986,-0.131421
1.82435,-0.186919,-0.149711
1.92317,-0.00839145,0.0559702
1.83412,-0.18792,0.0321822
1.92803,-0.00841265,-0.123566
1.78836,-0.27206,-0.105348
1.87416,-0.0998607,0.109301
1.82492,-0.186978,0.0747386
1.88328,-0.100347,-0.0878508
1.82791,-0.187284,-0.0962982
1.87524,-0.099918,0.230577
1.88482,-0.100428,-0.0439208
1.92765,-0.01514,-0.0336482
1.86899,-0.106129,0
1.77055,-0.275677,-0.0208608
1.87412,-0.10642,-0.202199
1.77481,-0.276341,-0.167671
1.7745,-0.276293,0.0209074
1.8724,-0.106323,-0.131142
1.81972,-0.192866,-0.149385
1.91913,-0.0150731,0.0558538
1.8255,-0.193478,0.0320426
1.8738,-0.106402,0.109301
1.82426,-0.193347,0.0747386
1.88691,-0.107147,-0.0880369
1.83122,-0.194084,-0.0965075
1.87091,-0.106238,0.230089
1.88046,-0.10678,-0.0438278
1.86861,-0.112652,0
1.77352,-0.282485,-0.0209074
1.81837,-0.199144,-0.232839
1.91984,-0.0217809,0.0111589
1.82506,-0.199876,-0.0106707
1.86977,-0.112722,-0.201771
1.77383,-0.282534,-0.167671
1.88008,-0.113344,0.0438278
1.77747,-0.283114,0.020954
1.87202,-0.112858,-0.131142
1.81507,-0.198783,-0.14906
1.82481,-0.199849,0.0320426
1.77459,-0.282654,-0.10465
1.86545,-0.112462,0.108836
1.8196,-0.199279,0.0745757
1.87456,-0.113011,-0.0874785
1.82656,-0.200041,-0.0962982
1.87449,-0.113007,0.230577
1.91829,-0.0217632,-0.078158
1.87609,-0.113103,-0.0437347
1.87222,-0.119102,0
1.76863,-0.287722,-0.0208608
1.91176,-0.0280299,0.0111124
1.82041,-0.205479,-0.0106474
1.86542,-0.11867,-0.201342
1.76502,-0.287136,-0.166928
1.87171,-0.11907,0.0436417
1.77258,-0.288365,0.0209074
1.87164,-0.119065,-0.131142
1.8144,-0.204801,-0.14906
1.91498,-0.0280771,0.0557375
1.82414,-0.205899,0.0320426
1.77758,-0.289179,-0.104883
1.86506,-0.118647,0.108836
1.80702,-0.203967,0.0740873
1.87418,-0.119227,-0.0874785
1.82191,-0.205648,-0.0960888
1.87015,-0.11897,0.230089
1.9182,-0.0281243,-0.078158
1.87171,-0.11907,-0.0436417
1.85585,-0.124241,0
1.76766,-0.293586,-0.0208608
1.81307,-0.210741,-0.232334
1.91166,-0.0343694,0.0111124
1.81972,-0.211514,-0.0106474
1.76406,-0.292987,-0.166928
1.8713,-0.125276,0.0436417
1.85929,-0.124472,-0.130305
1.81768,-0.211277,-0.149385
1.91088,-0.0343554,0.0556211
1.81947,-0.211486,0.0319728
1.91576,-0.0344431,-0.122798
1.76873,-0.293763,-0.104418
1.85669,-0.124298,0.108371
1.8103,-0.21042,0.0742501
1.87377,-0.125441,-0.0874785
1.81725,-0.211228,-0.0958795
1.9141,-0.0344133,-0.0779952
1.8713,-0.125276,-0.0436417
1.8554,-0.130719,0
1.75874,-0.298416,-0.0207677
1.81232,-0.217069,-0.232334
1.90753,-0.0409563,0.0110891
1.8606,-0.131085,-0.200914
1.76303,-0.299143,-0.166928
1.86687,-0.131526,0.0435486
1.85884,-0.130961,-0.130305
1.90675,-0.0409396,0.0555047
1.81475,-0.21736,0.031903
1.91563,-0.0411302,-0.122798
1.77163,-0.300604,-0.10465
1.85226,-0.130497,0.108139
1.80955,-0.216737,0.0742501
1.87332,-0.131981,-0.0874785
1.81254,-0.217095,-0.0956701
1.90997,-0.0410088,-0.0778323
1.86687,-0.131526,-0.0435486
1.89937,-0.0477464,0.0110426
1.81816,-0.22453,-0.0106474
1.85614,-0.137609,-0.200486
1.76192,-0.305603,-0.166928
1.86238,-0.138072,0.0434555
1.80997,-0.22352,0.0318332
1.90349,-0.0478501,-0.122031
1.85575,-0.137581,0.108371
1.80875,-0.223368,0.0742501
1.80777,-0.223247,-0.0954608
1.90182,-0.047808,-0.0775067
1.86637,-0.138368,-0.0435486
1.85046,-0.143359,0
1.74874,-0.309294,-0.0206746
1.8521,-0.143487,-0.289008
1.80947,-0.229551,-0.0106009
1.85171,-0.143456,-0.200057
1.76482,-0.312138,-0.167299
1.86192,-0.144247,0.0434555
1.84993,-0.143318,-0.129747
1.79954,-0.228292,-0.148083
1.89443,-0.053909,0.0551557
1.80525,-0.229017,0.0317634
1.89933,-0.0540485,-0.121775
1.7577,-0.310878,-0.103953
1.84733,-0.143117,0.107906
1.80007,-0.228359,0.0739244
1.85642,-0.143821,-0.086734
1.81098,-0.229743,-0.0956701
1.85793,-0.143938,-0.0433625
1.84596,-0.149495,0
1.895,-0.060546,0.0110194
1.80469,-0.235349,-0.0105777
1.74804,-0.315467,-0.165812
1.85343,-0.1501,0.0432694
1.84941,-0.149775,-0.129747
1.79873,-0.234573,-0.148083
1.80444,-0.235317,0.0317634
1.76053,-0.317721,-0.104185
1.84283,-0.149242,0.107673
1.84396,-0.149333,-0.0861756
1.79828,-0.234514,-0.0950421
1.90145,-0.0607521,-0.0775067
1.85741,-0.150423,-0.0433625
1.83742,-0.155585,0
1.89077,-0.0673488,0.0109961
1.80778,-0.242494,-0.0106009
1.85287,-0.156892,0.0432694
1.79786,-0.241164,-0.148083
1.89491,-0.0674962,-0.121519
1.75543,-0.323448,-0.103953
1.84227,-0.155995,0.107673
1.8434,-0.15609,-0.0861756
1.80137,-0.241634,-0.0952514
1.89722,-0.0675786,-0.0773438
1.85287,-0.156892,-0.0432694
1.88628,-0.0734528,-0.0329501
1.83291,-0.161326,0
1.79646,-0.247043,-0.230818
1.89054,-0.0736184,0.0109961
1.803,-0.247942,-0.0105777
1.84218,-0.162142,-0.199201
1.84437,-0.162335,0.0430833
1.8364,-0.161633,-0.12891
1.78915,-0.246038,-0.147432
1.80276,-0.247909,0.0317634
1.89467,-0.0737796,-0.121519
1.75042,-0.328531,-0.10372
1.83379,-0.161404,0.107208
1.84287,-0.162203,-0.0861756
1.7966,-0.247062,-0.0950421
1.84437,-0.162335,-0.0430833
1.7816,-0.251338,-0.052363
1.83234,-0.167723,0
1.78773,-0.252204,-0.229808
1.88627,-0.0800476,0.0109729
1.79816,-0.253676,-0.0105544
1.8416,-0.168571,-0.199201
1.84777,-0.169136,0.0431764
1.83582,-0.168042,-0.12891
1.78434,-0.251725,-0.147107
1.88151,-0.0798455,0.0548066
1.79792,-0.253641,0.0316936
1.75318,-0.335389,-0.103953
1.83322,-0.167804,0.107208
1.83831,-0.16827,-0.0859895
1.79177,-0.252774,-0.0948328
1.88474,-0.0799826,-0.0768554
1.84777,-0.169136,-0.0431764
1.82779,-0.173421,0
1.878,-0.0859365,0.0109264
1.7894,-0.258493,-0.0105079
1.83312,-0.173926,-0.198344
1.84322,-0.174885,0.0430833
1.83526,-0.174129,-0.12891
1.78349,-0.257641,-0.147107
1.79311,-0.25903,0.0316238
1.74422,-0.339674,-0.103487
1.8247,-0.173128,0.106743
1.83377,-0.173988,-0.0858034
1.79093,-0.258715,-0.0948328
1.83924,-0.174507,-0.0429903
1.82718,-0.1798,0
1.8737,-0.0922947,0.0109032
1.78453,-0.264152,-0.0104847
1.83862,-0.180926,0.0429903
1.78653,-0.264448,-0.147432
1.78824,-0.264702,0.031554
1.73911,-0.344984,-0.103255
1.82806,-0.179887,0.106976
1.83713,-0.180779,-0.0859895
1.79001,-0.264965,-0.0948328
1.83464,-0.180535,-0.0428972
1.87736,-0.0990453,0.0109264
1.78359,-0.27038,-0.0104847
1.83002,-0.186532,0.0428042
1.78165,-0.270085,-0.147107
1.8726,-0.0987944,0.0545738
1.7873,-0.270943,0.031554
1.74181,-0.351843,-0.103487
1.82742,-0.186267,0.106976
1.82853,-0.18638,-0.0856173
1.78118,-0.270014,-0.0944141
1.87583,-0.0989649,-0.0765297
1.83798,-0.187343,-0.0429903
1.76996,-0.27527,-0.0521302
1.87696,-0.106253,0.0109264
1.82929,-0.193557,0.0428042
1.77666,-0.276312,-0.146782
1.78625,-0.277803,0.031554
1.86917,-0.105812,-0.119984
1.73653,-0.357723,-0.103255
1.82272,-0.192862,0.106743
1.82383,-0.19298,-0.0854311
1.78408,-0.277465,-0.0946234
1.87145,-0.105941,-0.0763669
1.83724,-0.194399,-0.0429903
1.8646,-0.112084,0.0108567
1.77761,-0.282818,-0.0104614
1.81858,-0.198846,-0.197059
1.8286,-0.199942,0.0428042
1.82068,-0.199075,-0.128073
1.76781,-0.281259,-0.146131
1.73527,-0.363782,-0.103255
1.82204,-0.199223,0.106743
1.81917,-0.198911,-0.085245
1.77521,-0.282436,-0.0942047
1.83258,-0.200376,-0.0428972
1.76415,-0.286362,-0.0520139
1.86424,-0.117941,0.0108567
1.77277,-0.287761,-0.0104382
1.82797,-0.205685,0.0428042
1.81211,-0.203901,-0.127515
1.76692,-0.286811,-0.146131
1.73412,-0.369232,-0.103255
1.81743,-0.2045,0.106511
1.81854,-0.204625,-0.085245
1.77431,-0.288011,-0.0942047
1.82002,-0.204791,-0.0426181
1.85981,-0.124506,0.0108334
1.76775,-0.293601,-0.0104149
1.81926,-0.21146,0.0426181
1.76192,-0.292632,-0.145805
1.80874,-0.210238,0.106046
1.80984,-0.210366,-0.0848728
1.77718,-0.295167,-0.0944141
1.8583,-0.124405,-0.0758784
1.81926,-0.21146,-0.0426181
1.85936,-0.130997,0.0108334
1.76672,-0.29977,-0.0104149
1.76089,-0.298781,-0.145805
1.85558,-0.130731,-0.119217
1.80909,-0.216682,-0.0848728
1.76827,-0.300032,-0.0939954
1.85386,-0.13061,-0.0757155
1.81851,-0.21781,-0.0426181
1.85892,-0.137163,0.0108334
1.81777,-0.223839,0.0426181
1.75596,-0.303939,-0.14548
1.85116,-0.13659,-0.118961
1.80043,-0.221704,-0.0845005
1.76726,-0.305894,-0.0939954
1.81777,-0.223839,-0.0426181
1.74817,-0.308879,-0.0516648
1.85045,-0.143034,0.0107869
1.75882,-0.31076,-0.145805
1.84571,-0.142668,0.0538757
1.79965,-0.227987,-0.0845005
1.76618,-0.312061,-0.0939954
1.74703,-0.315284,-0.0516648
1.84593,-0.149492,0.0107637
1.8082,-0.235806,0.042432
1.79637,-0.234264,-0.126678
1.74982,-0.315788,-0.145154
1.84119,-0.149109,0.0537593
1.7988,-0.234581,-0.0845005
1.7611,-0.317823,-0.093786
1.8082,-0.235806,-0.042432
1.84143,-0.155277,0.0107404
1.79948,-0.240741,0.0422459
1.79162,-0.23969,-0.126399
1.74876,-0.321589,-0.145154
1.8367,-0.154878,0.0536429
1.76003,-0.323661,-0.093786
1.83994,-0.155151,-0.0752271
1.8074,-0.241801,-0.042432
1.84487,-0.162054,0.0107637
1.80259,-0.247565,0.0423389
1.75547,-0.329161,-0.145805
1.7932,-0.246276,-0.0843144
1.75104,-0.328331,-0.0933674
1.79863,-0.247021,-0.0422459
1.83629,-0.168085,0.0107172
1.79771,-0.253611,0.0422459
1.74642,-0.334094,-0.145154
1.78833,-0.252289,-0.0841283
1.7459,-0.333996,-0.093158
1.79771,-0.253611,-0.0422459
1.74245,-0.339646,-0.0516648
1.83171,-0.174115,0.0106939
1.79681,-0.259885,0.0422459
1.77953,-0.257386,-0.083756
1.7408,-0.339324,-0.0929487
1.79681,-0.259885,-0.0422459
1.83116,-0.179869,0.0106939
1.82245,-0.179014,0.0532939
1.77872,-0.262975,-0.083756
1.74365,-0.345568,-0.093158
1.78412,-0.263774,-0.0419667
1.82256,-0.18545,0.0106474
1.73851,-0.350862,-0.0929487
1.78319,-0.27,-0.0419667
1.82187,-0.192129,0.0106474
1.81715,-0.191631,0.0531775
1.77284,-0.275084,-0.0835699
1.72939,-0.355622,-0.09253
1.77823,-0.275921,-0.0418737
1.81724,-0.197737,0.0106242
1.72429,-0.360538,-0.0923206
1.78126,-0.282442,-0.0419667
1.80859,-0.203186,0.0105777
1.81183,-0.20355,0.0530611
1.76698,-0.286505,-0.0833838
1.78026,-0.288658,-0.0419667
1.81578,-0.210735,0.0106242
1.81107,-0.210189,0.0530611
1.76198,-0.292326,-0.0831977
1.76736,-0.293218,-0.0416875
1.75891,-0.298129,0
1.80312,-0.215647,0.0105544
1.80636,-0.216035,0.0529448
1.76632,-0.299385,-0.0416875
1.80239,-0.221626,0.0105544
1.80166,-0.221536,0.0528284
1.75207,-0.302951,-0.0828254
1.80093,-0.221446,-0.0739244
1.76532,-0.305241,-0.0416875
1.80161,-0.227916,0.0105544
1.79691,-0.227321,0.052712
1.75243,-0.309316,-0.0414084
1.79287,-0.233171,0.0105079
1.80007,-0.234108,0.0528284
1.74992,-0.315175,-0.0828254
1.75527,-0.31614,-0.0415014
1.79597,-0.240271,0.0105312
1.79128,-0.239644,0.0525957
1.74482,-0.320864,-0.0826393
1.75017,-0.321848,-0.0414084
1.79908,-0.247083,0.0105544
1.78647,-0.245351,0.0524793
1.7897,-0.245795,-0.0735988
1.74118,-0.326481,-0.0412223
1.78637,-0.251376,0.0104847
1.78492,-0.251172,-0.0734359
1.78548,-0.25761,0.0104847
1.73396,-0.343648,-0.123608
1.77182,-0.267963,0.0104149
1.72733,-0.34829,-0.0820809
1.76692,-0.273534,0.0103917
1.73001,-0.355121,-0.082267
1.77339,-0.274535,-0.0731103
1.76591,-0.280008,0.0103917
1.76842,-0.280407,-0.0729474
1.76533,-0.28592,-0.114612
1.75854,-0.291439,-0.0726218
1.75651,-0.303402,-0.0726218
1.7515,-0.308838,-0.072459
1.75042,-0.31495,-0.072459
1.74032,-0.325692,-0.0721333
1.73917,-0.331764,-0.0721333
1.73812,-0.337227,-0.0721333
1.73295,-0.342819,-0.0719705
