1.78968,0.206756,-0.19406
1.89149,0.0326861,-0.176594
1.79954,0.207896,0.0421528
1.87959,0.0324804,0.0218852
1.79961,0.207904,-0.126678
1.85773,0.123065,-0.151989
1.75541,0.290291,0.0517812
1.85166,0.122663,0.0323917
1.74862,0.289168,-0.113589
1.89251,0.0327036,-0.110232
1.80095,0.208059,0.10558
1.83445,0.121523,0.0749014
1.80205,0.208185,-0.0845005
1.84542,0.122249,-0.0969262
1.83387,0.121484,0.150036
1.74681,0.288869,-0.0721333
1.82583,0.120952,0.333626
1.80351,0.208355,-0.0422459
1.74894,0.283266,-0.0309257
1.83958,0.115736,-0.0536429
1.83985,0.115753,-0.368701
1.79673,0.201535,0
1.89969,0.026526,-0.0221181
1.79501,0.201343,-0.281014
1.84939,0.116354,-0.235869
1.76892,0.286502,0.0104149
1.84831,0.116286,-0.0107637
1.7943,0.201263,-0.194488
1.89557,0.0264686,-0.176966
1.80817,0.202818,0.0423389
1.88769,0.0263584,0.0219784
1.79632,0.201489,-0.126399
1.84222,0.115902,-0.150687
1.75241,0.283828,0.0516648
1.86004,0.117023,0.0325313
1.74956,0.283367,-0.113589
1.90059,0.0265387,-0.110697
1.8056,0.20253,0.105813
1.84681,0.116191,0.0753899
1.80273,0.202208,-0.0845005
1.8498,0.116379,-0.0971355
1.8263,0.114901,0.149385
1.74776,0.283074,-0.0721333
1.84193,0.115884,0.336496
1.80419,0.202372,-0.0422459
1.75782,0.278412,-0.0310653
1.84796,0.10979,-0.0538757
1.84416,0.109564,-0.369485
1.80935,0.19656,0
1.90377,0.0199379,-0.0221646
1.79964,0.195504,-0.281629
1.84583,0.109663,-0.235364
1.76596,0.279701,0.0103917
1.8527,0.110072,-0.0107869
1.79895,0.195429,-0.194917
1.89964,0.0198946,-0.177337
1.81682,0.19737,0.042525
1.89577,0.0198541,0.0220715
1.80495,0.196081,-0.126957
1.85455,0.110181,-0.151663
1.75734,0.278336,0.0517812
1.85245,0.110057,0.0323917
1.75054,0.27726,-0.113589
1.90068,0.0199055,-0.110697
1.80232,0.195796,0.10558
1.8512,0.109982,0.0755527
1.81137,0.196778,-0.0848728
1.85418,0.11016,-0.0973449
1.79982,0.195523,0.22229
1.83465,0.108999,0.150036
1.75663,0.278223,-0.072459
1.8384,0.109222,0.335779
1.80887,0.196507,-0.0423389
1.75483,0.271662,-0.0309955
1.85232,0.103561,-0.053992
1.84845,0.103345,-0.370269
1.80605,0.189824,0
1.90382,0.0132919,-0.0221646
1.81603,0.190873,-0.284088
1.8462,0.103219,-0.235364
1.76692,0.273534,0.0103917
1.85307,0.103603,-0.0107869
1.79566,0.188732,-0.194488
1.89969,0.013263,-0.177337
1.81749,0.191027,0.042525
1.89183,0.0132081,0.0220249
1.80959,0.190196,-0.127236
1.87085,0.104597,-0.152965
1.76225,0.272812,0.0518975
1.85282,0.103589,0.0323917
1.7515,0.271147,-0.113589
1.90473,0.0132982,-0.110929
1.803,0.189503,0.10558
1.84758,0.103296,0.0753899
1.81602,0.190872,-0.0850589
1.85455,0.103686,-0.0973449
1.80838,0.190069,0.223265
1.839,0.102817,0.150362
1.75759,0.272089,-0.072459
1.83877,0.102804,0.335779
1.80159,0.189355,-0.0421528
1.75976,0.265826,-0.0310653
1.85269,0.0967719,-0.053992
1.85273,0.0967742,-0.371054
1.81469,0.184011,0
1.91586,0.00635411,-0.0223043
1.81279,0.183817,-0.283473
1.85449,0.0968659,-0.236374
1.77187,0.267654,0.0104149
1.85344,0.0968112,-0.0107869
1.79239,0.181749,-0.19406
1.90371,0.00631383,-0.177709
1.81023,0.183558,0.0423389
1.89586,0.00628778,0.0220715
1.81424,0.183965,-0.127515
1.86325,0.0973237,-0.152314
1.76719,0.266948,0.0520139
1.86517,0.097424,0.0326011
1.75643,0.265322,-0.113844
1.91275,0.00634379,-0.111394
1.80765,0.183297,0.105813
1.84795,0.0965242,0.0753899
1.81273,0.183811,-0.0848728
1.87088,0.097722,-0.0981823
1.81697,0.184241,0.22424
1.83937,0.096076,0.150362
1.76648,0.26684,-0.0727846
1.84306,0.0962691,0.336496
1.81023,0.183558,-0.0423389
1.76459,0.260573,-0.0311351
1.84901,0.0904318,-0.0538757
1.85696,0.0908209,-0.371838
1.81131,0.177601,0
1.92387,3.44015e-07,-0.0223974
1.82125,0.178576,-0.284703
1.86273,0.0911028,-0.237384
1.78066,0.262945,0.0104614
1.86574,0.0912502,-0.0108567
1.81277,0.177744,-0.196202
1.90771,3.41124e-07,-0.178081
1.82276,0.178724,0.0426181
1.88787,3.37578e-07,0.0219784
1.81484,0.177947,-0.127515
1.86357,0.0911439,-0.152314
1.76411,0.260502,0.0518975
1.87347,0.0916285,0.0327407
1.7652,0.260662,-0.114356
1.92075,3.43456e-07,-0.111859
1.82017,0.17847,0.106511
1.85225,0.0905904,0.0755527
1.81731,0.178189,-0.0850589
1.8672,0.0913218,-0.0979729
1.81362,0.177827,0.223752
1.84764,0.0903649,0.151012
1.76735,0.26098,-0.0727846
1.86302,0.0911174,0.340083
1.81878,0.178334,-0.042525
1.76554,0.254104,-0.0311351
1.85731,0.084016,-0.0541084
1.8612,0.0841918,-0.372623
1.81594,0.171337,0
1.91586,-0.00702125,-0.0223043
1.81402,0.171157,-0.283473
1.85908,0.0840961,-0.236879
1.78161,0.256417,0.0104614
1.87006,0.0845924,-0.0108799
1.80549,0.170352,-0.195345
1.91168,-0.00700593,-0.178453
1.82739,0.172418,0.0427111
1.89986,-0.00696262,0.0221181
1.81151,0.17092,-0.127236
1.87185,0.0846737,-0.152965
1.76902,0.254605,0.0520139
1.8738,0.0847617,0.0327407
1.76614,0.254191,-0.114356
1.91674,-0.00702448,-0.111627
1.81684,0.171423,0.106278
1.85257,0.0838013,0.0755527
1.81795,0.171527,-0.0850589
1.86752,0.0844779,-0.0979729
1.81426,0.171179,0.223752
1.84796,0.0835928,0.151012
1.77225,0.255071,-0.0729474
1.81942,0.171667,-0.042525
1.77829,0.249607,-0.0313445
1.86958,0.078032,-0.0544575
1.8654,0.0778576,-0.373407
1.82847,0.166083,0
1.91982,-0.0137379,-0.0223509
1.82248,0.165539,-0.284703
1.86729,0.0779366,-0.237889
1.77854,0.24964,0.0104382
1.87833,0.0783973,-0.0109264
1.814,0.164768,-0.196202
1.91164,-0.0136794,-0.178453
1.82798,0.166038,0.0427111
1.90382,-0.0136235,0.0221646
1.82004,0.165317,-0.127794
1.87612,0.0783049,-0.153291
1.76989,0.248428,0.0520139
1.87009,0.0780531,0.0326709
1.76306,0.247469,-0.1141
1.92868,-0.0138014,-0.112325
1.8214,0.16544,0.106511
1.85684,0.0775003,0.0757155
1.82649,0.165903,-0.0854311
1.8718,0.0781246,-0.0981823
1.82275,0.165563,0.224727
1.85222,0.0773074,0.151338
1.76918,0.248327,-0.0727846
1.824,0.165676,-0.0426181
1.77119,0.242623,-0.0312049
1.86983,0.0718322,-0.0544575
1.86565,0.0716716,-0.373407
1.82901,0.160019,0
1.93176,-0.0202295,-0.0224906
1.81908,0.15915,-0.284088
1.86754,0.0717444,-0.237889
1.78332,0.244285,0.0104614
1.87858,0.0721685,-0.0109264
1.81057,0.158405,-0.195773
1.91158,-0.0200182,-0.178453
1.82852,0.159975,0.0427111
1.91976,-0.0201038,0.0223509
1.82456,0.159629,-0.128073
1.88035,0.0722365,-0.153616
1.77467,0.2431,0.0521302
1.87833,0.0721587,0.0328105
1.77179,0.242705,-0.114612
1.92463,-0.0201548,-0.112092
1.81796,0.159052,0.106278
1.86108,0.0714962,0.0758784
1.82703,0.159845,-0.0854311
1.87604,0.0720708,-0.0983916
1.81538,0.158826,0.223752
1.85247,0.0711652,0.151338
1.77395,0.243001,-0.0729474
1.82055,0.159278,-0.042525
1.77995,0.237496,-0.0313445
1.86607,0.0651648,-0.0543411
1.87373,0.0654321,-0.374976
1.83355,0.153967,0
1.93168,-0.026973,-0.0224906
1.82751,0.15346,-0.285318
1.86778,0.0652245,-0.237889
1.78019,0.237529,0.0104382
1.87483,0.0654705,-0.0109032
1.80715,0.151751,-0.195345
1.90752,-0.0266356,-0.178081
1.82508,0.153256,0.0426181
1.91568,-0.0267496,0.0223043
1.83306,0.153926,-0.128631
1.87661,0.0655328,-0.153291
1.77947,0.237432,0.0522466
1.88257,0.0657408,0.0328803
1.77262,0.236518,-0.114612
1.93254,-0.0269849,-0.112557
1.81851,0.152704,0.106278
1.86531,0.0651383,0.0760412
1.83554,0.154135,-0.0858034
1.88826,0.0659395,-0.0990196
1.82779,0.153484,0.225215
1.85669,0.0648371,0.151663
1.77875,0.237336,-0.0731103
1.8211,0.152922,-0.042525
1.78077,0.231282,-0.0313445
1.87428,0.0589022,-0.0545738
1.87394,0.0588916,-0.374976
1.83009,0.147246,0
1.93557,-0.033785,-0.0225371
1.82803,0.14708,-0.285318
1.87593,0.058954,-0.238899
1.78894,0.232344,0.0104847
1.87904,0.0590517,-0.0109264
1.82749,0.147037,-0.197487
1.91936,-0.0335021,-0.179196
1.83358,0.147527,0.0428042
1.91958,-0.0335058,0.0223509
1.82961,0.147207,-0.128352
1.89277,0.0594831,-0.154593
1.78425,0.231734,0.052363
1.89078,0.0594206,0.03302
1.78135,0.231358,-0.115124
1.93642,-0.0337999,-0.11279
1.82301,0.146676,0.106511
1.86953,0.0587527,0.076204
1.84005,0.148048,-0.0859895
1.88049,0.0590973,-0.0986009
1.82436,0.146785,0.224727
1.86487,0.0586065,0.152314
1.78353,0.23164,-0.0732731
1.82959,0.147206,-0.0427111
1.78553,0.225565,-0.0314143
1.87847,0.0524705,-0.0546902
1.87414,0.0523494,-0.374976
1.83857,0.14147,0
1.93944,-0.0406255,-0.0225837
1.83247,0.141001,-0.285933
1.89199,0.0528481,-0.24092
1.79768,0.2271,0.0105312
1.88323,0.0526035,-0.0109496
1.82799,0.140656,-0.197487
1.92322,-0.0402856,-0.179568
1.85003,0.142352,0.0431764
1.92745,-0.0403742,0.022444
1.83807,0.141431,-0.12891
1.88101,0.0525413,-0.153616
1.78108,0.225003,0.0522466
1.89097,0.0528197,0.03302
1.78611,0.225638,-0.115379
1.93629,-0.0405595,-0.11279
1.84342,0.141843,0.107673
1.86972,0.052226,0.076204
1.83657,0.141317,-0.0858034
1.87669,0.0524208,-0.0983916
1.83278,0.141025,0.225702
1.86108,0.0519847,0.151989
1.78433,0.225413,-0.0732731
1.83807,0.141432,-0.0428972
1.79028,0.219819,-0.0314841
1.89063,0.0462065,-0.0550393
1.87823,0.0459034,-0.375761
1.83905,0.135052,0
1.93529,-0.0472971,-0.0225371
1.83296,0.134604,-0.285933
1.88423,0.04605,-0.23991
1.79846,0.220824,0.0105312
1.8954,0.046323,-0.0110194
1.8245,0.133984,-0.197059
1.92306,-0.0469982,-0.179568
1.84254,0.135308,0.0429903
1.93129,-0.0471993,0.0224906
1.83855,0.135015,-0.12891
1.89314,0.0462676,-0.154593
1.78186,0.218785,0.0522466
1.89115,0.0462191,0.03302
1.77896,0.21843,-0.114868
1.94412,-0.047513,-0.113255
1.83992,0.135116,0.107441
1.88188,0.0459925,0.0766925
1.84503,0.135491,-0.0861756
1.88884,0.0461627,-0.0990196
1.83722,0.134917,0.22619
1.86524,0.0455858,0.152314
1.7851,0.219183,-0.0732731
1.83855,0.135015,-0.0428972
1.79104,0.213568,-0.0314841
1.89478,0.0396899,-0.0551557
1.88622,0.0395106,-0.37733
1.84749,0.129189,0
1.94711,-0.0543878,-0.0226768
1.83341,0.128205,-0.285933
1.88835,0.0395551,-0.240415
1.79922,0.214544,0.0105312
1.89155,0.0396223,-0.0109961
1.83686,0.128446,-0.198344
1.92289,-0.0537112,-0.179568
1.84699,0.129154,0.0430833
1.93112,-0.053941,0.0224906
1.84697,0.129153,-0.129468
1.89329,0.0396586,-0.154593
1.79055,0.21351,0.0524793
1.8913,0.0396169,0.03302
1.78368,0.212691,-0.115124
1.94395,-0.0542994,-0.113255
1.8364,0.128413,0.107208
1.87803,0.039339,0.0765297
1.84549,0.129049,-0.0861756
1.89698,0.039736,-0.0994383
1.82976,0.127949,0.225215
1.87336,0.0392411,0.152965
1.78983,0.213424,-0.0734359
1.83103,0.128038,-0.0427111
1.7917,0.207941,-0.0314841
1.8869,0.0335951,-0.0549229
1.89418,0.0337247,-0.378899
1.85188,0.123651,0
1.95093,-0.0606284,-0.0227234
1.83381,0.122445,-0.285933
1.89243,0.0336935,-0.24092
1.80783,0.209813,0.0105777
1.89567,0.0337512,-0.0110194
1.82932,0.122145,-0.197487
1.92271,-0.0597515,-0.179568
1.84739,0.123351,0.0430833
1.93893,-0.0602557,0.0225837
1.85135,0.123616,-0.129747
1.90536,0.0339237,-0.155569
1.79519,0.208345,0.0525957
1.89541,0.0337466,0.0330898
1.79227,0.208007,-0.115635
1.94377,-0.0604059,-0.113255
1.83281,0.122378,0.106976
1.87814,0.0334392,0.0765297
1.84987,0.123517,-0.0863618
1.8971,0.0337766,-0.0994383
1.84203,0.122994,0.226677
1.87347,0.033356,0.152965
1.79446,0.208261,-0.0735988
1.83941,0.122818,-0.0428972
1.79639,0.202132,-0.031554
1.89101,0.0270651,-0.0550393
1.89429,0.0271121,-0.378899
1.8523,0.117186,0
1.9507,-0.0674385,-0.0227234
1.83817,0.116292,-0.286548
1.8965,0.0271438,-0.241425
1.80458,0.203054,0.0105544
1.89577,0.0271334,-0.0110194
1.83767,0.11626,-0.198344
1.93045,-0.0667383,-0.180312
1.8518,0.117154,0.0431764
1.94671,-0.0673003,0.0226768
1.85177,0.117152,-0.129747
1.89749,0.027158,-0.154918
1.7959,0.202077,0.0525957
1.90751,0.0273014,0.0332992
1.79695,0.202195,-0.115891
1.95153,-0.067467,-0.11372
1.84119,0.116483,0.107441
1.88225,0.0269397,0.0766925
1.85029,0.117059,-0.0863618
1.8972,0.0271538,-0.0994383
1.84245,0.116563,0.226677
1.88553,0.0269868,0.153942
1.79914,0.202442,-0.0737616
1.83982,0.116396,-0.0428972
1.79708,0.195861,-0.031554
1.90308,0.0205952,-0.0553884
1.89045,0.0204585,-0.378114
1.84072,0.110005,0
1.94646,-0.0740938,-0.0226768
1.83856,0.109876,-0.286548
1.90452,0.0206108,-0.242435
1.80926,0.197188,0.0105777
1.91986,0.0207767,-0.0111589
1.84998,0.110558,-0.199629
1.93816,-0.0737781,-0.181055
1.86018,0.111168,0.0433625
1.94246,-0.0739417,0.0226303
1.84818,0.110451,-0.129468
1.90954,0.020665,-0.155894
1.80057,0.196242,0.052712
1.9076,0.0206441,0.0332992
1.79765,0.195923,-0.115891
1.95527,-0.0744292,-0.113952
1.84956,0.110533,0.107906
1.89432,0.0205004,0.077181
1.85468,0.110839,-0.0865479
1.90527,0.0206189,-0.099857
1.85077,0.110606,0.227652
1.88163,0.0203631,0.153616
1.79984,0.196162,-0.0737616
1.8482,0.110452,-0.0430833
1.80571,0.190426,-0.0316936
1.90314,0.0139516,-0.0553884
1.89835,0.0139165,-0.379683
1.85706,0.104477,0
1.95418,-0.0812205,-0.02277
1.83894,0.103457,-0.286548
1.90458,0.0139621,-0.242435
1.80993,0.190871,0.0105777
1.91592,0.0140452,-0.0111356
1.86227,0.104769,-0.200914
1.94187,-0.080709,-0.181427
1.86854,0.105122,0.0435486
1.94619,-0.0808883,0.0226768
1.85652,0.104446,-0.130026
1.9096,0.0139989,-0.155894
1.8092,0.190793,0.0529448
1.90766,0.0139847,0.0332992
1.79832,0.189646,-0.115891
1.955,-0.0812545,-0.113952
1.85392,0.1043,0.108139
1.89837,0.0139166,0.0773438
1.86303,0.104812,-0.0869201
1.90933,0.0139969,-0.100066
1.85511,0.104367,0.228139
1.88169,0.0137943,0.153616
1.80449,0.190297,-0.0739244
1.85257,0.104224,-0.0431764
1.80636,0.184121,-0.0316936
1.90718,0.00732313,-0.0555047
1.90231,0.00730444,-0.380468
1.86141,0.098204,0
1.95788,-0.0882219,-0.0228165
1.84718,0.0974532,-0.287778
1.91255,0.00734377,-0.243445
1.81855,0.185363,0.0106242
1.90795,0.00732611,-0.0110891
1.84673,0.0974297,-0.199201
1.94556,-0.0876667,-0.181799
1.87289,0.0988095,0.0436417
1.95788,-0.0882219,0.0228165
1.86086,0.098175,-0.130305
1.92558,0.00739379,-0.157196
1.80985,0.184476,0.0529448
1.91569,0.00735583,0.0334388
1.80294,0.183772,-0.116147
1.9547,-0.0880787,-0.113952
1.85826,0.0980379,0.108371
1.90241,0.00730481,0.0775067
1.86738,0.0985187,-0.0871063
1.91336,0.00734686,-0.100276
1.85547,0.0978904,0.228139
1.8897,0.00725601,0.154267
1.80912,0.184402,-0.0740873
1.85292,0.0977561,-0.0431764
1.80302,0.177423,-0.0316238
1.90719,0.000666189,-0.0555047
1.90625,0.00066586,-0.381252
1.86973,0.0920999,0
1.96555,-0.0954433,-0.0229097
1.8554,0.091394,-0.289008
1.9086,0.000666681,-0.24294
1.81918,0.179014,0.0106242
1.90797,0.00066646,-0.0110891
1.84706,0.0909832,-0.199201
1.94524,-0.0944571,-0.181799
1.86523,0.0918782,0.0434555
1.95357,-0.0948613,0.02277
1.86518,0.0918755,-0.130584
1.91762,0.000669832,-0.156545
1.80651,0.177767,0.0528284
1.92371,0.000671958,0.0335784
1.80754,0.177869,-0.116403
1.95837,-0.0950946,-0.114185
1.85461,0.0913547,0.108139
1.89843,0.000663127,0.0773438
1.86771,0.0920001,-0.0871063
1.91337,0.000668349,-0.100276
1.86373,0.091804,0.229114
1.88971,0.000660084,0.154267
1.80975,0.178086,-0.0740873
1.85325,0.091288,-0.0431764
1.81159,0.171883,-0.0317634
1.91118,-0.00600423,-0.0556211
1.90624,-0.0059887,-0.381252
1.86605,0.0853894,0
1.97319,-0.10272,-0.0230028
1.85176,0.0847357,-0.288393
1.91256,-0.00600856,-0.243445
1.82378,0.17304,0.0106474
1.91996,-0.0060318,-0.0111589
1.85134,0.0847165,-0.199629
1.94888,-0.101454,-0.18217
1.86954,0.0855491,0.0435486
1.95322,-0.10168,0.02277
1.8615,0.0851814,-0.130305
1.91761,-0.00602443,-0.156545
1.81508,0.172214,0.0530611
1.9197,-0.00603099,0.0335086
1.80815,0.171558,-0.116403
1.96201,-0.102138,-0.114418
1.86289,0.085245,0.108604
1.90241,-0.00597668,0.0775067
1.86802,0.0854796,-0.0871063
1.91336,-0.00601109,-0.100276
1.86404,0.0852974,0.229114
1.89369,-0.00594928,0.154593
1.81832,0.172522,-0.0744129
1.85356,0.0848179,-0.0431764
1.81616,0.165923,-0.0318332
1.91115,-0.0126751,-0.0556211
1.91013,-0.0126683,-0.382037
1.87033,0.0790444,0
1.96484,-0.109163,-0.0229097
1.92046,-0.0127368,-0.244455
1.82039,0.166309,0.0106242
1.92793,-0.0127863,-0.0112054
1.86355,0.0787577,-0.200914
1.95646,-0.108698,-0.182914
1.87782,0.0793608,0.0437347
1.95685,-0.108719,0.0228165
1.86577,0.0788519,-0.130584
1.92157,-0.0127441,-0.156871
1.81168,0.165514,0.0529448
1.93166,-0.0128111,0.033718
1.81669,0.165972,-0.116914
1.97361,-0.10965,-0.115115
1.86717,0.0789107,0.108836
1.91437,-0.0126964,0.0779952
1.8723,0.0791275,-0.0872924
1.92132,-0.0127425,-0.100694
1.86829,0.0789582,0.229602
1.90163,-0.0126119,0.155243
1.81493,0.165811,-0.0742501
1.86183,0.0786854,-0.0433625
1.82868,0.160632,-0.0320426
1.91109,-0.0193466,-0.0556211
1.914,-0.019376,-0.382821
1.87459,0.0726697,0
1.96444,-0.116021,-0.0229097
1.91644,-0.0194008,-0.24395
1.82494,0.160304,0.0106474
1.92387,-0.019476,-0.0111821
1.86381,0.0722518,-0.200914
1.95607,-0.115527,-0.182914
1.88208,0.0729599,0.0438278
1.96045,-0.115786,0.0228631
1.87401,0.0726473,-0.131142
1.92948,-0.0195328,-0.157522
1.82022,0.159889,0.0531775
1.92761,-0.0195138,0.0336482
1.81726,0.159629,-0.116914
1.96923,-0.116304,-0.114883
1.86743,0.0723921,0.108836
1.91431,-0.0193793,0.0779952
1.87655,0.0727458,-0.0874785
1.92127,-0.0194496,-0.100694
1.87649,0.0727432,0.230577
1.90158,-0.0192503,0.155243
1.82346,0.160173,-0.0745757
1.86609,0.0723403,-0.0434555
1.82524,0.153912,-0.0319728
1.91901,-0.0261259,-0.0558538
1.92176,-0.0261634,-0.38439
1.87883,0.0662671,0
1.976,-0.123627,-0.0230493
1.86045,0.0656188,-0.289623
1.92033,-0.0261439,-0.244455
1.82549,0.153933,0.0106474
1.93179,-0.0262999,-0.0112286
1.86405,0.0657458,-0.200914
1.96758,-0.1231,-0.184029
1.89031,0.0666721,0.0440139
1.97201,-0.123377,0.0230028
1.87824,0.0662464,-0.131421
1.93339,-0.0263217,-0.157847
1.82076,0.153534,0.0531775
1.93953,-0.0264052,0.0338577
1.81781,0.153285,-0.116914
1.97678,-0.123675,-0.115348
1.87166,0.0660143,0.109069
1.91823,-0.0261153,0.078158
1.8768,0.0661954,-0.0874785
1.93317,-0.0263187,-0.101322
1.8807,0.066333,0.231064
1.90947,-0.0259961,0.155894
1.82799,0.154144,-0.0747386
1.86633,0.0658263,-0.0434555
1.82577,0.14754,-0.0319728
1.91491,-0.0327556,-0.0557375
1.91773,-0.0328039,-0.383605
1.88305,0.0598358,0
1.98354,-0.131051,-0.0231425
1.86857,0.0593756,-0.290852
1.92419,-0.0329144,-0.24496
1.82602,0.14756,0.0106474
1.93968,-0.0331794,-0.0112751
1.86029,0.0591128,-0.200486
1.96317,-0.129704,-0.183657
1.88654,0.0599466,0.0439208
1.97157,-0.130259,0.0230028
1.88644,0.0599435,-0.131979
1.93329,-0.0330699,-0.157847
1.82129,0.147178,0.0531775
1.93542,-0.0331065,0.0337879
1.82629,0.147582,-0.117426
1.96837,-0.130048,-0.114883
1.87986,0.0597346,0.109534
1.91813,-0.0328107,0.078158
1.88101,0.059771,-0.0876646
1.93306,-0.0330661,-0.101322
1.88092,0.0597681,0.231064
1.90538,-0.0325926,0.155569
1.8325,0.148084,-0.0749014
1.87055,0.0594386,-0.0435486
1.83026,0.141474,-0.0320426
1.92678,-0.0396872,-0.0560866
1.87525,0.0530357,0
1.98307,-0.137974,-0.0231425
1.86481,0.0527405,-0.290237
1.932,-0.0397948,-0.245971
1.8345,0.141801,0.0106939
1.93556,-0.0398681,-0.0112519
1.86446,0.0527307,-0.200914
1.96667,-0.136833,-0.184029
1.88673,0.0533605,0.0439208
1.97908,-0.137697,0.0230959
1.88265,0.053245,-0.1317
1.93714,-0.0399008,-0.158173
1.82578,0.141127,0.0532939
1.93529,-0.0398627,0.0337879
1.83077,0.141513,-0.117682
1.97587,-0.137473,-0.115348
1.88405,0.0532847,0.109766
1.922,-0.0395888,0.0783208
1.88121,0.0532042,-0.0876646
1.93294,-0.0398141,-0.101322
1.88508,0.0533138,0.231552
1.91721,-0.0394903,0.156545
1.83301,0.141686,-0.0749014
1.87075,0.0529083,-0.0435486
1.83077,0.134765,-0.0320426
1.92262,-0.0466515,-0.0559702
1.92529,-0.0467164,-0.385174
1.87943,0.0462611,0
1.98255,-0.145241,-0.0231425
1.93977,-0.0470677,-0.246981
1.84298,0.135664,0.0107404
1.94739,-0.0472526,-0.0113216
1.8726,0.0460929,-0.201771
1.96616,-0.14404,-0.184029
1.89891,0.0467406,0.0442
1.97856,-0.144949,0.0230959
1.88283,0.0463448,-0.1317
1.94097,-0.0470968,-0.158498
1.83027,0.134728,0.0534102
1.95113,-0.0473433,0.0340671
1.83526,0.135096,-0.117938
1.98332,-0.145297,-0.115813
1.88823,0.0464776,0.109999
1.92584,-0.0467295,0.0784836
1.88538,0.0464076,-0.0878508
1.93278,-0.046898,-0.101322
1.88527,0.0464047,0.231552
1.92104,-0.0466132,0.156871
1.84149,0.135554,-0.0752271
1.88292,0.046347,-0.0438278
1.83918,0.129253,-0.0321822
1.92645,-0.0531377,-0.0560866
1.88757,0.0401982,0
1.98206,-0.151815,-0.0231425
1.87304,0.0398887,-0.291467
1.93167,-0.0532817,-0.245971
1.83544,0.12899,0.0106939
1.95123,-0.053821,-0.0113449
1.87672,0.039967,-0.202199
1.97758,-0.151472,-0.185145
1.89506,0.0403576,0.0441069
1.98605,-0.152121,0.023189
1.89095,0.0402702,-0.132258
1.93682,-0.0534236,-0.158173
1.83868,0.129218,0.0536429
1.94297,-0.0535932,0.0339275
1.83171,0.128729,-0.117682
1.99079,-0.152484,-0.116278
1.89636,0.0403853,0.110464
1.93765,-0.0534467,0.0789721
1.89352,0.0403248,-0.088223
1.9366,-0.0534177,-0.101532
1.90129,0.0404903,0.233502
1.92486,-0.0530938,0.157196
1.83794,0.129166,-0.0750642
1.88306,0.0401022,-0.0438278
1.83561,0.122887,-0.0321124
1.93426,-0.0597727,-0.0563193
1.89169,0.0340104,0
1.98553,-0.158706,-0.023189
1.87711,0.0337483,-0.292082
1.93942,-0.0599322,-0.246981
1.83985,0.12317,0.0107172
1.95104,-0.0602912,-0.0113449
1.88081,0.0338148,-0.202628
1.98898,-0.158982,-0.18626
1.98952,-0.159025,0.0232356
1.89507,0.0340711,-0.132537
1.94858,-0.0602155,-0.159149
1.8391,0.12312,0.0536429
1.94677,-0.0601595,0.0339973
1.83213,0.122654,-0.117682
1.97833,-0.15813,-0.11558
1.8845,0.0338811,0.109766
1.93747,-0.0598719,0.0789721
1.89364,0.0340454,-0.088223
1.9444,-0.0600862,-0.10195
1.89744,0.0341138,0.233014
1.92866,-0.0595998,0.157522
1.84234,0.123337,-0.0752271
1.88319,0.0338575,-0.0438278
1.84403,0.116663,-0.032252
1.93403,-0.0668617,-0.0563193
1.89181,0.0270768,0
1.99291,-0.166649,-0.0232822
1.94315,-0.0671772,-0.247486
1.84428,0.116679,0.0107404
1.9548,-0.0675799,-0.0113681
1.88888,0.0270349,-0.203484
1.90329,0.0272412,0.044293
1.98892,-0.166315,0.0232356
1.89917,0.0271822,-0.132816
1.94437,-0.0672192,-0.158823
1.84353,0.116631,0.0537593
1.95853,-0.0677089,0.0342067
1.84452,0.116694,-0.118449
1.98569,-0.166045,-0.116045
1.89659,0.0271453,0.110464
1.92925,-0.0666965,0.0786465
1.88976,0.0270475,-0.0880369
1.94417,-0.0672124,-0.10195
1.90152,0.0272159,0.233502
1.84677,0.116836,-0.0753899
1.8873,0.0270123,-0.0439208
1.85241,0.110702,-0.0323917
1.93378,-0.0736123,-0.0563193
1.88789,0.0204297,0
1.99231,-0.173604,-0.0232822
1.88521,0.0204007,-0.293312
1.94291,-0.0739597,-0.247486
1.84468,0.11024,0.0107404
1.96255,-0.0747073,-0.0114146
1.88498,0.0203983,-0.203056
1.91537,0.0207271,0.0445722
1.98435,-0.17291,0.023189
1.89526,0.0205095,-0.132537
1.95607,-0.0744609,-0.1598
1.84792,0.110434,0.0538757
1.95828,-0.0745451,0.0342067
1.8489,0.110493,-0.118705
1.98908,-0.173322,-0.116278
1.89668,0.0205248,0.110464
1.93699,-0.0737345,0.0789721
1.89783,0.0205373,-0.0884091
1.94791,-0.0741504,-0.10216
1.89367,0.0204923,0.232527
1.85116,0.110628,-0.0755527
1.89937,0.020554,-0.0442
1.85676,0.104784,-0.0324615
1.94551,-0.0805206,-0.0566684
1.89195,0.0141992,0
1.99571,-0.18057,-0.0233287
1.95058,-0.0807304,-0.248496
1.85302,0.104573,0.0107869
1.95429,-0.0808842,-0.0113681
1.88504,0.0141473,-0.203056
1.98721,-0.179801,-0.18626
1.91143,0.0143454,0.0444791
1.98774,-0.17985,0.0232356
1.9033,0.0142844,-0.133095
1.95183,-0.0807822,-0.159474
1.84428,0.10408,0.0537593
1.96202,-0.081204,0.0342765
1.84926,0.104361,-0.118705
2.00043,-0.180997,-0.116976
1.89673,0.0142351,0.110464
1.93673,-0.0801574,0.0789721
1.90188,0.0142737,-0.0885953
1.94766,-0.0806095,-0.10216
1.90563,0.0143019,0.233989
1.84753,0.104263,-0.0753899
1.89543,0.0142253,-0.0441069
1.86111,0.0985139,-0.0325313
1.94522,-0.0873112,-0.0566684
1.90398,0.00764313,0
1.99507,-0.187536,-0.0233287
1.88926,0.00758401,-0.293927
1.94632,-0.0873607,-0.247991
1.85337,0.0981043,0.0107869
1.96199,-0.0880641,-0.0114146
1.88906,0.0075832,-0.203484
1.99053,-0.187109,-0.186632
1.91547,0.00768922,0.0445722
1.99507,-0.187536,0.0233287
1.90334,0.00764052,-0.133095
1.95552,-0.0877736,-0.1598
1.85661,0.0982758,0.0541084
1.96173,-0.0880522,0.0342765
1.84961,0.0979051,-0.118705
2.00773,-0.188726,-0.117441
1.91274,0.00767829,0.111394
1.95241,-0.0876342,0.0796234
1.90592,0.00765089,-0.0887814
1.95135,-0.0875867,-0.102369
1.90567,0.0076499,0.233989
1.85586,0.0982359,-0.0757155
1.90347,0.00764106,-0.044293
1.85745,0.0918193,-0.0324615
1.9449,-0.0941008,-0.0566684
1.904,0.000996932,0
2.00236,-0.195275,-0.0234219
1.89718,0.00099336,-0.295157
1.95789,-0.0947294,-0.249506
1.8577,0.0918317,0.0108102
1.96167,-0.0949122,-0.0114146
1.99383,-0.194443,-0.187003
1.92348,0.00100713,0.0447583
1.99838,-0.194887,0.0233753
1.91133,0.00100077,-0.133653
1.9552,-0.0945991,-0.1598
1.85295,0.091597,0.053992
1.9694,-0.0952859,0.0344161
1.85792,0.0918424,-0.119217
1.99911,-0.194958,-0.116976
1.90877,0.000999428,0.111162
1.96008,-0.0948351,0.0799491
1.90993,0.00100004,-0.0889675
1.95104,-0.0943977,-0.102369
1.86418,0.0921518,-0.0760412
1.90348,0.000996663,-0.044293
1.86575,0.0857021,-0.0326011
1.94855,-0.101096,-0.0567847
1.90399,-0.00564927,0
2.00963,-0.203068,-0.023515
1.90112,-0.00564076,-0.295772
1.95755,-0.101563,-0.249506
1.85801,0.0853466,0.0108102
1.96532,-0.101966,-0.0114378
1.89304,-0.00561678,-0.203913
2.00107,-0.202202,-0.187747
1.91947,-0.0056952,0.0446652
1.91132,-0.00567103,-0.133653
1.95884,-0.10163,-0.160125
1.85725,0.0853119,0.0541084
1.96905,-0.10216,0.0344161
1.85822,0.0853565,-0.119217
2.00239,-0.202336,-0.117208
1.91674,-0.00568711,0.111627
1.95574,-0.101469,0.0797863
1.90992,-0.00566686,-0.0889675
1.95867,-0.101621,-0.102788
1.86449,0.0856441,-0.0760412
1.91147,-0.00567147,-0.0444791
1.86604,0.0791889,-0.0326011
1.94819,-0.107897,-0.0567847
1.90396,-0.0122954,0
2.01289,-0.210497,-0.0235616
1.90109,-0.0122769,-0.295772
1.96115,-0.108615,-0.250011
1.8583,0.0788604,0.0108102
1.97294,-0.109268,-0.0114843
1.89699,-0.0122504,-0.204341
1.91944,-0.0123954,0.0446652
1.91129,-0.0123428,-0.133653
1.96643,-0.108908,-0.160776
1.86553,0.0791674,0.0543411
1.96868,-0.109032,0.0344161
1.86649,0.079208,-0.119729
2.00962,-0.210156,-0.117673
1.91272,-0.012352,0.111394
1.96735,-0.108959,0.0802748
1.90989,-0.0123337,-0.0889675
1.95432,-0.108237,-0.102578
1.87276,0.0794742,-0.0763669
1.91544,-0.0123696,-0.0445722
1.8703,0.0728303,-0.0326709
1.95179,-0.114932,-0.0569011
1.91591,-0.0190608,0
2.00816,-0.217092,-0.023515
1.90894,-0.0189915,-0.297001
1.96472,-0.115693,-0.250516
1.86655,0.0726845,0.0108567
1.97654,-0.11639,-0.0115076
1.90091,-0.0189116,-0.20477
1.93138,-0.0192147,0.0449444
1.90725,-0.0189747,-0.133374
1.95808,-0.115303,-0.160125
1.8618,0.0724994,0.0542248
1.97228,-0.116139,0.034486
1.86675,0.0726923,-0.119729
2.01284,-0.217598,-0.117906
1.92464,-0.0191477,0.112092
1.95898,-0.115355,0.0799491
1.90983,-0.0190004,-0.0889675
1.9619,-0.115528,-0.102997
1.86504,0.0726255,-0.0760412
2.05874,-0.22256,-0.0723118
1.91939,-0.0190954,-0.0446652
1.87054,0.0663013,-0.0326709
1.95138,-0.121745,-0.0569011
1.91983,-0.0258022,0
2.01137,-0.224545,-0.0235616
1.9643,-0.122551,-0.250516
1.8628,0.0660269,0.0108334
1.98012,-0.123538,-0.0115308
1.90879,-0.0256538,-0.205626
1.9353,-0.0260101,0.0450374
1.91515,-0.0257393,-0.133932
1.96165,-0.122385,-0.160451
1.86604,0.0661417,0.0543411
1.97187,-0.123023,0.034486
1.85902,0.0658929,-0.119217
2.01207,-0.224623,-0.117906
1.92457,-0.0258658,0.112092
1.96654,-0.122691,0.0802748
1.91775,-0.0257742,-0.0893398
1.96946,-0.122873,-0.103416
1.86927,0.0662565,-0.076204
2.06193,-0.230189,-0.0724514
1.92331,-0.0258489,-0.0447583
1.87476,0.0598992,-0.0327407
1.96291,-0.129344,-0.0572502
1.91972,-0.0325035,0
2.02249,-0.232937,-0.0237012
1.96782,-0.129668,-0.251021
1.86702,0.0596519,0.0108567
1.97967,-0.130449,-0.0115308
1.9352,-0.0327655,0.0450374
1.92303,-0.0325594,-0.13449
1.97314,-0.130018,-0.161427
1.87425,0.059883,0.0545738
1.97941,-0.130431,0.0346256
1.8712,0.0597857,-0.119984
2.01921,-0.232559,-0.118371
1.92446,-0.0325837,0.112092
1.97009,-0.129817,0.0804376
1.92564,-0.0326035,-0.089712
1.96902,-0.129747,-0.103416
1.87748,0.0599863,-0.0765297
2.06508,-0.237842,-0.072591
1.91521,-0.032427,-0.0445722
1.88295,0.0535823,-0.0328803
1.95846,-0.135918,-0.0571338
1.9196,-0.0392044,0
2.02961,-0.240939,-0.0237944
1.92444,-0.0393033,-0.299461
1.97131,-0.136811,-0.251526
1.87521,0.053362,0.0109032
1.9832,-0.137635,-0.0115541
1.93507,-0.0395204,0.0450374
1.9229,-0.0392718,-0.13449
1.97665,-0.137181,-0.161753
1.87445,0.0533403,0.0545738
1.97894,-0.13734,0.0346256
1.87539,0.0533672,-0.12024
2.01442,-0.239135,-0.118138
1.92833,-0.0393827,0.112325
1.96962,-0.136693,0.0804376
1.91752,-0.0391619,-0.0893398
1.97254,-0.136896,-0.103625
1.88567,0.0536597,-0.0768554
2.06424,-0.245049,-0.072591
1.92708,-0.0393571,-0.0448513
1.88313,0.0470092,-0.0328803
1.96196,-0.143045,-0.0572502
1.92345,-0.0460004,0
2.02479,-0.247536,-0.0237478
1.92429,-0.0460206,-0.299461
1.97874,-0.144268,-0.252536
1.87538,0.0468159,0.0109032
1.98669,-0.144848,-0.0115773
1.94292,-0.046466,0.0452235
1.92674,-0.0460792,-0.134769
1.97616,-0.14408,-0.161753
1.88262,0.0469965,0.0548066
1.98244,-0.144537,0.0346954
1.87956,0.0469201,-0.120496
2.02943,-0.248104,-0.119069
1.92818,-0.0461135,0.112325
1.92936,-0.0461416,-0.0898981
1.97205,-0.14378,-0.103625
1.88984,0.0471769,-0.0770182
1.93492,-0.0462748,-0.0450374
1.88727,0.0408508,-0.0329501
1.96546,-0.149854,-0.0573665
1.92329,-0.0523785,0
1.97825,-0.150829,-0.252536
1.88353,0.0407698,0.0109496
1.99019,-0.151739,-0.0116006
1.92018,-0.0522938,-0.206912
1.94675,-0.0530176,0.0453166
1.92658,-0.0524682,-0.134769
1.97567,-0.150633,-0.161753
1.87876,0.0406667,0.0546902
1.98992,-0.151719,0.034835
1.88369,0.0407734,-0.120752
2.03255,-0.25533,-0.119301
1.936,-0.0527248,0.11279
1.92919,-0.0525394,-0.0898981
1.97156,-0.150319,-0.103625
1.88599,0.0408232,-0.0768554
1.93476,-0.052691,-0.0450374
1.8954,0.0340772,-0.0330898
1.96888,-0.157375,-0.0574829
1.92708,-0.0595509,0
1.98164,-0.158395,-0.253042
1.88366,0.0338661,0.0109496
1.98962,-0.159033,-0.0116006
1.95454,-0.0603994,0.0455027
1.93036,-0.0596524,-0.135049
1.97908,-0.15819,-0.162078
1.8789,0.0337804,0.0546902
1.98138,-0.158374,0.0346954
1.88383,0.0338691,-0.120752
1.93979,-0.0599436,0.113022
1.93697,-0.0598567,-0.0902704
1.98295,-0.158499,-0.104253
1.89013,0.0339823,-0.0770182
1.93855,-0.0599054,-0.0451305
1.88751,0.0273449,-0.0329501
1.97629,-0.164912,-0.0577156
1.93086,-0.0664148,0
1.93556,-0.0665765,-0.301306
1.88777,0.0273486,0.0109729
1.98905,-0.165977,-0.0116006
1.95432,-0.0672217,0.0455027
1.93413,-0.0665274,-0.135328
1.98249,-0.165429,-0.162403
1.887,0.0273375,0.0549229
1.98878,-0.165954,0.034835
1.88793,0.0273509,-0.121008
1.94356,-0.0668516,0.113255
1.94075,-0.066755,-0.0904565
1.98636,-0.165752,-0.104463
1.89423,0.0274422,-0.077181
1.93833,-0.0666718,-0.0451305
1.8956,0.020844,-0.0330898
1.97969,-0.172156,-0.057832
1.93461,-0.0733059,0
1.89585,0.0208468,0.0110194
2.00042,-0.173958,-0.0116703
1.95007,-0.0738917,0.0454097
1.93787,-0.0734295,-0.135607
1.98985,-0.173039,-0.163054
1.89108,0.0207944,0.0550393
1.99616,-0.173588,0.0349746
1.896,0.0208484,-0.121519
1.9473,-0.0737867,0.113487
1.93252,-0.0732265,-0.0900843
1.99373,-0.173377,-0.104881
1.89431,0.0208299,-0.077181
1.94208,-0.0735889,-0.0452235
1.89966,0.014257,-0.0331596
1.97907,-0.179065,-0.057832
1.94633,-0.0805547,0
1.94294,-0.0804144,-0.302536
1.89991,0.014259,0.0110426
2.00378,-0.181301,-0.0116936
1.93514,-0.0800914,-0.208625
1.9498,-0.0806983,0.0454097
1.93761,-0.0801935,-0.135607
1.99717,-0.180702,-0.163705
1.89914,0.0142532,0.055272
1.99953,-0.180916,0.0350444
1.90404,0.0142899,-0.122031
1.94703,-0.0805836,0.113487
1.93624,-0.080137,-0.0902704
1.98913,-0.179975,-0.104672
1.90237,0.0142774,-0.0775067
1.9498,-0.0806983,-0.0454097
1.90369,0.00797424,-0.0332294
1.98245,-0.186,-0.0579483
1.93407,-0.0864725,0
1.94267,-0.086857,-0.302536
1.90395,0.00797532,0.0110659
2.00317,-0.187944,-0.0116936
1.96151,-0.0876994,0.0456888
1.9453,-0.0869748,-0.136165
1.98862,-0.186579,-0.163054
1.89518,0.00793859,0.0551557
1.99095,-0.186798,0.0349048
1.90408,0.00797585,-0.122031
1.95473,-0.0873964,0.113952
1.94794,-0.0870927,-0.0908288
1.98853,-0.18657,-0.104672
1.9064,0.00798559,-0.0776695
1.94553,-0.086985,-0.0453166
1.90371,0.00132906,-0.0332294
1.99373,-0.194082,-0.0582974
1.94175,-0.0936084,0
1.89997,0.00132645,0.0110426
2.0025,-0.194936,-0.0116936
1.94249,-0.0936445,-0.209482
1.96519,-0.0947384,0.0457819
1.95296,-0.0941489,-0.136723
1.99589,-0.194292,-0.163705
1.90319,0.0013287,0.0553884
1.90409,0.00132933,-0.122031
1.95441,-0.0942192,0.113952
1.95161,-0.0940842,-0.0910149
1.99184,-0.193898,-0.104881
1.90642,0.00133095,-0.0776695
1.9572,-0.0943533,-0.0455958
1.9077,-0.00532734,-0.0332992
1.99702,-0.201441,-0.0584138
1.9494,-0.100799,0
1.95385,-0.101029,-0.30438
1.89996,-0.00530572,0.0110426
2.00579,-0.202326,-0.0117168
1.96484,-0.101598,0.0457819
1.95262,-0.100965,-0.136723
2.01107,-0.202859,-0.165007
1.90719,-0.00532589,0.0555047
1.90808,-0.00532839,-0.122287
1.95407,-0.101041,0.113952
1.94728,-0.10069,-0.0908288
1.9991,-0.201651,-0.1053
1.91041,-0.00533489,-0.0778323
1.94088,-0.100359,-0.0452235
1.90767,-0.0119864,-0.0332992
1.95702,-0.108044,0
1.91593,-0.0120383,0.0111356
2.00905,-0.209741,-0.0117401
1.96847,-0.108676,0.0458749
1.95225,-0.107781,-0.136723
2.00639,-0.209464,-0.164682
1.91115,-0.0120083,0.0556211
1.91603,-0.0120389,-0.122798
1.95091,-0.107707,-0.0910149
2.00633,-0.209458,-0.105719
1.91437,-0.0120285,-0.0779952
1.9525,-0.107794,-0.0455027
1.91562,-0.0187235,-0.0334388
1.94465,-0.114171,0
1.91988,-0.0187652,0.0111589
2.01228,-0.217182,-0.0117633
1.95332,-0.11468,-0.210767
1.97606,-0.116015,0.046061
1.95186,-0.114595,-0.136723
2.01357,-0.217321,-0.165333
1.9191,-0.0187575,0.0558538
1.91997,-0.0187661,-0.123054
1.9585,-0.114984,-0.0913871
2.00956,-0.216888,-0.105928
1.91432,-0.0187109,-0.0779952
1.96009,-0.115078,-0.0456888
1.91954,-0.0254632,-0.0335086
2.00274,-0.223228,-0.0586465
1.95622,-0.121704,0
1.9198,-0.0254667,0.0111589
2.01151,-0.224205,-0.0117633
1.97564,-0.122912,0.046061
1.95544,-0.121655,-0.137002
2.0128,-0.224349,-0.165333
1.91502,-0.0254033,0.0557375
1.91989,-0.0254679,-0.123054
1.96606,-0.122316,-0.0917594
1.91824,-0.025446,-0.078158
1.96367,-0.122167,-0.0457819
1.91944,-0.0321635,-0.0335086
2.0099,-0.231131,-0.0588792
1.95578,-0.128531,0
1.9197,-0.0321679,0.0111589
1.98318,-0.130332,0.0462471
1.96296,-0.129003,-0.13756
1.91892,-0.0321548,0.0558538
1.9158,-0.0321025,-0.122798
1.9736,-0.129702,-0.0921316
2.01593,-0.231825,-0.106347
1.92214,-0.0322087,-0.0783208
1.96722,-0.129283,-0.0458749
1.91931,-0.0388634,-0.0335086
2.02099,-0.239558,-0.0592283
1.97128,-0.136463,0
1.92357,-0.0389496,0.0111821
1.97873,-0.136978,0.0461541
1.97046,-0.136406,-0.138118
1.93478,-0.0391766,0.0563193
1.91967,-0.0388705,-0.123054
1.97313,-0.136591,-0.0921316
2.02304,-0.239801,-0.106765
1.93,-0.0390798,-0.0786465
1.97474,-0.136702,-0.046061
1.92716,-0.0457527,-0.0336482
1.97478,-0.143633,0
1.93142,-0.0458538,0.0112286
1.97824,-0.143884,0.0461541
1.97395,-0.143573,-0.138397
1.93064,-0.0458352,0.0562029
1.9275,-0.0457607,-0.123566
1.97663,-0.143767,-0.0923178
2.02616,-0.247345,-0.106975
1.93385,-0.0459114,-0.0788093
1.97824,-0.143884,-0.0461541
1.93499,-0.0526972,-0.0337879
1.9623,-0.149613,0
1.93525,-0.0527043,0.0112519
1.98171,-0.151093,0.0462471
1.97344,-0.150462,-0.138397
1.93846,-0.0527918,0.0564356
1.93132,-0.0525973,-0.123822
1.9801,-0.15097,-0.0925039
1.93767,-0.0527703,-0.0789721
1.98171,-0.151093,-0.0462471
1.93479,-0.0594512,-0.0337879
1.97772,-0.157734,0
1.93106,-0.0593364,0.0112286
1.98516,-0.158327,0.0463402
1.97688,-0.157667,-0.138676
1.93427,-0.0594351,0.0563193
1.93112,-0.0593386,-0.123822
1.97558,-0.157563,-0.0923178
2.02834,-0.261996,-0.107184
1.93748,-0.0595338,-0.0789721
1.97718,-0.157691,-0.0461541
1.93857,-0.0663414,-0.0338577
1.97317,-0.164305,0
1.94283,-0.0664872,0.0112984
1.98164,-0.16501,-0.214194
1.99256,-0.165919,0.0465263
1.98825,-0.16556,-0.139513
1.94604,-0.0665969,0.0566684
1.9349,-0.0662156,-0.124078
1.98696,-0.165453,-0.0928761
1.93326,-0.0661598,-0.0788093
1.98061,-0.164924,-0.0462471
1.93834,-0.0727695,-0.0338577
1.98457,-0.171882,0
1.9466,-0.0730795,0.0113216
1.99997,-0.173216,0.0467124
1.98769,-0.172152,-0.139513
1.9498,-0.0731998,0.0567847
1.93865,-0.0727814,-0.124333
1.99038,-0.172386,-0.0930622
1.94102,-0.0728702,-0.079135
1.98802,-0.172181,-0.0464332
1.94607,-0.0798631,-0.0339973
1.98794,-0.179168,0
1.95432,-0.080202,0.0113681
1.99502,-0.179806,-0.140071
1.94554,-0.0798415,0.0566684
1.93839,-0.0795481,-0.124333
1.98977,-0.179332,-0.0930622
1.93676,-0.0794813,-0.0789721
1.99139,-0.179478,-0.0465263
1.94577,-0.0866557,-0.0339973
1.98332,-0.185733,0
1.95003,-0.0868454,0.0113449
1.99171,-0.186519,-0.215479
1.99438,-0.186769,-0.140071
1.95324,-0.086988,0.0569011
1.94607,-0.086669,-0.124845
1.98913,-0.186277,-0.0930622
1.94845,-0.0867749,-0.0794606
1.99473,-0.186801,-0.0466193
1.95345,-0.0938309,-0.0341369
1.98664,-0.193042,0
1.95771,-0.0940355,0.0113914
1.99769,-0.194115,-0.14035
1.94893,-0.0936137,0.0567847
1.94576,-0.0934616,-0.124845
1.99642,-0.193992,-0.0934345
1.94814,-0.0935757,-0.0794606
1.99407,-0.193763,-0.0466193
1.9571,-0.100855,-0.0342067
1.98994,-0.200376,0
1.95737,-0.100869,0.0113914
2.00494,-0.201887,-0.140908
1.95657,-0.100828,0.0570174
1.94542,-0.100253,-0.124845
2.00368,-0.20176,-0.0938067
1.95977,-0.100992,-0.0799491
1.99736,-0.201123,-0.0467124
1.95275,-0.107466,-0.0341369
1.99718,-0.20815,0
1.961,-0.10792,0.0114146
2.01216,-0.209711,-0.141466
1.9642,-0.108096,0.0572502
1.95303,-0.107482,-0.125357
2.00694,-0.209167,-0.0939929
1.95542,-0.107613,-0.0797863
1.99664,-0.208094,-0.0467124
1.96035,-0.114749,-0.0342765
2.0044,-0.215978,0
1.9646,-0.114999,0.0114378
2.01142,-0.216734,-0.141466
1.96381,-0.114952,0.0572502
1.95663,-0.114532,-0.125613
2.00223,-0.215744,-0.0938067
1.95902,-0.114672,-0.0799491
1.99988,-0.215491,-0.0468054
1.95993,-0.121591,-0.0342765
1.97617,-0.122599,0.0115076
2.01065,-0.223754,-0.141466
1.96738,-0.122054,0.0573665
1.96419,-0.121855,-0.126124
2.01735,-0.224499,-0.0945512
1.96658,-0.122004,-0.0802748
2.00706,-0.223355,-0.0469915
1.96349,-0.128694,-0.0343463
1.97972,-0.129758,0.0115308
2.01382,-0.231226,-0.141745
1.96296,-0.128659,0.0572502
1.95977,-0.12845,-0.125868
2.02052,-0.231995,-0.0947374
1.96615,-0.128868,-0.0802748
2.01024,-0.230816,-0.0470846
1.96702,-0.135822,-0.0344161
1.97127,-0.136116,0.0114843
2.02093,-0.239192,-0.142303
1.97047,-0.136061,0.0574829
1.96329,-0.135565,-0.126124
2.0197,-0.239047,-0.0947374
1.96967,-0.136006,-0.0804376
2.0134,-0.238301,-0.0471777
1.97052,-0.142977,-0.034486
1.97876,-0.143575,0.0115308
2.02008,-0.246245,-0.142303
1.97397,-0.143228,0.0575993
1.97475,-0.143284,-0.126892
2.02282,-0.246579,-0.0949235
1.97317,-0.14317,-0.0806004
1.97001,-0.149855,-0.034486
1.98623,-0.151088,0.0115773
1.97346,-0.150117,0.0575993
1.97423,-0.150176,-0.126892
2.02194,-0.253639,-0.0949235
1.98063,-0.150663,-0.0809261
1.9775,-0.156675,-0.0346256
1.98176,-0.157012,0.0115541
1.98171,-0.157008,-0.127403
2.03303,-0.261519,-0.0954819
1.98413,-0.1572,-0.0810889
1.98093,-0.163906,-0.0346954
1.98917,-0.164588,0.0116006
1.98115,-0.163925,-0.127403
1.98357,-0.164125,-0.0810889
1.98828,-0.171854,-0.034835
1.99652,-0.172566,0.0116471
1.98296,-0.171394,-0.0810889
1.98369,-0.178435,-0.0347652
1.99591,-0.179535,0.0116471
1.9839,-0.178455,-0.127659
1.99031,-0.179031,-0.0814146
1.99105,-0.185756,-0.0349048
2.00725,-0.187267,0.0117168
1.9992,-0.186516,-0.128683
1.99766,-0.186372,-0.0817402
1.99437,-0.19309,-0.0349746
2.00658,-0.194272,0.0117168
1.99854,-0.193493,-0.128683
1.997,-0.193344,-0.0817402
2.00164,-0.200849,-0.0351142
2.00182,-0.200867,-0.128938
2.00426,-0.201112,-0.0820659
2.00487,-0.208598,-0.0351841
2.00351,-0.208457,-0.0820659
2.00814,-0.215672,-0.0352539
2.01076,-0.215953,-0.0823915
2.00734,-0.223031,-0.0352539
2.0075,-0.223049,-0.12945
2.00995,-0.223321,-0.0823915
2.01847,-0.231403,-0.0354633
2.01464,-0.230965,-0.129962
2.0171,-0.231247,-0.0827172
2.02563,-0.239033,-0.0356029
2.01783,-0.238112,-0.130218
2.01633,-0.237934,-0.0827172
2.03273,-0.247067,-0.0357425
2.02342,-0.245935,-0.0830429
2.03048,-0.253989,-0.0833685
1.64673,0.472194,-0.0997666
1.66382,0.470502,-0.100697
1.66153,0.463908,-0.100464
1.66699,0.459166,-0.100697
1.66858,0.453343,-0.100697
1.67401,0.44855,-0.100929
1.67557,0.442703,-0.100929
1.67324,0.435847,-0.100697
1.68635,0.432982,-0.101394
1.67567,0.42401,-0.161351
1.68785,0.427092,-0.101394
1.67714,0.418159,-0.161351
1.68546,0.420232,-0.101162
1.67472,0.411352,-0.160979
1.69079,0.415299,-0.101394
1.69484,0.410652,-0.020302
1.68375,0.407964,-0.161723
1.69597,0.410925,-0.101627
1.69237,0.403805,-0.0202555
1.68904,0.403008,-0.162094
1.70128,0.405929,-0.10186
1.70545,0.400639,-0.0203952
1.69043,0.39711,-0.162094
1.6988,0.399075,-0.101627
1.70295,0.393782,-0.0203486
1.69569,0.392104,-0.162466
1.70018,0.393142,-0.101627
1.70431,0.387836,-0.0203486
1.68928,0.384416,-0.161723
1.71601,0.390499,0.0204883
1.70544,0.388093,-0.10186
1.6619,0.464638,-0.0904365
1.71346,0.383632,-0.0204417
1.68673,0.377647,-0.161351
1.68718,0.46536,-0.142876
1.70678,0.382137,-0.10186
1.65966,0.457771,-0.0902272
1.71088,0.376788,-0.0203952
1.70748,0.376039,-0.16321
1.71479,0.377648,0.0204417
1.712,0.377035,-0.102092
1.66125,0.451975,-0.0902272
1.71219,0.370814,-0.0203952
1.70489,0.369234,-0.162838
1.72001,0.372507,0.0204883
1.71331,0.371057,-0.102092
1.66668,0.447209,-0.0904365
1.66594,0.440784,-0.0501521
1.7213,0.3665,-0.0204883
1.71396,0.364939,-0.163582
1.71738,0.365668,0.0204417
1.66883,0.441548,-0.140923
1.71069,0.364242,-0.10186
1.67209,0.442409,-0.0906459
1.73039,0.362129,-0.0205814
1.71133,0.358138,-0.16321
1.72256,0.36049,0.0204883
1.67036,0.43572,-0.140923
1.71586,0.359087,-0.102092
1.67749,0.437579,-0.0908552
1.67285,0.430139,-0.0502684
1.73948,0.357698,-0.0206746
1.72037,0.353767,-0.163953
1.73165,0.356087,0.0205814
1.68346,0.432865,-0.1419
1.72492,0.354704,-0.102557
1.67901,0.431721,-0.0908552
1.67047,0.423314,-0.0501521
1.72896,0.349248,-0.0205349
1.7255,0.348548,-0.164325
1.72896,0.349248,0.0205349
1.68109,0.426007,-0.141574
1.72615,0.34868,-0.102557
1.68437,0.426838,-0.0910646
1.68357,0.420387,-0.0505012
1.73409,0.343989,-0.0205814
1.73061,0.343298,-0.164697
1.73801,0.344767,0.020628
1.6787,0.41917,-0.141249
1.72736,0.342653,-0.102557
1.68973,0.421924,-0.0912739
1.68108,0.413845,-0.0503848
1.73522,0.338236,-0.0205814
1.73174,0.337557,-0.164697
1.73915,0.339001,0.020628
1.68783,0.415507,-0.1419
1.72849,0.336923,-0.102557
1.695,0.417273,-0.0914833
1.67863,0.407032,-0.0502684
1.74818,0.334431,-0.0207211
1.73291,0.331509,-0.164697
1.74425,0.33368,0.0206746
1.69314,0.410552,-0.142225
1.7375,0.332387,-0.103022
1.69644,0.411353,-0.0914833
1.68392,0.4021,-0.0503848
1.75327,0.329066,-0.0207677
1.69239,0.404121,-0.0101127
1.74188,0.326929,-0.16544
1.73361,0.325377,0.0205349
1.69456,0.40464,-0.142225
1.74649,0.327795,-0.103487
1.69398,0.404502,-0.0912739
1.68921,0.397134,-0.0505012
1.75047,0.322219,-0.0207211
1.71326,0.402788,-0.010229
1.73518,0.319404,-0.164697
1.75047,0.322219,0.0207211
1.64909,0.473805,-0.119981
1.69596,0.398722,-0.142225
1.73977,0.32025,-0.103022
1.63213,0.468931,-0.0791029
1.69539,0.398586,-0.0912739
1.68669,0.390333,-0.0503848
1.74765,0.315396,-0.0206746
1.70686,0.395001,-0.0101825
1.7402,0.314052,-0.165069
1.75552,0.316817,0.0207677
1.69346,0.3919,-0.1419
1.74874,0.315593,-0.103487
1.70066,0.393566,-0.0914833
1.69194,0.385332,-0.0505012
1.75268,0.309991,-0.0207211
1.70433,0.388153,-0.0101592
1.74129,0.307976,-0.165069
1.75268,0.309991,0.0207211
1.69871,0.386872,-0.142225
1.75376,0.310183,-0.10372
1.65845,0.463984,-0.0802197
1.70202,0.387627,-0.0914833
1.69328,0.379423,-0.0505012
1.75769,0.304553,-0.0207677
1.71348,0.38395,-0.0102057
1.74628,0.302576,-0.16544
1.75769,0.304553,0.0207677
1.66551,0.459695,-0.120818
1.70394,0.381812,-0.142551
1.75484,0.304059,-0.10372
1.64851,0.455003,-0.0796613
1.70726,0.382557,-0.0916926
1.69849,0.374372,-0.0506175
1.75874,0.298417,-0.0207677
1.71872,0.378829,-0.010229
1.75517,0.297812,-0.166184
1.7548,0.297748,0.0207211
1.66325,0.452831,-0.120539
1.70526,0.375863,-0.142551
1.75195,0.297265,-0.103487
1.65779,0.451346,-0.0800335
1.71249,0.377456,-0.0919019
1.7037,0.369287,-0.0507339
1.76372,0.292931,-0.0208143
1.7218,0.373211,-0.224252
1.72003,0.372827,-0.010229
1.76406,0.292988,-0.166928
1.76766,0.293586,0.0208608
1.67253,0.449092,-0.121097
1.71046,0.370752,-0.142876
1.7198,0.372776,0.0307162
1.75691,0.291801,-0.10372
1.66708,0.447628,-0.0804058
1.70989,0.370629,-0.0916926
1.70889,0.364171,-0.0508503
1.76473,0.286772,-0.0208143
1.71921,0.366371,-0.223747
1.72523,0.367653,-0.0102522
1.76507,0.286828,-0.166928
1.76473,0.286772,0.0208143
1.67023,0.442229,-0.120818
1.71174,0.364779,-0.142876
1.725,0.367604,0.030786
1.76581,0.286947,-0.104185
1.67249,0.442829,-0.0805919
1.71899,0.366323,-0.0921113
1.67385,0.443189,-0.0402918
1.70624,0.357384,-0.0507339
1.76967,0.281239,-0.0208608
1.7166,0.359554,-0.223242
1.72259,0.360809,-0.010229
1.77,0.28129,-0.167299
1.76177,0.279983,0.0207677
1.67176,0.436396,-0.120818
1.72081,0.360436,-0.143527
1.72236,0.360761,0.0307162
1.76285,0.280155,-0.103953
1.67016,0.435979,-0.0804058
1.71635,0.359502,-0.0919019
1.70747,0.351425,-0.0507339
1.77459,0.275673,-0.0209074
1.72173,0.35436,-0.223747
1.72384,0.354794,-0.010229
1.75523,0.272664,-0.165812
1.77855,0.276287,0.020954
1.67327,0.430558,-0.120818
1.72596,0.355231,-0.143852
1.7236,0.354746,0.0307162
1.75987,0.273386,-0.10372
1.67554,0.431142,-0.0805919
1.72542,0.355119,-0.0923206
1.71267,0.345957,-0.0508503
1.77164,0.268568,-0.0208608
1.72691,0.348833,-0.224252
1.73689,0.35085,-0.0102987
1.77196,0.268617,-0.167299
1.77164,0.268568,0.0208608
1.67871,0.425403,-0.121097
1.71944,0.347324,-0.143201
1.72881,0.349218,0.030786
1.77666,0.269329,-0.10465
1.66937,0.423035,-0.0802197
1.71888,0.347211,-0.0919019
1.68623,0.427308,-0.0404779
1.71767,0.341354,-0.0509666
1.77643,0.263588,-0.0209074
1.73188,0.34418,-0.224757
1.73406,0.344612,-0.0102755
1.78068,0.264219,-0.168043
1.77643,0.263588,0.0209074
1.68004,0.420127,-0.121097
1.72443,0.342698,-0.143527
1.73382,0.344565,0.0308559
1.78144,0.264332,-0.104883
1.67456,0.418758,-0.0804058
1.72388,0.342588,-0.0921113
1.69144,0.422979,-0.0405709
1.72277,0.336122,-0.051083
1.77338,0.256812,-0.0208608
1.73308,0.338132,-0.224757
1.73918,0.339322,-0.0102987
1.77765,0.25743,-0.167671
1.7813,0.257959,0.020954
1.68537,0.415214,-0.121376
1.72561,0.336676,-0.143527
1.72717,0.336979,0.0307162
1.78631,0.258684,-0.105115
1.68765,0.415777,-0.0809642
1.7329,0.338098,-0.09253
1.68903,0.416115,-0.0404779
1.72001,0.329355,-0.0509666
1.78219,0.251739,-0.020954
1.73425,0.33208,-0.224757
1.74035,0.33325,-0.0102987
1.67734,0.407031,-0.18592
1.78642,0.252338,-0.168415
1.79011,0.252858,0.0210471
1.69068,0.41027,-0.121655
1.73461,0.33215,-0.144178
1.74404,0.333957,0.0309955
1.77534,0.250772,-0.104418
1.74286,0.333731,0.0722961
1.68909,0.409884,-0.0809642
1.73407,0.332047,-0.09253
1.69435,0.41116,-0.0405709
1.72508,0.324086,-0.051083
1.79494,0.247153,-0.0210936
1.73929,0.326757,-0.225263
1.74544,0.327911,-0.010322
1.78729,0.2461,-0.168415
1.79494,0.247153,0.0210936
1.69987,0.40622,-0.122213
1.73968,0.326829,-0.144503
1.74127,0.327128,0.0309257
1.78807,0.246207,-0.105115
1.73616,0.326169,0.0719705
1.68274,0.402128,-0.0805919
1.74307,0.327467,-0.0929487
1.69578,0.405243,-0.0405709
1.72227,0.317338,-0.0509666
1.7839,0.23929,-0.020954
1.74433,0.321402,-0.225768
1.74657,0.321816,-0.010322
1.78814,0.239859,-0.168415
1.78786,0.239822,0.0210005
1.68962,0.397542,-0.121376
1.74473,0.321476,-0.144829
1.74633,0.321772,0.0309955
1.64582,0.473174,-0.109751
1.78496,0.239433,-0.104883
1.74122,0.32083,0.0721333
1.68803,0.397166,-0.080778
1.74028,0.320656,-0.0927393
1.70108,0.400237,-0.040664
1.7391,0.314168,-0.0514321
1.69513,0.392599,0
1.78869,0.233581,-0.0210005
1.75325,0.316723,-0.226778
1.75555,0.31714,-0.0103685
1.68538,0.390341,-0.186349
1.79292,0.234133,-0.168786
1.79662,0.234617,0.0210936
1.69878,0.393443,-0.121934
1.74584,0.315385,-0.144829
1.74745,0.315675,0.0309955
1.64362,0.466338,-0.109495
1.79767,0.234753,-0.10558
1.7502,0.316172,0.072459
1.69329,0.392174,-0.0809642
1.74139,0.314581,-0.0927393
1.71025,0.396102,-0.0408501
1.74019,0.308095,-0.0514321
1.69649,0.386679,0
1.79346,0.22784,-0.0210471
1.75043,0.309909,-0.226273
1.75271,0.310313,-0.0103452
1.68286,0.383571,-0.18592
1.80558,0.229378,-0.169902
1.79346,0.22784,0.0210471
1.70403,0.388398,-0.122213
1.74693,0.309289,-0.144829
1.74854,0.309573,0.0309955
1.64908,0.461673,-0.109751
