2.94457,0.337053,0.0345042
3.01511,0.495365,0.0533346
2.90408,0.332419,-0.170231
3.02885,0.497621,0.125053
2.97596,0.488933,-0.158055
2.92193,0.323618,-0.0342248
3.00547,0.482475,-0.0176915
2.89365,0.320485,-0.271768
3.09494,0.653334,0.0736046
2.93386,0.324938,0.0343645
3.01296,0.483677,0.0532647
2.89734,0.320894,-0.169766
3.02276,0.48525,0.124727
2.97379,0.47739,-0.157845
3.06659,0.636737,0
2.91901,0.3135,-0.0341782
3.0031,0.471885,-0.0176682
2.88282,0.309612,-0.270653
3.09709,0.643068,0.0736046
2.93492,0.315208,0.0343645
3.0106,0.473063,0.0531949
2.89045,0.310432,-0.169301
3.0204,0.474604,0.124564
2.96747,0.466286,-0.157427
3.06499,0.624693,0
2.90821,0.301561,-0.0340385
2.99295,0.459055,-0.0175985
2.88393,0.299043,-0.270653
2.93208,0.304036,0.0343179
3.00045,0.460206,0.0529855
2.8876,0.299423,-0.169068
3.01817,0.462924,0.124401
2.96916,0.455406,-0.157427
3.06323,0.613206,0
2.90924,0.291408,-0.0340385
2.98267,0.446828,-0.0175287
2.87703,0.288181,-0.26991
3.082,0.616965,0.0731393
2.92516,0.293002,0.0342248
2.95311,0.442401,-0.243768
3.00204,0.44973,0.0529855
2.88465,0.288945,-0.168836
3.00396,0.450018,0.12375
2.96678,0.444448,-0.157217
3.02014,0.452442,0.249301
3.04965,0.599423,0
2.90626,0.280865,-0.033992
2.98421,0.436413,-0.0175287
2.86613,0.276987,-0.268794
3.07237,0.603888,0.0728602
2.91821,0.28202,0.0341317
2.94675,0.430935,-0.243117
2.99568,0.43809,0.0528459
2.87769,0.278105,-0.168371
3.09151,0.607651,0.183487
3.00947,0.440107,0.123913
2.96041,0.432932,-0.156799
3.01381,0.440742,0.24865
3.04366,0.588322,0
2.86698,0.267982,-0.268794
3.0664,0.592716,0.0726741
2.91111,0.272106,0.0340385
2.9402,0.420547,-0.242466
2.99308,0.428111,0.0527761
2.87458,0.268692,-0.168138
3.08556,0.596421,0.183022
2.99896,0.428953,0.123424
2.94989,0.421933,-0.156171
3.03891,0.587404,-0.0720227
2.94629,0.410406,-0.0865734
3.04187,0.576418,0
2.89616,0.260005,-0.0338523
2.86398,0.257116,-0.268423
3.06462,0.580729,0.072581
2.90014,0.260363,0.0338988
2.93777,0.409218,-0.242141
2.98274,0.415483,0.0525666
2.86759,0.25744,-0.167673
3.07988,0.583621,0.182557
2.9926,0.416856,0.123099
2.95141,0.411119,-0.156171
3.02533,0.573284,-0.0716505
2.94382,0.399065,-0.0864571
3.03609,0.563802,0
2.88115,0.248014,-0.033666
2.9688,0.402451,-0.0174125
3.05493,0.5673,0.0723018
2.90107,0.249729,0.0338988
2.98028,0.404009,0.0524968
2.86056,0.246241,-0.167208
3.07022,0.57014,0.181859
2.99807,0.40642,0.123262
2.94894,0.39976,-0.155961
3.01955,0.560729,-0.0714644
2.9372,0.388254,-0.0862243
3.03008,0.552297,0
2.88196,0.238459,-0.033666
2.96615,0.392081,-0.0173892
2.84983,0.235801,-0.266935
3.05286,0.55645,0.0722088
2.8979,0.239778,0.0338523
2.97764,0.3936,0.052427
2.85738,0.236425,-0.166975
3.06424,0.558524,0.181394
2.98355,0.394381,0.12261
3.01352,0.54928,-0.0712783
2.9306,0.376979,-0.0859916
3.02017,0.539607,0
2.87878,0.228082,-0.0336195
2.96353,0.381215,-0.017366
2.84269,0.225223,-0.266192
3.03904,0.542978,0.0718366
2.88676,0.228714,0.0337126
2.97503,0.382694,0.0523572
2.8542,0.226135,-0.166743
3.05831,0.54642,0.180929
2.97698,0.382945,0.122285
2.93971,0.378151,-0.155333
2.9933,0.385044,0.246372
3.01148,0.538054,-0.0711852
2.92793,0.36625,-0.0858753
2.8676,0.217125,-0.0334798
2.84346,0.215298,-0.266192
3.03698,0.531676,0.0717435
2.88754,0.218635,0.0337126
2.91946,0.36519,-0.240188
2.84701,0.215567,-0.166278
3.05626,0.535052,0.180696
2.97433,0.372054,0.122122
2.99121,0.523664,-0.141455
2.92912,0.366399,-0.154705
2.98276,0.373108,0.245395
3.01334,0.527538,-0.0711852
2.92919,0.356028,-0.0858753
3.0081,0.515805,0
2.86036,0.206539,-0.0333866
2.84023,0.205085,-0.26582
3.03487,0.520396,0.0716505
2.88031,0.207979,0.0336195
2.90489,0.353074,-0.238886
2.96572,0.360467,0.0521478
2.84377,0.205341,-0.166045
3.0463,0.522356,0.179998
2.96768,0.360706,0.121796
2.98515,0.51187,-0.141082
2.98008,0.362213,0.24507
3.01122,0.516341,-0.0710922
2.92248,0.344863,-0.0856425
3.00593,0.504639,0
2.86106,0.196552,-0.0333866
2.87667,0.339458,-0.368703
2.94353,0.347347,-0.0172265
2.83298,0.194623,-0.265077
3.02484,0.507812,0.0713713
2.87702,0.197649,0.0335729
2.9061,0.342931,-0.238886
2.95902,0.349175,0.0520082
2.84048,0.195138,-0.165813
3.04023,0.510396,0.179533
2.96495,0.349875,0.121633
2.98298,0.500784,-0.140896
2.92367,0.345004,-0.154286
2.97341,0.350873,0.244419
3.00118,0.50384,-0.070813
2.91566,0.33426,-0.0854098
2.85771,0.186803,-0.0333401
2.86989,0.329013,-0.367693
2.93671,0.336674,-0.01718
2.82566,0.184708,-0.264333
3.01467,0.495833,0.0710922
2.87367,0.187847,0.0335263
2.82916,0.184937,-0.165115
3.03403,0.499016,0.179068
2.95815,0.339131,0.121308
2.97279,0.488945,-0.140338
2.91687,0.334398,-0.153868
2.9706,0.340558,0.244093
2.99494,0.492588,-0.0706269
2.90494,0.322249,-0.0850607
2.85837,0.176329,-0.0333401
2.85925,0.31718,-0.366178
2.93395,0.325467,-0.0171568
2.81837,0.173861,-0.263589
3.01252,0.484146,0.0709991
2.86636,0.176821,0.0334332
3.09044,0.652949,0.0919261
2.82982,0.174567,-0.165115
3.03189,0.48726,0.178836
2.94349,0.326525,0.120656
2.91013,0.322825,-0.153449
2.9639,0.328789,0.243443
2.99673,0.481608,-0.0706269
2.90208,0.311679,-0.0849444
2.84699,0.165652,-0.0332004
2.86823,0.308044,-0.367188
2.93109,0.314796,-0.0171335
2.81498,0.16379,-0.263218
3.01024,0.473006,0.0709061
2.86296,0.166581,0.0333866
2.88971,0.310352,-0.237259
2.82642,0.164455,-0.164882
3.02569,0.475433,0.178371
2.94461,0.316248,0.120656
2.96832,0.466419,-0.139966
2.90727,0.312237,-0.15324
2.96107,0.318015,0.243117
2.99049,0.469902,-0.0704408
2.89514,0.301226,-0.0847116
2.98493,0.458891,0
2.84353,0.15599,-0.0331538
2.85345,0.296888,-0.365168
2.92417,0.304246,-0.017087
2.81153,0.154235,-0.262846
2.99993,0.461197,0.0706269
2.85951,0.156867,0.0333401
2.88676,0.300354,-0.236933
2.93173,0.305032,0.0514497
2.81898,0.154643,-0.164417
3.01935,0.464182,0.177905
2.94564,0.30648,0.120656
2.9659,0.455965,-0.139779
2.90431,0.30218,-0.15303
2.98808,0.459374,-0.0703477
2.89219,0.29072,-0.0845953
2.84406,0.146066,-0.0331538
2.92123,0.293639,-0.0170638
2.80807,0.144218,-0.262474
3.00153,0.450725,0.0706269
2.86004,0.146886,0.0333401
2.93978,0.441453,-0.207874
2.88383,0.289879,-0.236608
2.93277,0.294799,0.0514497
2.81551,0.1446,-0.164185
3.017,0.453049,0.177673
2.93079,0.294599,0.120005
2.95562,0.443832,-0.139221
2.8974,0.291244,-0.152612
2.9778,0.447162,-0.0700686
2.88523,0.27985,-0.0843626
2.84056,0.135945,-0.0331072
2.8436,0.275812,-0.363652
2.91427,0.282667,-0.0170173
2.79663,0.133843,-0.261359
2.99121,0.438504,0.0703477
2.85254,0.136519,0.0332469
2.93736,0.430609,-0.207595
2.87688,0.27904,-0.235957
2.81201,0.134579,-0.163952
3.00276,0.440197,0.176743
2.92384,0.283595,0.119679
2.94529,0.431772,-0.138663
2.94037,0.285198,0.241164
2.97538,0.436184,-0.0699755
2.88226,0.268902,-0.0842462
2.83304,0.125181,-0.0330141
2.83669,0.264651,-0.362642
2.91131,0.271613,-0.016994
2.80108,0.123768,-0.261731
2.98884,0.426973,0.0702547
2.85302,0.126063,0.0332469
2.87392,0.268124,-0.235632
2.91888,0.272319,0.0511705
2.80451,0.12392,-0.163487
3.00436,0.42919,0.176743
2.92486,0.272877,0.119679
2.94686,0.420975,-0.138663
2.88748,0.26939,-0.151984
2.93743,0.27405,0.240839
2.96905,0.424145,-0.0697894
2.87517,0.258626,-0.0840135
2.82145,0.115295,-0.0328744
2.83756,0.255242,-0.362642
3.03779,0.576193,0.0179704
2.89626,0.260523,-0.016901
2.79351,0.114153,-0.260987
2.99024,0.417058,0.0702547
2.84543,0.116274,0.0331538
2.86685,0.257877,-0.234981
2.91578,0.262279,0.0511006
2.80091,0.114455,-0.163254
2.99785,0.41812,0.176278
2.91779,0.262459,0.119354
2.87642,0.258738,-0.151356
2.96251,0.413191,-0.0696033
2.87207,0.248243,-0.0838971
2.82584,0.105594,-0.032921
2.82657,0.24431,-0.361127
2.90113,0.250755,-0.0169243
2.78594,0.104103,-0.260243
2.97979,0.405001,0.0699755
2.84182,0.106191,0.0331072
2.85979,0.247181,-0.23433
2.90871,0.25141,0.050961
2.8013,0.104677,-0.163254
2.99929,0.407652,0.176278
2.91471,0.251928,0.119191
2.93382,0.398753,-0.137918
2.87333,0.248352,-0.151146
3.03313,0.412251,0.375845
2.96394,0.402847,-0.0696033
2.82219,0.0955943,-0.0328744
2.82345,0.234115,-0.360622
2.89003,0.239635,-0.0168546
2.78628,0.094378,-0.260243
2.98118,0.394598,0.0699755
2.91539,0.385889,-0.205642
2.85269,0.236539,-0.233679
2.9016,0.240594,0.0508214
2.79765,0.0947631,-0.163022
2.99278,0.396133,0.175812
2.9076,0.241092,0.118865
2.93123,0.387986,-0.137732
3.03455,0.401661,0.375845
2.94947,0.3904,-0.0692311
2.82249,0.0862356,-0.0328744
2.82817,0.225066,-0.361127
2.88682,0.229734,-0.0168313
2.90302,0.374461,-0.315294
2.77464,0.0847735,-0.259128
2.97058,0.383176,0.0696964
2.91665,0.37622,-0.205642
2.85346,0.227078,-0.233679
3.03445,0.543251,0.0897152
2.89839,0.230654,0.0507516
2.78997,0.0852419,-0.162557
2.9822,0.384675,0.175115
2.9044,0.231132,0.118702
2.92457,0.377241,-0.13736
2.86699,0.228155,-0.150728
3.02405,0.390073,0.374383
2.98519,0.237562,0.545999
2.94282,0.379595,-0.069045
2.81079,0.0755682,-0.0327347
2.82106,0.214099,-0.360117
2.88366,0.218849,-0.0168081
2.89253,0.362336,-0.314009
2.77095,0.074497,-0.258756
2.96799,0.371789,0.0696033
2.82679,0.0759982,0.032921
2.90614,0.36404,-0.204805
2.84234,0.215714,-0.232702
2.89922,0.22003,0.0507516
2.78627,0.0749089,-0.162324
2.98359,0.373742,0.175115
2.89726,0.219881,0.118377
2.92197,0.366024,-0.137174
2.85586,0.216739,-0.1501
3.00576,0.37652,0.371945
2.9782,0.226024,0.544564
2.94022,0.36831,-0.0689519
2.93434,0.357174,0
2.81104,0.0657555,-0.0327347
2.81388,0.203676,-0.359107
3.0119,0.516998,0.0177612
2.88042,0.208493,-0.0167848
2.89773,0.352717,-0.314437
2.76721,0.0647302,-0.258385
2.96927,0.361426,0.0696033
2.81904,0.0659426,0.0328279
2.90343,0.353411,-0.204526
2.8391,0.205502,-0.232377
2.888,0.209042,0.0505422
2.78651,0.0651818,-0.162324
2.98091,0.362842,0.174882
2.89402,0.209477,0.118214
2.92323,0.355821,-0.137174
2.85261,0.20648,-0.14989
3.011,0.366504,0.372433
2.97504,0.215342,0.543846
2.93752,0.35756,-0.0688589
2.84804,0.196158,-0.0830826
2.77435,0.191082,-0.556189
2.9316,0.346459,0
2.79926,0.0557033,-0.032595
2.81061,0.193579,-0.358602
2.76742,0.0550697,-0.258385
2.9586,0.34965,0.0693242
2.90068,0.342805,-0.204247
2.8398,0.19559,-0.232377
2.88473,0.198684,0.0504724
2.78273,0.0553745,-0.162092
2.97423,0.351496,0.174417
2.89474,0.199373,0.118214
2.91652,0.344676,-0.136801
2.85332,0.196521,-0.14989
3.00437,0.355059,0.371458
2.93875,0.347303,-0.0688589
2.77106,0.181625,-0.555404
2.92478,0.335823,0
2.79143,0.0462882,-0.0325019
2.81124,0.184259,-0.358602
2.8658,0.187835,-0.0166918
2.88426,0.33117,-0.312723
2.7636,0.0458268,-0.258013
2.81142,0.0466198,0.0327347
2.88991,0.331819,-0.20341
2.83248,0.185651,-0.231726
2.88138,0.188856,0.0504026
2.77092,0.0459482,-0.161394
2.96744,0.340721,0.173952
2.8874,0.189251,0.117888
2.91368,0.334548,-0.136615
2.84199,0.186274,-0.149262
2.9937,0.343736,0.369995
2.96859,0.194572,0.542411
2.92399,0.335732,-0.0684867
2.76776,0.171709,-0.55462
2.92594,0.325612,0
2.79157,0.0365446,-0.0325019
2.79998,0.173708,-0.357087
2.86245,0.177583,-0.0166686
2.88144,0.320661,-0.312295
2.75578,0.0360761,-0.257269
2.94502,0.327736,0.0689519
2.89105,0.32173,-0.20341
2.82515,0.175269,-0.231075
2.87404,0.178302,0.0502629
2.77506,0.0363285,-0.161626
2.96465,0.32992,0.173719
2.88007,0.178676,0.117563
2.90291,0.32305,-0.136057
2.84661,0.176601,-0.149472
2.99094,0.332846,0.369508
2.96532,0.183965,0.541694
2.91322,0.324197,-0.0682075
2.76051,0.161587,-0.553051
2.92308,0.314968,0
2.79168,0.0267992,-0.0325019
2.80453,0.164164,-0.357592
2.99108,0.471066,0.0175985
2.86305,0.16759,-0.0166686
2.87464,0.309748,-0.311438
2.75191,0.0264174,-0.256897
2.94614,0.317453,0.0689519
2.80368,0.0269144,0.0326416
2.88025,0.310353,-0.202573
3.00172,0.47274,0.0884352
2.87464,0.168268,0.0502629
2.95346,0.465141,-0.191617
2.77118,0.0266024,-0.161394
2.96181,0.319141,0.173487
2.8727,0.168154,0.117237
2.90402,0.312914,-0.136057
2.83126,0.165729,-0.148634
2.98419,0.321552,0.368533
2.95809,0.173153,0.540259
2.91434,0.314026,-0.0682075
2.75714,0.151736,-0.552266
2.91223,0.303519,0
2.78376,0.017006,-0.0324088
2.80113,0.154156,-0.357087
2.9848,0.459406,0.017552
2.85563,0.157156,-0.0166221
2.87174,0.2993,-0.31101
2.75198,0.0168119,-0.256897
2.94326,0.306753,0.0688589
2.80376,0.0171282,0.0326416
2.81835,0.155104,-0.230424
2.86323,0.157574,0.0500535
2.95112,0.454222,-0.191361
2.76726,0.0169052,-0.161161
2.95496,0.307973,0.173022
2.87327,0.158126,0.117237
2.90112,0.302362,-0.135871
2.82783,0.155626,-0.148425
2.97739,0.310311,0.367558
2.94296,0.161962,0.537389
2.90746,0.303022,-0.0680214
2.96621,0.445949,-0.0523572
2.75766,0.14211,-0.552266
2.90929,0.29295,0
2.7718,0.00725662,-0.0322691
2.7858,0.14356,-0.355066
2.97848,0.447794,0.0175055
2.86881,0.288874,-0.310581
2.74406,0.007184,-0.256154
2.7958,0.00731945,0.0325485
2.87441,0.289438,-0.202015
2.81489,0.145059,-0.230099
2.99308,0.44999,0.0880861
2.85977,0.147372,0.0499837
2.94874,0.443324,-0.191105
2.76331,0.00723439,-0.160929
2.95204,0.297255,0.172789
2.86582,0.147683,0.116911
2.89421,0.291432,-0.135499
2.82437,0.145548,-0.148215
2.97451,0.299517,0.36707
2.91248,0.293271,-0.0681145
2.7503,0.132106,-0.550697
2.91029,0.282792,0
2.77581,-0.00242305,-0.0323156
2.83243,0.275226,-0.442735
2.78628,0.133834,-0.355066
2.84867,0.136831,-0.0165756
2.86189,0.278089,-0.309725
2.74009,-0.00239187,-0.255782
2.93339,0.285036,0.0685797
2.79181,-0.00243702,0.0325019
2.87143,0.279016,-0.201736
2.8114,0.13504,-0.229773
2.85228,0.137004,0.0498441
2.93842,0.431288,-0.190338
2.75533,-0.00240518,-0.160464
2.93717,0.285403,0.171859
2.86632,0.137678,0.116911
2.89123,0.28094,-0.135313
2.82486,0.135687,-0.148215
2.97158,0.288748,0.366583
2.87113,0.137909,0.234655
2.94402,0.141411,0.537389
2.89358,0.281169,-0.0676492
2.74682,0.122332,-0.549913
2.91524,0.273007,0
2.77179,-0.012093,-0.0322691
2.82156,0.264233,-0.44089
2.7788,0.123756,-0.354056
2.96965,0.42529,0.0174357
2.84513,0.12671,-0.0165523
2.85888,0.267728,-0.309296
2.73608,-0.0119373,-0.25541
2.92242,0.273678,0.0683006
2.78778,-0.0121628,0.0324553
2.86047,0.267877,-0.200899
2.80787,0.12505,-0.229448
2.98428,0.427384,0.087737
2.85274,0.127049,0.0498441
2.75131,-0.0120037,-0.160231
2.93417,0.274779,0.171626
2.85879,0.127318,0.116586
2.88424,0.270103,-0.13494
2.81734,0.125472,-0.147797
2.96862,0.278005,0.366096
2.86761,0.127711,0.23433
2.9327,0.13061,0.535237
2.89057,0.270695,-0.0675562
2.95091,0.412098,-0.0520082
2.74332,0.112581,-0.549128
2.90024,0.261392,0
2.76373,-0.0217062,-0.032176
2.8146,0.253672,-0.439661
2.78318,0.114217,-0.354561
2.96319,0.413814,0.0173892
2.84156,0.116613,-0.0165291
2.84792,0.256675,-0.308011
2.73204,-0.0214574,-0.255039
2.91539,0.262757,0.0681145
2.77973,-0.0218319,0.0323622
2.85741,0.257531,-0.20062
2.98179,0.416411,0.0876207
2.84517,0.116761,0.0497045
2.75125,-0.0216083,-0.160231
2.93511,0.264534,0.171626
2.85523,0.117174,0.116423
2.88516,0.260033,-0.13494
2.81377,0.115473,-0.147587
2.96166,0.266927,0.365121
2.9292,0.12021,0.534519
2.88353,0.259885,-0.0673701
2.73977,0.102858,-0.548344
2.89715,0.250922,0
2.76363,-0.0313527,-0.032176
2.81153,0.243506,-0.439046
2.77563,0.104204,-0.353551
2.84879,0.246733,-0.308011
2.73195,-0.0309932,-0.255039
2.91629,0.252579,0.0681145
2.77563,-0.0314889,0.0323156
2.85432,0.247212,-0.200341
2.8007,0.105146,-0.228797
2.97134,0.404383,0.0872716
2.84157,0.10668,0.0496346
2.923,0.397804,-0.189058
2.74717,-0.0311659,-0.159999
2.93204,0.253943,0.171394
2.85562,0.107207,0.116423
2.87809,0.249271,-0.134568
2.81016,0.105501,-0.147378
2.95467,0.255903,0.364146
2.92961,0.109985,0.534519
2.88442,0.249819,-0.0673701
2.94968,0.391476,-0.0519384
2.73618,0.0936373,-0.547559
2.89,0.240649,0
2.75552,-0.0404006,-0.0320828
2.772,0.0948631,-0.353046
2.95405,0.392055,0.0173195
2.90914,0.242243,0.0679284
2.77551,-0.0406938,0.0323156
2.85512,0.237744,-0.200341
2.79705,0.0957205,-0.228471
2.96474,0.393474,0.0870389
2.83791,0.0971186,0.0495648
2.73906,-0.0401594,-0.159533
2.92888,0.243887,0.171161
2.84797,0.0974629,0.116097
2.87094,0.239062,-0.134196
2.8065,0.0960439,-0.147169
2.9555,0.246103,0.364146
2.92209,0.0999995,0.533084
2.87726,0.239588,-0.067184
2.93907,0.380154,-0.0517289
2.73255,0.0844426,-0.546775
2.88281,0.230427,0
2.75137,-0.0494656,-0.0320363
2.80126,0.223909,-0.437201
2.76833,0.0855483,-0.352541
2.8266,0.087349,-0.0164361
2.83451,0.226566,-0.306298
2.90594,0.232276,0.0678353
2.84794,0.22764,-0.199783
2.96603,0.383641,0.0870389
2.83022,0.0874607,0.0494252
2.73892,-0.0492417,-0.159533
2.91773,0.233219,0.170464
2.84428,0.0878953,0.115934
2.86773,0.229222,-0.13401
2.79882,0.0864905,-0.14675
2.94838,0.235669,0.363171
2.85314,0.0881691,0.233028
2.90667,0.0898233,0.530214
2.87804,0.230046,-0.067184
2.73283,0.074903,-0.546775
2.88359,0.220362,0
2.75118,-0.0590701,-0.0320363
2.79808,0.213827,-0.436586
2.76465,0.075775,-0.352036
2.83132,0.216367,-0.305869
2.89079,0.220912,0.0674631
2.83678,0.216784,-0.198945
2.95941,0.372287,0.0868062
2.82651,0.0774705,0.0493554
2.90708,0.365703,-0.187779
2.73074,-0.0586313,-0.159068
2.90659,0.222119,0.169766
2.84058,0.0778561,0.115772
2.85258,0.217992,-0.133265
2.94919,0.225375,0.363171
2.91856,0.367147,-0.119842
2.9109,0.0797836,0.530932
2.87085,0.219388,-0.0669978
2.92583,0.357174,-0.0514497
2.72132,0.0646075,-0.544422
2.8764,0.209212,0
2.74295,-0.0689516,-0.0319431
2.75301,0.0653597,-0.350521
2.82813,0.2057,-0.305441
2.88759,0.210025,0.0673701
2.75494,-0.0692531,0.0320828
2.95679,0.360954,0.0866898
2.82677,0.067111,0.0493554
2.72652,-0.0685386,-0.158836
2.90738,0.211465,0.169766
2.83685,0.0673501,0.115609
2.85735,0.207826,-0.133451
2.79538,0.0663656,-0.146541
2.94208,0.213988,0.362196
2.84174,0.0674664,0.232052
2.90331,0.068928,0.529497
2.86765,0.208575,-0.0669048
2.71368,0.055422,-0.542853
2.8691,0.199117,0
2.73871,-0.0779342,-0.0318966
2.78768,0.193467,-0.434741
2.75321,0.0562292,-0.350521
2.81292,0.195219,-0.303727
2.88827,0.200448,0.0673701
2.7507,-0.0782755,0.0320363
2.77818,0.0567392,-0.226844
2.82298,0.0576542,0.0492856
2.89767,0.343987,-0.187012
2.90807,0.201822,0.169766
2.82906,0.0577784,0.115283
2.85403,0.198072,-0.133265
2.78759,0.0569315,-0.146122
2.93485,0.20368,0.361221
2.83398,0.0578789,0.231401
2.89565,0.0591384,0.528062
2.86034,0.19851,-0.0667187
2.92025,0.336334,-0.0513101
2.77843,0.0470416,-0.0808717
2.7217,0.0460812,-0.544422
2.86978,0.1891,0
2.73042,-0.0872388,-0.0318034
2.74545,0.0464833,-0.34951
2.82152,0.185921,-0.304584
2.87698,0.189575,0.0670909
2.74241,-0.087622,0.0319431
2.94329,0.338988,0.0862243
2.722,-0.0869696,-0.158603
2.90078,0.191144,0.169301
2.82525,0.0478344,0.11512
2.84275,0.187319,-0.132707
2.93158,0.193173,0.360733
2.83018,0.0479178,0.231075
2.8919,0.0489629,0.527344
2.86102,0.188523,-0.0667187
2.77458,0.0368054,-0.0807553
2.86247,0.178085,0
2.72609,-0.0971027,-0.0317569
2.74164,0.0363684,-0.349005
2.80234,0.174344,-0.302442
2.87766,0.17903,0.0670909
2.73808,-0.0975299,0.0318966
2.81532,0.0373459,0.049146
2.88815,0.321917,-0.186244
2.71767,-0.0968029,-0.158371
2.88951,0.179767,0.168603
2.82541,0.0374796,0.11512
2.84341,0.176899,-0.132707
2.93227,0.182427,0.360733
2.82635,0.0374921,0.23075
2.88026,0.0382073,0.525192
2.85371,0.17754,-0.0665326
2.90656,0.314728,-0.0510308
2.77068,0.0280487,-0.080639
2.85503,0.16862,0
2.72577,-0.105666,-0.0317569
2.73777,0.0277155,-0.3485
2.79981,0.0283435,-0.0162734
2.80287,0.16554,-0.302442
2.87022,0.169517,0.0669048
2.73776,-0.106131,0.0318966
2.9336,0.317656,0.0858753
2.81143,0.0284612,0.0490762
2.70538,-0.104876,-0.157673
2.89006,0.170689,0.168603
2.81752,0.0285228,0.114795
2.83199,0.167259,-0.132148
2.9249,0.172747,0.359758
2.82247,0.0285729,0.230424
2.8725,0.0290794,0.523757
2.84627,0.168103,-0.0663465
2.90372,0.303657,-0.050961
2.70635,0.017478,-0.541284
2.84364,0.157492,0
2.72137,-0.115486,-0.0317103
2.73388,0.0176558,-0.347995
2.80346,0.155266,-0.302442
2.69385,-0.114318,-0.251693
2.85884,0.158334,0.0666256
2.72137,-0.115486,0.0317103
2.80351,0.0181055,0.0489365
2.70897,-0.114959,-0.157906
2.8787,0.159434,0.167906
2.80961,0.0181449,0.114469
2.8246,0.156437,-0.131776
2.92155,0.161806,0.359271
2.82255,0.0182285,0.230424
2.87258,0.0185516,0.523757
2.84287,0.157449,-0.0662534
2.90084,0.29261,-0.0508912
2.70247,0.00754698,-0.540499
2.84021,0.146861,0
2.71293,-0.125091,-0.0316172
2.726,0.00761267,-0.346985
2.79607,0.144579,-0.301585
2.85941,0.147854,0.0666256
2.72092,-0.12546,0.0317103
2.91994,0.294538,0.0854098
2.70454,-0.124704,-0.157673
2.87927,0.148881,0.167906
2.80566,0.00783515,0.114306
2.81718,0.14567,-0.131404
2.91419,0.150687,0.358296
2.81064,0.00784906,0.229448
2.87263,0.00802218,0.523757
2.84343,0.147028,-0.0662534
2.75883,-0.000962247,-0.0802899
2.83666,0.137744,0
2.70454,-0.13322,-0.0315241
2.72204,-0.000949413,-0.34648
2.78856,0.135409,-0.300729
2.85586,0.138676,0.0665326
2.71652,-0.13381,0.0316637
2.79157,-0.000973667,0.0487271
2.70015,-0.133003,-0.15744
2.87174,0.139448,0.16744
2.80567,-0.000978584,0.114306
2.81762,0.13682,-0.131404
2.90672,0.141146,0.357321
2.80666,-0.00097893,0.229122
2.86477,-0.000999198,0.522322
2.83589,0.137707,-0.0660673
2.88679,0.271866,-0.050612
2.75881,-0.0105918,-0.0802899
2.83313,0.127662,0
2.70406,-0.142659,-0.0315241
2.72202,-0.0104505,-0.34648
2.78505,0.125495,-0.3003
2.85233,0.128527,0.0664395
2.72003,-0.143502,0.0317103
2.79433,0.125914,-0.195597
2.79155,-0.0107175,0.0487271
2.69568,-0.142217,-0.157208
2.86025,0.128884,0.166743
2.81409,0.126804,-0.131218
2.9072,0.131,0.357321
2.80664,-0.0107754,0.229122
2.85688,-0.0109683,0.520887
2.82836,0.127447,-0.0658812
2.75075,-0.021124,-0.0800572
2.8256,0.116452,0
2.70349,-0.153041,-0.0315241
2.71799,-0.0208724,-0.345975
2.78153,0.114636,-0.299872
2.84481,0.117244,0.0662534
2.71547,-0.153719,0.0316637
2.90694,0.262506,0.0849444
2.68714,-0.152116,-0.156743
2.86072,0.1179,0.166743
2.7976,-0.0214837,0.11398
2.81456,0.115997,-0.131218
2.89974,0.119508,0.356346
2.80259,-0.0215221,0.228797
2.85288,-0.0219083,0.52017
2.82883,0.116586,-0.0658812
2.87675,0.249659,-0.0504026
2.74667,-0.0306819,-0.0799408
2.82199,0.106437,0
2.69495,-0.161998,-0.0314309
2.71393,-0.0303162,-0.34547
2.77794,0.104776,-0.299443
2.83721,0.107011,0.0660673
2.70693,-0.162718,0.0315706
2.89987,0.251666,0.0847116
2.7834,-0.0310923,0.0485875
2.67862,-0.161016,-0.156278
2.85313,0.107612,0.166278
2.78552,-0.0311159,0.113492
2.80297,0.105719,-0.130659
2.89221,0.109085,0.355371
2.79453,-0.0312165,0.228146
2.85279,-0.0318673,0.52017
2.74256,-0.0392529,-0.0798244
2.69044,-0.17021,-0.0313844
2.71382,-0.0388416,-0.34547
2.77428,0.095911,-0.299015
2.83754,0.0980977,0.0660673
2.77929,-0.0397786,0.0485177
2.68208,-0.169682,-0.15651
2.84947,0.0985102,0.166045
2.78141,-0.0398089,0.113329
2.7953,0.0966375,-0.130287
2.88063,0.0995877,0.353909
2.84874,-0.0407726,0.519452
2.82155,0.0975451,-0.0656951
2.86638,0.229616,-0.0501931
2.7424,-0.0488267,-0.0798244
2.68185,-0.179069,-0.0312912
2.70574,-0.0481739,-0.34446
2.77063,0.0861021,-0.298587
2.83786,0.0881916,0.0660673
2.70579,-0.180667,0.0315706
2.77114,-0.0493383,0.0483781
2.66952,-0.178246,-0.155813
2.8458,0.0884383,0.165813
2.77726,-0.0494472,0.113166
2.79162,0.0867546,-0.130101
2.84465,-0.0506471,0.518735
2.81788,0.0875705,-0.0656021
2.73821,-0.0587913,-0.0797081
2.68117,-0.188896,-0.0312912
2.70157,-0.0580048,-0.343955
2.75932,-0.0592446,-0.0160409
2.759,0.0756204,-0.297301
2.83017,0.0775712,0.0658812
2.69314,-0.18974,0.0314309
2.77219,0.0759819,-0.193923
2.76694,-0.0594082,0.0483083
2.66885,-0.188028,-0.155813
2.83413,0.0776797,0.165115
2.76906,-0.0594538,0.112841
2.78793,0.0764134,-0.129915
2.88127,0.0789718,0.353909
2.83657,-0.0609033,0.5173
2.81018,0.0770233,-0.0654159
2.72999,-0.0681499,-0.0794753
2.8032,0.0670401,0
2.67651,-0.197959,-0.0312447
2.69739,-0.067336,-0.34345
2.75925,0.0659889,-0.297301
2.65716,-0.196528,-0.248718
2.82643,0.0675956,0.0657882
2.69246,-0.19914,0.0314309
2.76845,0.066209,-0.193644
2.76272,-0.0689668,0.0482385
2.66021,-0.196754,-0.155347
2.83439,0.0677859,0.165115
2.76884,-0.0691196,0.112841
2.78818,0.0666809,-0.129915
2.86962,0.0686287,0.352446
2.77391,-0.0692461,0.226519
2.83241,-0.0707066,0.516582
2.80644,0.0671176,-0.0653229
2.8527,0.197979,-0.0499139
2.72574,-0.0775652,-0.079359
2.80342,0.0572547,0
2.66782,-0.206683,-0.0311515
2.68524,-0.0764126,-0.341934
2.75151,0.0561945,-0.296445
2.81865,0.0575658,0.0656021
2.68776,-0.208228,0.0313844
2.76467,0.0564634,-0.193365
2.87586,0.199587,0.0838971
2.66349,-0.206347,-0.15558
2.83061,0.0578101,0.164882
2.7566,-0.0784432,0.112352
2.77641,0.0567032,-0.129357
2.86588,0.0585303,0.351959
2.76966,-0.078815,0.226193
2.82821,-0.0804811,0.515865
2.80266,0.0572392,-0.0652298
2.84935,0.188255,-0.0498441
2.72147,-0.0864767,-0.0792426
2.68894,-0.0854428,-0.342439
2.8657,0.189335,0.0166918
2.81483,0.0481501,0.065509
2.68307,-0.216817,0.0313378
2.65483,-0.214536,-0.155115
2.83079,0.0484232,0.164882
2.75632,-0.087584,0.112352
2.77259,0.0474276,-0.12917
2.85811,0.0488906,0.350984
2.82793,-0.0898594,0.515865
2.79883,0.0478765,-0.0651368
2.71716,-0.0958349,-0.0791263
2.78774,0.0379535,0
2.68069,-0.0945487,-0.341429
2.7399,0.0373021,-0.295159
2.81498,0.0383243,0.065509
2.67831,-0.225846,0.0312912
2.75701,0.0375351,-0.192807
2.65805,-0.224137,-0.155347
2.83094,0.0385416,0.164882
2.75999,-0.0973457,0.112515
2.77673,0.0378036,-0.129357
2.85827,0.0389136,0.350984
2.81973,-0.0994527,0.51443
2.79498,0.0380521,-0.0650437
2.71279,-0.105638,-0.0790099
2.78786,0.0277356,0
2.65755,-0.233907,-0.0310584
2.6724,-0.104064,-0.340419
2.74001,0.0272596,-0.295159
2.8111,0.0279668,0.0654159
2.68145,-0.236011,0.0313378
2.75314,0.0273902,-0.192528
2.7415,-0.106756,0.0478894
2.6413,-0.232477,-0.154417
2.82308,0.028086,0.164417
2.75163,-0.10715,0.112189
2.76487,0.0275068,-0.128798
2.84648,0.0283188,0.349521
2.75673,-0.107349,0.225217
2.81149,-0.109481,0.512995
2.78711,0.0277281,-0.0648576
2.70444,-0.114295,-0.0787772
2.77994,0.0184375,0
2.65277,-0.242355,-0.0310118
2.676,-0.113093,-0.340924
2.84756,0.158206,0.0165756
2.73351,-0.115524,-0.0159014
2.72816,0.0180941,-0.293874
2.79918,0.0185651,0.0651368
2.67667,-0.244538,0.0312912
2.75322,0.0182603,-0.192528
2.74114,-0.115846,0.0478894
2.63653,-0.240871,-0.154185
2.81118,0.0186447,0.16372
2.74327,-0.115937,0.111864
2.76095,0.0183116,-0.128612
2.84656,0.0188794,0.349521
2.75636,-0.11649,0.225217
2.81111,-0.118803,0.512995
2.77519,0.018406,-0.0645785
2.70003,-0.123552,-0.0786608
2.77599,0.00872105,0
2.65589,-0.251991,-0.0310584
2.66766,-0.122071,-0.339914
2.84011,0.14785,0.0165291
2.72423,0.00855844,-0.293446
2.79923,0.00879407,0.0651368
2.65987,-0.252369,0.031105
2.74528,0.00862459,-0.19197
2.85093,0.148413,0.0830826
2.73672,-0.125231,0.0478196
2.80643,0.146097,-0.180104
2.63965,-0.25045,-0.154417
2.81522,0.00884429,0.163952
2.73886,-0.125329,0.111701
2.76099,0.00867394,-0.128612
2.83073,0.00889302,0.347571
2.75196,-0.125928,0.224891
2.80674,-0.128435,0.512277
2.77923,0.00873125,-0.0646715
2.82427,0.136647,-0.0493554
2.70755,-0.133842,-0.0788935
2.768,-0.00144932,0
2.64301,-0.260547,-0.0309187
2.66323,-0.131652,-0.339409
2.83663,0.137246,0.0165058
2.72463,-0.134687,-0.0158549
2.72424,-0.00142641,-0.293446
2.79924,-0.00146568,0.0651368
2.66689,-0.262901,0.0311981
2.74131,-0.00143534,-0.191691
2.84746,0.13777,0.0829662
2.63077,-0.25934,-0.153952
2.81124,-0.00147196,0.16372
2.73439,-0.135169,0.111538
2.75701,-0.00144357,-0.128426
2.83074,-0.00148217,0.347571
2.74351,-0.13562,0.22424
2.80232,-0.138527,0.51156
2.77925,-0.00145521,-0.0646715
2.69109,-0.142447,-0.0784281
2.77198,-0.0111275,0
2.64606,-0.270177,-0.0309653
2.69555,-0.0108207,-0.419368
2.66276,-0.140947,-0.339409
2.8331,0.127164,0.0164826
2.72422,-0.0109358,-0.293446
2.79522,-0.0112208,0.0650437
2.66198,-0.271802,0.0311515
2.74128,-0.0110043,-0.191691
2.63779,-0.269333,-0.154417
2.81121,-0.011285,0.16372
2.72991,-0.144502,0.111375
2.75299,-0.0110513,-0.12824
2.83072,-0.0113633,0.347571
2.80182,-0.148308,0.51156
2.77123,-0.0111245,-0.0644854
2.69462,-0.151125,-0.0785444
2.76393,-0.0197786,0
2.64122,-0.27807,-0.0309187
2.69155,-0.0192607,-0.418754
2.65834,-0.14909,-0.338904
2.71569,-0.152306,-0.0158084
2.71622,-0.0194372,-0.292589
2.78717,-0.0199449,0.0648576
2.65713,-0.279745,0.031105
2.73725,-0.0195877,-0.191412
2.84032,0.118548,0.0827335
2.7233,-0.152733,0.0476102
2.62105,-0.275946,-0.153487
2.79519,-0.0200023,0.162789
2.72944,-0.153077,0.111375
2.74895,-0.0196714,-0.128054
2.82273,-0.0201994,0.346596
2.79349,-0.156669,0.510125
2.75918,-0.0197446,-0.0642063
2.68211,-0.159816,-0.0781954
2.76384,-0.0294264,0
2.64024,-0.287288,-0.0309187
2.65384,-0.158132,-0.338399
2.82589,0.108066,0.0164361
2.71115,-0.161547,-0.0157852
2.71216,-0.0288761,-0.292161
2.77909,-0.0295887,0.0646715
2.65614,-0.289018,0.031105
2.73317,-0.0290998,-0.191133
2.83672,0.10848,0.0826171
2.71876,-0.162,0.0475404
2.62007,-0.285093,-0.153487
2.79111,-0.0297167,0.162557
2.72091,-0.162129,0.111049
2.74487,-0.0292244,-0.127868
2.81867,-0.0300102,0.346109
2.78507,-0.165951,0.50869
2.7591,-0.0293759,-0.0642063
2.67754,-0.168926,-0.078079
2.75572,-0.0389607,0
2.63524,-0.296056,-0.0308722
2.6874,-0.0379948,-0.418139
2.65327,-0.167395,-0.338399
2.82625,0.0982008,0.0164361
2.70657,-0.170757,-0.0157619
2.70806,-0.0382869,-0.291732
2.77497,-0.0392329,0.0645785
2.65114,-0.297842,0.0310584
2.72507,-0.0385274,-0.190575
2.82909,0.0982997,0.0823844
2.71818,-0.17149,0.0475404
2.62303,-0.294683,-0.15372
2.79898,-0.0395723,0.163022
2.71235,-0.171122,0.110724
2.73276,-0.0386361,-0.127309
2.81061,-0.0397367,0.345134
2.7884,-0.17592,0.509408
2.75898,-0.0390067,-0.0642063
2.67693,-0.178271,-0.078079
2.75157,-0.0485093,0
2.63022,-0.304792,-0.0308256
2.64872,-0.176392,-0.337894
2.81858,0.0880849,0.0163896
2.71189,-0.0478097,-0.292161
2.77082,-0.0488486,0.0644854
2.64611,-0.306634,0.0310118
2.72093,-0.0479691,-0.190296
2.82542,0.0882989,0.082268
2.71358,-0.180711,0.0474705
2.61405,-0.302918,-0.153254
2.79084,-0.0492015,0.162557
2.71573,-0.180854,0.110887
2.73661,-0.0482454,-0.127495
2.81045,-0.0495473,0.345134
2.78384,-0.18539,0.50869
2.7985,0.0776803,-0.0488667
2.75139,-0.0581137,0
2.62517,-0.313497,-0.030779
2.64017,-0.185081,-0.336884
2.71171,-0.0572756,-0.292161
2.64503,-0.315868,0.0310118
2.71676,-0.0573823,-0.190017
2.82172,0.0783249,0.0821517
2.70495,-0.189623,0.0473309
2.61694,-0.312514,-0.153487
2.78666,-0.0588587,0.162324
2.71109,-0.190054,0.110724
2.73642,-0.0577977,-0.127495
2.79836,-0.0591058,0.343672
2.77532,-0.194556,0.507255
2.67559,-0.197422,-0.078079
2.74316,-0.0679994,0
2.624,-0.323117,-0.030779
2.67499,-0.0663096,-0.416294
2.63551,-0.194465,-0.336379
2.80314,0.0675282,0.0162966
2.69263,-0.19868,-0.0156922
2.70353,-0.067017,-0.291304
2.63988,-0.325072,0.0309653
2.71254,-0.0672405,-0.189738
2.82199,0.0679822,0.0821517
2.70025,-0.199241,0.0472611
2.60389,-0.32064,-0.152789
2.77844,-0.068874,0.161859
2.71436,-0.200283,0.110887
2.7282,-0.0676287,-0.127123
2.80209,-0.0694603,0.344159
2.77067,-0.204438,0.506538
2.74641,-0.0680801,-0.0639271
2.78698,0.0574057,-0.0486573
2.7469,-0.0776875,0
2.61889,-0.331771,-0.0307325
2.67079,-0.0755349,-0.415679
2.79936,0.0576606,0.0162734
2.69532,-0.0762288,-0.290447
2.76215,-0.0781187,0.0642993
2.71628,-0.0768214,-0.190017
2.81421,0.0579666,0.0819189
2.69555,-0.208358,0.0471913
2.76574,0.0569681,-0.17729
2.60671,-0.330229,-0.153022
2.7702,-0.0783463,0.161394
2.70169,-0.208833,0.110398
2.72396,-0.0770386,-0.126937
2.79786,-0.0791287,0.343672
2.73417,-0.0773273,-0.0636479
2.65824,-0.214344,-0.0776135
2.73863,-0.0865435,0
2.61381,-0.339938,-0.0306859
2.66262,-0.0841415,-0.414449
2.79554,0.0483082,0.0162501
2.69108,-0.0850408,-0.290019
2.63364,-0.342518,0.0309187
2.70803,-0.0855765,-0.189459
2.81439,0.048634,0.0819189
2.69086,-0.216974,0.0471215
2.76192,0.0477273,-0.177034
2.60164,-0.338356,-0.152789
2.77391,-0.0876584,0.161626
2.69302,-0.217148,0.110073
2.72369,-0.0860711,-0.126937
2.66767,-0.215104,-0.14026
2.78965,-0.0881556,0.342697
2.71016,-0.21853,0.221962
2.78331,0.038379,-0.0485875
2.65748,-0.223622,-0.0776135
2.73831,-0.0961026,0
2.61261,-0.34906,-0.0306859
2.66231,-0.0934353,-0.414449
2.79569,0.0385497,0.0162501
2.69872,-0.0947129,-0.290876
2.74956,-0.0964973,0.0640202
2.63243,-0.351709,0.0309187
2.70373,-0.0948888,-0.18918
2.64979,-0.222975,-0.21708
2.80255,0.0386443,0.0815699
2.69008,-0.226365,0.0471215
2.75808,0.0380311,-0.176779
2.59649,-0.346907,-0.152557
2.7696,-0.0972005,0.161394
2.69224,-0.226547,0.110073
2.71538,-0.0952977,-0.126565
2.78535,-0.0977535,0.342209
2.73358,-0.0959363,-0.0636479
2.77543,0.0285808,-0.0484479
2.6527,-0.232548,-0.0774972
2.73396,-0.105506,0
2.61137,-0.358178,-0.0306859
2.65802,-0.102576,-0.413834
2.6944,-0.103979,-0.290447
2.62722,-0.360352,0.0308722
2.69541,-0.104018,-0.188622
2.64502,-0.231875,-0.216755
2.80266,0.0288613,0.0815699
2.68529,-0.235405,0.0470517
2.7542,0.0283623,-0.176523
2.59526,-0.355968,-0.152557
2.76525,-0.106714,0.161161
2.68746,-0.235595,0.10991
2.71903,-0.10493,-0.126751
2.78896,-0.107629,0.342697
2.77152,0.0183817,-0.0483781
2.64785,-0.241905,-0.0773808
2.72956,-0.115357,0
2.60608,-0.367189,-0.0306393
2.66553,-0.112651,-0.415064
2.77989,0.0184372,0.0161571
2.68208,-0.11335,-0.289162
2.74481,-0.116001,0.0639271
2.62192,-0.369421,0.0308256
2.69899,-0.114065,-0.188901
2.79875,0.0185623,0.0814535
2.68043,-0.244881,0.0469819
2.58603,-0.364364,-0.152092
2.76085,-0.116679,0.160929
2.68657,-0.245443,0.10991
2.70665,-0.114389,-0.126192
2.78458,-0.117682,0.342209
2.71684,-0.114819,-0.0632757
2.77156,0.00919088,-0.0483781
2.64305,-0.250307,-0.0772645
2.72917,-0.124408,0
2.60485,-0.375829,-0.0306393
2.77594,0.00920539,0.0161339
2.66802,-0.252672,-0.0155759
2.68169,-0.122244,-0.289162
2.74041,-0.124921,0.0638341
2.62068,-0.378113,0.0308256
2.68664,-0.12247,-0.188063
2.7948,0.00926795,0.0813371
2.67562,-0.253392,0.0469121
2.74635,0.00910728,-0.176011
2.58876,-0.373508,-0.152324
2.74848,-0.125289,0.160231
2.67381,-0.25322,0.109421
2.70226,-0.123182,-0.126006
2.77625,-0.126554,0.341234
2.7577,0.0091449,-0.112352
2.71644,-0.123828,-0.0632757
2.76758,-0.000483046,-0.0483083
2.63818,-0.259141,-0.0771481
2.72472,-0.133738,0
2.60352,-0.384919,-0.0306393
2.77195,-0.000483809,0.0161106
2.67727,-0.131409,-0.288734
2.73597,-0.13429,0.063741
2.6862,-0.131847,-0.188063
2.63452,-0.258781,-0.216104
2.79082,-0.000487102,0.0812208
2.67472,-0.26273,0.0469121
2.74637,-0.000479343,-0.176011
2.74404,-0.134686,0.159999
2.67291,-0.262552,0.109421
2.69782,-0.132418,-0.12582
2.63966,-0.259286,-0.139004
2.76786,-0.135855,0.340259
2.75372,-0.000480626,-0.112189
2.71599,-0.133309,-0.0632757
2.76356,-0.00964671,-0.0482385
2.63731,-0.267888,-0.0771481
2.72027,-0.142563,0
2.59037,-0.391756,-0.0304996
2.77994,-0.00970386,0.0161571
2.66888,-0.13987,-0.287877
2.61014,-0.394747,0.0307325
2.68176,-0.140545,-0.187784
2.62571,-0.26671,-0.215453
2.7828,-0.00971388,0.080988
2.66587,-0.27079,0.0467725
2.74236,-0.00957269,-0.175755
2.74757,-0.143994,0.160231
2.67998,-0.272222,0.109747
2.69737,-0.141363,-0.12582
2.63878,-0.268038,-0.139004
2.76343,-0.144825,0.339772
2.70755,-0.141897,-0.0630896
2.76751,-0.0193212,-0.0483083
2.63636,-0.277092,-0.0771481
2.71177,-0.151611,0
2.59689,-0.40202,-0.0305928
2.65334,-0.278877,-0.0155062
2.66837,-0.149185,-0.287877
2.72301,-0.15224,0.0634618
2.60479,-0.403243,0.0306859
2.67727,-0.149683,-0.187505
2.62476,-0.275874,-0.215453
2.77476,-0.0193718,0.0807553
2.66094,-0.279676,0.0467026
2.73432,-0.0190895,-0.175244
2.74306,-0.153361,0.159999
2.66708,-0.280322,0.109258
2.69287,-0.150555,-0.125634
2.77083,-0.154914,0.340747
2.70704,-0.151347,-0.0630896
2.75143,-0.0292942,-0.048029
2.63135,-0.286321,-0.0770317
2.7072,-0.161311,0
2.5875,-0.410282,-0.0304996
2.64435,-0.287735,-0.0154597
2.65987,-0.158491,-0.28702
2.67272,-0.159257,-0.187226
2.61977,-0.285061,-0.215128
2.77067,-0.0294991,0.080639
2.65194,-0.288561,0.046563
2.72625,-0.0290262,-0.174732
2.73451,-0.162939,0.159533
2.67001,-0.290528,0.109421
2.68831,-0.160186,-0.125448
2.76628,-0.164832,0.340259
2.69848,-0.160792,-0.0629035
2.74331,-0.0387852,-0.0478894
2.71061,-0.171012,0
2.58605,-0.419312,-0.0304996
2.6593,-0.167775,-0.28702
2.71786,-0.171469,0.0633688
2.67215,-0.168586,-0.187226
2.61876,-0.294204,-0.215128
2.77055,-0.0391703,0.080639
2.65092,-0.297817,0.046563
2.72613,-0.0385424,-0.174732
2.72994,-0.172231,0.159301
2.66501,-0.2994,0.109258
2.67976,-0.169066,-0.125076
2.76173,-0.174237,0.339772
2.6663,-0.299545,0.219033
2.73746,-0.0387024,-0.111538
2.69391,-0.169959,-0.0628105
2.73917,-0.0478123,-0.0478196
2.62139,-0.303306,-0.076799
2.69806,-0.179205,0
2.5807,-0.427232,-0.0304531
2.65873,-0.176593,-0.28702
2.7093,-0.179951,0.0631827
2.59648,-0.429845,0.0306393
2.67158,-0.177446,-0.187226
2.76641,-0.0482878,0.0805226
2.65389,-0.307065,0.0466328
2.71801,-0.047443,-0.17422
2.72935,-0.181283,0.159301
2.65606,-0.307317,0.108933
2.6752,-0.177686,-0.12489
2.62685,-0.303936,-0.138586
2.75321,-0.182868,0.338797
2.66529,-0.308385,0.219033
2.72932,-0.0476405,-0.111212
2.68935,-0.178626,-0.0627174
2.74298,-0.0574572,-0.0478894
2.61238,-0.311507,-0.0765663
2.69741,-0.188622,0
2.57525,-0.435571,-0.0304065
2.74735,-0.0575488,0.0159711
2.65413,-0.185595,-0.286592
2.70865,-0.189407,0.0631827
2.59102,-0.438239,0.0305928
2.66298,-0.186214,-0.186668
2.60878,-0.311078,-0.214477
2.75823,-0.0577766,0.0802899
2.64883,-0.315854,0.046563
2.71384,-0.0568468,-0.173965
2.72472,-0.190531,0.159068
2.65497,-0.316586,0.108933
2.67855,-0.187302,-0.125076
2.6218,-0.312631,-0.138376
2.74464,-0.191924,0.337822
2.72514,-0.0570836,-0.111049
2.69269,-0.188292,-0.0628105
2.73877,-0.066934,-0.0478196
2.61128,-0.320624,-0.0765663
2.69674,-0.198036,0
2.56977,-0.443876,-0.0303599
2.64553,-0.194276,-0.285735
2.70399,-0.198568,0.0630896
2.65833,-0.195216,-0.186389
2.75401,-0.0673066,0.0801735
2.63977,-0.324123,0.0464234
2.70963,-0.0662219,-0.173709
2.72005,-0.199748,0.158836
2.65782,-0.326339,0.109096
2.67788,-0.196651,-0.125076
2.74395,-0.201503,0.337822
2.65516,-0.326013,0.218382
2.73452,-0.076382,-0.0477498
2.68805,-0.206834,0
2.6488,-0.203814,-0.286163
2.70328,-0.208006,0.0630896
2.65366,-0.204188,-0.18611
2.75776,-0.0770311,0.0802899
2.63466,-0.332834,0.0463536
2.70539,-0.0755684,-0.173453
2.7074,-0.208323,0.158138
2.6527,-0.335114,0.108933
2.61163,-0.329926,-0.137958
2.73927,-0.210775,0.337334
2.65005,-0.334779,0.218057
2.71669,-0.0758839,-0.110724
2.68334,-0.206472,-0.0626244
2.73024,-0.0858011,-0.04768
2.60501,-0.338332,-0.0764499
2.68333,-0.215896,0
2.56661,-0.461806,-0.0303599
2.62987,-0.34156,-0.0154132
2.63618,-0.212102,-0.284878
2.69456,-0.216799,0.0629035
2.65293,-0.21345,-0.18611
2.74548,-0.0862802,0.0799408
2.63348,-0.342029,0.0463536
2.70511,-0.0850116,-0.173453
2.69869,-0.217132,0.157673
2.64755,-0.343857,0.10877
2.61046,-0.33904,-0.137958
2.73852,-0.220336,0.337334
2.71241,-0.0852409,-0.110561
2.67463,-0.215196,-0.0624383
2.71793,-0.0949122,-0.0474705
2.59589,-0.346365,-0.0762172
2.6706,-0.224257,0
2.73029,-0.0953438,0.0158782
2.63939,-0.221636,-0.285307
2.6898,-0.225869,0.0628105
2.57285,-0.472206,0.0304531
2.64024,-0.221707,-0.185273
2.74117,-0.0957237,0.0798244
2.63227,-0.351219,0.0463536
2.69682,-0.094175,-0.172941
2.7019,-0.226885,0.157906
2.64237,-0.352568,0.108607
2.65974,-0.223345,-0.124331
2.60134,-0.347093,-0.137539
2.72982,-0.229229,0.336359
2.7121,-0.0947085,-0.110561
2.66589,-0.223861,-0.0622522
2.71758,-0.104399,-0.0474705
2.59862,-0.355967,-0.0763336
2.67379,-0.233926,0
2.55939,-0.478977,-0.0303134
2.73394,-0.105027,0.0159014
2.62671,-0.229808,-0.284021
2.68501,-0.234908,0.0627174
2.56725,-0.480448,0.0304065
2.63945,-0.230922,-0.185273
2.73682,-0.105138,0.0797081
2.62706,-0.359863,0.0462838
2.69648,-0.103588,-0.172941
2.70109,-0.236315,0.157906
2.63716,-0.361247,0.108444
2.60012,-0.356172,-0.137539
2.72109,-0.238065,0.335384
2.66908,-0.233514,-0.0623452
2.7212,-0.114052,-0.0475404
2.59736,-0.365036,-0.0763336
2.66897,-0.242895,0
2.55377,-0.487158,-0.0302668
2.72156,-0.114067,0.0158317
2.68418,-0.244279,0.0627174
2.63465,-0.239772,-0.184994
2.73644,-0.114691,0.0797081
2.61787,-0.367918,0.0461442
2.69229,-0.245018,0.15744
2.63193,-0.369894,0.108281
2.65812,-0.241908,-0.124331
2.59886,-0.365246,-0.137539
2.7242,-0.247922,0.335872
2.70484,-0.12188,-0.0472611
2.58829,-0.372056,-0.0761008
2.66819,-0.251279,0
2.55616,-0.495941,-0.0303134
2.6834,-0.252711,0.0627174
2.62991,-0.247674,-0.184715
2.62066,-0.376709,0.046214
2.67958,-0.252352,0.156743
2.63075,-0.37816,0.108281
2.72341,-0.256479,0.335872
2.69503,-0.121438,-0.10991
2.65951,-0.250461,-0.0621591
2.7084,-0.131515,-0.0473309
2.58697,-0.381089,-0.0761008
2.65934,-0.259813,0
2.54264,-0.502534,-0.0301737
2.67056,-0.260909,0.0624383
2.62506,-0.256464,-0.184436
2.72364,-0.132255,0.079359
2.61537,-0.385272,0.0461442
2.68333,-0.130298,-0.172174
2.68266,-0.262092,0.156975
2.62942,-0.387341,0.108281
2.64055,-0.257978,-0.123587
2.58847,-0.38131,-0.13712
2.71854,-0.265597,0.335384
2.62682,-0.386958,0.216755
2.69459,-0.130844,-0.10991
2.65464,-0.259354,-0.0620661
2.69991,-0.141024,-0.0471913
2.57765,-0.389373,-0.0758681
2.65041,-0.268751,0
2.71226,-0.141669,0.0157852
2.67356,-0.271099,0.0625313
2.61616,-0.265279,-0.183878
2.71914,-0.142028,0.0792426
2.60999,-0.394258,0.0460744
2.66976,-0.270714,0.156278
2.62403,-0.396379,0.108119
2.63959,-0.267654,-0.123587
2.57916,-0.389601,-0.136702
2.7057,-0.274358,0.333922
2.62144,-0.395988,0.21643
2.6901,-0.140511,-0.109747
2.64571,-0.268275,-0.06188
2.69943,-0.149976,-0.0471913
2.57635,-0.397919,-0.0758681
2.6495,-0.277539,0
2.70778,-0.15044,0.0157619
2.66867,-0.279547,0.0624383
2.55082,-0.522681,0.0303134
2.60471,-0.4023,0.0460045
2.68235,-0.149027,-0.172174
2.67282,-0.279982,0.15651
2.6148,-0.403858,0.107793
2.63471,-0.27599,-0.123401
2.70083,-0.282915,0.333435
2.68164,-0.148988,-0.109421
2.69489,-0.159162,-0.0471215
2.57494,-0.40691,-0.0758681
2.64454,-0.286355,0
2.6637,-0.28843,0.0623452
2.54898,-0.531582,0.0303134
2.6143,-0.28308,-0.183878
2.71013,-0.160062,0.0790099
2.60329,-0.41139,0.0460045
2.67783,-0.158154,-0.171918
2.67183,-0.28931,0.15651
2.61732,-0.413607,0.107956
2.62976,-0.284755,-0.123214
2.70377,-0.292769,0.333922
2.61475,-0.4132,0.216104
2.6478,-0.286708,-0.061973
2.68634,-0.168069,-0.0469819
2.57351,-0.415895,-0.0758681
2.63955,-0.29514,0
2.65871,-0.297282,0.0622522
2.61726,-0.292648,-0.184157
2.70556,-0.169271,0.0788935
2.60184,-0.420474,0.0460045
2.66531,-0.166753,-0.17115
2.66287,-0.297747,0.156045
2.63272,-0.294376,-0.123401
2.69879,-0.301764,0.333435
2.61329,-0.422324,0.216104
2.67654,-0.167456,-0.109258
2.63884,-0.29506,-0.0617869
2.68973,-0.177708,-0.0470517
2.57204,-0.424876,-0.0758681
2.64248,-0.30481,0
2.69807,-0.17826,0.0157154
2.64971,-0.305644,0.0620661
2.60829,-0.300867,-0.183599
2.70097,-0.178451,0.0787772
2.59641,-0.428902,0.0459347
2.66471,-0.176056,-0.17115
2.65388,-0.306125,0.15558
2.62374,-0.302649,-0.123028
2.69377,-0.310727,0.332947
2.6118,-0.431444,0.216104
2.67195,-0.176534,-0.109096
2.67712,-0.186263,-0.0468423
2.55871,-0.431855,-0.075519
2.62551,-0.312144,0
2.64465,-0.31442,0.061973
2.5993,-0.309028,-0.183041
2.70033,-0.187878,0.0787772
2.5949,-0.437963,0.0459347
2.6601,-0.185079,-0.170895
2.65279,-0.315387,0.15558
2.60103,-0.438997,0.107467
2.61473,-0.310862,-0.122656
2.68085,-0.318722,0.331485
2.60635,-0.439895,0.215779
2.67132,-0.18586,-0.109096
2.67645,-0.195607,-0.0468423
2.56113,-0.441463,-0.0756354
2.6244,-0.321306,0
2.68878,-0.196508,0.0156689
2.64354,-0.323649,0.061973
2.5257,-0.563635,0.0301271
2.65944,-0.194364,-0.170895
2.65564,-0.32513,0.155813
2.59948,-0.448073,0.107467
2.61363,-0.319987,-0.122656
2.68366,-0.328561,0.331972
2.67177,-0.204643,-0.0467725
2.55564,-0.449708,-0.075519
2.62327,-0.330465,0
2.63843,-0.332375,0.06188
2.59312,-0.326668,-0.182762
2.5839,-0.454681,0.0457951
2.64656,-0.3334,0.155347
2.6125,-0.329109,-0.122656
2.67856,-0.33743,0.331485
2.658,-0.203589,-0.108607
2.55012,-0.457919,-0.0754027
2.61416,-0.338593,0
2.63725,-0.341583,0.06188
2.58801,-0.335205,-0.182483
2.57836,-0.462991,0.0457253
2.64608,-0.211969,-0.170127
2.64142,-0.342123,0.155115
2.60341,-0.337199,-0.122284
2.67736,-0.346778,0.331485
2.65329,-0.212547,-0.108444
2.61742,-0.339015,-0.0614147
2.6623,-0.222624,-0.0466328
2.61297,-0.347716,0
2.67462,-0.223654,0.0155992
2.62811,-0.349732,0.0616939
2.59078,-0.344763,-0.182762
2.6815,-0.224229,0.0783117
2.64532,-0.221204,-0.170127
2.63625,-0.350815,0.154882
2.60221,-0.346285,-0.122284
2.6722,-0.355598,0.330997
2.65253,-0.221807,-0.108444
2.65756,-0.231105,-0.046563
2.6118,-0.356379,0
2.66988,-0.232176,0.0155759
2.62694,-0.358445,0.0616939
2.67676,-0.232774,0.0781954
2.57515,-0.480531,0.0457253
2.64457,-0.229975,-0.170127
2.63112,-0.359015,0.15465
2.60105,-0.354912,-0.122284
2.61505,-0.356823,-0.0614147
2.65276,-0.240019,-0.0464932
2.60658,-0.364939,0
2.66108,-0.240773,0.0155294
2.62171,-0.367058,0.0616008
2.6358,-0.238485,-0.169615
2.6259,-0.367644,0.154417
2.59584,-0.363436,-0.122098
2.6519,-0.249278,-0.0464932
2.60529,-0.374035,0
2.66023,-0.25006,0.0155294
2.61646,-0.375639,0.0615077
2.66711,-0.250707,0.0779626
2.56388,-0.496975,0.0455857
2.62701,-0.246937,-0.169104
2.62064,-0.37624,0.154185
2.5906,-0.371927,-0.121912
2.64306,-0.257757,-0.0463536
2.59605,-0.381963,0
2.65536,-0.258956,0.0155062
2.6301,-0.256493,-0.16936
2.58929,-0.380967,-0.121912
2.63729,-0.257194,-0.107956
2.63807,-0.2675,-0.0462838
2.59852,-0.392525,0
2.65434,-0.26915,0.0155062
2.60968,-0.394211,0.0614147
2.6652,-0.270251,0.0779626
2.55625,-0.514966,0.0455159
2.62115,-0.265785,-0.168848
2.61387,-0.394844,0.153952
2.5799,-0.389713,-0.121539
2.63628,-0.267319,-0.107956
2.64119,-0.276202,-0.0463536
2.59332,-0.400077,0
2.65349,-0.277488,0.0155062
2.60843,-0.402408,0.0614147
2.65638,-0.277791,0.0777299
2.62428,-0.274433,-0.169104
2.60867,-0.402445,0.15372
2.57867,-0.397816,-0.121539
2.63146,-0.275184,-0.107793
2.63624,-0.28499,-0.0462838
2.58401,-0.40788,0
2.64852,-0.286319,0.0154829
2.60306,-0.410887,0.0613216
2.61933,-0.283163,-0.168848
2.60725,-0.411548,0.15372
2.55887,-0.533179,0.10649
2.62253,-0.283509,-0.107467
2.63523,-0.294191,-0.0462838
2.58257,-0.416897,0
2.64353,-0.295118,0.0154597
2.60161,-0.419971,0.0613216
2.6104,-0.291419,-0.168336
2.60579,-0.420646,0.15372
2.5811,-0.425909,0
2.63454,-0.303429,0.0154132
2.64141,-0.30422,0.0773808
2.61333,-0.300986,-0.168592
2.60037,-0.42909,0.153487
2.61652,-0.301353,-0.107304
2.57959,-0.434916,0
2.64141,-0.313566,0.0154597
2.59467,-0.437458,0.0612286
2.64033,-0.313439,0.0773808
2.53535,-0.556041,0.0453064
2.60433,-0.309165,-0.16808
2.59492,-0.4375,0.153254
2.61148,-0.310014,-0.107142
2.61612,-0.319829,-0.0460045
2.57412,-0.44324,0
2.63236,-0.321814,0.0154132
2.58524,-0.445155,0.0610425
2.63922,-0.322653,0.0773808
2.6072,-0.318738,-0.168336
2.59338,-0.446555,0.153254
2.61038,-0.319128,-0.107142
2.61499,-0.328959,-0.0460045
2.57649,-0.452915,0
2.63122,-0.331001,0.0154132
2.58761,-0.454869,0.0611355
2.63015,-0.330866,0.0771481
2.5275,-0.572843,0.0452366
2.60211,-0.327339,-0.16808
2.59573,-0.456297,0.153487
2.60132,-0.32724,-0.106816
2.60589,-0.337059,-0.0458649
2.56702,-0.460493,0
2.63005,-0.340183,0.0154132
2.62898,-0.340045,0.0771481
2.59304,-0.335396,-0.167569
2.58626,-0.463945,0.153022
2.60016,-0.336318,-0.106816
2.56147,-0.468731,0
2.61695,-0.347781,0.0153435
2.58044,-0.472203,0.0610425
2.62381,-0.348693,0.0770317
2.59185,-0.344445,-0.167569
2.5807,-0.472251,0.152789
2.59897,-0.345392,-0.106816
2.56077,-0.468604,-0.0605772
2.59951,-0.354702,-0.0457951
2.56375,-0.478403,0
2.61968,-0.357454,0.0153667
2.57485,-0.480474,0.0609494
2.61862,-0.357309,0.0769154
2.59063,-0.35349,-0.167569
2.57904,-0.481256,0.152789
2.59379,-0.353922,-0.106653
2.5943,-0.36322,-0.0457253
2.5542,-0.485854,0
2.61842,-0.366597,0.0153667
2.56922,-0.488712,0.0608564
2.61735,-0.366448,0.0769154
2.58126,-0.491002,0.153022
2.59254,-0.362974,-0.106653
2.59308,-0.371821,-0.0457253
2.54472,-0.4928,0
2.61719,-0.375277,0.0153667
2.56759,-0.497229,0.0608564
2.61217,-0.374557,0.076799
2.5757,-0.4988,0.152789
2.58341,-0.370434,-0.106327
2.59572,-0.381451,-0.0457951
2.54299,-0.50168,0
2.60795,-0.383248,0.0153202
2.60689,-0.383092,0.0766826
2.57815,-0.378869,-0.106165
2.58244,-0.389175,-0.0455857
2.54113,-0.510997,0
2.59861,-0.391612,0.0152737
2.60546,-0.392644,0.0766826
2.57674,-0.388316,-0.106165
2.58114,-0.397736,-0.0455857
2.53942,-0.519421,0
