2.47903,0.551404,-0.0443291
2.53887,0.435801,0
2.66485,0.192889,-0.031105
2.60362,0.316917,-0.333853
2.48717,0.553216,0.0148088
2.53995,0.435986,-0.277596
2.6813,0.19408,-0.250949
2.66485,0.192889,0.031105
2.61593,0.318415,-0.215128
2.48616,0.552991,0.0741227
2.62026,0.318943,0.0460744
2.48602,0.552959,-0.16322
2.67645,0.193729,-0.156278
2.54793,0.437357,-0.120423
2.60517,0.317106,-0.137539
2.55516,0.438598,0.318323
2.60801,0.317452,0.214477
2.48125,0.551899,-0.103559
2.49276,0.544876,-0.0445385
2.54439,0.427155,0
2.66953,0.183394,-0.0311515
2.60871,0.307837,-0.334358
2.48528,0.543241,0.0147855
2.62176,0.309378,-0.0153435
2.54545,0.427332,-0.278024
2.61312,0.308357,-0.214802
2.48427,0.54302,0.0740063
2.61744,0.308867,0.0460045
2.48803,0.543843,-0.16322
2.68511,0.184465,-0.156743
2.55346,0.428677,-0.120609
2.61425,0.308491,-0.137958
2.55284,0.428572,0.317835
2.61312,0.308357,0.214802
2.48326,0.5428,-0.103559
2.55948,0.429688,-0.0603911
2.48673,0.534925,-0.0443989
2.54974,0.419365,0
2.67411,0.174802,-0.0311981
2.60971,0.299185,-0.334358
2.48707,0.534997,0.0147855
2.62675,0.301138,-0.0153667
2.54685,0.418889,-0.278024
2.6781,0.175063,0.0312447
2.61809,0.300145,-0.215128
2.49778,0.537302,0.0743554
2.62639,0.301098,0.0461442
2.49763,0.537269,-0.163731
2.67375,0.174779,-0.156045
2.56513,0.421896,0.151394
2.55881,0.420856,-0.120795
2.61923,0.300276,-0.138167
2.566,0.422038,0.319298
2.61809,0.300145,0.215128
2.49286,0.536244,-0.103885
2.63111,0.301638,0.482861
2.56484,0.421847,-0.0604842
2.49641,0.527897,-0.0445385
2.55514,0.411098,0
2.6787,0.165714,-0.0312447
2.61468,0.290512,-0.334863
2.49674,0.527968,0.014832
2.63176,0.29241,-0.0153899
2.5483,0.409997,-0.278024
2.69511,0.166729,-0.252064
2.56629,0.412892,0.0604842
2.68269,0.165961,0.0312912
2.49964,0.528581,0.0743554
2.62743,0.291928,0.0461442
2.49558,0.527722,-0.163475
2.67833,0.165691,-0.156278
2.56265,0.412305,0.151161
2.62565,0.291731,0.10763
2.55632,0.411287,-0.120609
2.62423,0.291573,-0.138376
2.56745,0.413079,0.319298
2.62704,0.291885,0.215779
2.49863,0.528366,-0.104048
2.63605,0.292887,0.483578
2.50215,0.519992,-0.0446084
2.69523,0.157294,-0.0314309
2.61963,0.281807,-0.335368
2.50641,0.520877,0.0148785
2.62879,0.282793,-0.0153667
2.5615,0.402952,-0.279309
2.69965,0.157552,-0.252436
2.57167,0.404552,0.0605772
2.68725,0.156828,0.0313378
2.63597,0.283566,-0.21643
2.5093,0.521479,0.0745881
2.63639,0.28361,0.0462838
2.50522,0.520631,-0.163987
2.69484,0.157271,-0.157208
2.6346,0.283418,0.107956
2.56169,0.402982,-0.120795
2.63317,0.283264,-0.138795
2.5728,0.40473,0.319785
2.63201,0.283139,0.216104
2.50828,0.521267,-0.104373
2.57167,0.404552,-0.0605772
2.50778,0.512493,-0.0446782
2.56183,0.394304,0
2.62449,0.273531,-0.335873
2.50812,0.512563,0.0148785
2.64165,0.275318,-0.0154364
2.56675,0.395061,-0.279738
2.70413,0.148818,-0.252808
2.573,0.396023,0.0605772
2.69174,0.148136,0.0313844
2.55954,0.393951,-0.181088
2.64086,0.275237,-0.216755
2.51102,0.513155,0.0745881
2.63731,0.274866,0.0462838
2.50694,0.512321,-0.163987
2.69535,0.148335,-0.157208
2.57723,0.396675,0.151859
2.64348,0.275509,0.108281
2.56696,0.395093,-0.120981
2.63013,0.274117,-0.138586
2.57413,0.396197,0.319785
2.63293,0.27441,0.216104
2.49825,0.510546,-0.103885
2.50572,0.502513,-0.0446084
2.56326,0.384913,0
2.62548,0.26391,-0.335873
2.50606,0.502581,0.0148553
2.64264,0.265635,-0.0154364
2.56032,0.384471,-0.278881
2.70026,0.13868,0.0314775
2.56096,0.384568,-0.181088
2.63789,0.265157,-0.21643
2.50896,0.503163,0.0744718
2.64626,0.265999,0.0464234
2.51271,0.503915,-0.164243
2.70385,0.138865,-0.157673
2.58262,0.38782,0.152092
2.64447,0.265819,0.108281
2.57234,0.386276,-0.121167
2.58342,0.387939,0.32076
2.63392,0.264759,0.216104
2.50794,0.502958,-0.104211
2.57839,0.387184,-0.0606703
2.51138,0.494535,-0.0446782
2.62739,0.254841,-0.527948
2.56855,0.376542,0
2.51172,0.494602,0.0148785
2.64355,0.256408,-0.0154364
2.58764,0.379341,0.0608564
2.70073,0.129253,0.0314775
2.64277,0.256332,-0.216755
2.51462,0.495174,0.0745881
2.64717,0.256759,0.0464234
2.51054,0.494369,-0.163987
2.70432,0.129425,-0.157673
2.58791,0.379381,0.152324
2.64936,0.256972,0.108444
2.57762,0.377873,-0.121353
2.64792,0.256832,-0.139423
2.58083,0.378343,0.320273
2.6388,0.255947,0.21643
2.5136,0.494973,-0.104373
2.58368,0.378761,-0.0607633
2.52095,0.487284,-0.0448178
2.64779,0.247494,-0.53187
2.57381,0.368141,0
2.70915,0.12018,-0.0315706
2.63911,0.246682,-0.337389
2.52521,0.488109,0.0149482
2.65638,0.248296,-0.0155062
2.57081,0.367713,-0.279738
2.72148,0.120727,-0.254295
2.58894,0.370306,0.0608564
2.70915,0.12018,0.0315706
2.57149,0.367809,-0.181646
2.65158,0.247848,-0.217406
2.52026,0.487152,0.0747045
2.65203,0.24789,0.0464932
2.51225,0.485603,-0.163987
2.71273,0.120339,-0.158138
2.58922,0.370345,0.152324
2.65422,0.248094,0.108607
2.58288,0.36944,-0.121539
2.6488,0.247588,-0.139423
2.58606,0.369894,0.32076
2.64364,0.247106,0.216755
2.51532,0.486196,-0.104373
2.66036,0.248668,0.487166
2.58498,0.36974,-0.0607633
2.52255,0.478921,-0.0448178
2.64079,0.238007,-0.530301
2.70954,0.111195,-0.0315706
2.64782,0.238641,-0.338399
2.52682,0.479732,0.0149482
2.65719,0.239485,-0.0155062
2.57596,0.359735,-0.280166
2.72585,0.111864,-0.254667
2.59016,0.361718,0.0608564
2.71353,0.111359,0.0316172
2.57664,0.359831,-0.181925
2.52972,0.480283,0.0749372
2.65284,0.239094,0.0464932
2.52169,0.478758,-0.164499
2.7211,0.111669,-0.158603
2.59043,0.361757,0.152324
2.65901,0.239649,0.10877
2.58409,0.360872,-0.121539
2.65359,0.239161,-0.139632
2.59121,0.361865,0.321248
2.64842,0.238695,0.21708
2.52084,0.478597,-0.104536
2.59412,0.362271,-0.0609494
2.52814,0.470845,-0.0448876
2.64551,0.229127,-0.531086
2.7179,0.102037,-0.0316637
2.64863,0.229397,-0.338399
2.52848,0.470909,0.0149482
2.658,0.230209,-0.0155062
2.58508,0.351814,-0.281023
2.72622,0.102349,-0.254667
2.59537,0.353215,0.0609494
2.7219,0.102187,0.0317103
2.58184,0.351373,-0.182204
2.66115,0.230482,-0.218057
2.52745,0.470718,0.0748209
2.66163,0.230523,0.0466328
2.52727,0.470684,-0.164755
2.72147,0.102171,-0.158603
2.59563,0.353251,0.152557
2.65983,0.230367,0.10877
2.59326,0.352928,-0.121912
2.65441,0.229897,-0.139632
2.59639,0.353354,0.321735
2.64924,0.22945,0.21708
2.52643,0.470527,-0.104699
2.59933,0.353754,-0.0610425
2.53763,0.463454,-0.0450272
2.6502,0.220215,-0.53187
2.58936,0.343194,0
2.71824,0.0925482,-0.0316637
2.586,0.34275,-0.40584
2.53011,0.46208,0.0149482
2.66676,0.221591,-0.0155527
2.58629,0.342788,-0.281023
2.73452,0.0931025,-0.25541
2.59658,0.344152,0.0609494
2.72224,0.0926843,0.0317103
2.66591,0.22152,-0.218382
2.54088,0.464047,0.0751699
2.6664,0.221561,0.0467026
2.53282,0.462576,-0.16501
2.72979,0.0929414,-0.159068
2.60477,0.345237,0.153022
2.6646,0.221411,0.108933
2.59843,0.344398,-0.122098
2.66714,0.221622,-0.14026
2.60154,0.344809,0.322223
2.65399,0.22053,0.217406
2.52805,0.461704,-0.104699
2.60055,0.344678,-0.0610425
2.53136,0.453184,-0.0448876
2.65448,0.211244,-0.0774972
2.65877,0.211585,-0.533439
2.5945,0.334666,0
2.72654,0.0833041,-0.0317569
2.58718,0.333722,-0.40584
2.65808,0.21153,-0.339409
2.53564,0.453951,0.0149715
2.66752,0.212282,-0.0155527
2.58747,0.333759,-0.281023
2.73881,0.0836789,-0.255782
2.6057,0.33611,0.0611355
2.73454,0.0835484,0.03185
2.59214,0.334361,-0.182762
2.67064,0.21253,-0.218708
2.53461,0.453766,0.0749372
2.66716,0.212253,0.0467026
2.53442,0.453732,-0.16501
2.73409,0.0835347,-0.159301
2.602,0.335632,0.152789
2.67731,0.21306,0.109421
2.59962,0.335326,-0.122098
2.60273,0.335727,0.322223
2.65872,0.211581,0.217731
2.52965,0.452878,-0.104699
2.67922,0.213213,0.490036
2.6057,0.33611,-0.0611355
2.54081,0.445727,-0.0450272
2.66732,0.202898,-0.535008
2.59963,0.326105,0
2.73881,0.07411,-0.0318966
2.59226,0.32518,-0.406455
2.66276,0.202551,-0.339914
2.53721,0.445096,0.0149715
2.66825,0.202968,-0.0155527
2.74307,0.0742251,-0.256154
2.60289,0.326514,0.0610425
2.73881,0.07411,0.0318966
2.59725,0.325807,-0.183041
2.67535,0.203508,-0.219033
2.54012,0.445606,0.0750536
2.67586,0.203547,0.0468423
2.53206,0.444192,-0.164755
2.73836,0.0740977,-0.159533
2.60712,0.327044,0.153022
2.67405,0.20341,0.109258
2.60474,0.326746,-0.122284
2.67658,0.203602,-0.140679
2.6157,0.328121,0.323685
2.66342,0.202601,0.218057
2.53515,0.444735,-0.104862
2.67995,0.203858,0.490036
2.60686,0.327012,-0.0611355
2.54629,0.437533,-0.045097
2.66801,0.193586,-0.535008
2.60075,0.317029,0
2.74305,0.0646441,-0.0319431
2.60122,0.317086,-0.407685
2.66741,0.193543,-0.340419
2.55058,0.43827,0.0150412
2.67692,0.194233,-0.0155992
2.74729,0.064744,-0.256526
2.60798,0.317911,0.0611355
2.73905,0.0645499,0.0318966
2.60234,0.317222,-0.18332
2.68453,0.194785,0.0469819
2.54146,0.436704,-0.165266
2.74658,0.0647273,-0.159999
2.6122,0.318425,0.153254
2.67873,0.194364,0.109421
2.60586,0.317652,-0.122284
2.67329,0.19397,-0.14047
2.61289,0.318509,0.323198
2.66809,0.193592,0.218382
2.54457,0.437237,-0.105188
2.61195,0.318395,-0.0612286
2.54386,0.427978,-0.0450272
2.66867,0.184271,-0.535008
2.60581,0.308418,0
2.74726,0.0551482,-0.0319897
2.67599,0.184776,-0.341429
2.55209,0.429363,0.0150412
2.68157,0.185162,-0.0156224
2.61057,0.308981,-0.283165
2.75148,0.055233,-0.256897
2.61305,0.309275,0.0612286
2.73926,0.0549877,0.0318966
2.60343,0.308136,-0.18332
2.68863,0.18565,-0.22001
2.555,0.429852,0.0754027
2.68919,0.185688,0.0470517
2.55084,0.429154,-0.165778
2.74679,0.0551388,-0.159999
2.6133,0.309304,0.153254
2.67939,0.185012,0.109421
2.61489,0.309493,-0.122656
2.68591,0.185462,-0.141098
2.61793,0.309852,0.323685
2.67272,0.184551,0.218708
2.54214,0.427688,-0.105025
2.69309,0.185957,0.492188
2.61702,0.309745,-0.0613216
2.56112,0.421695,-0.0453064
2.67712,0.175468,-0.078079
2.67712,0.175468,-0.536577
2.74744,0.0455587,-0.0319897
2.6073,0.29937,-0.4083
2.67661,0.175435,-0.341429
2.55752,0.421102,0.0150645
2.69018,0.176324,-0.0156689
2.61559,0.300321,-0.283593
2.75564,0.0456948,-0.257269
2.62206,0.301064,0.0614147
2.75543,0.0456914,0.0320828
2.61242,0.299957,-0.183878
2.68926,0.176264,-0.22001
2.55254,0.420282,0.0752863
2.68982,0.1763,0.0470517
2.54839,0.419599,-0.165522
2.76294,0.0458158,-0.160929
2.62627,0.301547,0.153952
2.68401,0.17592,0.109584
2.61993,0.30082,-0.122842
2.62294,0.301165,0.324172
2.5515,0.420111,-0.10535
2.62603,0.30152,-0.0615077
2.55863,0.412117,-0.0452366
2.68171,0.16637,-0.0781954
2.68164,0.166366,-0.537361
2.61983,0.291547,0
2.75558,0.0360734,-0.0320828
2.61226,0.290704,-0.408915
2.68117,0.166337,-0.341934
2.55503,0.411537,0.0150412
2.69477,0.167181,-0.0156922
2.61267,0.29075,-0.283165
2.75976,0.0361282,-0.257641
2.62707,0.292353,0.0615077
2.75558,0.0360734,0.0320828
2.61345,0.290837,-0.183878
2.69782,0.16737,-0.22066
2.56583,0.413277,0.0756354
2.69441,0.167158,0.0471215
2.56166,0.412606,-0.16629
2.7551,0.0360671,-0.160464
2.62333,0.291937,0.15372
2.69259,0.167045,0.10991
2.6289,0.292557,-0.123214
2.69113,0.166955,-0.141307
2.63187,0.292887,0.325147
2.55295,0.411203,-0.10535
2.62707,0.292353,-0.0615077
2.56005,0.403183,-0.0452366
2.69003,0.157462,-0.53893
2.62481,0.282828,0
2.76369,0.0265305,-0.032176
2.68174,0.156976,-0.341934
2.56435,0.40386,0.0150877
2.68735,0.157305,-0.0156457
2.61762,0.282054,-0.283593
2.76386,0.0265321,-0.258013
2.62807,0.28318,0.0615077
2.76369,0.0265305,0.032176
2.62238,0.282567,-0.184436
2.56726,0.404317,0.0756354
2.70296,0.158219,0.0472611
2.55914,0.40304,-0.166034
2.7592,0.0264874,-0.160696
2.63228,0.283633,0.154185
2.69315,0.157645,0.10991
2.62594,0.28295,-0.123028
2.63682,0.284123,0.325635
2.68645,0.157252,0.219684
2.55832,0.40291,-0.105513
2.63602,0.284037,-0.0616939
2.56533,0.395299,-0.0453064
2.69054,0.14854,-0.53893
2.62175,0.273706,0
2.76376,0.0173649,-0.032176
2.6181,0.273326,-0.40953
2.69413,0.148738,-0.34345
2.57358,0.396571,0.0151342
2.69984,0.149053,-0.0157154
2.62249,0.273784,-0.284021
2.76791,0.0173909,-0.258385
2.63297,0.274878,0.0616008
2.76376,0.0173649,0.032176
2.57254,0.39641,0.0757518
2.70746,0.149474,0.0473309
2.56441,0.395158,-0.16629
2.76326,0.0173617,-0.160929
2.62923,0.274487,0.153952
2.69765,0.148932,0.110073
2.63878,0.275484,-0.123587
2.70815,0.149512,-0.142144
2.6338,0.274964,0.325147
2.69094,0.148562,0.22001
2.56754,0.395641,-0.105839
2.63297,0.274878,-0.0616008
2.57058,0.387387,-0.0453763
2.69493,0.139821,-0.539715
2.6306,0.265815,0
2.7798,0.00824785,-0.0323622
2.70253,0.140215,-0.34446
2.57488,0.388035,0.0151342
2.70831,0.140515,-0.0157619
2.6313,0.265886,-0.284878
2.77194,0.00822452,-0.258756
2.63785,0.266548,0.0616939
2.7718,0.00822411,0.0322691
2.62817,0.265569,-0.184715
2.71132,0.140671,-0.221637
2.57384,0.387878,0.0757518
2.71194,0.140703,0.0474007
2.56965,0.387247,-0.166545
2.77129,0.0082226,-0.161394
2.63807,0.26657,0.154417
2.70212,0.140193,0.110235
2.71262,0.140738,-0.142354
2.6426,0.267027,0.326122
2.56489,0.386529,-0.105676
2.64581,0.267352,-0.06188
2.57594,0.378545,-0.0454461
2.70326,0.130321,-0.541284
2.63952,0.256948,0
2.77981,-0.00194008,-0.0323622
2.69906,0.130118,-0.343955
2.58024,0.379177,0.0151575
2.7168,0.130973,-0.0158084
2.64018,0.257011,-0.285735
2.77593,-0.00193737,-0.259128
2.64279,0.257266,0.0617869
2.77981,-0.00194008,0.0323622
2.63707,0.256708,-0.185273
2.5792,0.379023,0.0758681
2.70844,0.13057,0.0473309
2.56711,0.377247,-0.16629
2.77929,-0.00193972,-0.161859
2.65096,0.258061,0.155115
2.71459,0.130867,0.110724
2.71312,0.130796,-0.142354
2.64751,0.257725,0.32661
2.56629,0.377126,-0.105676
2.64279,0.257266,-0.0617869
2.70815,0.121083,-0.0788935
2.71154,0.121235,-0.542853
2.64439,0.248107,0
2.78379,-0.0116596,-0.0324088
2.63656,0.247373,-0.41199
2.70743,0.121051,-0.344965
2.58155,0.370169,0.0151575
2.71724,0.121489,-0.0158084
2.64502,0.248166,-0.286163
2.78786,-0.0116766,-0.260243
2.65163,0.248787,0.061973
2.78779,-0.0116763,0.0324553
2.63795,0.247502,-0.185273
2.58842,0.371154,0.0761008
2.72486,0.12183,0.0476102
2.57236,0.368851,-0.166545
2.77927,-0.0116406,-0.161859
2.64787,0.248433,0.154882
2.71903,0.121569,0.110887
2.64948,0.248584,-0.123959
2.6563,0.249224,0.327585
2.5755,0.369301,-0.106002
2.72432,0.121806,0.49721
2.65163,0.248787,-0.061973
2.57845,0.361002,-0.0454461
2.71976,0.112566,-0.544422
2.64918,0.239696,0
2.78373,-0.0208917,-0.0324088
2.71178,0.112235,-0.34547
2.59069,0.362715,0.015204
2.72162,0.112643,-0.0158317
2.64979,0.239751,-0.286592
2.7878,-0.0209222,-0.260243
2.64846,0.239631,0.06188
2.79173,-0.0209517,0.0325019
2.6467,0.239472,-0.185831
2.58964,0.362567,0.0761008
2.72525,0.112793,0.0476102
2.57752,0.360871,-0.166801
2.78321,-0.0208877,-0.162092
2.64867,0.23965,0.154882
2.71542,0.112386,0.110724
2.65427,0.240156,-0.124145
2.66106,0.240771,0.328072
2.57671,0.360758,-0.106002
2.73257,0.113096,0.498645
2.64846,0.239631,-0.06188
2.5797,0.352,-0.0454461
2.72406,0.10322,-0.545206
2.64601,0.230101,0
2.79564,-0.0307399,-0.0325485
2.71612,0.10292,-0.345975
2.59194,0.35367,0.015204
2.722,0.103142,-0.0158317
2.65061,0.230501,-0.286592
2.78771,-0.0306527,-0.260243
2.65725,0.231078,0.0620661
2.79164,-0.0306959,0.0325019
2.65149,0.230578,-0.18611
2.59485,0.354067,0.0762172
2.72963,0.103431,0.04768
2.58272,0.352412,-0.167057
2.7911,-0.03069,-0.162557
2.65347,0.23075,0.155115
2.7158,0.102907,0.110724
2.65907,0.231237,-0.124331
2.65793,0.231138,0.327585
2.58191,0.352302,-0.106165
2.73688,0.103706,0.499363
2.65725,0.231078,-0.0620661
2.5889,0.343594,-0.0455857
2.72125,0.0931265,-0.0792426
2.7205,0.0931007,-0.544422
2.65083,0.220733,0
2.79151,-0.0409283,-0.0325019
2.72441,0.0932345,-0.346985
2.60115,0.345219,0.0152505
2.73036,0.093438,-0.0158782
2.65936,0.221443,-0.287448
2.79953,-0.0410458,-0.261359
2.66605,0.222,0.0622522
2.79951,-0.0410456,0.032595
2.65232,0.220857,-0.18611
2.7333,0.0935388,-0.223264
2.60009,0.345079,0.0763336
2.73798,0.0936989,0.0478196
2.59191,0.343993,-0.167569
2.79896,-0.0410375,-0.163022
2.66226,0.221685,0.15558
2.72814,0.0933621,0.111212
2.66388,0.22182,-0.124517
2.66668,0.222053,0.32856
2.66605,0.222,-0.0622522
2.59796,0.336034,-0.0457253
2.72155,0.0841025,-0.0792426
2.72471,0.0842003,-0.545206
2.66351,0.212898,0
2.79936,-0.0503283,-0.032595
2.72867,0.0843226,-0.34749
2.60228,0.336592,0.0152505
2.73865,0.0846309,-0.0159246
2.66404,0.212941,-0.287877
2.80336,-0.0504002,-0.261731
2.66677,0.213159,0.0622522
2.80736,-0.0504721,0.0326882
2.66099,0.212697,-0.186668
2.74157,0.0847212,-0.223915
2.59725,0.335943,0.0762172
2.73828,0.0846195,0.0478196
2.8028,-0.0503902,-0.163254
2.66696,0.213174,0.155813
2.73642,0.0845622,0.111538
2.67257,0.213622,-0.12489
2.74292,0.0847631,-0.143819
2.67135,0.213525,0.329047
2.58827,0.334781,-0.106327
2.74934,0.0849614,0.501515
2.66677,0.213159,-0.0622522
2.59515,0.326463,-0.0456555
2.73382,0.07493,-0.0795917
2.73675,0.0750105,-0.547559
2.66822,0.203903,0
2.81116,-0.0603579,-0.0327347
2.73291,0.0749053,-0.347995
2.60741,0.328005,0.0152737
2.74292,0.0751796,-0.0159479
2.66874,0.203943,-0.288305
2.80715,-0.0602717,-0.262102
2.67149,0.204153,0.0623452
2.81516,-0.0604438,0.0327813
2.66968,0.204015,-0.187226
2.60635,0.327872,0.0764499
2.74655,0.075279,0.0479592
2.59815,0.326841,-0.167825
2.79861,-0.0600885,-0.163022
2.66769,0.203863,0.155813
2.74469,0.0752281,0.111864
2.67728,0.204596,-0.125076
2.72989,0.0748224,0.222939
2.59736,0.326741,-0.106653
2.6675,0.203848,-0.0622522
2.74877,0.0652592,-0.549913
2.67294,0.194413,0
2.81092,-0.0706603,-0.0327347
2.7411,0.0650771,-0.349005
2.61256,0.318932,0.015297
2.74318,0.0651264,-0.0159479
2.6655,0.193872,-0.287877
2.81487,-0.0707595,-0.262846
2.6762,0.194651,0.0624383
2.82292,-0.0709618,0.0328744
2.67837,0.194808,-0.187784
2.60753,0.318317,0.0764499
2.7548,0.0654024,0.0480988
2.81035,-0.0706459,-0.16372
2.67638,0.194664,0.156278
2.74495,0.0651684,0.111864
2.68469,0.195268,0.33051
2.6025,0.317704,-0.106816
2.75381,0.0653788,0.502233
2.67222,0.19436,-0.0623452
2.60536,0.308826,-0.0457951
2.74114,0.0555042,-0.548344
2.66961,0.184805,0
2.81865,-0.0807015,-0.0328279
2.74528,0.0555881,-0.34951
2.61366,0.309809,0.015297
2.75139,0.0557117,-0.0159944
2.67013,0.18484,-0.288305
2.82257,-0.0808136,-0.263589
2.68086,0.185583,0.0625313
2.81865,-0.0807015,0.0328279
2.67903,0.185457,-0.187784
2.61657,0.310154,0.0766826
2.75502,0.0557852,0.0480988
2.60439,0.30871,-0.16808
2.81408,-0.0805705,-0.163952
2.68103,0.185595,0.15651
2.74916,0.0556665,0.112026
2.67868,0.185432,-0.125076
2.6814,0.185621,0.330022
2.74231,0.0555279,0.223915
2.61154,0.309558,-0.107142
2.76189,0.0559244,0.503668
2.68884,0.186135,-0.0627174
2.61029,0.301098,-0.0458649
2.74244,0.0469124,-0.0798244
2.74915,0.0470271,-0.549913
2.68215,0.177209,0
2.81839,-0.0895556,-0.0328279
2.75735,0.0471674,-0.351026
2.61859,0.302056,0.0153202
2.75555,0.0471367,-0.0160176
2.6826,0.177238,-0.28959
2.8223,-0.08968,-0.263589
2.68941,0.177688,0.0627174
2.82638,-0.0898097,0.032921
2.68756,0.177566,-0.188342
2.75443,0.0471175,-0.224891
2.61356,0.301475,0.0765663
2.76318,0.0472671,0.0482385
2.61328,0.301442,-0.168592
2.8178,-0.089537,-0.164185
2.69355,0.177962,0.157208
2.76131,0.0472351,0.112515
2.68722,0.177543,-0.125448
2.68989,0.17772,0.330997
2.60853,0.300894,-0.106979
2.68941,0.177688,-0.0627174
2.6154,0.291516,-0.0459347
2.75715,0.0365742,-0.551482
2.6908,0.167405,0
2.82202,-0.10052,-0.0328744
2.75751,0.0365789,-0.351026
2.62371,0.292441,0.0153435
2.76371,0.0366612,-0.0160641
2.6912,0.16743,-0.290447
2.82989,-0.1008,-0.264333
2.69007,0.167359,0.0627174
2.83401,-0.100947,0.0330141
2.68424,0.166997,-0.188063
2.61867,0.291879,0.0766826
2.76734,0.0367093,0.0483083
2.82542,-0.100641,-0.16465
2.6982,0.167865,0.15744
2.76147,0.0366314,0.112515
2.69586,0.167719,-0.12582
2.69452,0.167636,0.331485
2.77402,0.036798,0.50582
2.69007,0.167359,-0.0627174
2.75469,0.0278868,-0.0801735
2.75725,0.0279127,-0.551482
2.69131,0.158951,0
2.82569,-0.109539,-0.032921
2.75761,0.0279163,-0.351026
2.62461,0.284198,0.0153435
2.75981,0.0279386,-0.0160409
2.69171,0.158975,-0.290447
2.70256,0.159615,0.0629966
2.83768,-0.110004,0.0330607
2.6967,0.159269,-0.188901
2.62355,0.284082,0.076799
2.61532,0.283191,-0.168592
2.82908,-0.109671,-0.164882
2.7027,0.159624,0.157673
2.76556,0.0279969,0.112678
2.70296,0.159639,0.33246
2.75868,0.0279272,0.225217
2.62248,0.283967,-0.107467
2.77806,0.0281233,0.506538
2.69857,0.159379,-0.0629035
2.75877,0.0182967,-0.0802899
2.76125,0.0183132,-0.552266
2.69984,0.149999,0
2.76959,0.0183685,-0.352541
2.63355,0.275867,0.0153899
2.76789,0.0183572,-0.0160874
2.69622,0.149798,-0.290876
2.84508,-0.120239,-0.26582
2.70709,0.150402,0.0630896
2.84127,-0.120078,0.0331072
2.70123,0.150076,-0.18918
2.63645,0.276172,0.0771481
2.77952,0.0184343,0.0485177
2.62026,0.274475,-0.168848
2.82868,-0.119546,-0.164882
2.70324,0.150188,0.157673
2.76964,0.0183688,0.112841
2.7009,0.150058,-0.126006
2.77613,0.0184119,-0.145494
2.69953,0.149982,0.331972
2.76275,0.0183231,0.225542
2.62346,0.27481,-0.107467
2.78207,0.0184513,0.507255
2.7031,0.15018,-0.0629966
2.76282,0.00819769,-0.0804062
2.76915,0.00821647,-0.553835
2.70436,0.14031,0
2.84081,-0.130491,-0.0331072
2.77361,0.00822971,-0.353046
2.63852,0.266615,0.0154132
2.77594,0.00823663,-0.0161339
2.70072,0.140121,-0.291304
2.8486,-0.130849,-0.266192
2.70762,0.140479,0.0630896
2.84481,-0.130674,0.0331538
2.69778,0.139968,-0.188901
2.63347,0.266105,0.0770317
2.78356,0.00825924,0.0485875
2.63316,0.266074,-0.169615
2.84817,-0.130829,-0.166045
2.71175,0.140693,0.158138
2.77369,0.00822994,0.113003
2.70941,0.140572,-0.126379
2.78017,0.00824918,-0.145703
2.70799,0.140498,0.332947
2.77476,0.00823311,0.226519
2.6324,0.265997,-0.107793
2.78606,0.00826664,0.507973
2.70762,0.140479,-0.0630896
2.63107,0.257052,-0.0461442
2.76683,-0.000965036,-0.0805226
2.70481,0.131342,0
2.77759,-0.000968789,-0.353551
2.63939,0.257865,0.0154132
2.77995,-0.000969614,-0.0161571
2.70515,0.131358,-0.291732
2.85611,-0.140685,-0.266935
2.71606,0.131888,0.0632757
2.84835,-0.140304,0.0332004
2.70221,0.131215,-0.18918
2.78673,-0.000971977,-0.227495
2.63832,0.25776,0.0771481
2.63006,0.256953,-0.16936
2.84772,-0.140272,-0.166045
2.71619,0.131894,0.158371
2.78569,-0.000971614,0.113492
2.71386,0.131781,-0.126565
2.78418,-0.000971088,-0.145913
2.70844,0.131518,0.332947
2.77078,-0.000966415,0.226193
2.79394,-0.000974492,0.509408
2.71606,0.131888,-0.0632757
2.63593,0.248242,-0.046214
2.71325,0.12226,0
2.7736,-0.0106486,-0.353046
2.64027,0.248651,0.0154132
2.78793,-0.0107036,-0.0162036
2.71353,0.122273,-0.292589
2.85957,-0.150863,-0.267307
2.7205,0.122587,0.0633688
2.85184,-0.150455,0.0332469
2.71062,0.122142,-0.189738
2.7907,-0.0107142,-0.227821
2.6392,0.24855,0.0771481
2.64286,0.248894,-0.170127
2.8512,-0.150422,-0.166278
2.78567,-0.0106949,0.113492
2.71829,0.122487,-0.126751
2.72079,0.1226,0.33441
2.77874,-0.0106683,0.226844
2.63415,0.248074,-0.107793
2.71651,0.122407,-0.0632757
2.64081,0.238939,-0.0462838
2.71767,0.112479,0
2.78545,-0.0209043,-0.354561
2.64515,0.239332,0.0154364
2.78787,-0.0209225,-0.0162036
2.71396,0.112326,-0.292589
2.85526,-0.161133,0.0332935
2.71504,0.11237,-0.190017
2.79462,-0.0209732,-0.228146
2.64408,0.239234,0.0772645
2.79949,-0.0210097,0.0488667
2.64773,0.239565,-0.170383
2.86259,-0.161546,-0.166975
2.72505,0.112785,0.158836
2.7936,-0.0209655,0.113818
2.72671,0.112853,-0.127123
2.79608,-0.0209841,-0.146541
2.72518,0.11279,0.334897
2.78665,-0.0209133,0.227495
2.643,0.239137,-0.108119
2.7978,-0.020997,0.510125
2.72093,0.112614,-0.0633688
2.71805,0.102993,0
2.79329,-0.0307139,-0.355571
2.64995,0.230444,0.0154597
2.78778,-0.0306533,-0.0162036
2.71037,0.102702,-0.292161
2.87035,-0.172037,-0.268423
2.7293,0.103419,0.0635549
2.86666,-0.171816,0.0334332
2.72738,0.103346,-0.190854
2.64888,0.23035,0.0773808
2.7994,-0.0307811,0.0488667
2.64457,0.229976,-0.170127
2.86201,-0.171537,-0.166975
2.72941,0.103424,0.159068
2.79351,-0.0307163,0.113818
2.72708,0.103335,-0.127123
2.79999,-0.0307875,-0.14675
2.7335,0.103578,0.335872
2.79453,-0.0307275,0.228146
2.65178,0.230603,-0.108444
2.80558,-0.0308489,0.51156
2.72131,0.103116,-0.0633688
2.72237,0.0941164,0
2.86608,-0.181322,-0.0334332
2.79318,-0.0399773,-0.355571
2.6507,0.221655,0.0154597
2.80367,-0.0401275,-0.0162966
2.71864,0.0939873,-0.293018
2.88169,-0.18231,-0.269538
2.73363,0.0945054,0.0636479
2.86608,-0.181322,0.0334332
2.72771,0.0943007,-0.190854
2.6576,0.222231,0.0776135
2.65726,0.222202,-0.170895
2.86541,-0.18128,-0.167208
2.73373,0.0945091,0.159301
2.80139,-0.0400949,0.114143
2.7314,0.0944286,-0.127309
2.79987,-0.0400732,-0.14675
2.73382,0.0945123,0.335872
2.7984,-0.0400522,0.228471
2.65652,0.222141,-0.108607
2.80939,-0.0402095,0.512277
2.72963,0.0943673,-0.0635549
2.73068,0.0848607,0
2.80889,-0.0500104,-0.357592
2.66342,0.213358,0.0155294
2.79951,-0.0498434,-0.0162734
2.7269,0.0847433,-0.293874
2.88501,-0.192634,-0.26991
2.73394,0.084962,0.0636479
2.86942,-0.191593,0.0334798
2.736,0.0850259,-0.191412
2.8102,-0.0500338,-0.229448
2.65836,0.212952,0.0776135
2.81113,-0.0500502,0.0490762
2.65802,0.212925,-0.170895
2.87671,-0.19208,-0.167906
2.74203,0.0852134,0.159766
2.80523,-0.0499452,0.114306
2.73571,0.0850171,-0.127495
2.8117,-0.0500604,-0.147378
2.73414,0.0849681,0.335872
2.79825,-0.0498209,0.228471
2.65728,0.212866,-0.108607
2.81317,-0.0500866,0.512995
2.74193,0.0852104,-0.0638341
2.66383,0.203568,-0.0466328
2.73097,0.0748523,0
2.80869,-0.0603045,-0.357592
2.66419,0.203595,0.0155294
2.8153,-0.0604466,-0.0163664
2.72719,0.0747487,-0.293874
2.74623,0.0752703,0.0639271
2.88066,-0.202951,0.0336195
2.7323,0.0748886,-0.191133
2.81,-0.0603328,-0.229448
2.81892,-0.0605243,0.0492158
2.65878,0.203182,-0.170895
2.89192,-0.203744,-0.168836
2.74631,0.0752728,0.159999
2.81302,-0.0603975,0.114632
2.74,0.0750997,-0.127681
2.81948,-0.0605363,-0.147797
2.74634,0.0752734,0.337334
2.80602,-0.0602472,0.229122
2.65804,0.203125,-0.108607
2.8169,-0.0604809,0.513712
2.66452,0.194268,-0.0466328
2.73522,0.0654143,0
2.87994,-0.213006,-0.0336195
2.80846,-0.0701086,-0.357592
2.66887,0.194585,0.0155527
2.82307,-0.0704735,-0.0164128
2.73539,0.0654184,-0.294731
2.74052,0.0655412,-0.191691
2.67177,0.194796,0.0779626
2.81869,-0.0703641,0.0492158
2.66743,0.19448,-0.171406
2.89119,-0.213838,-0.168836
2.75055,0.065781,0.160231
2.82078,-0.0704162,0.114957
2.74823,0.0657256,-0.128054
2.82324,-0.0704778,-0.148006
2.75452,0.0658759,0.338309
2.80978,-0.0701415,0.229448
2.66272,0.194136,-0.10877
2.82454,-0.0705101,0.515147
2.75047,0.065779,-0.0640202
2.74743,0.0561112,0
2.89114,-0.223984,-0.0337591
2.81216,-0.0800244,-0.358097
2.67352,0.185544,0.0155759
2.82681,-0.0804412,-0.0164361
2.7356,0.0558697,-0.294731
2.90265,-0.224875,-0.271768
2.75468,0.0562594,0.0641132
2.89114,-0.223984,0.0337591
2.74871,0.0561375,-0.192249
2.82944,-0.080516,-0.231075
2.67643,0.185746,0.078079
2.82643,-0.0804303,0.0493554
2.67606,0.18572,-0.171918
2.89441,-0.224237,-0.169068
2.75476,0.0562609,0.160464
2.82052,-0.0802622,0.114957
2.74845,0.056132,-0.128054
2.75473,0.0562605,0.338309
2.8135,-0.0800624,0.229773
2.67534,0.18567,-0.109258
2.82428,-0.0803692,0.515147
2.75068,0.0561777,-0.0640202
2.67772,0.177385,-0.0468423
2.75159,0.0475488,0
2.8984,-0.233709,-0.0338523
2.81586,-0.088984,-0.358602
2.67409,0.177144,0.0155759
2.83054,-0.0894478,-0.0164593
2.74372,0.0474127,-0.295588
2.75884,0.0476741,0.0642063
2.89441,-0.233387,0.0338057
2.74888,0.0475019,-0.192249
2.68099,0.177601,0.0781954
2.83415,-0.089562,0.049495
2.68061,0.177576,-0.172174
2.89767,-0.23365,-0.169301
2.76291,0.0477443,0.160929
2.82025,-0.0891227,0.114957
2.74861,0.0474973,-0.128054
2.82671,-0.0893267,-0.148215
2.7549,0.0476059,0.338309
2.8212,-0.0891527,0.230424
2.6799,0.177529,-0.109421
2.83974,-0.0897387,0.518017
2.75884,0.0476741,-0.0642063
2.68232,0.168287,-0.0469121
2.75174,0.0379437,0
2.89756,-0.243824,-0.0338523
2.8314,-0.0993694,-0.360622
2.69066,0.168811,0.0156689
2.83421,-0.099468,-0.0164826
2.74784,0.0378899,-0.296016
2.76699,0.0381539,0.0643924
2.90155,-0.24416,0.0338988
2.75302,0.0379613,-0.192528
2.83283,-0.0994195,-0.231401
2.68159,0.168241,0.0781954
2.84182,-0.099735,0.0496346
2.6852,0.168468,-0.17243
2.90877,-0.244768,-0.169998
2.76705,0.0381548,0.161161
2.82791,-0.099247,0.115283
2.75675,0.0380127,-0.128426
2.83436,-0.0994734,-0.148634
2.76299,0.0380987,0.339284
2.6805,0.168173,-0.109421
2.76299,0.0380988,-0.0642993
2.75986,0.0279388,0
2.82308,-0.109439,-0.359612
2.68727,0.158712,0.0156457
2.84581,-0.11032,-0.0165523
2.75989,0.0279391,-0.297301
2.77111,0.0280526,0.0644854
2.90462,-0.255143,0.0339454
2.76112,0.0279515,-0.193086
2.84041,-0.110111,-0.232052
2.69017,0.158883,0.0784281
2.83744,-0.109995,0.0495648
2.68182,0.15839,-0.172174
2.91979,-0.256476,-0.170696
2.76717,0.0280128,0.161161
2.83951,-0.110076,0.115772
2.76086,0.0279489,-0.128612
2.84196,-0.110171,-0.149053
2.76708,0.0280118,0.339772
2.83244,-0.109802,0.231401
2.68908,0.158819,-0.109747
2.77111,0.0280526,-0.0644854
2.68745,0.149311,-0.0469819
2.77194,0.0183845,0
2.91168,-0.266008,-0.0340385
2.83061,-0.119628,-0.360622
2.84142,-0.120084,-0.0165291
2.77919,0.0184325,0.0646715
2.91566,-0.266372,0.0340851
2.76519,0.0183397,-0.193365
2.84798,-0.120361,-0.232702
2.6947,0.149714,0.0785444
2.84103,-0.120068,0.0496346
2.69032,0.14947,-0.172685
2.92285,-0.267029,-0.170929
2.77124,0.0183799,0.161394
2.85109,-0.120493,0.11626
2.76894,0.0183646,-0.128984
2.84954,-0.120428,-0.149472
2.77907,0.0184318,0.341234
2.69361,0.149653,-0.10991
2.77119,0.0183795,-0.0644854
2.69991,0.141024,-0.0471913
2.77198,0.00919229,0
2.91874,-0.276416,-0.0341317
2.84209,-0.129556,-0.362137
2.84899,-0.12987,-0.0165756
2.764,0.0091658,-0.29773
2.77923,0.00921632,0.0646715
2.92272,-0.276793,0.0341782
2.77321,0.00919636,-0.193923
2.85553,-0.130168,-0.233353
2.69918,0.140985,0.0786608
2.8526,-0.130035,0.0498441
2.69479,0.140756,-0.172941
2.9299,-0.277473,-0.171394
2.78327,0.00922971,0.162092
2.8387,-0.129401,0.115772
2.76898,0.00918233,-0.128984
2.85312,-0.130058,-0.149681
2.77514,0.00920276,0.340747
2.84358,-0.129623,0.232377
2.70207,0.141137,-0.110235
2.77923,0.00921632,-0.0646715
2.772,-0.000967609,0
2.92965,-0.288287,-0.0342714
2.84953,-0.140362,-0.363147
2.70077,0.131145,0.0157154
2.85249,-0.140508,-0.0165988
2.78325,-0.000971535,0.0647646
2.92169,-0.287504,0.0341782
2.77722,-0.000969431,-0.194202
2.71166,0.131673,0.0790099
2.8561,-0.140686,0.0499139
2.71124,0.131653,-0.173965
2.93284,-0.288601,-0.171626
2.77929,-0.000970154,0.161859
2.84619,-0.140198,0.116097
2.77299,-0.000967956,-0.12917
2.85661,-0.140711,-0.14989
2.77516,-0.000968712,0.340747
2.84707,-0.140241,0.232702
2.70656,0.131426,-0.110398
2.70884,0.12206,-0.0473309
2.77598,-0.010659,0
2.93261,-0.298917,-0.0343179
2.85298,-0.150517,-0.363652
2.70521,0.121897,0.0157387
2.85199,-0.150465,-0.0165988
2.77592,-0.0106588,-0.299015
2.79122,-0.0107176,0.0649507
2.92863,-0.298512,0.0342714
2.78119,-0.010679,-0.194481
2.7081,0.122027,0.0788935
2.85959,-0.150866,0.0499837
2.71567,0.122368,-0.17422
2.93976,-0.299647,-0.172092
2.79125,-0.0107177,0.162557
2.84967,-0.150342,0.11626
2.78096,-0.0106782,-0.129543
2.86009,-0.150892,-0.1501
2.78308,-0.0106863,0.341722
2.85054,-0.150388,0.233028
2.70301,0.121798,-0.110235
2.72521,0.113744,-0.0476102
2.78393,-0.0199217,0
2.93955,-0.309478,-0.034411
2.86039,-0.160421,-0.364663
2.86345,-0.160593,-0.0166686
2.77587,-0.0198641,-0.299015
2.79117,-0.0199736,0.0649507
2.93558,-0.309059,0.0343645
2.78114,-0.0199017,-0.194481
2.86993,-0.160956,-0.234655
2.71249,0.113213,0.0790099
2.86306,-0.160571,0.0500535
2.71207,0.113195,-0.173965
2.95066,-0.310648,-0.172789
2.79519,-0.0200023,0.162789
2.86113,-0.160463,0.116748
2.78091,-0.0199001,-0.129543
2.86755,-0.160823,-0.150518
2.79097,-0.0199721,0.342697
2.85401,-0.160063,0.233353
2.71139,0.113167,-0.110561
2.7176,0.103925,-0.0474705
2.78384,-0.0296393,0
2.94243,-0.32017,-0.0344576
2.86287,-0.170587,-0.0166686
2.79908,-0.0298016,0.0651368
2.94243,-0.32017,0.0344576
2.78903,-0.0296946,-0.195039
2.87731,-0.171448,-0.235306
2.71686,0.103896,0.0791263
2.86648,-0.170802,0.0501233
2.72043,0.104033,-0.174476
2.95353,-0.321378,-0.173022
2.7991,-0.0298018,0.163022
2.86853,-0.170924,0.117074
2.79681,-0.0297774,-0.130287
2.79088,-0.0297143,0.342697
2.71576,0.103854,-0.110724
2.79908,-0.0298016,-0.0651368
2.71795,0.0944378,-0.0474705
2.78772,-0.0394131,0
2.95322,-0.331779,-0.0345973
2.87025,-0.181083,-0.0167151
2.78759,-0.0394113,-0.3003
2.79896,-0.039572,0.0651368
2.94925,-0.331332,0.0345507
2.80088,-0.0395992,-0.195876
2.73319,0.0949676,0.0795917
2.88183,-0.181814,0.0504026
2.72875,0.0948132,-0.174988
2.81096,-0.0397416,0.16372
2.86791,-0.180936,0.117074
2.79269,-0.0394834,-0.130101
2.87832,-0.181593,-0.151146
2.80267,-0.0396245,0.344159
2.72809,0.0947902,-0.111212
2.73025,0.0853246,-0.04768
2.96396,-0.343467,-0.034737
2.79,-0.0491867,-0.434126
2.87758,-0.191633,-0.0167616
2.79539,-0.0492818,-0.301157
2.8068,-0.049483,0.0653229
2.95602,-0.342546,0.0346439
2.79674,-0.0493055,-0.195597
2.73351,0.0854264,0.0795917
2.88118,-0.191873,0.0504026
2.73705,0.085537,-0.1755
2.8108,-0.0495534,0.16372
2.87524,-0.191477,0.1174
2.80452,-0.0494428,-0.130659
2.88963,-0.192435,-0.151774
2.80648,-0.0494773,0.344647
2.87206,-0.191266,0.234981
2.7324,0.0853917,-0.111375
2.8148,-0.049624,-0.065509
2.74253,0.0761267,-0.0478894
2.79938,-0.0591274,0
2.96672,-0.354285,-0.0347836
2.7349,0.075915,0.0159014
2.88088,-0.201956,-0.0167848
2.80316,-0.0592072,-0.302014
2.81061,-0.0593647,0.0654159
2.96275,-0.353811,0.034737
2.80054,-0.0591518,-0.195876
2.73779,0.0759951,0.0797081
2.89246,-0.202768,0.050612
2.74132,0.0760931,-0.175755
2.81859,-0.0595333,0.164185
2.87854,-0.201792,0.117563
2.81232,-0.0594008,-0.131032
2.89292,-0.2028,-0.151984
2.81026,-0.0593573,0.345134
2.73268,0.0758533,-0.111375
2.81861,-0.0595336,-0.0656021
2.73878,0.066456,-0.0478196
2.87899,-0.211925,-0.0840135
2.80715,-0.0690955,0
2.96546,-0.364639,-0.0347836
2.88814,-0.212598,-0.0168313
2.81088,-0.0691874,-0.30287
2.81439,-0.0692736,0.065509
2.96943,-0.365127,0.0348301
2.80829,-0.0691236,-0.196434
2.73404,0.066341,0.0795917
2.89173,-0.212863,0.050612
2.73758,0.0664269,-0.1755
2.82236,-0.0694699,0.164417
2.88181,-0.212132,0.117725
2.81609,-0.0693156,-0.131218
2.81798,-0.069362,0.346109
2.73692,0.066411,-0.111538
2.82238,-0.0694704,-0.0656951
2.74299,0.0569785,-0.0478894
2.8862,-0.222588,-0.0842462
2.97608,-0.376494,-0.0349233
2.89137,-0.222986,-0.0168546
2.80665,-0.078887,-0.302442
2.82612,-0.0794343,0.0657882
2.97608,-0.376494,0.0349233
2.81202,-0.079038,-0.196713
2.74624,0.0570461,0.0799408
2.89496,-0.223263,0.0506818
2.74577,0.0570363,-0.176011
2.8221,-0.0793214,0.164417
2.88902,-0.222805,0.118051
2.82782,-0.079482,-0.131776
2.81375,-0.0790866,0.345621
2.74913,0.057106,-0.112026
2.83012,-0.0795466,-0.0658812
2.75116,0.0480217,-0.048029
2.81861,-0.0885783,0
2.98274,-0.387391,-0.0350164
2.81276,-0.0883945,-0.437816
2.74354,0.0478886,0.0159479
2.8946,-0.232894,-0.0168778
2.82584,-0.0888056,0.0657882
2.99068,-0.388421,0.0351095
2.82371,-0.0887386,-0.19755
2.75441,0.0480785,0.0801735
2.91015,-0.234145,0.050961
2.75393,0.04807,-0.176523
2.82182,-0.0886794,0.164417
2.82354,-0.0887334,-0.13159
2.82538,-0.088791,0.347084
2.7533,0.048059,-0.112189
2.82984,-0.0889312,-0.0658812
2.75931,0.0385298,-0.0481686
2.99327,-0.399387,-0.0351561
2.89775,-0.243331,-0.016901
2.81797,-0.0984057,-0.303727
2.83351,-0.0989482,0.0659743
2.98534,-0.398329,0.0350629
2.81939,-0.0984554,-0.197271
2.76256,0.0385751,0.0804062
2.90932,-0.244302,0.050961
2.76606,0.0386239,-0.17729
2.83347,-0.0989469,0.165115
2.89938,-0.243468,0.11854
2.8312,-0.0988678,-0.131962
2.91373,-0.244673,-0.15324
2.90011,-0.243529,0.237584
2.76144,0.0385595,-0.112515
2.76343,0.0289396,-0.0482385
2.90367,-0.254039,-0.084828
2.82991,-0.108714,0
2.98789,-0.40929,-0.0351095
2.7638,0.0289435,0.0160641
2.90486,-0.254142,-0.0169475
2.83314,-0.108838,0.0659743
2.99582,-0.410376,0.0352026
2.82701,-0.108603,-0.197829
2.75868,0.0288899,0.0802899
2.91641,-0.255153,0.0511006
2.76617,0.0289684,-0.17729
2.84109,-0.109144,0.16558
2.90648,-0.254284,0.118865
2.83883,-0.109057,-0.132335
2.83262,-0.108818,0.348059
2.75756,0.0288782,-0.112352
2.84113,-0.109145,-0.0661604
2.76351,0.0188109,-0.0482385
2.91069,-0.265406,-0.0850607
2.99429,-0.421354,-0.0352026
2.76389,0.0188135,0.0160641
2.91585,-0.265877,-0.0170173
2.83309,-0.119237,-0.305441
2.83672,-0.11939,0.0660673
3.00222,-0.422468,0.0352958
2.83855,-0.119467,-0.198666
2.76277,0.0188058,0.0804062
2.92342,-0.266567,0.0512403
2.76626,0.0188296,-0.17729
2.83668,-0.119388,0.165347
2.90951,-0.265298,0.119028
2.8424,-0.119629,-0.132521
2.83617,-0.119367,0.348546
2.76564,0.0188254,-0.112678
2.84471,-0.119726,-0.0662534
2.77156,0.00967463,-0.0483781
2.91775,-0.275809,-0.0852934
2.84107,-0.129012,0
3.0008,-0.432422,-0.0352958
2.77194,0.00967594,0.0161106
2.91894,-0.275921,-0.0170405
2.83268,-0.128631,-0.305441
2.84829,-0.12934,0.0663465
3.00872,-0.433563,0.0353889
2.84611,-0.129241,-0.199224
2.77081,0.00967201,0.080639
2.93447,-0.277389,0.0514497
2.76631,0.00965629,-0.17729
2.84425,-0.129156,0.165813
2.92055,-0.276073,0.119517
2.84997,-0.129416,-0.132893
2.84369,-0.129131,0.349521
2.76969,0.00966808,-0.112841
2.85229,-0.129522,-0.0664395
2.77958,-0.00048514,-0.0485177
2.9207,-0.286892,-0.0854098
2.84458,-0.139621,0
3.00315,-0.444002,-0.0353423
2.77995,-0.000485206,0.0161571
2.92189,-0.287009,-0.0170638
2.8441,-0.139597,-0.306726
2.85179,-0.139975,0.0664395
3.01502,-0.445757,0.035482
2.85359,-0.140063,-0.199783
2.78282,-0.000485706,0.080988
2.93741,-0.288534,0.0515195
2.77431,-0.00048422,-0.177802
2.85173,-0.139972,0.166278
2.85746,-0.140253,-0.133265
2.85113,-0.139942,0.350496
2.78169,-0.000485509,-0.113329
2.85179,-0.139975,-0.0664395
2.78356,-0.00971651,-0.0485875
2.93167,-0.297788,-0.0857589
3.01353,-0.455753,-0.035482
2.78394,-0.00971782,0.0161804
2.93286,-0.297909,-0.0171335
2.8476,-0.149236,-0.307154
2.85531,-0.14964,0.0665326
3.01748,-0.456351,0.0355286
2.84912,-0.149316,-0.199504
2.7908,-0.00974179,0.0812208
2.9444,-0.299081,0.0516591
2.77828,-0.00969809,-0.178058
2.85524,-0.149637,0.16651
2.93048,-0.297667,0.120005
2.86496,-0.150146,-0.133637
2.85065,-0.149396,0.350496
2.78168,-0.00970993,-0.113329
2.8593,-0.14985,-0.0666256
2.78751,-0.0194608,-0.0486573
2.93856,-0.308855,-0.0859916
2.85155,-0.159426,0
2.79188,-0.0194914,0.0162269
2.94374,-0.309399,-0.0172033
2.855,-0.159619,-0.308011
2.85876,-0.15983,0.0666256
3.02377,-0.468105,0.0356217
2.86452,-0.160152,-0.20062
2.79075,-0.0194834,0.0812208
2.78622,-0.0194518,-0.178569
2.86267,-0.160048,0.166975
2.9334,-0.308312,0.120168
2.8724,-0.160592,-0.13401
2.95167,-0.310233,-0.155542
2.85804,-0.159789,0.351471
2.93402,-0.308378,0.240839
2.78962,-0.0194755,-0.113655
2.86275,-0.160053,-0.0667187
2.78742,-0.0291909,-0.0486573
2.94144,-0.319543,-0.086108
2.86295,-0.170091,0
2.7918,-0.0292367,0.0162269
2.94661,-0.320105,-0.0172265
2.8584,-0.16982,-0.30844
2.87016,-0.170519,0.0669048
3.02607,-0.479283,0.0356683
2.86394,-0.17015,-0.20062
2.79866,-0.0293086,0.0814535
2.95417,-0.320925,0.0518686
2.79012,-0.0292191,-0.178825
2.86608,-0.170277,0.167208
2.94422,-0.319845,0.120656
2.86539,-0.170236,0.352446
2.78554,-0.0291711,-0.113492
2.87415,-0.170756,-0.0669978
2.7953,-0.0390323,-0.0487969
2.94826,-0.3307,-0.0863407
2.87432,-0.180837,0
2.79968,-0.0390934,0.0162734
2.94945,-0.330834,-0.0172498
2.86175,-0.180046,-0.308868
2.87354,-0.180788,0.0669978
3.03623,-0.491761,0.035808
2.87528,-0.180897,-0.201457
2.80254,-0.0391334,0.0815699
2.96098,-0.332127,0.0520082
2.79799,-0.0390698,-0.179337
2.87344,-0.180782,0.167673
2.95103,-0.331011,0.120982
2.87667,-0.180984,0.353909
2.79741,-0.0390617,-0.11398
2.87354,-0.180788,-0.0669978
2.79515,-0.0487895,-0.0487969
2.94708,-0.340989,-0.0863407
2.86968,-0.190604,0
2.79953,-0.0488659,0.0162734
2.95225,-0.341587,-0.017273
2.86905,-0.190562,-0.309725
2.87289,-0.190817,0.0669978
2.88259,-0.191462,-0.202015
2.80239,-0.0489158,0.0815699
2.96377,-0.34292,0.052078
2.79783,-0.0488364,-0.179337
2.87279,-0.190811,0.167673
2.94986,-0.34131,0.120982
2.8865,-0.191721,-0.134754
2.87998,-0.191288,0.354396
2.80125,-0.048896,-0.114143
2.87289,-0.190817,-0.0669978
2.79896,-0.0586298,-0.0488667
2.95779,-0.352695,-0.0866898
2.87697,-0.201178,0
2.80734,-0.0588053,0.0163199
2.96693,-0.353785,-0.017366
2.8763,-0.20113,-0.310581
2.88816,-0.20196,0.0673701
2.88589,-0.201801,-0.202294
2.81419,-0.0589489,0.0819189
2.9705,-0.354211,0.0522176
2.80164,-0.0586859,-0.179593
2.88008,-0.201395,0.168138
2.96055,-0.353025,0.121471
2.8898,-0.202075,-0.13494
2.97481,-0.354725,-0.157008
2.88325,-0.201617,0.354884
2.80506,-0.0587576,-0.114306
2.88019,-0.201402,-0.067184
2.80274,-0.0684974,-0.0489365
2.9605,-0.363504,-0.0868062
2.88024,-0.211512,0
2.81911,-0.0688976,0.0163896
2.96568,-0.364139,-0.017366
2.88748,-0.212043,-0.311867
2.89143,-0.212333,0.0674631
2.89313,-0.212458,-0.202852
2.81797,-0.0688696,0.0820353
2.98115,-0.36604,0.052427
2.8094,-0.0686601,-0.180104
2.88732,-0.212031,0.168603
2.9712,-0.364818,0.121959
2.89705,-0.212746,-0.135313
2.89837,-0.212843,0.356833
2.80883,-0.0686463,-0.114469
2.89143,-0.212333,-0.0674631
2.8105,-0.0775226,-0.0490762
2.96728,-0.373803,-0.0870389
2.88754,-0.22117,0
2.81488,-0.0776434,0.0163664
2.97643,-0.374954,-0.0174357
2.89872,-0.222027,0.0676492
2.9004,-0.222155,-0.20341
2.81773,-0.0777221,0.0820353
2.98396,-0.375903,0.0524968
2.81316,-0.0775958,-0.18036
2.89858,-0.222016,0.169301
2.9859,-0.376149,0.12261
2.89769,-0.221947,0.356833
2.8126,-0.0775804,-0.114632
2.90271,-0.222332,-0.0677423
2.81421,-0.0874569,-0.049146
2.97389,-0.385185,-0.0872716
2.89871,-0.232207,0
2.82659,-0.0878415,0.0164361
2.9751,-0.385342,-0.0174357
2.90989,-0.233102,0.0679284
2.90359,-0.232597,-0.203689
2.82544,-0.0878058,0.082268
2.99056,-0.387345,0.0526365
2.82085,-0.0876631,-0.180872
2.89779,-0.232133,0.169301
2.98457,-0.386569,0.12261
2.90085,-0.232378,0.357321
2.8163,-0.0875219,-0.114795
2.90192,-0.232463,-0.0677423
2.90586,-0.24299,0
2.83026,-0.0978458,0.0164593
2.98563,-0.397307,-0.0175055
2.90507,-0.242924,0.0678353
2.91469,-0.243728,-0.204526
2.82911,-0.097806,0.0823844
2.99315,-0.398309,0.0527063
2.82052,-0.0975092,-0.180872
2.90492,-0.242912,0.169766
2.98717,-0.397512,0.122773
2.91466,-0.243726,-0.136243
2.82397,-0.0976282,-0.11512
2.90507,-0.242924,-0.0678353
2.90898,-0.253479,0
2.8379,-0.108029,0.0165058
2.99611,-0.409351,-0.0175752
2.91217,-0.253758,0.0680214
2.91382,-0.253901,-0.204526
2.84074,-0.108137,0.0827335
3.00363,-0.410378,0.0529157
2.83213,-0.10781,-0.181639
2.91201,-0.253744,0.170231
2.99368,-0.409019,0.123099
2.92175,-0.254592,-0.136615
2.83559,-0.107941,-0.115609
2.91616,-0.254105,-0.0681145
2.83312,-0.117752,-0.049495
2.91206,-0.263993,0
2.8415,-0.1181,0.0165291
2.99863,-0.420362,-0.0175985
2.91924,-0.264644,0.0682075
2.92086,-0.264791,-0.205084
2.83635,-0.117886,0.0826171
3.00614,-0.421416,0.0529855
2.83573,-0.117861,-0.181895
2.91906,-0.264628,0.170696
3.00015,-0.420576,0.123424
2.92482,-0.26515,-0.136801
2.8352,-0.117839,-0.115609
2.91924,-0.264644,-0.0682075
2.84068,-0.128001,-0.0496346
2.92307,-0.275282,0
2.84507,-0.128199,0.0165523
3.0011,-0.431396,-0.0176217
2.93422,-0.276332,0.0685797
2.92786,-0.275734,-0.205642
2.83991,-0.127966,0.0827335
3.01257,-0.433045,0.0531251
2.83929,-0.127938,-0.182151
2.91812,-0.274816,0.170696
2.93183,-0.276107,-0.137174
2.84275,-0.128094,-0.115934
2.93024,-0.275957,-0.0684867
2.84022,-0.137916,-0.0496346
2.92607,-0.285872,0
2.8486,-0.138323,0.0165756
3.01541,-0.444201,-0.0177147
2.9412,-0.28735,0.0687658
2.93483,-0.286728,-0.2062
2.84744,-0.138267,0.0829662
3.015,-0.444141,0.0531949
2.8468,-0.138236,-0.182663
2.92509,-0.285777,0.171161
2.93881,-0.287117,-0.137546
2.84628,-0.138211,-0.116097
2.93722,-0.286961,-0.0686728
2.93301,-0.29689,0
2.8481,-0.148265,0.0165756
3.02175,-0.455918,-0.0177612
2.94018,-0.297615,0.0687658
2.85892,-0.148829,0.0833153
3.02134,-0.455856,0.0533346
2.85427,-0.148587,-0.183174
2.936,-0.297192,0.171859
2.94176,-0.297776,-0.137732
2.85776,-0.148768,-0.116586
2.94415,-0.298018,-0.0688589
2.85117,-0.158407,-0.0498441
2.85954,-0.158872,0.0166453
3.02409,-0.467073,-0.0177845
2.9431,-0.308293,0.0688589
2.93275,-0.30721,-0.2062
2.86237,-0.159029,0.0834316
3.02763,-0.46762,0.0534742
2.85772,-0.158771,-0.18343
2.94288,-0.308271,0.172324
2.94468,-0.308459,-0.137918
2.86121,-0.158965,-0.116748
2.9431,-0.308293,-0.0688589
2.85858,-0.16883,-0.0499837
2.87095,-0.16956,0.0167151
3.03034,-0.478875,-0.017831
2.9579,-0.320287,0.0692311
2.8618,-0.16902,0.0834316
3.02203,-0.477562,0.0534044
2.8691,-0.169451,-0.184198
2.93782,-0.318112,0.172092
2.95153,-0.319596,-0.13829
2.86463,-0.169187,-0.116911
2.9579,-0.320287,-0.0692311
2.86197,-0.179057,-0.0500535
2.94962,-0.32981,0
2.87034,-0.179581,0.0167151
2.96074,-0.331054,0.0693242
2.86917,-0.179508,0.0836644
2.87248,-0.179714,-0.184454
2.9605,-0.331027,0.173487
2.96231,-0.331229,-0.138849
2.872,-0.179684,-0.117237
2.96074,-0.331054,-0.0693242
2.87333,-0.189335,-0.0502629
2.95248,-0.340047,0
2.87372,-0.189361,0.0167383
2.96757,-0.341785,0.0695103
2.87255,-0.189284,0.0837807
2.87585,-0.189501,-0.184709
2.95939,-0.340843,0.173487
2.96516,-0.341508,-0.139035
2.88335,-0.189996,-0.117725
2.88063,-0.199918,-0.0504026
2.96319,-0.351766,0
2.87703,-0.199668,0.0167616
2.96636,-0.352142,0.0695103
2.88384,-0.20014,0.0841298
2.88712,-0.200368,-0.185477
2.96215,-0.351642,0.173719
2.95998,-0.351385,-0.138849
2.89064,-0.200613,-0.118051
2.88391,-0.210263,-0.0504724
2.88828,-0.210582,0.0168313
2.97305,-0.363465,0.0696964
2.88711,-0.210496,0.0842462
2.89038,-0.210735,-0.185733
2.97676,-0.363918,0.17465
2.97064,-0.36317,-0.139407
2.89391,-0.210992,-0.118214
2.89512,-0.221242,-0.0506818
2.89152,-0.220967,0.0168546
2.9797,-0.374839,0.0698825
2.89035,-0.220878,0.0843626
2.90157,-0.221735,-0.1865
2.97943,-0.374805,0.174882
2.89714,-0.221397,-0.118377
2.9023,-0.231984,-0.0508214
2.97125,-0.384316,0
2.89073,-0.231059,0.0168546
2.99027,-0.386777,0.0701616
2.89753,-0.231603,0.0845953
2.90476,-0.23218,-0.186756
2.90034,-0.231827,-0.11854
2.90944,-0.242779,-0.050961
2.98178,-0.396266,0
2.89788,-0.241814,0.016901
2.99683,-0.398266,0.0703477
2.90467,-0.242381,0.084828
2.90791,-0.242651,-0.187012
2.91256,-0.25328,-0.0510308
2.98435,-0.407213,0
2.90897,-0.252967,0.0169708
2.99939,-0.409265,0.0704408
2.91177,-0.253211,0.0850607
2.91897,-0.253837,-0.187779
2.91856,-0.253801,-0.119354
3.00335,-0.409806,-0.0705338
2.91963,-0.264166,-0.0511705
2.99479,-0.419291,0
2.91206,-0.26348,0.016994
2.99794,-0.419732,0.0704408
2.91884,-0.264094,0.0852934
2.92267,-0.27473,-0.0512403
2.99727,-0.430311,0
2.92306,-0.274767,0.0170638
3.01229,-0.432468,0.070813
2.92188,-0.274655,0.0854098
2.92865,-0.275292,-0.119842
3.01229,-0.432468,-0.070813
2.93761,-0.286483,-0.0515195
3.00366,-0.441935,0
2.92607,-0.285357,0.017087
3.01472,-0.443562,0.0709061
2.92886,-0.285629,0.0856425
2.93205,-0.28594,-0.188803
2.93563,-0.286289,-0.120168
2.92864,-0.295931,-0.0513799
3.01792,-0.454802,0
2.93301,-0.296373,0.0171335
3.02502,-0.455871,0.0711852
2.9358,-0.296655,0.0858753
2.93897,-0.296975,-0.189314
2.94256,-0.297338,-0.120494
2.93952,-0.3074,-0.0515893
3.02422,-0.466553,0
2.93594,-0.307026,0.0171568
3.01945,-0.465817,0.0710922
2.94668,-0.308148,0.0862243
2.94983,-0.308478,-0.190082
2.94946,-0.308439,-0.120819
2.95036,-0.318949,-0.0517987
3.02258,-0.477107,0
2.94678,-0.318562,0.0172265
2.95751,-0.319722,0.0865734
2.95712,-0.330649,-0.0519384
3.02871,-0.489458,0
2.95752,-0.330694,0.0172963
2.94837,-0.329671,0.0863407
2.96306,-0.331313,-0.121471
2.96004,-0.340394,-0.0520082
2.95647,-0.339983,0.0172963
2.95924,-0.340302,0.0866898
2.97075,-0.352137,-0.0522176
2.96321,-0.351243,0.0173428
2.97391,-0.352512,0.0871552
2.97271,-0.352369,-0.121959
2.96553,-0.36202,-0.0521478
2.97387,-0.363038,0.0174125
2.97663,-0.363375,0.0872716
2.98409,-0.374862,-0.0524968
2.98449,-0.374913,0.0174822
2.9827,-0.385796,-0.0524968
2.99103,-0.386875,0.0175287
2.98982,-0.386718,0.087737
2.98933,-0.396738,-0.0526365
2.98973,-0.396791,0.0175287
2.99248,-0.397156,0.0878534
2.99189,-0.40771,-0.0527063
2.99626,-0.408305,0.0175752
2.999,-0.408679,0.0880861
2.99837,-0.419259,-0.0528459
3.00548,-0.420253,0.0883189
2.99689,-0.429722,-0.0528459
3.01191,-0.431876,0.0885516
3.00724,-0.441925,-0.0530553
3.02348,-0.444312,0.0177612
3.00642,-0.441806,0.0884352
3.02586,-0.455458,0.0177845
3.03216,-0.467236,0.017831
