5.85273,0.586765,0.240978
5.86048,0.514987,0.241019
5.84959,0.477879,0.240446
5.86988,0.47469,-0.186511
5.85939,0.442504,0.240733
5.86372,0.437994,-0.186226
5.86797,0.406958,0.240978
5.87147,0.373176,0.456518
5.87734,0.371386,0.241265
5.87464,0.3372,0.456596
5.8825,0.335487,0.241388
5.86956,0.331872,0.0282171
5.88656,0.301657,0.457369
5.87547,0.29893,0.241019
5.87648,0.296102,0.0282411
5.8883,0.265532,0.457369
5.88817,0.263364,0.24147
5.87818,0.260039,0.0282411
5.87739,0.258051,-0.186321
5.88284,0.229126,0.456828
5.88768,0.227153,0.241388
5.88267,0.224081,0.0282555
5.89384,0.222549,-0.186796
5.8864,0.217638,-0.400226
5.89012,0.193221,0.457292
5.85851,0.404722,0.398801
5.89895,0.191347,0.241797
5.89093,0.188205,0.0282891
5.8931,0.186318,-0.186733
5.90258,0.181977,-0.401243
5.89119,0.157077,0.457292
5.86487,0.369018,0.399072
5.906,0.155305,0.242043
5.89697,0.152184,0.0283131
5.90312,0.150384,-0.187018
5.89461,0.145535,-0.400633
5.89143,0.122662,0.672848
5.89503,0.120987,0.457524
5.86802,0.333082,0.399139
5.84879,0.543786,0.342603
5.90579,0.116155,0.0283515
5.90893,0.114257,-0.187176
5.904,0.0866857,0.67421
5.90663,0.0849715,0.458375
5.86995,0.29707,0.399139
5.855,0.508147,0.342777
5.87173,0.293667,0.185579
5.91139,0.0799835,0.0283755
5.91252,0.0780378,-0.187271
5.90892,0.0733486,-0.401514
5.90243,0.0504409,0.673983
5.91003,0.0487522,0.458607
5.85602,0.472052,0.342661
5.88541,0.258159,0.185958
5.82609,0.679215,0.0729958
5.90877,0.0436882,0.0283611
5.86275,0.468063,-0.0836653
5.91689,0.041786,-0.187398
5.91325,0.0371158,-0.401785
5.91356,0.0142496,0.675231
5.88956,0.226569,0.615835
5.9162,0.0125006,0.459071
5.86179,0.436333,0.342836
5.88688,0.222042,0.185958
5.83015,0.643454,0.0729958
5.91793,0.00744315,0.0284043
5.86751,0.432228,-0.0836938
5.92049,-0.0220615,0.676025
5.89382,0.190524,0.616147
5.91218,-0.0237847,0.458762
5.86436,0.400358,0.342836
5.85108,0.611824,0.28752
5.89113,0.186011,0.186052
5.83896,0.608187,0.073058
5.92686,-0.0289126,0.0284474
5.92795,-0.0308837,-0.187746
5.88762,0.177466,-0.45706
5.91527,-0.0583395,0.675457
5.88891,0.1542,0.615524
5.9179,-0.0601215,0.459226
5.87169,0.364676,0.343127
5.89316,0.149886,0.186084
5.84954,0.573031,0.0731451
5.92765,-0.0672564,-0.187746
5.90156,0.141648,-0.458066
5.91643,-0.0964157,0.459149
5.89525,0.117248,0.400427
5.8778,0.328865,0.34336
5.90596,0.113954,0.186462
5.87444,0.327339,0.130537
5.84996,0.536854,0.0731078
5.93206,-0.101745,0.0284762
5.88246,0.324594,-0.0838075
5.93312,-0.103731,-0.187936
5.89504,0.108906,-0.24186
5.90331,0.105452,-0.458143
5.89832,0.0820332,0.616355
5.88608,0.295788,0.559487
5.90484,0.0811962,0.401037
5.87273,0.292445,0.342952
5.93448,-0.135313,0.243189
5.91154,0.0777798,0.18662
5.88532,0.291734,0.130737
5.85414,0.501034,0.0731202
5.92233,-0.137932,0.0284331
5.88434,0.288493,-0.0838075
5.90458,0.0728439,-0.242229
5.90783,0.0692745,-0.458452
5.89871,0.0458403,0.616355
5.88679,0.259622,0.559393
5.93872,-0.169696,0.461005
5.90523,0.0449633,0.401037
5.8804,0.256667,0.343301
5.93753,-0.17184,0.243353
5.91091,0.0414987,0.186589
5.887,0.255617,0.130737
5.86508,0.465738,0.0732198
5.93336,-0.174621,0.0284906
5.886,0.252382,-0.0838075
5.85909,0.462998,-0.139226
5.94139,-0.176829,-0.188252
5.90392,0.0366064,-0.242188
5.87822,0.248965,-0.297427
5.90914,0.033029,-0.45853
5.90584,0.00965698,0.617082
5.89324,0.223685,0.559865
5.91437,0.0087419,0.401646
5.89284,0.220992,0.343942
5.94435,-0.208549,0.24368
5.91105,0.0052293,0.186589
5.89146,0.219602,0.130803
5.86185,0.429303,0.0731451
5.94317,-0.211415,0.0285434
5.91193,0.00409506,-0.0281691
5.89443,0.216519,-0.0839071
5.86979,0.42762,-0.139415
5.91003,0.000380364,-0.242434
5.88263,0.213001,-0.297578
5.9202,-0.00323543,-0.459381
5.89786,0.211491,-0.514045
5.91375,-0.0266166,0.617914
5.89749,0.187616,0.560149
5.92329,-0.02759,0.402256
5.89308,0.184799,0.343884
5.92597,-0.0311191,0.187062
5.8907,0.183386,0.130759
5.86736,0.393528,0.0731824
5.92285,-0.0322398,-0.0282215
5.90264,0.180561,-0.0840067
5.86832,0.391329,-0.139321
5.91392,-0.0359072,-0.242598
5.92406,-0.0395877,-0.45969
5.89806,0.175269,-0.513958
5.91347,-0.0629021,0.617914
5.90151,0.151502,0.560432
5.95052,-0.279728,0.462243
5.92002,-0.0639018,0.402053
5.90508,0.148913,0.344524
5.93166,-0.0675478,0.187251
5.89571,0.147338,0.130848
5.87466,0.357824,0.0732447
5.95212,-0.284905,0.028601
5.92754,-0.068639,-0.0282453
5.87859,0.355798,-0.13951
5.91658,-0.0722302,-0.242721
5.89379,0.141011,-0.298033
5.90201,0.139146,-0.514218
5.9093,0.115425,0.561094
5.92051,-0.100242,0.402121
5.90289,0.11262,0.344349
5.93114,-0.103943,0.187251
5.9035,0.111291,0.131003
5.88673,0.322317,0.0733691
5.95525,-0.321691,0.028625
5.92,-0.104884,-0.028212
5.90452,0.105022,-0.298538
5.88262,0.319518,-0.355373
5.91172,0.103086,-0.514999
5.92378,-0.13666,0.402392
5.90746,0.07645,0.344582
5.93638,-0.140475,0.18744
5.96215,-0.358766,0.0286682
5.92325,-0.141302,-0.028231
5.91596,0.0720161,-0.0841631
5.90805,0.0688259,-0.298689
5.89045,0.283705,-0.355734
5.91523,0.0668444,-0.515259
5.9338,-0.173325,0.403137
5.91581,0.0402554,0.345048
5.9384,-0.176987,0.187535
5.92042,0.0389433,0.131358
5.89024,0.250054,0.0733691
5.97181,-0.396137,0.0287258
5.93027,-0.177884,-0.0282691
5.91829,0.0357271,-0.0841916
5.89513,0.247994,-0.139771
5.93323,-0.181704,-0.2435
5.91236,0.0325955,-0.298891
5.89507,0.247682,-0.355915
5.92237,0.00664765,0.562228
5.9416,-0.210048,0.403747
5.92094,0.00395921,0.345339
5.94919,-0.213852,0.187914
5.92154,0.00261606,0.13138
5.89966,0.214198,0.0734686
5.97126,-0.432916,0.0287354
5.89554,0.211782,-0.139747
5.94598,-0.21862,-0.244073
5.91944,-0.00368701,-0.299244
5.89249,0.211363,-0.355674
5.92529,-0.0297064,0.562511
5.94318,-0.246625,0.40395
5.92584,-0.0323983,0.34563
5.95076,-0.250477,0.188008
5.90286,0.178054,0.0734935
5.98045,-0.470488,0.028793
5.9223,-0.0400282,-0.299396
5.90166,0.175441,-0.356156
5.92897,-0.0661071,0.562889
5.94654,-0.283325,0.404289
5.95011,-0.287034,0.18804
5.90284,0.141808,0.0734811
5.93295,-0.0734009,-0.0844049
5.95782,-0.292304,-0.244688
5.92294,-0.0763789,-0.299446
5.90362,0.139249,-0.356216
5.92149,-0.102365,0.562228
5.93298,-0.105257,0.346096
5.96321,-0.324352,0.188513
5.93758,-0.106686,0.131757
5.94808,-0.324674,-0.0283835
5.93838,-0.109914,-0.0844903
5.94693,-0.32836,-0.244319
5.92536,-0.112777,-0.299598
5.91135,0.103144,-0.356638
5.90084,0.0782827,0.719055
5.93422,-0.141707,0.346213
5.96111,-0.360936,0.188513
5.93581,-0.143092,0.131735
5.98471,-0.581844,0.0288602
5.95296,-0.361589,-0.0284169
5.93554,-0.149409,-0.300153
5.91188,0.066871,-0.356638
5.91312,0.0421593,0.720506
5.94022,-0.178325,0.34662
5.96875,-0.398171,0.188829
5.93782,-0.179602,0.131801
5.95761,-0.398576,-0.0284502
5.91624,0.00587925,0.720869
5.92252,0.00175079,0.504824
5.947,-0.215059,0.347086
5.97218,-0.435223,0.189018
5.9456,-0.216359,0.132001
5.95805,-0.435343,-0.0284645
5.94923,-0.222834,-0.300961
5.90823,-0.0303814,0.719901
5.92043,-0.0345775,0.504654
5.94357,-0.251461,0.34697
5.97637,-0.47241,0.189239
5.95315,-0.253219,0.132201
5.97819,-0.473709,-0.0285741
5.94376,-0.259159,-0.300759
5.9231,-0.0709398,0.504909
5.94391,-0.288022,0.347086
5.96938,-0.508732,0.189113
5.95548,-0.289937,0.132289
5.98016,-0.510807,-0.0285979
5.953,-0.325086,0.347727
5.98189,-0.547947,-0.0286217
5.93971,-0.144055,0.506438
5.97941,-0.584739,-0.0286265
5.93971,-0.180528,0.506523
5.94944,-0.21737,0.507457
5.97567,-0.475018,0.132999
5.9903,-0.550234,0.133465
5.99521,-0.593653,0.0749744
