2.2165,0.121982,-0.0258432
2.23983,0.23344,-0.0130884
2.16331,0.119054,-0.202246
2.24845,0.12374,0.0262157
2.24748,0.234238,0.0394424
2.18897,0.120467,-0.127673
2.19707,0.228983,-0.115767
2.21187,0.222724,-0.0646974
2.2209,0.114449,-0.0258898
2.24063,0.22562,-0.0130884
2.16371,0.111502,-0.202246
2.24487,0.115684,0.0261692
2.18539,0.112619,-0.127441
2.19785,0.221312,-0.115767
2.2007,0.213842,-0.0643483
2.22528,0.106888,-0.0259363
2.24141,0.217797,-0.0130884
2.16806,0.10414,-0.202618
2.24526,0.107848,0.0261692
2.2411,0.217768,0.0393028
2.19375,0.105374,-0.127906
2.20939,0.206904,-0.064581
2.22165,0.0989415,-0.0258898
2.16841,0.0965707,-0.202618
2.24562,0.100009,0.0261692
2.17125,0.203331,-0.178025
2.25379,0.211062,0.0395123
2.19011,0.0975372,-0.127673
2.20332,0.206335,-0.115976
2.20214,0.198473,-0.0643483
2.22598,0.0913504,-0.0259363
2.16874,0.0890014,-0.202618
2.25395,0.0924984,0.0262623
2.17591,0.196109,-0.178351
2.25452,0.203194,0.0395123
2.19044,0.0898921,-0.127673
2.20403,0.198643,-0.115976
2.2068,0.19113,-0.0644646
2.22228,0.0834301,-0.0258898
2.24356,0.194314,-0.0130884
2.16506,0.0812816,-0.202246
2.24627,0.0843304,0.0261692
2.17261,0.188169,-0.178025
2.19074,0.0822459,-0.127673
2.20073,0.190605,-0.115767
2.20745,0.183425,-0.0644646
2.22656,0.0758079,-0.0259363
2.24423,0.186481,-0.0130884
2.16135,0.0735876,-0.201875
2.24655,0.0764884,0.0261692
2.16928,0.180254,-0.1777
2.25987,0.18778,0.0395821
2.19102,0.0745977,-0.127673
2.19837,0.291373,-0.103299
2.1974,0.18259,-0.115558
2.20011,0.175085,-0.0642319
2.21881,0.0677914,-0.0258432
2.16557,0.0661647,-0.202246
2.2508,0.0687686,0.0262157
2.1699,0.172681,-0.1777
2.25253,0.179257,0.0394424
2.18727,0.0668277,-0.127441
2.20334,0.284209,-0.103485
2.19803,0.174919,-0.115558
2.20467,0.168091,-0.0643483
2.22303,0.0605415,-0.0258898
2.24146,0.170897,-0.0130652
2.16578,0.0589824,-0.202246
2.24701,0.0611948,0.0261692
2.17046,0.165484,-0.1777
2.2571,0.17209,0.0395123
2.18349,0.0594648,-0.127208
2.2003,0.276402,-0.103299
2.20258,0.167932,-0.115767
2.2259,0.279618,-0.0522025
2.20128,0.159721,-0.0642319
2.22323,0.0523938,-0.0258898
2.24207,0.162681,-0.0130652
2.16598,0.0510445,-0.202246
2.24722,0.0529592,0.0261692
2.17503,0.157816,-0.178025
2.25772,0.163816,0.0395123
2.18768,0.051556,-0.127441
2.19733,0.267853,-0.103113
2.20318,0.159859,-0.115767
2.22691,0.271458,-0.0522025
2.20182,0.152036,-0.0642319
2.2274,0.0447126,-0.0259363
2.16216,0.043403,-0.201875
2.2474,0.045114,0.0261692
2.17557,0.150222,-0.178025
2.26227,0.156209,0.0395821
2.18785,0.0439187,-0.127441
2.26871,0.156654,0.0926498
2.19429,0.259711,-0.102927
2.19974,0.151891,-0.115558
2.22784,0.263682,-0.0522025
2.20232,0.144734,-0.0642319
2.22354,0.0372595,-0.0258898
2.24312,0.147416,-0.0130652
2.16628,0.0363,-0.202246
2.23953,0.0375275,0.026076
2.17207,0.142746,-0.1777
2.25479,0.148182,0.0394424
2.18799,0.0366637,-0.127441
2.26922,0.14913,0.0926498
2.19911,0.25289,-0.103113
2.19624,0.144335,-0.115348
2.20677,0.137678,-0.0643483
2.23015,0.248968,0
2.22365,0.0298851,-0.0258898
2.23562,0.139478,-0.0130187
2.1624,0.029062,-0.201875
2.24764,0.0302076,0.0261692
2.17316,0.242607,-0.152906
2.17253,0.135542,-0.1777
2.25527,0.140704,0.0394424
2.19209,0.029461,-0.127673
2.2697,0.141604,0.0926498
2.19596,0.245152,-0.102927
2.20867,0.137796,-0.115976
2.19926,0.129506,-0.0641155
2.23498,0.241614,0
2.22774,0.0221643,-0.0259363
2.24407,0.132145,-0.0130652
2.16249,0.0215151,-0.201875
2.25174,0.022403,0.0262157
2.17697,0.128193,-0.178025
2.25575,0.132832,0.0394424
2.18818,0.0217707,-0.127441
2.27018,0.133682,0.0926498
2.20475,0.238346,-0.103299
2.20116,0.129618,-0.115558
2.22642,0.240689,-0.0521094
2.20371,0.121663,-0.0642319
2.23585,0.233419,0
2.22781,0.0139974,-0.0259363
2.24055,0.123697,-0.0130419
2.16654,0.0136125,-0.202246
2.2558,0.0141733,0.0262623
2.18278,0.227878,-0.153464
2.17345,0.119992,-0.1777
2.25622,0.124562,0.0394424
2.18825,0.0137489,-0.127441
2.27066,0.125359,0.0926498
2.19369,0.229017,-0.102741
2.20561,0.121768,-0.115767
2.22331,0.23211,-0.0520164
2.20011,0.114148,-0.0641155
2.23263,0.225601,0
2.23584,0.00663388,-0.0260295
2.24494,0.116474,-0.0130652
2.15861,0.00640472,-0.201503
2.24384,0.00665761,0.0261226
2.17558,0.219837,-0.152906
2.17384,0.112785,-0.1777
2.25662,0.11708,0.0394424
2.18429,0.00648093,-0.127208
2.27106,0.117829,0.0926498
2.19443,0.221742,-0.102741
2.19802,0.114039,-0.115348
2.22805,0.225138,-0.0521094
2.20051,0.106084,-0.0641155
2.23344,0.217417,0
2.22785,-0.00155486,-0.0259363
2.24535,0.108245,-0.0130652
2.15862,-0.00150654,-0.201503
2.24876,0.218908,0.0525747
2.25185,-0.00157161,0.0262157
2.1724,0.211475,-0.152627
2.16627,0.104433,-0.177049
2.25703,0.108808,0.0394424
2.19229,-0.00153004,-0.127673
2.26748,0.109312,0.0924869
2.20319,0.214472,-0.103113
2.19843,0.105983,-0.115348
2.22886,0.216971,-0.0521094
2.20087,0.0984022,-0.0641155
2.23419,0.20962,0
2.22383,-0.00931426,-0.0258898
2.14454,0.0958836,-0.273244
2.24572,0.100407,-0.0130652
2.16258,-0.00905772,-0.201875
2.24783,-0.00941478,0.0261692
2.1771,0.204264,-0.152906
2.1706,0.097049,-0.177375
2.25341,0.100751,0.0393726
2.18827,-0.00916534,-0.127441
2.27184,0.101576,0.0926498
2.19596,0.206034,-0.102741
2.20277,0.0984874,-0.115558
2.20361,0.315977,-0.0906958
2.2296,0.20919,-0.0521094
2.20117,0.0914868,-0.0641155
2.23484,0.2026,0
2.23179,-0.0163599,-0.0259829
2.14483,0.0891452,-0.273244
2.24203,0.0931851,-0.0130419
2.16652,-0.0158814,-0.202246
2.25179,-0.0165065,0.0262157
2.17376,0.197063,-0.152627
2.1709,0.0902288,-0.177375
2.25371,0.0936707,0.0393726
2.18424,-0.0160113,-0.127208
2.27615,0.0946032,0.0928126
2.20058,0.199494,-0.102927
2.19908,0.0914001,-0.115348
2.19272,0.307387,-0.0902073
2.22627,0.201823,-0.0520164
2.20547,0.0839553,-0.0642319
2.23154,0.194451,0
2.23172,-0.0241497,-0.0259829
2.14116,0.0815074,-0.272739
2.23834,0.0852067,-0.0130187
2.16645,-0.0234434,-0.202246
2.26281,0.197175,0.0528539
2.25172,-0.0243661,0.0262157
2.17443,0.189474,-0.152627
2.16722,0.0824992,-0.177049
2.25802,0.0859558,0.0394424
2.18417,-0.0236352,-0.127208
2.27247,0.0865058,0.0926498
2.18932,0.190772,-0.102368
2.20737,0.0840277,-0.115767
2.2017,0.300813,-0.090533
2.22297,0.193704,-0.0519233
2.22019,0.294659,-0.0390934
2.19778,0.0752123,-0.0639992
2.24025,0.186544,0
2.22761,-0.0326606,-0.0259363
2.14542,0.0734205,-0.273244
2.24265,0.0767477,-0.0130419
2.16237,-0.031704,-0.201875
2.25957,0.188153,0.0527608
2.25161,-0.0330124,0.0262157
2.17514,0.181123,-0.152627
2.17549,0.0744493,-0.1777
2.25434,0.0771477,0.0393726
2.18406,-0.0320221,-0.127208
2.27278,0.077779,0.0926498
2.19004,0.182363,-0.102368
2.1957,0.075141,-0.115139
2.19888,0.291831,-0.0903702
2.22769,0.185498,-0.0520164
2.22111,0.287684,-0.0390934
2.206,0.0685562,-0.0642319
2.23683,0.179186,0
2.2275,-0.0396582,-0.0259363
2.14564,0.0666805,-0.273244
2.23888,0.0695781,-0.0130187
2.16226,-0.0384967,-0.201875
2.24749,-0.0400142,0.0261692
2.17172,0.17397,-0.152348
2.16774,0.0673672,-0.177049
2.25857,0.0701898,0.0394424
2.18395,-0.038883,-0.127208
2.26902,0.0705147,0.0924869
2.19458,0.175802,-0.102555
2.19992,0.0683672,-0.115348
2.29525,0.0713299,0.187464
2.19582,0.284409,-0.0902073
2.22826,0.178499,-0.0520164
2.21813,0.279428,-0.0390236
2.20623,0.0608548,-0.0642319
2.23745,0.171377,0
2.21935,-0.0472637,-0.0258432
2.1419,0.0590804,-0.272739
2.24311,0.0618722,-0.0130419
2.16609,-0.0461295,-0.202246
2.26475,0.173468,0.0528539
2.24334,-0.0477746,0.0261226
2.17232,0.166388,-0.152348
2.17195,0.0599093,-0.177375
2.2548,0.0621946,0.0393726
2.1878,-0.0465918,-0.127441
2.27325,0.0627035,0.0926498
2.19917,0.168445,-0.102741
2.20014,0.060687,-0.115348
2.2915,0.063207,0.187138
2.19284,0.276242,-0.0900445
2.22887,0.170719,-0.0520164
2.21918,0.27091,-0.0390236
2.20245,0.0522887,-0.0641155
2.23809,0.162785,0
2.23114,-0.056086,-0.0259829
2.13814,0.050762,-0.272234
2.24333,0.0532593,-0.0130419
2.16988,-0.0545459,-0.202618
2.24714,-0.056488,0.0261692
2.17692,0.158336,-0.152627
2.16817,0.0514751,-0.177049
2.25102,0.053442,0.0393028
2.19159,-0.0550918,-0.127673
2.27347,0.053975,0.0926498
2.1998,0.16,-0.102741
2.19637,0.0521444,-0.115139
2.2997,0.0545976,0.187789
2.19388,0.267821,-0.0900445
2.22552,0.16187,-0.0519233
2.2082,0.261749,-0.0388142
2.20661,0.0446808,-0.0642319
2.23066,0.154418,0
2.22694,-0.0637599,-0.0259363
2.13831,0.0432976,-0.272234
2.23631,0.26508,0.0130884
2.2395,0.0453468,-0.0130187
2.15038,0.148861,-0.232186
2.16171,-0.0618925,-0.201875
2.26596,0.156862,0.0528539
2.25093,-0.0644467,0.0262157
2.17348,0.15046,-0.152348
2.17233,0.0439865,-0.177375
2.2472,0.0455025,0.039233
2.19139,-0.0627421,-0.127673
2.27365,0.0460381,0.0926498
2.18838,0.151492,-0.102182
2.20053,0.0445576,-0.115348
2.29589,0.0464885,0.187464
2.19083,0.25969,-0.0898817
2.22607,0.1541,-0.0519233
2.20901,0.254811,-0.0388142
2.19875,0.0376119,-0.0639992
2.23114,0.14741,0
2.23072,-0.0708823,-0.0259829
2.1543,0.0368516,-0.274255
2.24363,0.0383798,-0.0130419
2.15753,-0.0685565,-0.201503
2.25846,0.149216,0.0526678
2.24671,-0.0713905,0.0261692
2.16996,0.143368,-0.152069
2.17644,0.0372304,-0.1777
2.25533,0.0385798,0.0393726
2.17707,0.251126,-0.140451
2.18719,-0.069499,-0.127441
2.27378,0.0388955,0.0926498
2.19284,0.14488,-0.102368
2.20066,0.0376446,-0.115348
2.29603,0.039276,0.187464
2.19561,0.253264,-0.0900445
2.22255,0.146843,-0.0518303
2.20993,0.246713,-0.0388142
2.19887,0.0295534,-0.0639992
2.22767,0.138983,0
2.22645,-0.0789157,-0.0259363
2.15045,0.0289026,-0.27375
2.24376,0.0301567,-0.0130419
2.13944,0.133478,-0.230901
2.16522,-0.0767454,-0.202246
2.26698,0.141435,0.0528539
2.25043,-0.0797658,0.0262157
2.17445,0.135663,-0.152348
2.16859,0.0291464,-0.177049
2.25945,0.0303676,0.0394424
2.17797,0.243145,-0.140451
2.1949,-0.0777974,-0.127906
2.27391,0.0305619,0.0926498
2.19734,0.137091,-0.102555
2.19679,0.0295254,-0.115139
2.29217,0.0308073,0.187138
2.19255,0.244772,-0.0898817
2.22707,0.138945,-0.0519233
2.21074,0.239383,-0.0388142
2.19896,0.0222609,-0.0639992
2.22412,0.131359,0
2.22618,-0.0862991,-0.0259363
2.14657,0.0217305,-0.273244
2.2349,0.241999,0.0130652
2.24385,0.0227153,-0.0130419
2.13987,0.126382,-0.230901
2.16098,-0.0837715,-0.201875
2.26743,0.133916,0.0528539
2.25016,-0.0872287,0.0262157
2.17091,0.128215,-0.152069
2.16867,0.0219543,-0.177049
2.25154,0.0227932,0.0393028
2.1748,0.235491,-0.140195
2.19064,-0.0849214,-0.127673
2.274,0.0230205,0.0926498
2.19379,0.129567,-0.102368
2.19687,0.0222398,-0.115139
2.29226,0.0232054,0.187138
2.18938,0.237069,-0.0897188
2.20758,0.231247,-0.0387443
2.20702,0.0146374,-0.0642319
2.22856,0.123815,0
2.22586,-0.0940699,-0.0259363
2.14266,0.0142106,-0.272739
2.24369,0.235029,0.0131117
2.23991,0.0148556,-0.0130187
2.13633,0.118691,-0.230473
2.16863,-0.0916511,-0.202618
2.2599,0.125557,0.0526678
2.24984,-0.0950833,0.0262157
2.17533,0.120858,-0.152348
2.16874,0.0143835,-0.177049
2.25561,0.0149597,0.0393726
2.17164,0.227482,-0.139939
2.18634,-0.0923997,-0.127441
2.2846,0.126929,0.133255
2.27806,0.0151086,0.0928126
2.19423,0.121908,-0.102368
2.20093,0.014597,-0.115348
2.3003,0.015256,0.187789
2.19416,0.229841,-0.0898817
2.22796,0.123782,-0.0519233
2.20444,0.222753,-0.0386745
2.20306,0.0065368,-0.0641155
2.229,0.115647,0
2.22151,-0.102043,-0.0258898
2.14667,0.00636949,-0.273244
2.24453,0.226804,0.0131117
2.24395,0.00665814,-0.0130419
2.14866,0.111479,-0.231758
2.1643,-0.0994156,-0.202246
2.25635,0.117066,0.0525747
2.24948,-0.103328,0.0262157
2.17177,0.112678,-0.152069
2.17276,0.00644691,-0.177375
2.25565,0.00669284,0.0393726
2.17643,0.219923,-0.140195
2.18998,-0.100595,-0.127673
2.28505,0.118555,0.133255
2.2741,0.0067476,0.0926498
2.18668,0.113451,-0.101996
2.20496,0.00654245,-0.115558
2.29635,0.00681361,0.187464
2.19102,0.221396,-0.0897188
2.22041,0.115201,-0.0517372
2.21309,0.216606,-0.0388142
2.19507,-0.000382517,-0.0638828
2.22935,0.108644,0
2.22917,-0.109414,-0.0259829
2.14668,-0.000374084,-0.273244
2.24523,0.219752,0.0131117
2.24396,-0.000391037,-0.0130419
2.149,0.104728,-0.231758
2.15602,-0.105824,-0.201503
2.2647,0.110367,0.0527608
2.24115,-0.110002,0.0261226
2.16813,0.10566,-0.15179
2.17277,-0.000378631,-0.177375
2.25966,-0.000393771,0.0394424
2.17711,0.213084,-0.140195
2.18965,-0.107474,-0.127673
2.29339,0.111765,0.13372
2.27411,-0.000396291,0.0926498
2.19501,0.106971,-0.102368
2.19698,-0.00038285,-0.115139
2.29636,-0.000400168,0.187464
2.19568,0.214902,-0.0898817
2.22476,0.10842,-0.0518303
2.20985,0.208503,-0.0387443
2.19905,-0.00805999,-0.0639992
2.23372,0.101042,0
2.22078,-0.116775,-0.0258898
2.14667,-0.00786797,-0.273244
2.24997,0.212288,0.0131349
2.24395,-0.00822453,-0.0130419
2.14141,0.0968664,-0.230901
2.15961,-0.113559,-0.201875
2.26507,0.10246,0.0527608
2.24475,-0.118035,0.0261692
2.16848,0.098091,-0.15179
2.17674,-0.00797821,-0.1777
2.26364,-0.00829671,0.0395123
2.17784,0.205483,-0.140195
2.18926,-0.115117,-0.127673
2.28977,0.103578,0.133487
2.2781,-0.00834969,0.0928126
2.19936,0.0994879,-0.102555
2.20496,-0.00808163,-0.115558
2.29635,-0.00841658,0.187464
2.19244,0.20686,-0.0897188
2.22512,0.100653,-0.0518303
2.21458,0.200764,-0.0388142
2.19901,-0.0161194,-0.0639992
2.23407,0.0928546,0
2.22034,-0.124913,-0.0258898
2.14662,-0.0157354,-0.273244
2.24276,0.203319,0.0130884
2.2439,-0.0164485,-0.0130419
2.14175,0.0890175,-0.230901
2.16714,-0.12192,-0.202618
2.26543,0.094158,0.0527608
2.24829,-0.126486,0.0262157
2.17281,0.0903086,-0.152069
2.16873,-0.0158974,-0.177049
2.2556,-0.0165342,0.0393726
2.1746,0.19714,-0.139939
2.18882,-0.12314,-0.127673
2.27405,-0.0166695,0.0926498
2.19572,0.0912607,-0.102368
2.20092,-0.0161334,-0.115348
2.29231,-0.0168033,0.187138
2.19318,0.198824,-0.0897188
2.22548,0.0924974,-0.0518303
2.20331,0.19199,-0.0386047
2.19894,-0.0237958,-0.0639992
2.23038,0.0849029,0
2.22388,-0.132902,-0.0259363
2.14259,-0.023186,-0.272739
2.23948,0.195141,0.0130652
2.24383,-0.0242816,-0.0130419
2.14205,0.0815403,-0.230901
2.17067,-0.129722,-0.20299
2.26974,0.0864011,0.0528539
2.24384,-0.134095,0.0261692
2.1771,0.0828747,-0.152348
2.17264,-0.0235113,-0.177375
2.25052,0.196103,0.0657446
2.25552,-0.0244082,0.0393726
2.1713,0.1892,-0.139683
2.18439,-0.130542,-0.127441
2.29046,0.0871897,0.133487
2.27798,-0.0246511,0.0928126
2.19203,0.0834431,-0.102182
2.20085,-0.0238165,-0.115348
2.3042,-0.0249349,0.188115
2.19784,0.191513,-0.0898817
2.22579,0.0847279,-0.0518303
2.20792,0.185017,-0.0386745
2.19485,-0.0310307,-0.0638828
2.23065,0.0775067,0
2.22742,-0.140527,-0.0259829
2.1425,-0.0302905,-0.272739
2.24011,0.187714,0.0130652
2.23974,-0.0316653,-0.0130187
2.14231,0.074437,-0.230901
2.16228,-0.136418,-0.202246
2.25803,0.0784578,0.0525747
2.24738,-0.141787,0.0262157
2.17338,0.0755166,-0.152069
2.18053,-0.0308282,-0.178025
2.25115,0.188639,0.0657446
2.25943,-0.0319437,0.0394424
2.16794,0.181666,-0.139427
2.18794,-0.138036,-0.127673
2.28674,0.0794556,0.133255
2.27389,-0.0321481,0.0926498
2.18831,0.0760353,-0.101996
2.20076,-0.0311142,-0.115348
2.30012,-0.032519,0.187789
2.19846,0.184224,-0.0898817
2.22206,0.077208,-0.0517372
2.21254,0.177629,-0.0387443
2.19873,-0.038762,-0.0639992
2.22291,0.0694704,0
2.22692,-0.148301,-0.0259829
2.15825,-0.0380484,-0.27476
2.24873,0.180534,0.0131117
2.23961,-0.0394828,-0.0130187
2.14653,0.0670832,-0.23133
2.16179,-0.143964,-0.202246
2.25429,0.0704509,0.0524816
2.24687,-0.14963,0.0262157
2.16964,0.0678054,-0.15179
2.18041,-0.038439,-0.178025
2.25578,0.181101,0.065861
2.25531,-0.0397594,0.0393726
2.17254,0.174417,-0.139683
2.18744,-0.145672,-0.127673
2.28701,0.0714734,0.133255
2.26976,-0.0400143,0.0924869
2.18856,0.0683966,-0.101996
2.19664,-0.0387253,-0.115139
2.29999,-0.0405472,0.187789
2.19511,0.17623,-0.0897188
2.22231,0.0694516,-0.0517372
2.21318,0.169519,-0.0387443
2.20657,-0.0469902,-0.0642319
2.22715,0.0614333,0
2.22636,-0.156462,-0.0259829
2.14223,-0.0456201,-0.272739
2.2414,0.17168,0.0130652
2.23945,-0.0476906,-0.0130187
2.14676,0.0592158,-0.23133
2.16522,-0.152165,-0.202618
2.27052,0.0626296,0.0528539
2.24631,-0.157864,0.0262157
2.16589,0.0597433,-0.151511
2.17228,-0.0462601,-0.177375
2.25245,0.172527,0.0657446
2.25515,-0.0480248,0.0393726
2.17714,0.166759,-0.139939
2.19088,-0.153968,-0.127906
2.28725,0.0630911,0.133255
2.2696,-0.0483326,0.0924869
2.18879,0.0603752,-0.101996
2.19649,-0.0467756,-0.115139
2.29584,-0.0488914,0.187464
2.19176,0.167878,-0.089556
2.22655,0.0614167,-0.0518303
2.21775,0.162083,-0.0388142
2.20239,-0.0545945,-0.0641155
2.23135,0.0537537,0
2.2258,-0.164234,-0.0259829
2.14205,-0.0530988,-0.272739
2.24198,0.163854,0.0130652
2.24327,-0.0556079,-0.0130419
2.15093,0.0518163,-0.231758
2.16468,-0.159724,-0.202618
2.26273,0.0545096,0.0526678
2.24574,-0.165705,0.0262157
2.17007,0.0522774,-0.15179
2.16812,-0.053745,-0.177049
2.24905,0.16437,0.0656282
2.25496,-0.0558977,0.0393726
2.17373,0.158866,-0.139683
2.19431,-0.16191,-0.128138
2.29544,0.0552977,0.13372
2.27342,-0.0563551,0.0926498
2.18899,0.0527332,-0.101996
2.19631,-0.0544438,-0.115139
2.29964,-0.0570052,0.187789
2.19632,0.160517,-0.0897188
2.23075,0.0537392,-0.0519233
2.20234,0.15323,-0.0385349
2.20618,-0.062395,-0.0642319
2.22753,0.0458822,0
2.2292,-0.17231,-0.0260295
2.13789,-0.0604635,-0.272234
2.24254,0.156027,0.0130652
2.23907,-0.063325,-0.0130187
2.13917,0.0440622,-0.230473
2.16808,-0.167586,-0.20299
2.2709,0.0467756,0.0528539
2.24914,-0.173852,0.0262623
2.17024,0.0447021,-0.15179
2.1719,-0.0614255,-0.177375
2.2536,0.156796,0.0657446
2.25076,-0.0636556,0.0393028
2.17427,0.151277,-0.139683
2.18975,-0.169261,-0.127906
2.29163,0.0472025,0.133487
2.28119,-0.0645165,0.0929754
2.19715,0.0452565,-0.102368
2.2001,-0.0622229,-0.115348
2.29544,-0.0649194,0.187464
2.19686,0.152849,-0.0897188
2.22293,0.0457874,-0.0517372
2.20683,0.14619,-0.0386047
2.20197,-0.0695843,-0.0641155
2.11308,-0.0667753,-0.422829
2.23567,0.0386334,0
2.2326,-0.180023,-0.026076
2.14164,-0.067678,-0.272739
2.24305,0.14859,0.0130652
2.23884,-0.0707497,-0.0130187
2.14328,0.0370369,-0.230901
2.16751,-0.174775,-0.20299
2.26705,0.0391757,0.0527608
2.24855,-0.181309,0.0262623
2.17038,0.0375051,-0.15179
2.17567,-0.0687534,-0.1777
2.2541,0.149322,0.0657446
2.26253,-0.071498,0.0395123
2.17078,0.143802,-0.139427
2.18917,-0.176521,-0.127906
2.29177,0.039603,0.133487
2.27298,-0.0718283,0.0926498
2.19329,0.0379012,-0.102182
2.20387,-0.0696446,-0.115558
2.29522,-0.072531,0.187464
2.19736,0.145563,-0.0897188
2.22706,0.0384847,-0.0518303
2.21131,0.138737,-0.0386745
2.20171,-0.0772702,-0.0641155
2.09323,-0.073463,-0.418907
2.23179,0.0307741,0
2.23595,-0.188151,-0.0261226
2.14139,-0.0751533,-0.272739
2.24355,0.140759,0.0130652
2.24258,-0.0787046,-0.0130419
2.13942,0.0295004,-0.230473
2.15895,-0.181672,-0.202246
2.25518,0.0310965,0.0524816
2.24392,-0.188821,0.0262157
2.17448,0.0299839,-0.152069
2.17542,-0.0763475,-0.1777
2.25461,0.141453,0.0657446
2.25427,-0.0791147,0.0393726
2.17127,0.136224,-0.139427
2.18854,-0.184162,-0.127906
2.2919,0.0316029,0.133487
2.27271,-0.0797621,0.0926498
2.18542,0.0301347,-0.10181
2.19563,-0.0770569,-0.115139
2.29893,-0.0806822,0.187789
2.19785,0.137892,-0.0897188
2.22319,0.0306555,-0.0517372
2.21181,0.130631,-0.0386745
2.19742,-0.0851845,-0.0639992
2.08903,-0.0809827,-0.418122
2.22789,0.0225535,0
2.22727,-0.195644,-0.0260295
2.1105,0.0213652,-0.328362
2.14507,-0.0831551,-0.273244
2.24405,0.132535,0.0130652
2.24628,-0.0870785,-0.0130652
2.13951,0.0216588,-0.230473
2.16621,-0.19028,-0.20299
2.26727,0.0229522,0.0527608
2.24719,-0.197394,0.0262623
2.17059,0.0219734,-0.15179
2.16716,-0.0840114,-0.177049
2.25112,0.132953,0.0656282
2.25396,-0.0873765,0.0393726
2.17574,0.1285,-0.139683
2.19183,-0.192531,-0.128138
2.292,0.0232025,0.133487
2.2764,-0.0882463,0.0928126
2.19351,0.0222055,-0.102182
2.19534,-0.0851038,-0.115139
2.29464,-0.0889532,0.187464
2.19435,0.1296,-0.089556
2.22728,0.0225474,-0.0518303
2.21223,0.123296,-0.0386745
2.19712,-0.0924709,-0.0639992
2.09659,-0.0882396,-0.419691
2.23195,0.0151926,0
2.22661,-0.203029,-0.0260295
2.10661,0.0143395,-0.327747
2.13685,-0.0899342,-0.272234
2.24448,0.125093,0.0130652
2.24997,-0.0946951,-0.0130884
2.14355,0.0145909,-0.230901
2.16556,-0.197463,-0.20299
2.26733,0.0154335,0.0527608
2.24653,-0.204845,0.0262623
2.17464,0.0148025,-0.152069
2.17085,-0.0913651,-0.177375
2.25155,0.125487,0.0656282
2.25366,-0.0948504,0.0393726
2.17615,0.121285,-0.139683
2.1872,-0.199436,-0.127906
2.28807,0.0155746,0.133255
2.2721,-0.0956265,0.0926498
2.19357,0.0149314,-0.102182
2.19903,-0.0925513,-0.115348
2.29831,-0.0967297,0.187789
2.19078,0.1221,-0.0893932
2.22735,0.0151613,-0.0518303
2.20865,0.115364,-0.0386047
2.20078,-0.100322,-0.0641155
2.09627,-0.0955575,-0.419691
2.23599,0.00741485,0
2.22589,-0.2108,-0.0260295
2.10665,0.00698593,-0.327747
2.14049,-0.0975734,-0.272739
2.24091,0.117049,0.0130419
2.24563,-0.102366,-0.0130652
2.14359,0.00710844,-0.230901
2.16486,-0.205021,-0.20299
2.27137,0.00753219,0.0528539
2.24978,-0.213063,0.0263088
2.17468,0.00721153,-0.152069
2.17052,-0.0989423,-0.177375
2.24798,0.117418,0.0655119
2.25332,-0.102717,0.0393726
2.17656,0.113688,-0.139683
2.19445,-0.207823,-0.128371
2.2961,0.00761418,0.13372
2.27974,-0.103921,0.0929754
2.1976,0.00728756,-0.102368
2.1987,-0.100227,-0.115348
2.29398,-0.10457,0.187464
2.19518,0.114661,-0.089556
2.22739,0.00738632,-0.0518303
2.20105,0.107264,-0.0384651
2.20042,-0.108003,-0.0641155
2.09592,-0.102874,-0.419691
2.232,-0.000389555,0
2.22514,-0.218569,-0.0260295
2.10666,-0.000367679,-0.327747
2.1441,-0.105239,-0.273244
2.2453,0.109421,0.0130652
2.24126,-0.110008,-0.0130419
2.13565,-0.000372738,-0.230044
2.16017,-0.212187,-0.202618
2.26339,-0.000395033,0.0526678
2.24504,-0.220524,0.0262623
2.17469,-0.000379552,-0.152069
2.17414,-0.106714,-0.1777
2.25237,0.109765,0.0656282
2.25694,-0.110778,0.0394424
2.18093,0.106284,-0.139939
2.18179,-0.21431,-0.127673
2.28812,-0.00039935,0.133255
2.27537,-0.111682,0.0928126
2.18563,-0.000381462,-0.10181
2.19833,-0.107901,-0.115348
2.30156,-0.112968,0.188115
2.19557,0.106997,-0.089556
2.2274,-0.000388751,-0.0518303
2.2134,0.100123,-0.0386745
2.20402,-0.115894,-0.0642319
2.09555,-0.11019,-0.419691
2.23199,-0.00818069,0
2.22834,-0.22674,-0.026076
2.11455,-0.00775026,-0.328977
2.14372,-0.112723,-0.273244
2.24567,0.101582,0.0130652
2.24486,-0.118041,-0.0130652
2.13961,-0.00784211,-0.230473
2.16338,-0.220129,-0.20299
2.26337,-0.00829573,0.0526678
2.24426,-0.228359,0.0262623
2.17069,-0.00795601,-0.15179
2.16977,-0.114093,-0.177375
2.25674,0.102083,0.0657446
2.25254,-0.118445,0.0393726
2.1773,0.0984899,-0.139683
2.185,-0.222329,-0.127906
2.28811,-0.00838639,0.133255
2.27098,-0.119414,0.0926498
2.18162,-0.00799609,-0.101624
2.19395,-0.115364,-0.115139
2.30514,-0.121211,0.18844
2.19593,0.0993326,-0.089556
2.22738,-0.00816382,-0.0518303
2.21372,0.0927823,-0.0386745
2.20362,-0.123202,-0.0642319
2.08734,-0.1167,-0.418122
2.22795,-0.0155542,0
2.2236,-0.23371,-0.0260295
2.14333,-0.119831,-0.273244
2.238,0.0937999,0.0130187
2.24046,-0.125261,-0.0130419
2.13957,-0.0149373,-0.230473
2.16263,-0.227302,-0.20299
2.26333,-0.0158013,0.0526678
2.24747,-0.236218,0.0263088
2.17065,-0.0151542,-0.15179
2.16938,-0.121287,-0.177375
2.24508,0.0940966,0.0653955
2.25613,-0.126137,0.0394424
2.17762,0.0912692,-0.139683
2.18822,-0.229991,-0.128138
2.29605,-0.0160297,0.13372
2.27456,-0.127168,0.0928126
2.19756,-0.0153421,-0.102368
2.19755,-0.122862,-0.115348
2.29278,-0.128186,0.187464
2.19226,0.0918827,-0.0893932
2.22734,-0.01555,-0.0518303
2.21005,0.0845152,-0.0386047
2.20715,-0.131515,-0.0643483
2.09864,-0.12505,-0.420475
2.23187,-0.0237626,0
2.23068,-0.242723,-0.0261226
2.10259,-0.0223861,-0.327132
2.13892,-0.12745,-0.272739
2.24632,0.0859023,0.0130652
2.24398,-0.13371,-0.0130652
2.1395,-0.0227791,-0.230473
2.16179,-0.235227,-0.20299
2.26326,-0.0240967,0.0526678
2.24659,-0.244454,0.0263088
2.16659,-0.0230675,-0.151511
2.16495,-0.129001,-0.177049
2.2494,0.0860202,0.0655119
2.24767,-0.13393,0.0393028
2.17794,0.0832872,-0.139683
2.19133,-0.238442,-0.128371
2.29199,-0.0244026,0.133487
2.27408,-0.135503,0.0928126
2.19749,-0.0233965,-0.102368
2.20107,-0.131153,-0.115558
2.2923,-0.136589,0.187464
2.19657,0.0839998,-0.089556
2.23127,-0.0237561,-0.0519233
2.21032,0.0771859,-0.0386047
2.21069,-0.139085,-0.0644646
2.09822,-0.132009,-0.420475
2.23178,-0.0311636,0
2.22589,-0.249673,-0.026076
2.14244,-0.134791,-0.273244
2.2426,0.0783132,0.0130419
2.24752,-0.141402,-0.0130884
2.13941,-0.0298738,-0.230473
2.16495,-0.242838,-0.203362
2.26717,-0.0316577,0.0527608
2.24576,-0.251903,0.0263088
2.1665,-0.030252,-0.151511
2.17644,-0.13693,-0.178025
2.25367,0.0787,0.0656282
2.25919,-0.142136,0.0395123
2.1782,0.0760645,-0.139683
2.1945,-0.246152,-0.128604
2.29189,-0.0320029,0.133487
2.27362,-0.143044,0.0928126
2.1974,-0.0306835,-0.102368
2.20062,-0.138451,-0.115558
2.29581,-0.14444,0.187789
2.19684,0.0767153,-0.089556
2.23118,-0.0311552,-0.0519233
2.21057,0.06947,-0.0386047
2.21019,-0.146801,-0.0644646
2.09383,-0.139072,-0.419691
2.24366,-0.0391632,0
2.23295,-0.258361,-0.0261692
2.10634,-0.0367662,-0.327747
2.14592,-0.142532,-0.27375
2.24685,0.0706102,0.0130652
2.23903,-0.148716,-0.0130419
2.13532,-0.0372722,-0.230044
2.16805,-0.250852,-0.203733
2.26704,-0.0395713,0.0527608
2.24884,-0.2602,0.0263554
2.17037,-0.0378839,-0.15179
2.17197,-0.144262,-0.1777
2.25393,0.0708327,0.0656282
2.25469,-0.149756,0.0394424
2.17845,0.0684607,-0.139683
2.18569,-0.252893,-0.128138
2.28777,-0.0399332,0.133255
2.26911,-0.150714,0.0926498
2.18929,-0.0382142,-0.101996
2.20013,-0.146132,-0.115558
2.30325,-0.152981,0.18844
2.19709,0.0690464,-0.089556
2.22306,-0.0388036,-0.0517372
2.2108,0.0617533,-0.0386047
2.1977,-0.153678,-0.0641155
2.08942,-0.146106,-0.418907
2.22751,-0.0466597,0
2.23204,-0.266154,-0.0261692
2.11015,-0.0442013,-0.328362
2.14145,-0.149745,-0.273244
2.24309,0.0626551,0.0130419
2.24648,-0.157089,-0.0130884
2.14313,-0.0448922,-0.230901
2.15925,-0.257475,-0.20299
2.26689,-0.0474846,0.0527608
2.24792,-0.268048,0.0263554
2.16623,-0.0453761,-0.151511
2.17941,-0.152399,-0.178351
2.25417,0.0629646,0.0656282
2.26213,-0.158184,0.0395821
2.18666,0.0610789,-0.140195
2.19272,-0.261467,-0.128604
2.28762,-0.0479188,0.133255
2.26857,-0.158634,0.0926498
2.18515,-0.0457724,-0.10181
2.19562,-0.153533,-0.115348
2.31065,-0.161577,0.189091
2.20531,0.0615999,-0.0898817
2.23091,-0.0467308,-0.0519233
2.20302,0.0534558,-0.0384651
2.19712,-0.161732,-0.0641155
2.08887,-0.153763,-0.418907
2.22333,-0.0547252,0
2.23104,-0.274333,-0.0261692
2.10602,-0.0518378,-0.327747
2.1488,-0.158175,-0.274255
2.2513,0.0546274,0.0130884
2.23791,-0.164734,-0.0130419
2.135,-0.0525511,-0.230044
2.1662,-0.266359,-0.203733
2.2627,-0.0556944,0.0526678
2.24295,-0.275798,0.0263088
2.17089,-0.159801,-0.1777
2.25038,0.0546052,0.0655119
2.25755,-0.16618,0.0395123
2.17889,0.0528703,-0.139683
2.18382,-0.268527,-0.128138
2.29541,-0.0564996,0.13372
2.27196,-0.167241,0.0928126
2.18896,-0.0538794,-0.101996
2.19504,-0.161579,-0.115348
2.29414,-0.168874,0.187789
2.19353,0.0532258,-0.0893932
2.23072,-0.0549072,-0.0519233
2.21119,0.0459317,-0.0386047
2.20452,-0.170015,-0.0643483
2.09223,-0.161356,-0.419691
2.23512,-0.0628229,0
2.22611,-0.281617,-0.0261226
2.10583,-0.0591889,-0.327747
2.14032,-0.165065,-0.273244
2.23948,0.0465194,0.0130187
2.24131,-0.172853,-0.0130652
2.14275,-0.0602268,-0.230901
2.16525,-0.273919,-0.203733
2.26649,-0.0637047,0.0527608
2.24198,-0.283625,0.0263088
2.16585,-0.0608761,-0.151511
2.17031,-0.167378,-0.1777
2.25056,0.0467496,0.0655119
2.25297,-0.173752,0.0394424
2.17507,0.0451814,-0.139427
2.1908,-0.277151,-0.128604
2.2952,-0.0645117,0.13372
2.27137,-0.175171,0.0928126
2.18876,-0.0615199,-0.101996
2.19845,-0.169547,-0.115558
2.29354,-0.176881,0.187789
2.19371,0.0455686,-0.0893932
2.23052,-0.0626935,-0.0519233
2.20733,0.0385291,-0.0385349
2.20394,-0.177325,-0.0643483
2.09168,-0.168293,-0.419691
2.2309,-0.0701088,0
2.23309,-0.290028,-0.0262157
2.10562,-0.0661717,-0.327747
2.13977,-0.172161,-0.273244
2.23962,0.0390927,0.0130187
2.24072,-0.180284,-0.0130652
2.13857,-0.0672072,-0.230473
2.16433,-0.281098,-0.203733
2.27026,-0.0713459,0.0528539
2.24499,-0.291573,0.0263554
2.16963,-0.0681833,-0.15179
2.1777,-0.175213,-0.178351
2.2507,0.0392862,0.0655119
2.25636,-0.181543,0.0395123
2.1792,0.038038,-0.139683
2.18987,-0.284414,-0.128604
2.29099,-0.0719971,0.133487
2.27874,-0.183343,0.0931383
2.19653,-0.0690288,-0.102368
2.20185,-0.177157,-0.115767
2.30089,-0.185125,0.18844
2.19385,0.0382937,-0.0893932
2.2263,-0.0699642,-0.0518303
2.20345,0.030768,-0.0384651
2.20331,-0.185017,-0.0643483
2.09108,-0.175593,-0.419691
2.23064,-0.0778957,0
2.2281,-0.297292,-0.0261692
2.14311,-0.179962,-0.27375
2.25174,0.0314423,0.0130884
2.24406,-0.188439,-0.0130884
2.16334,-0.288651,-0.203733
2.26201,-0.0789911,0.0526678
2.24792,-0.299937,0.026402
2.16539,-0.0756171,-0.151511
2.1731,-0.18248,-0.178025
2.25083,0.0314295,0.0655119
2.25572,-0.189418,0.0395123
2.17932,0.030431,-0.139683
2.18886,-0.292056,-0.128604
2.28673,-0.0798543,0.133255
2.26614,-0.190293,0.0926498
2.18829,-0.0764168,-0.101996
2.2052,-0.185176,-0.115976
2.30023,-0.193155,0.18844
2.19796,0.0306913,-0.089556
2.22204,-0.0775955,-0.0517372
2.20754,0.0231182,-0.0385349
2.20265,-0.192707,-0.0643483
2.23036,-0.0856816,0
2.22705,-0.305068,-0.0261692
2.113,-0.0811734,-0.328977
2.15037,-0.188133,-0.27476
2.25184,0.0235821,0.0130884
2.24339,-0.196271,-0.0130884
2.16232,-0.296201,-0.203733
2.26572,-0.08704,0.0527608
2.24686,-0.307782,0.026402
2.16511,-0.0831752,-0.151511
2.17642,-0.190412,-0.178351
2.25092,0.0235725,0.0655119
2.25504,-0.197291,0.0395123
2.1834,0.0228654,-0.139939
2.18783,-0.299695,-0.128604
2.29442,-0.0881426,0.13372
2.27342,-0.198899,0.0929754
2.192,-0.0842083,-0.102182
2.19658,-0.192176,-0.115558
2.35258,-0.0903771,0.289074
2.29954,-0.201183,0.18844
2.20205,0.0230607,-0.0897188
2.22975,-0.0856584,-0.0519233
2.21161,0.0154402,-0.0386047
2.22605,-0.093299,0
2.22597,-0.31284,-0.0261692
2.10876,-0.0883832,-0.328362
2.14575,-0.195278,-0.274255
2.25191,0.0157215,0.0130884
2.24269,-0.204101,-0.0130884
2.14172,-0.0897647,-0.230901
2.16522,-0.304301,-0.204105
2.2654,-0.0949483,0.0527608
2.24182,-0.315067,0.0263554
2.16481,-0.0907324,-0.151511
2.17177,-0.197647,-0.178025
2.25099,0.0157151,0.0655119
2.25832,-0.205523,0.0395821
2.18347,0.0152437,-0.139939
2.19072,-0.307886,-0.128836
2.2941,-0.0961511,0.13372
2.27271,-0.206833,0.0929754
2.19569,-0.0920267,-0.102368
2.19988,-0.200205,-0.115767
2.35225,-0.0985887,0.289074
2.29485,-0.208848,0.188115
2.19413,0.0153181,-0.0893932
2.22944,-0.0934412,-0.0519233
2.21565,0.00773412,-0.0386745
2.20125,-0.20808,-0.0643483
2.2297,-0.10125,0
2.22091,-0.320038,-0.0261226
2.149,-0.203141,-0.27476
2.24395,0.0078329,0.0130419
2.24595,-0.212305,-0.0131117
2.13742,-0.0970597,-0.230473
2.16414,-0.311857,-0.204105
2.26106,-0.102674,0.0526678
2.2407,-0.32289,0.0263554
2.16448,-0.0982884,-0.151511
2.17107,-0.205226,-0.178025
2.24704,0.00784368,0.0653955
2.25759,-0.213405,0.0395821
2.17952,0.00760799,-0.139683
2.18963,-0.315531,-0.128836
2.28577,-0.103796,0.133255
2.27198,-0.214765,0.0929754
2.19136,-0.0995092,-0.102182
2.19917,-0.207882,-0.115767
2.30205,-0.217607,0.188766
2.19417,0.00765913,-0.0893932
2.23309,-0.101404,-0.0520164
2.20366,-0,-0.0384651
2.21245,-0.216933,-0.0646974
2.23333,-0.109228,0
2.22373,-0.328372,-0.0261692
2.10809,-0.103103,-0.328362
2.14038,-0.209866,-0.27375
2.23996,-0,0.0130187
2.24121,-0.219753,-0.0130884
2.16698,-0.319991,-0.204477
2.26867,-0.110957,0.0528539
2.23956,-0.33071,0.0263554
2.16412,-0.105843,-0.151511
2.17034,-0.212803,-0.178025
2.25505,-0,0.0656282
2.25683,-0.221284,0.0395821
2.17953,-0,-0.139683
2.18852,-0.323172,-0.128836
2.28938,-0.111969,0.133487
2.27917,-0.223475,0.0933011
2.191,-0.107158,-0.102182
2.2024,-0.215947,-0.115976
2.30127,-0.225642,0.188766
2.20217,-0,-0.0897188
2.23273,-0.109199,-0.0520164
2.21165,-0.00772016,-0.0386047
2.2077,-0.22425,-0.064581
2.23693,-0.117233,0
2.22653,-0.336731,-0.0262157
2.14359,-0.217737,-0.274255
2.23995,-0.00781894,0.0130187
2.24043,-0.227575,-0.0130884
2.16979,-0.328149,-0.204849
2.27227,-0.119084,0.0529469
2.25026,-0.340319,0.0264951
2.17171,-0.113814,-0.152069
2.17355,-0.220781,-0.178351
2.25503,-0.00787159,0.0656282
2.25605,-0.229161,0.0395821
2.18351,-0.00762192,-0.139939
2.18343,-0.330213,-0.128604
2.28897,-0.11996,0.133487
2.26645,-0.230217,0.0928126
2.19461,-0.115014,-0.102368
2.20163,-0.223634,-0.115976
2.30047,-0.233673,0.188766
2.19417,-0.00765913,-0.0893932
2.23233,-0.116992,-0.0520164
2.21161,-0.0154402,-0.0386047
2.2069,-0.231955,-0.064581
2.22453,-0.12437,0
2.22929,-0.345113,-0.0262623
2.10732,-0.117817,-0.328362
2.14281,-0.225219,-0.274255
2.24791,-0.0156936,0.0130652
2.24758,-0.23623,-0.0131349
2.14423,-0.119881,-0.23133
2.16076,-0.334503,-0.204105
2.26385,-0.126569,0.0527608
2.24906,-0.348172,0.0264951
2.17528,-0.121617,-0.152348
2.17276,-0.228367,-0.178351
2.25099,-0.0157151,0.0655119
2.25921,-0.237453,0.0396519
2.18347,-0.0152437,-0.139939
2.19016,-0.339054,-0.129069
2.29253,-0.128172,0.13372
2.27755,-0.239381,0.0933011
2.19818,-0.122897,-0.102555
2.20084,-0.231318,-0.115976
2.35461,-0.131643,0.289562
2.30361,-0.242119,0.189091
2.20212,-0.0153739,-0.0897188
2.22792,-0.12456,-0.0519233
2.21154,-0.02316,-0.0386047
2.20608,-0.239657,-0.064581
2.22807,-0.132372,0
2.23202,-0.353518,-0.0263088
2.14201,-0.232697,-0.274255
2.24384,-0.0234983,0.0130419
2.24674,-0.244074,-0.0131349
2.13983,-0.127129,-0.230901
2.15957,-0.342043,-0.204105
2.26739,-0.134708,0.0528539
2.24783,-0.356021,0.0264951
2.17883,-0.129446,-0.152627
2.16799,-0.235519,-0.178025
2.24693,-0.0235306,0.0653955
2.26632,-0.246201,0.0397915
2.1834,-0.0228653,-0.139939
2.1929,-0.347322,-0.129301
2.30004,-0.136648,0.134185
2.27273,-0.246898,0.0931383
2.18577,-0.129859,-0.101996
2.19605,-0.238567,-0.115767
2.35414,-0.139862,0.289562
2.29482,-0.249297,0.18844
2.19406,-0.022977,-0.0893932
2.23146,-0.132573,-0.0520164
2.20745,-0.0308238,-0.0385349
2.20523,-0.247356,-0.064581
2.2276,-0.140148,0
2.22683,-0.360667,-0.0262623
2.14119,-0.240173,-0.274255
2.23974,-0.0312747,0.0130187
2.24588,-0.251916,-0.0131349
2.14334,-0.134847,-0.23133
2.17016,-0.35149,-0.205221
2.2669,-0.142621,0.0528539
2.25052,-0.364504,0.0265417
2.17438,-0.1368,-0.152348
2.16716,-0.243085,-0.178025
2.25483,-0.0314853,0.0656282
2.26147,-0.253665,0.0397217
2.18331,-0.0304867,-0.139939
2.19168,-0.354974,-0.129301
2.29158,-0.144174,0.13372
2.27186,-0.25483,0.0931383
2.19727,-0.13824,-0.102555
2.19917,-0.246677,-0.115976
2.30582,-0.258639,0.189416
2.19397,-0.0306355,-0.0893932
2.23498,-0.140613,-0.0521094
2.20734,-0.0377585,-0.0385349
2.20444,-0.254283,-0.064581
2.23513,-0.147673,0
2.22568,-0.367661,-0.0262623
2.14436,-0.247353,-0.27476
2.24363,-0.0383794,0.0130419
2.2411,-0.258512,-0.0131117
2.14687,-0.141842,-0.231758
2.17691,-0.359604,-0.205964
2.27043,-0.150006,0.0529469
2.24936,-0.371573,0.0265417
2.17394,-0.143631,-0.152348
2.1743,-0.250806,-0.178676
2.25072,-0.0385005,0.0655119
2.25669,-0.26031,0.0396519
2.17921,-0.0372773,-0.139683
2.19055,-0.361858,-0.129301
2.29111,-0.151372,0.13372
2.27104,-0.261966,0.0931383
2.20081,-0.145406,-0.102741
2.19839,-0.253584,-0.115976
2.19785,-0.0375963,-0.089556
2.23053,-0.14737,-0.0520164
2.2072,-0.0454634,-0.0385349
2.20354,-0.261976,-0.064581
2.23859,-0.155752,0
2.23228,-0.37676,-0.0263554
2.10946,-0.146768,-0.328977
2.14349,-0.254837,-0.27476
2.24349,-0.0462109,0.0130419
2.23621,-0.265861,-0.0130884
2.16778,-0.365875,-0.205221
2.26591,-0.157653,0.0528539
2.24411,-0.378757,0.0264951
2.17741,-0.151495,-0.152627
2.17737,-0.258865,-0.179002
2.25856,-0.0465215,0.0657446
2.25974,-0.268658,0.0397217
2.18306,-0.0449662,-0.139939
2.18928,-0.369502,-0.129301
2.29456,-0.159646,0.133952
2.27805,-0.270835,0.0934639
2.1963,-0.15281,-0.102555
2.20145,-0.261728,-0.116186
2.20171,-0.0453503,-0.0897188
2.23,-0.155155,-0.0520164
2.21102,-0.053264,-0.0386047
2.20261,-0.269667,-0.064581
2.23404,-0.163274,0
2.23095,-0.384549,-0.0263554
2.11288,-0.154419,-0.329592
2.14652,-0.2628,-0.275265
2.24331,-0.0540418,0.0130419
2.23924,-0.274151,-0.0131117
2.14186,-0.156537,-0.23133
2.17434,-0.374793,-0.205964
2.26933,-0.165853,0.0529469
2.25065,-0.387947,0.0265882
2.17686,-0.159095,-0.152627
2.1725,-0.265979,-0.178676
2.25439,-0.0543087,0.0656282
2.25085,-0.275572,0.0395821
2.17491,-0.0523939,-0.139427
2.18797,-0.377142,-0.129301
2.29797,-0.167946,0.134185
2.26916,-0.277814,0.0931383
2.19576,-0.160476,-0.102555
2.20053,-0.269411,-0.116186
2.20153,-0.0530354,-0.0897188
2.23344,-0.16323,-0.0521094
2.21482,-0.0610918,-0.0386745
2.20959,-0.278353,-0.0648137
2.22947,-0.170766,0
2.22565,-0.391641,-0.0263088
2.14559,-0.270291,-0.275265
2.24711,-0.0619824,0.0130652
2.23827,-0.281966,-0.0131117
2.14924,-0.16462,-0.232186
2.16518,-0.381,-0.205221
2.26874,-0.173773,0.0529469
2.24535,-0.395107,0.0265417
2.17232,-0.166388,-0.152348
2.17156,-0.273561,-0.178676
2.25019,-0.0620675,0.0655119
2.25781,-0.284427,0.0397217
2.17471,-0.0599854,-0.139427
2.19451,-0.386161,-0.129766
2.29737,-0.175966,0.134185
2.27611,-0.286732,0.0934639
2.19518,-0.168139,-0.102555
2.19957,-0.277091,-0.116186
2.19734,-0.0606097,-0.089556
2.23285,-0.171025,-0.0521094
2.2066,-0.0685742,-0.0385349
2.20861,-0.286064,-0.0648137
2.22886,-0.178547,0
2.22821,-0.400115,-0.0263554
2.14857,-0.278288,-0.27577
2.24288,-0.0697017,0.0130419
2.24521,-0.290805,-0.0131582
2.14072,-0.171486,-0.23133
2.26413,-0.181372,0.0528539
2.24395,-0.402943,0.0265417
2.1757,-0.174288,-0.152627
2.16663,-0.280628,-0.178351
2.24996,-0.0699217,0.0655119
2.2568,-0.292306,0.0397217
2.17449,-0.0675762,-0.139427
2.18922,-0.393113,-0.129534
2.29276,-0.183665,0.133952
2.27509,-0.294675,0.0934639
2.1906,-0.175482,-0.102368
2.19463,-0.284254,-0.115976
2.19712,-0.0682795,-0.089556
2.23224,-0.178818,-0.0521094
2.20635,-0.0762762,-0.0385349
2.21552,-0.294827,-0.0650464
2.23221,-0.186659,0
2.23073,-0.408611,-0.026402
2.14365,-0.285263,-0.275265
2.23863,-0.0773921,0.0130187
2.24021,-0.298112,-0.0131349
2.26747,-0.189608,0.0529469
2.2504,-0.412214,0.0266348
2.17906,-0.182214,-0.152906
2.16959,-0.288715,-0.178676
2.2497,-0.0777751,0.0655119
2.25973,-0.30071,0.0397915
2.17424,-0.0751662,-0.139427
2.19176,-0.401472,-0.129766
2.28812,-0.191335,0.13372
2.27801,-0.303142,0.0936268
2.19396,-0.18346,-0.102555
2.19363,-0.291913,-0.115976
2.19287,-0.0758103,-0.0893932
2.22762,-0.186275,-0.0520164
2.21406,-0.0842816,-0.0386745
2.2026,-0.300935,-0.0646974
2.23553,-0.194797,0
2.23322,-0.41713,-0.0264485
2.13871,-0.292207,-0.27476
2.24234,-0.0853581,0.0130419
2.23916,-0.30593,-0.0131349
2.27078,-0.197869,0.05304
2.24895,-0.420067,0.0266348
2.18238,-0.190166,-0.153185
2.17647,-0.297366,-0.179327
2.24942,-0.0856276,0.0655119
2.26659,-0.309679,0.0399311
2.17795,-0.0829071,-0.139683
2.19427,-0.409853,-0.129999
2.29142,-0.199667,0.133952
2.27694,-0.311092,0.0936268
2.20524,-0.192158,-0.103113
2.20447,-0.30119,-0.116605
2.19259,-0.0834644,-0.0893932
2.23492,-0.194744,-0.0522025
2.20977,-0.0914578,-0.0386047
2.20951,-0.309346,-0.0649301
2.23487,-0.202209,0
2.23183,-0.424533,-0.0264485
2.14952,-0.300948,-0.276275
2.25004,-0.0931243,0.0130884
2.24209,-0.313909,-0.0131582
2.26613,-0.205037,0.0529469
2.25147,-0.42827,0.0266814
2.18174,-0.197402,-0.153185
2.17547,-0.304581,-0.179327
2.25312,-0.0932518,0.0656282
2.26159,-0.316639,0.0398613
2.17766,-0.0901289,-0.139683
2.19682,-0.417874,-0.130231
2.29075,-0.207265,0.133952
2.2759,-0.318641,0.0936268
2.19266,-0.19839,-0.102555
2.1995,-0.307945,-0.116395
2.20428,-0.0912306,-0.0898817
2.23028,-0.201794,-0.0521094
2.20544,-0.0989915,-0.0385349
2.21633,-0.318193,-0.0651628
2.23415,-0.210009,0
2.22641,-0.43156,-0.026402
2.14846,-0.308449,-0.276275
2.2457,-0.100798,0.0130652
2.24494,-0.322302,-0.0131814
2.14211,-0.201358,-0.231758
2.26938,-0.213321,0.05304
2.24997,-0.436127,0.0266814
2.17706,-0.204643,-0.152906
2.17045,-0.311607,-0.179002
2.25278,-0.101116,0.0656282
2.25652,-0.323963,0.0397915
2.17734,-0.0977299,-0.139683
2.19927,-0.4263,-0.130464
2.29796,-0.216007,0.134417
2.27477,-0.326584,0.0936268
2.19593,-0.206416,-0.102741
2.19841,-0.315621,-0.116395
2.19597,-0.0985661,-0.089556
2.23355,-0.209952,-0.0522025
2.21306,-0.107462,-0.0386745
2.20328,-0.324566,-0.0648137
2.22939,-0.217808,0
2.23658,-0.442044,-0.0265417
2.11241,-0.206379,-0.330207
2.24532,-0.109029,0.0130652
2.24375,-0.330528,-0.0131814
2.14532,-0.209594,-0.232186
2.2646,-0.221248,0.0529469
2.2405,-0.442819,0.0265882
2.17233,-0.212233,-0.152627
2.16929,-0.31956,-0.179002
2.25239,-0.109372,0.0656282
2.26323,-0.333397,0.0399311
2.17696,-0.10571,-0.139683
2.20161,-0.435132,-0.130697
2.30113,-0.224817,0.13465
2.28147,-0.336084,0.0939524
2.20311,-0.21524,-0.103113
2.19724,-0.323676,-0.116395
2.19559,-0.106614,-0.089556
2.23276,-0.218137,-0.0522025
2.20466,-0.115155,-0.0385349
2.23653,-0.226784,0
2.23102,-0.449448,-0.0264951
2.24091,-0.117049,0.0130419
2.23857,-0.338152,-0.0131582
2.27173,-0.230354,0.053133
2.24671,-0.452608,0.0266814
2.17947,-0.220999,-0.153185
2.17599,-0.3287,-0.179653
2.25198,-0.117627,0.0656282
2.25408,-0.340495,0.0397915
2.17656,-0.113688,-0.139683
2.19217,-0.441621,-0.130231
2.29234,-0.232443,0.134185
2.27231,-0.34325,0.0936268
2.19436,-0.222508,-0.102741
2.19999,-0.332324,-0.116605
2.19518,-0.114661,-0.089556
2.22399,-0.225513,-0.0520164
2.20429,-0.122081,-0.0385349
2.20497,-0.340165,-0.0649301
2.24376,-0.234641,0
2.2296,-0.456455,-0.0264951
2.24452,-0.124309,0.0130652
2.2454,-0.346402,-0.0132047
2.26304,-0.236657,0.0529469
2.24528,-0.459664,0.0266814
2.18274,-0.22826,-0.153464
2.17495,-0.335534,-0.179653
2.25159,-0.124701,0.0656282
2.26091,-0.348795,0.0399311
2.18018,-0.120746,-0.139939
2.29557,-0.240059,0.134417
2.27518,-0.350996,0.0937896
2.19762,-0.229816,-0.102927
2.19893,-0.339234,-0.116605
2.19481,-0.121556,-0.089556
2.22725,-0.232914,-0.0521094
2.21582,-0.13048,-0.0387443
2.20772,-0.348484,-0.0650464
2.231,-0.241182,0
2.23191,-0.465051,-0.0265417
2.24807,-0.132379,0.0130884
2.24418,-0.354238,-0.0132047
2.26618,-0.244985,0.05304
2.17399,-0.23502,-0.152906
2.18164,-0.344367,-0.180304
2.25913,-0.13303,0.065861
2.26362,-0.357308,0.0400009
2.17974,-0.128355,-0.139939
2.29472,-0.248071,0.134417
2.26999,-0.358313,0.0936268
2.19283,-0.237056,-0.102741
2.20168,-0.34753,-0.116814
2.19039,-0.128982,-0.0893932
2.22642,-0.240687,-0.0521094
2.21136,-0.137965,-0.0386745
2.20649,-0.356188,-0.0650464
2.2381,-0.249856,0
2.23027,-0.472839,-0.0265417
2.24759,-0.140225,0.0130884
2.24293,-0.36207,-0.0132047
2.27326,-0.253782,0.0532261
2.17713,-0.24305,-0.153185
2.18043,-0.35198,-0.180304
2.25067,-0.140417,0.0656282
2.27026,-0.366482,0.0401405
2.18327,-0.136212,-0.140195
2.29384,-0.256079,0.134417
2.27661,-0.367508,0.0939524
2.19596,-0.245152,-0.102927
2.20045,-0.355214,-0.116814
2.19391,-0.136876,-0.089556
2.22557,-0.248458,-0.0521094
2.21486,-0.145946,-0.0387443
2.21312,-0.36519,-0.0652792
2.23324,-0.257209,0
2.23252,-0.481464,-0.0265882
2.24709,-0.14807,0.0130884
2.24559,-0.370548,-0.0132279
2.14928,-0.247539,-0.233043
2.26839,-0.261258,0.053133
2.1723,-0.250191,-0.152906
2.17918,-0.359589,-0.180304
2.25416,-0.148535,0.0657446
2.26897,-0.374405,0.0401405
2.17481,-0.143307,-0.139683
2.2969,-0.264542,0.13465
2.19112,-0.252359,-0.102741
2.1992,-0.362892,-0.116814
2.18943,-0.14427,-0.0893932
2.22866,-0.256682,-0.0522025
2.21035,-0.153399,-0.0386745
2.21578,-0.373577,-0.0653955
2.2363,-0.265475,0
2.23473,-0.490111,-0.0266348
2.24257,-0.155636,0.0130652
2.2364,-0.377054,-0.0131814
2.27143,-0.269646,0.0532261
2.17934,-0.258713,-0.153464
2.17792,-0.367194,-0.180304
2.25362,-0.156403,0.0657446
2.2637,-0.381657,0.0400707
2.1743,-0.150898,-0.139683
2.29596,-0.272558,0.13465
2.20213,-0.261419,-0.103299
2.20186,-0.371231,-0.117023
2.1929,-0.152189,-0.089556
2.23172,-0.264932,-0.0522955
2.20581,-0.160823,-0.0386047
2.21052,-0.380631,-0.0652792
2.2433,-0.27425,0
2.2291,-0.497038,-0.0265882
2.24201,-0.163463,0.0130652
2.23507,-0.384858,-0.0131814
2.27048,-0.277573,0.0532261
2.17842,-0.266319,-0.153464
2.18055,-0.375471,-0.180629
2.24908,-0.163978,0.0656282
2.2663,-0.390236,0.0401405
2.17376,-0.158487,-0.139683
2.29103,-0.280086,0.134417
2.19724,-0.26862,-0.103113
2.20449,-0.379593,-0.117233
2.19634,-0.160133,-0.0897188
2.22284,-0.27175,-0.0521094
2.20523,-0.168522,-0.0386047
2.20918,-0.388345,-0.0652792
2.23836,-0.28158,0
2.23516,-0.506584,-0.0266814
2.24542,-0.171593,0.0130884
2.23765,-0.39335,-0.0132047
2.26949,-0.285497,0.0532261
2.17748,-0.273921,-0.153464
2.18315,-0.38377,-0.180955
2.25646,-0.172437,0.065861
2.26492,-0.398144,0.0401405
2.18115,-0.166682,-0.140195
2.294,-0.28858,0.13465
2.19629,-0.276288,-0.103113
2.20708,-0.387977,-0.117442
2.19577,-0.167799,-0.0897188
2.23379,-0.281004,-0.0523886
2.20862,-0.176537,-0.0386745
2.23536,-0.400996,-0.0660937
2.23736,-0.289391,0
2.22558,-0.512588,-0.0265882
2.2448,-0.17943,0.0130884
2.24414,-0.402571,-0.0132512
2.27245,-0.29393,0.0533191
2.18047,-0.282032,-0.153743
2.17788,-0.390684,-0.180629
2.25186,-0.179994,0.0657446
2.27533,-0.408166,0.04035
2.18056,-0.174294,-0.140195
2.29298,-0.296586,0.13465
2.19928,-0.284465,-0.103299
2.20178,-0.394973,-0.117233
2.19916,-0.175781,-0.0898817
2.22883,-0.288287,-0.0522955
2.21194,-0.184964,-0.0387443
2.21027,-0.404864,-0.0653955
2.23232,-0.297062,0
2.24413,-0.187656,0.0130884
2.24265,-0.410794,-0.0132512
2.26739,-0.301729,0.0532261
2.17546,-0.289496,-0.153464
2.18035,-0.399382,-0.180955
2.25119,-0.188246,0.0657446
2.26595,-0.415062,0.0402103
2.18388,-0.182618,-0.140451
2.2998,-0.306041,0.135115
2.20218,-0.293051,-0.103485
2.20425,-0.40376,-0.117442
2.20248,-0.184173,-0.0900445
2.22775,-0.296454,-0.0522955
2.20737,-0.191567,-0.0386745
2.20899,-0.411806,-0.0653955
2.23534,-0.304614,0
2.23954,-0.194359,0.0130652
2.23348,-0.416371,-0.0132047
2.27832,-0.310471,0.0535052
2.17454,-0.296329,-0.153464
2.25457,-0.195663,0.065861
2.25677,-0.420713,0.0400707
2.17534,-0.188788,-0.139939
2.29487,-0.312726,0.134883
2.20521,-0.300507,-0.103671
2.2069,-0.411415,-0.117651
2.19791,-0.190746,-0.0898817
2.23077,-0.303991,-0.0523886
2.21063,-0.200016,-0.0387443
2.2114,-0.420646,-0.0655119
2.23421,-0.312805,0
2.24678,-0.203287,0.0131117
2.23194,-0.424555,-0.0132047
2.27321,-0.318265,0.0534122
2.18135,-0.305404,-0.154022
2.25384,-0.203925,0.065861
2.26307,-0.430476,0.0402103
2.17861,-0.197119,-0.140195
2.2937,-0.321135,0.134883
2.20013,-0.308034,-0.103485
2.20538,-0.419501,-0.117651
2.19321,-0.19844,-0.0897188
2.22568,-0.311611,-0.0522955
2.2139,-0.208106,-0.0388142
2.20991,-0.428363,-0.0655119
2.2331,-0.320602,0
2.24606,-0.211129,0.0131117
2.24223,-0.434626,-0.0132744
2.26812,-0.32563,0.0533191
2.25311,-0.211791,0.065861
2.24585,-0.435329,0.0399311
2.17791,-0.204723,-0.140195
2.30047,-0.330274,0.135348
2.19904,-0.315712,-0.103485
2.19998,-0.426437,-0.117442
2.19649,-0.206469,-0.0898817
2.22854,-0.319947,-0.0523886
2.21714,-0.216221,-0.038884
2.20841,-0.436074,-0.0655119
2.23593,-0.328977,0
2.24929,-0.219356,0.0131349
2.2407,-0.442451,-0.0132744
2.27093,-0.334127,0.0534122
2.25236,-0.219655,0.065861
2.17718,-0.212324,-0.140195
2.20188,-0.323968,-0.103671
2.20631,-0.435661,-0.117861
2.19973,-0.214523,-0.0900445
2.22345,-0.327142,-0.0522955
2.22039,-0.223973,-0.0389538
2.24274,-0.337581,0
2.24457,-0.226412,0.0131117
2.24706,-0.451454,-0.0133209
2.28167,-0.343441,0.0536913
2.18203,-0.328443,-0.154301
2.25162,-0.227123,0.065861
2.17647,-0.219543,-0.140195
2.19684,-0.330673,-0.103485
2.20486,-0.442975,-0.117861
2.19105,-0.221014,-0.0897188
2.23027,-0.335704,-0.0524816
2.21562,-0.231307,-0.038884
2.21714,-0.4535,-0.065861
2.23759,-0.344798,0
2.24377,-0.234246,0.0131117
2.24155,-0.458494,-0.0132977
2.26465,-0.348968,0.0533191
2.25081,-0.234981,0.065861
2.17569,-0.227138,-0.140195
2.20357,-0.339556,-0.103857
2.20721,-0.451469,-0.11807
2.19424,-0.229076,-0.0898817
2.22118,-0.342269,-0.0522955
2.20685,-0.238181,-0.0387443
2.21163,-0.460422,-0.0657446
2.23242,-0.351983,0
2.23896,-0.241647,0.0130884
2.23994,-0.466315,-0.0132977
2.27132,-0.358116,0.0535052
2.25395,-0.243265,0.0659773
2.18282,-0.235588,-0.140707
2.20238,-0.347246,-0.103857
2.21344,-0.460799,-0.118489
2.20138,-0.237591,-0.0902073
2.22392,-0.350643,-0.0523886
2.206,-0.245883,-0.0387443
2.23908,-0.361047,0
2.24605,-0.250348,0.0131349
2.24612,-0.475789,-0.0133442
2.15553,-0.347575,-0.235185
