2.72295,0.496316,-0.0322225
2.72808,0.467301,-0.0322225
2.73372,0.457959,-0.0322691
2.73925,0.449061,-0.0323156
2.7408,0.439496,-0.0323156
2.73829,0.429784,-0.0322691
2.73187,0.41901,-0.032176
2.7372,0.410543,-0.0322225
2.68141,0.402176,-0.157906
2.73868,0.400508,-0.0322225
2.68287,0.392346,-0.157906
2.74402,0.39151,-0.0322691
2.77174,0.395465,0.032595
2.74524,0.382888,-0.0322691
2.68937,0.375095,-0.158138
2.74662,0.372822,-0.0322691
2.7704,0.37605,0.0325485
2.70231,0.492556,-0.0799408
2.77567,0.366903,0.032595
2.69606,0.482184,-0.0797081
2.7491,0.354119,-0.0322691
2.77687,0.357696,0.032595
2.68919,0.346401,-0.157906
2.70167,0.47346,-0.0798244
2.74216,0.480557,-0.0161804
2.77413,0.347503,0.0325485
2.69038,0.337012,-0.157906
2.69944,0.462879,-0.0797081
2.77936,0.337816,0.032595
2.68901,0.46109,-0.142982
2.7408,0.323424,-0.0321294
2.77655,0.327642,0.0325485
2.69272,0.317751,-0.157906
2.70261,0.444022,-0.0797081
2.74712,0.451336,-0.0161804
2.68985,0.307896,-0.157673
2.70414,0.434586,-0.0797081
2.78274,0.308693,0.032595
2.68694,0.298065,-0.15744
2.70557,0.425616,-0.0797081
2.75194,0.29604,-0.0322225
2.69585,0.290007,-0.157906
2.74897,0.286019,-0.032176
2.68493,0.279356,-0.157208
2.71243,0.407311,-0.0798244
2.74995,0.276421,-0.032176
2.69384,0.27078,-0.157673
2.71383,0.397842,-0.0798244
2.75488,0.267208,-0.0322225
2.69477,0.261377,-0.157673
2.71118,0.388273,-0.0797081
2.75177,0.257697,-0.032176
2.75188,0.394101,-0.0161571
2.71258,0.378333,-0.0797081
2.75668,0.247967,-0.0322225
2.78457,0.250476,0.0325485
2.65735,0.370629,-0.219033
2.71389,0.368862,-0.0797081
2.75753,0.238344,-0.0322225
2.78144,0.24041,0.0325019
2.72056,0.506191,-0.0643924
2.71113,0.359336,-0.0795917
2.71829,0.496449,-0.0642993
2.72036,0.350417,-0.0798244
2.75913,0.219087,-0.0322225
2.78704,0.221303,0.0325485
2.69494,0.21399,-0.15744
2.71616,0.485778,-0.0642063
2.70967,0.339429,-0.0794753
2.66075,0.201932,-0.24909
2.69965,0.204884,-0.157673
2.69595,0.472459,-0.127495
2.71783,0.476294,-0.0642063
2.71877,0.330934,-0.0797081
2.76059,0.199819,-0.0322225
2.78852,0.20184,0.0325485
2.69637,0.19517,-0.15744
2.71948,0.466804,-0.0642063
2.71991,0.321442,-0.0797081
2.75728,0.189907,-0.032176
2.66453,0.314897,-0.219033
2.70101,0.186032,-0.157673
2.6913,0.452302,-0.127123
2.72504,0.457972,-0.0642993
2.72096,0.31242,-0.0797081
2.78982,0.182855,0.0325485
2.70162,0.177073,-0.157673
2.69278,0.443374,-0.127123
2.71865,0.447632,-0.0641132
2.71806,0.302478,-0.0795917
2.7625,0.171381,-0.0322225
2.69823,0.167394,-0.15744
2.69432,0.433971,-0.127123
2.7202,0.438139,-0.0641132
2.71513,0.292561,-0.0794753
2.74615,0.432493,0
2.75909,0.161505,-0.032176
2.66384,0.15593,-0.24909
2.66763,0.287444,-0.219033
2.69481,0.157743,-0.157208
2.81734,0.303575,0.115446
2.69581,0.424565,-0.127123
2.72566,0.429265,-0.0642063
2.71613,0.283081,-0.0794753
2.74369,0.422295,0
2.76363,0.152092,-0.0322225
2.69933,0.148554,-0.15744
2.69728,0.415151,-0.127123
2.72319,0.419139,-0.0641132
2.72904,0.2748,-0.0798244
2.7491,0.413309,0
2.76015,0.142238,-0.032176
2.66957,0.268812,-0.219033
2.70382,0.139335,-0.157673
2.81939,0.283898,0.115446
2.69476,0.405139,-0.126937
2.726,0.264886,-0.0797081
2.75449,0.404292,0
2.76063,0.132603,-0.032176
2.79259,0.134138,0.0325485
2.66653,0.259107,-0.218708
2.70828,0.130089,-0.157906
2.72293,0.254995,-0.0795917
2.74796,0.39354,0
2.79304,0.124389,0.0325485
2.66622,0.381833,-0.188342
2.70074,0.120278,-0.15744
2.72743,0.390599,-0.0641132
2.72376,0.245965,-0.0795917
2.75321,0.384979,0
2.76546,0.113974,-0.0322225
2.66614,0.10988,-0.24909
2.66747,0.37299,-0.188342
2.70113,0.111322,-0.15744
2.82217,0.254851,0.115446
2.69483,0.376816,-0.126751
2.72871,0.381553,-0.0641132
2.72464,0.23598,-0.0795917
2.74668,0.373808,0
2.79384,0.104888,0.0325485
2.66882,0.363211,-0.188342
2.7095,0.101721,-0.157906
2.70411,0.368015,-0.127123
2.72613,0.37101,-0.0640202
2.71468,0.495788,-0.0481686
2.72943,0.226799,-0.0797081
2.7559,0.365268,0
2.76221,0.0940453,-0.032176
2.61778,0.217521,-0.334358
2.79019,0.094998,0.0325019
2.66216,0.352844,-0.187784
2.70584,0.0921262,-0.157673
2.82392,0.23465,0.115446
2.73137,0.362017,-0.0641132
2.72024,0.487489,-0.0482385
2.72619,0.217429,-0.0795917
2.75313,0.355615,0
2.76251,0.0848855,-0.032176
2.61849,0.20884,-0.334358
2.79449,0.0858683,0.0325485
2.66727,0.344526,-0.188063
2.71013,0.0832759,-0.157906
2.82468,0.225284,0.115446
2.70259,0.349088,-0.126937
2.71397,0.477082,-0.0480988
2.72689,0.208388,-0.0795917
2.75429,0.346484,0
2.76677,0.0758344,-0.0322225
2.61521,0.199853,-0.333853
2.76788,0.21152,-0.0161339
2.67236,0.336177,-0.188342
2.71039,0.0742889,-0.157906
2.82541,0.215917,0.115446
2.68851,0.472607,-0.111212
2.72974,0.343396,-0.0640202
2.71167,0.466926,-0.048029
2.72361,0.198576,-0.0794753
2.75151,0.336382,0
2.76302,0.0660797,-0.032176
2.61194,0.190434,-0.333348
2.66764,0.0637985,-0.24909
2.67352,0.326846,-0.188342
2.71063,0.0648267,-0.157906
2.82615,0.206052,0.115446
2.70094,0.330199,-0.126751
2.69015,0.463219,-0.111212
2.73092,0.333864,-0.0640202
2.71337,0.456985,-0.048029
2.72831,0.188869,-0.0795917
2.76067,0.327237,0
2.76725,0.0560338,-0.0322225
2.61658,0.181134,-0.333853
2.67183,0.0541019,-0.249462
2.79124,0.0565197,0.0325019
2.66677,0.316106,-0.187784
2.71085,0.0548919,-0.157906
2.82688,0.195693,0.115446
2.70213,0.320298,-0.126751
2.8636,0.198235,0.23433
2.69183,0.453356,-0.111212
2.73213,0.323853,-0.0640202
2.71881,0.448635,-0.0480988
2.72493,0.179557,-0.0794753
2.75777,0.317622,0
2.76342,0.0467886,-0.032176
2.6132,0.172195,-0.333348
2.7547,0.454556,0.0162269
2.79541,0.0473303,0.0325485
2.66781,0.307261,-0.187784
2.67727,0.176416,-0.219033
2.71501,0.045969,-0.158138
2.82752,0.186317,0.115446
2.86822,0.188999,0.234655
2.69331,0.444427,-0.111212
2.73716,0.315248,-0.0641132
2.72826,0.440415,-0.0482385
2.72554,0.170044,-0.0794753
2.75489,0.307549,0
2.76756,0.0371952,-0.0322225
2.60983,0.162824,-0.332843
2.80356,0.0376789,0.0326416
2.6649,0.297503,-0.187505
2.67389,0.166821,-0.218708
2.79813,0.174572,0.0489365
2.71515,0.0364908,-0.158138
2.70822,0.302339,-0.126937
2.86886,0.178985,0.234655
2.6909,0.434385,-0.111049
2.73824,0.305691,-0.0641132
2.71793,0.42902,-0.048029
2.72612,0.160531,-0.0794753
2.75992,0.298363,0
2.76768,0.0275362,-0.0322225
2.61434,0.153948,-0.333348
2.76176,0.435939,0.0162501
2.80367,0.0278944,0.0326416
2.66989,0.28863,-0.187784
2.71127,0.0269751,-0.157906
2.82875,0.166574,0.115446
2.70926,0.292886,-0.126937
2.86947,0.168972,0.234655
2.69635,0.425614,-0.111212
2.73532,0.295703,-0.0640202
2.72344,0.419663,-0.0480988
2.72669,0.150536,-0.0794753
2.76099,0.288243,0
2.77176,0.0174151,-0.0322691
2.61885,0.144582,-0.333853
2.75938,0.425202,0.0162269
2.67233,0.0167904,-0.249462
2.80375,0.0176162,0.0326416
2.6749,0.279254,-0.188063
2.67882,0.412788,-0.173709
2.82934,0.156203,0.115446
2.71032,0.282952,-0.126937
2.69789,0.415727,-0.111212
2.73638,0.285674,-0.0640202
2.72474,0.411106,-0.0480988
2.72715,0.141969,-0.0794753
2.76189,0.279568,0
2.7678,0.00869527,-0.0322225
2.61533,0.136148,-0.333348
2.76071,0.416532,0.0162269
2.6273,0.265945,-0.28445
2.67635,0.00840798,-0.249834
2.7998,0.00879579,0.032595
2.66782,0.270046,-0.187505
2.67616,0.403775,-0.173453
2.71539,0.00853061,-0.158138
2.82583,0.147106,0.115283
2.70324,0.273632,-0.126565
2.69523,0.406653,-0.111049
2.7263,0.400641,-0.0480988
2.72368,0.131305,-0.079359
2.76294,0.268962,0
2.76781,-0.00193171,-0.0322225
2.6198,0.126297,-0.333853
2.76624,0.406511,0.0162501
2.63622,0.256626,-0.285307
2.67636,-0.00186788,-0.249834
2.79981,-0.00195404,0.032595
2.66884,0.259801,-0.187505
2.67598,0.129005,-0.218708
2.67374,0.392917,-0.173197
2.83435,0.13664,0.115609
2.71222,0.264025,-0.126937
2.86712,0.13822,0.23433
2.69678,0.396302,-0.111049
2.73831,0.266564,-0.0640202
2.73164,0.39169,-0.0481686
2.73211,0.122154,-0.0795917
2.76386,0.259316,0
2.76779,-0.0115926,-0.0322225
2.61626,0.116974,-0.333348
2.75577,0.39515,0.0161804
2.63314,0.247051,-0.284878
2.80379,-0.0117433,0.0326416
2.6737,0.250857,-0.187784
2.67114,0.383015,-0.172941
2.84268,0.266711,0.166278
2.83481,0.126746,0.115609
2.70915,0.254183,-0.126751
2.69814,0.386887,-0.111049
2.73923,0.257005,-0.0640202
2.7289,0.382551,-0.0480988
2.73248,0.11357,-0.0795917
2.76865,0.250993,0
2.77574,-0.0203472,-0.0323156
2.61265,0.108589,-0.332843
2.75699,0.386489,0.0161804
2.62994,0.238418,-0.28445
2.79976,0.253813,0.0654159
2.80373,-0.0205525,0.0326416
2.67448,0.242455,-0.187784
2.80115,0.116424,0.0489365
2.67233,0.374621,-0.172941
2.71133,-0.0198751,-0.157906
2.83952,0.257418,0.166045
2.8352,0.117839,0.115609
2.69934,0.378408,-0.111049
2.73205,0.247675,-0.0638341
2.73022,0.373023,-0.0480988
2.72887,0.10388,-0.0794753
2.77165,-0.0299923,-0.0322691
2.61697,0.0996201,-0.333348
2.76229,0.377405,0.0162036
2.63472,0.229582,-0.284878
2.67621,-0.0289595,-0.249834
2.79664,0.243692,0.0653229
2.80365,-0.0303386,0.0326416
2.67531,0.233119,-0.187784
2.80554,0.106798,0.0490064
2.67362,0.365291,-0.172941
2.71524,-0.0293819,-0.158138
2.83643,0.247159,0.165813
2.8316,0.10779,0.115446
2.71476,0.236557,-0.126937
2.70461,0.369524,-0.111212
2.74087,0.238832,-0.0640202
2.73163,0.362536,-0.0480988
2.72925,0.0934,-0.0794753
2.76643,0.230359,0
2.77151,-0.0406351,-0.0322691
2.6213,0.089706,-0.333853
2.76372,0.366796,0.0162036
2.63162,0.219133,-0.28445
2.67608,-0.0392359,-0.249834
2.79951,-0.0410456,0.032595
2.66823,0.222182,-0.187226
2.80593,0.0960243,0.0490064
2.67501,0.355022,-0.172941
2.7191,-0.0398667,-0.158371
2.84134,0.236596,0.166045
2.83199,0.0969162,0.115446
2.70768,0.225467,-0.126565
2.87276,0.0983112,0.234655
2.69808,0.358085,-0.110887
2.74177,0.228305,-0.0640202
2.73275,0.353954,-0.0480988
2.72953,0.0848259,-0.0794753
2.75916,0.221028,0
2.77137,-0.0493414,-0.0322691
2.62157,0.081471,-0.333853
2.76882,0.358626,0.0162269
2.63626,0.211183,-0.284878
2.67594,-0.0476423,-0.249834
2.79828,0.224162,0.0653229
2.80337,-0.049911,0.0326416
2.67289,0.214117,-0.187505
2.78753,0.361048,0.0818026
2.67611,0.346617,-0.172941
2.71896,-0.0484082,-0.158371
2.84206,0.227669,0.166045
2.83628,0.0881434,0.115609
2.71236,0.217279,-0.126751
2.6992,0.349607,-0.110887
2.73794,0.344911,-0.0481686
2.7378,0.0755173,-0.0797081
2.7639,0.2117,0
2.77118,-0.0590157,-0.0322691
2.62184,0.0723188,-0.333853
2.76609,0.348458,0.0162036
2.63301,0.201675,-0.28445
2.80303,0.214697,0.0654159
2.80317,-0.059697,0.0326416
2.6776,0.20509,-0.187784
2.68205,0.0739797,-0.219033
2.78877,0.351315,0.0818026
2.80251,0.0773022,0.0489365
2.67334,0.336774,-0.172685
2.72277,-0.0579847,-0.158603
2.83886,0.217442,0.165813
2.82858,0.0780213,0.115283
2.71709,0.208114,-0.126937
2.7004,0.340182,-0.110887
2.72728,0.333419,-0.0479592
2.73806,0.0654829,-0.0797081
2.76865,0.20186,0
2.76695,-0.0690718,-0.0322225
2.62209,0.0627094,-0.333853
2.77132,0.338803,0.0162269
2.63373,0.192024,-0.28445
2.8038,0.204423,0.0654159
2.81093,-0.0701697,0.0327347
2.68231,0.195565,-0.188063
2.79798,0.342062,0.0820353
2.80677,0.0671262,0.0490064
2.67456,0.326974,-0.172685
2.71455,-0.0677638,-0.158138
2.83566,0.206746,0.16558
2.83684,0.0678452,0.115609
2.71783,0.198155,-0.126937
2.7056,0.330768,-0.111049
2.74397,0.200061,-0.0640202
2.73637,0.324839,-0.0480988
2.76934,0.192194,0
2.77069,-0.0788443,-0.0322691
2.62229,0.0535555,-0.333853
2.76851,0.328655,0.0162036
2.63042,0.182553,-0.284021
2.67528,-0.0761293,-0.249834
2.80667,-0.0798683,0.0326882
2.67502,0.185648,-0.187505
2.79121,0.33135,0.0818026
2.80699,0.0573276,0.0490064
2.67568,0.317635,-0.172685
2.7143,-0.0772397,-0.158138
2.84034,0.197122,0.165813
2.83705,0.0579417,0.115609
2.71452,0.188389,-0.126751
2.7107,0.321792,-0.111212
2.73346,0.315305,-0.048029
2.73044,0.0467072,-0.0794753
2.76597,0.182746,0
2.77841,-0.0882854,-0.0323622
2.62642,0.0449278,-0.334358
2.77356,0.319931,0.0162269
2.77955,0.0475471,-0.0161571
2.63498,0.174092,-0.28445
2.679,-0.0851264,-0.250205
2.80512,0.185333,0.0654159
2.8024,-0.0890475,0.0326416
2.67562,0.176777,-0.187505
2.80024,0.323009,0.0820353
2.68465,0.309676,-0.173197
2.72201,-0.0864933,-0.158603
2.84098,0.187702,0.165813
2.83324,0.0484655,0.115446
2.71114,0.179124,-0.126565
2.70381,0.311886,-0.110887
2.74527,0.181379,-0.0640202
2.73857,0.305729,-0.0480988
2.76263,0.172359,0
2.76608,-0.0980425,-0.0322225
2.6226,0.0352484,-0.333853
2.76677,0.308877,0.0161804
2.63163,0.164186,-0.284021
2.67867,-0.0949442,-0.250205
2.79805,-0.0991759,0.032595
2.67227,0.166721,-0.187226
2.68283,0.0360579,-0.219033
2.78948,0.311413,0.0816862
2.81132,0.0377848,0.0490762
2.67784,0.298949,-0.172685
2.72567,-0.0966102,-0.158836
2.84564,0.177538,0.166045
2.83339,0.0380815,0.115446
2.71577,0.169435,-0.126751
2.70097,0.301531,-0.110724
2.73156,0.296262,-0.0479592
2.7347,0.028163,-0.0795917
2.76316,0.163679,0
2.76975,-0.106886,-0.0322691
2.76375,0.299752,0.0161571
2.64007,0.156388,-0.284878
2.80972,-0.108428,0.0327347
2.68074,0.158798,-0.187784
2.79442,0.30308,0.0818026
2.80742,0.028912,0.0490064
2.67479,0.290105,-0.17243
2.72535,-0.105172,-0.158836
2.84219,0.168361,0.165813
2.8375,0.0292217,0.115609
2.71629,0.160903,-0.126751
2.70985,0.293907,-0.111049
2.73258,0.286724,-0.0479592
2.73478,0.0186162,-0.0795917
2.76371,0.154032,0
2.77336,-0.116722,-0.0323156
2.62278,0.0178538,-0.333853
2.77273,0.290937,0.0162036
2.63663,0.14695,-0.28445
2.80533,-0.118068,0.0326882
2.6773,0.149216,-0.187505
2.687,0.018291,-0.219359
2.79944,0.29374,0.0819189
2.80751,0.0191113,0.0490064
2.67976,0.281182,-0.172685
2.713,-0.114182,-0.158138
2.83479,0.157994,0.165347
2.83358,0.0192888,0.115446
2.71683,0.15142,-0.126751
2.70688,0.284028,-0.110887
2.73901,0.152656,-0.0638341
2.74152,0.27799,-0.0480988
2.73483,0.00906923,-0.0795917
2.76024,0.144175,0
2.77693,-0.126585,-0.0323622
2.58139,0.134833,-0.402151
2.62282,0.0086978,-0.333853
2.76577,0.280449,0.0161571
2.78394,0.00923209,-0.0161804
2.6411,0.137952,-0.284878
2.68552,-0.122418,-0.250949
2.80342,0.14643,0.0653229
2.8049,-0.12786,0.0326882
2.6778,0.139869,-0.187505
2.80045,0.283966,0.0819189
2.80756,0.00931041,0.0490064
2.67675,0.271423,-0.17243
2.72056,-0.124016,-0.158603
2.85526,0.149138,0.16651
2.83363,0.00939689,0.115446
2.71336,0.141726,-0.126565
2.89834,0.00961148,0.236608
2.70786,0.274577,-0.110887
2.74352,0.143302,-0.0639271
2.7385,0.26803,-0.048029
2.73484,-0.000476578,-0.0795917
2.76072,0.13454,0
2.77647,-0.136277,-0.0323622
2.58184,0.125822,-0.402151
2.62681,-0.000457752,-0.334358
2.76673,0.270794,0.0161571
2.78395,-0.000485136,-0.0161804
2.63362,0.128346,-0.284021
2.6811,-0.131596,-0.250577
2.80391,0.136644,0.0653229
2.80044,-0.137453,0.0326416
2.67429,0.130327,-0.187226
2.68706,-0.000468252,-0.219359
2.80142,0.274189,0.0819189
2.68166,0.262467,-0.172685
2.7241,-0.133707,-0.158836
2.8438,0.138588,0.165813
2.83365,-0.000493796,0.115446
2.71383,0.132255,-0.126565
2.7088,0.265123,-0.110887
2.75199,0.134114,-0.0641132
2.7434,0.258844,-0.0480988
2.76118,0.124901,0
2.76799,-0.145549,-0.0322691
2.62282,-0.00961317,-0.333853
2.77164,0.261509,0.0161804
2.77993,-0.010189,-0.0161571
2.63803,0.119331,-0.28445
2.6846,-0.141164,-0.250949
2.80437,0.126855,0.0653229
2.79994,-0.147229,0.0326416
2.67473,0.120991,-0.187226
2.68704,-0.00984857,-0.219359
2.79042,0.263281,0.0815699
2.81555,-0.0103196,0.049146
2.68256,0.253104,-0.172685
2.71963,-0.143006,-0.158603
2.84826,0.12884,0.166045
2.82963,-0.0103712,0.115283
2.71428,0.12278,-0.126565
2.70573,0.25529,-0.110724
2.75244,0.124506,-0.0641132
2.74831,0.249149,-0.0481686
2.74277,-0.0201053,-0.0798244
2.76561,0.114947,0
2.77542,-0.156141,-0.0323622
2.62277,-0.0192256,-0.333853
2.7686,0.250989,0.0161571
2.64242,0.109827,-0.284878
2.81136,-0.158163,0.0327813
2.67914,0.111353,-0.187505
2.79535,0.253413,0.0816862
2.8115,-0.0206091,0.0490762
2.67949,0.24291,-0.17243
2.72706,-0.153421,-0.159068
2.84472,0.118235,0.165813
2.83357,-0.0207709,0.115446
2.7187,0.112997,-0.126751
2.70665,0.245372,-0.110724
2.74888,0.114252,-0.0640202
2.73323,0.238165,-0.0478894
2.74268,-0.0296799,-0.0798244
2.766,0.105292,0
2.77486,-0.165829,-0.0323622
2.57908,0.0981767,-0.401536
2.62268,-0.0283814,-0.333853
2.76547,0.240975,0.0161339
2.78379,-0.0301248,-0.0161804
2.63484,0.100299,-0.284021
2.8092,0.106937,0.0654159
2.8068,-0.167738,0.0327347
2.6835,0.102151,-0.187784
2.6869,-0.0290763,-0.219359
2.8002,0.244001,0.0818026
2.81141,-0.0304237,0.0490762
2.68032,0.233555,-0.17243
2.71455,-0.162225,-0.158371
2.84911,0.108455,0.166045
2.84148,-0.0307491,0.115772
2.71908,0.103506,-0.126751
2.71147,0.236269,-0.110887
2.75326,0.104807,-0.0641132
2.74197,0.229768,-0.048029
2.76633,0.0961194,0
2.77829,-0.175281,-0.0324088
2.63051,-0.03719,-0.334863
2.77024,0.232137,0.0161571
2.77968,-0.0392989,-0.0161571
2.63516,0.0915617,-0.284021
2.81354,0.0977598,0.065509
2.81022,-0.177296,0.0327813
2.68382,0.0932526,-0.187784
2.69078,-0.0380421,-0.219684
2.79302,0.234046,0.0815699
2.80729,-0.0396894,0.0490064
2.67711,0.224333,-0.172174
2.72197,-0.171728,-0.158836
2.84945,0.0990075,0.166045
2.83736,-0.0401145,0.115609
2.71542,0.0943503,-0.126565
2.71224,0.227277,-0.110887
2.7496,0.095538,-0.0640202
2.73478,0.219556,-0.0478894
2.77766,-0.184978,-0.0324088
2.57969,0.0806204,-0.401536
2.63036,-0.0463715,-0.334863
2.77104,0.222467,0.0161571
2.78352,-0.0490715,-0.0161804
2.63944,0.0824875,-0.28445
2.80987,0.0878138,0.0654159
2.8016,-0.186572,0.0326882
2.68014,0.0837597,-0.187505
2.69063,-0.0474339,-0.219684
2.80578,0.225256,0.0819189
2.68583,0.215626,-0.172685
2.72932,-0.181759,-0.159301
2.84579,0.0889363,0.165813
2.82921,-0.049877,0.115283
2.71972,0.0849966,-0.126751
2.71301,0.217808,-0.110887
2.74991,0.0859401,-0.0640202
2.73956,0.209837,-0.0479592
2.73822,-0.0583122,-0.0797081
2.76695,0.0763229,0
2.77297,-0.194876,-0.0323622
2.63414,-0.0560958,-0.335368
2.77582,0.212615,0.0161804
2.77932,-0.0591875,-0.0161571
2.81017,0.0775151,0.0654159
2.80489,-0.197119,0.0327347
2.68043,0.0739365,-0.187505
2.68645,-0.0572097,-0.219359
2.79861,0.214361,0.0816862
2.81493,-0.0599458,0.049146
2.69058,0.206086,-0.172941
2.72067,-0.1912,-0.158836
2.85009,0.0786161,0.166045
2.841,-0.0605009,0.115772
2.72002,0.0750283,-0.126751
2.71379,0.207864,-0.110887
2.74426,0.200563,-0.048029
2.742,-0.0679707,-0.0798244
2.7712,0.0667587,0
2.78025,-0.205145,-0.0324553
2.58415,0.0622528,-0.402151
2.76857,0.202339,0.0161339
2.7831,-0.0689895,-0.0161804
2.63996,0.0635971,-0.28445
2.81042,0.0677037,0.0654159
2.80419,-0.206911,0.0327347
2.68067,0.064578,-0.187505
2.69421,-0.066786,-0.22001
2.79935,0.204589,0.0816862
2.81071,-0.0696739,0.0490762
2.68332,0.196109,-0.17243
2.72397,-0.200992,-0.159068
2.84635,0.0685692,0.165813
2.84477,-0.0705182,0.115934
2.72426,0.0656279,-0.126937
2.73141,-0.0677083,-0.143191
2.71052,0.198097,-0.110724
2.75446,0.0663554,-0.0641132
2.74574,-0.0776546,-0.0799408
2.76741,0.0570026,0
2.76926,0.192674,0.0161339
2.77884,-0.0785909,-0.0161571
2.63619,0.0542997,-0.284021
2.81464,0.0579754,0.065509
2.80743,-0.217006,0.0327813
2.68487,0.0553025,-0.187784
2.68997,-0.0760774,-0.219684
2.79605,0.194538,0.0815699
2.81445,-0.0795978,0.049146
2.68399,0.186742,-0.17243
2.72325,-0.210499,-0.159068
2.84657,0.0586331,0.165813
2.84051,-0.0803349,0.115772
2.72047,0.0560357,-0.126751
2.71119,0.188634,-0.110724
2.75067,0.0566578,-0.0640202
2.73758,0.18135,-0.0478894
2.76759,0.0478252,0
2.77879,-0.224064,-0.0324553
2.77387,0.183754,0.0161571
2.77857,-0.0878054,-0.0161571
2.64033,0.0456262,-0.28445
2.81082,0.0485723,0.0654159
2.81467,-0.226958,0.0328744
2.69701,0.0466056,-0.188622
2.69369,-0.0851232,-0.22001
2.80067,0.18553,0.0816862
2.81417,-0.0889304,0.049146
2.6846,0.17784,-0.17243
2.72254,-0.219528,-0.159068
2.84276,0.0491242,0.16558
2.84022,-0.0897539,0.115772
2.71265,0.0468759,-0.126379
2.7118,0.179642,-0.110724
2.75084,0.0475359,-0.0640202
2.74219,0.172043,-0.0479592
2.76774,0.0381643,0
2.78198,-0.234098,-0.0325019
2.77849,0.174321,0.0161804
2.78624,-0.0977844,-0.0162036
2.64843,0.0365191,-0.285307
2.81097,0.0387604,0.0654159
2.68519,0.037026,-0.187784
2.69736,-0.0946653,-0.220335
2.80529,0.176003,0.0818026
2.80984,-0.0986129,0.0490762
2.68918,0.168718,-0.172685
2.72175,-0.22903,-0.159068
2.8509,0.039311,0.166045
2.83191,-0.0993872,0.115446
2.72079,0.0375169,-0.126751
2.7164,0.170426,-0.110887
2.75099,0.0379334,-0.0640202
2.74677,0.162707,-0.048029
2.77908,0.164621,0.0161804
2.78588,-0.10751,-0.0162036
2.64058,0.0271922,-0.28445
2.81509,0.0289892,0.065509
2.68929,0.0276938,-0.188063
2.68905,-0.103773,-0.219684
2.79791,0.165736,0.0815699
2.81747,-0.108729,0.0492158
2.68976,0.15933,-0.172685
2.85102,0.0293592,0.166045
2.83953,-0.10958,0.115772
2.72091,0.0280194,-0.126751
2.709,0.16047,-0.110561
2.75511,0.0283716,-0.0641132
2.74732,0.153118,-0.048029
2.74441,-0.115505,-0.0799408
2.77629,-0.253151,-0.0324553
2.77565,0.154697,0.0161571
2.78948,-0.117402,-0.0162269
2.64066,0.0179747,-0.28445
2.69336,0.0183334,-0.188342
2.69265,-0.113326,-0.22001
2.79847,0.155969,0.0815699
2.80909,-0.118227,0.0490762
2.68233,0.149496,-0.172174
2.84711,0.01938,0.165813
2.84312,-0.119659,0.115934
2.72898,0.0185758,-0.127123
2.73382,-0.115059,-0.143401
2.71353,0.151235,-0.110724
2.75519,0.0187543,-0.0641132
2.73985,0.14311,-0.0478894
2.78336,-0.263595,-0.0325485
2.77617,0.145007,0.0161571
2.78506,-0.126956,-0.0162036
2.64469,0.00877015,-0.284878
2.81122,0.00932241,0.0654159
2.69341,0.00893172,-0.188342
2.69224,-0.122725,-0.22001
2.80299,0.146408,0.0816862
2.81265,-0.128214,0.049146
2.68682,0.14034,-0.17243
2.84716,0.00944158,0.165813
2.72903,0.00904983,-0.127123
2.71804,0.141971,-0.110887
2.75124,0.0091235,-0.0640202
2.74832,0.133934,-0.048029
2.772,-0.000483802,0
2.77844,-0.272918,-0.0325019
2.77666,0.135315,0.0161571
2.78061,-0.136481,-0.0161804
2.81524,-0.000491348,0.065509
2.69741,-0.000470784,-0.188622
2.69976,-0.132513,-0.22066
2.80748,0.136817,0.0818026
2.82018,-0.138423,0.0492856
2.68729,0.13096,-0.17243
2.84718,-0.000496923,0.165813
2.72105,-0.000474909,-0.126751
2.71053,0.132093,-0.110561
2.75126,-0.000480181,-0.0640202
2.74877,0.12434,-0.048029
2.78145,-0.28302,-0.0325485
2.78111,0.125803,0.0161804
2.78011,-0.146186,-0.0161804
2.64071,-0.00967874,-0.28445
2.81922,-0.010333,0.0656021
2.68941,-0.00985726,-0.188063
2.69928,-0.141936,-0.22066
2.80394,0.126836,0.0816862
2.81568,-0.148056,0.0492158
2.69172,0.12176,-0.172685
2.85115,-0.0104501,0.166045
2.72503,-0.00998779,-0.126937
2.73247,-0.143681,-0.143401
2.71098,0.122631,-0.110561
2.75923,-0.0101132,-0.0642063
2.74917,0.115224,-0.048029
2.7895,0.116915,0.0162269
2.7876,-0.155851,-0.0162269
2.64861,-0.0184911,-0.285307
2.81517,-0.0196539,0.065509
2.68937,-0.0187756,-0.188063
2.69481,-0.150663,-0.220335
2.80435,0.117537,0.0816862
2.81517,-0.157393,0.0492158
2.69211,0.112833,-0.172685
2.8511,-0.0199048,0.166045
2.72498,-0.0190242,-0.126937
2.76318,-0.019291,-0.0642993
2.75755,0.105934,-0.0481686
2.77585,-0.0290697,0
2.77946,-0.301946,-0.0325485
2.7779,0.106716,0.0161571
2.78704,-0.165581,-0.0162269
2.64853,-0.0277364,-0.285307
2.81908,-0.0295224,0.0656021
2.68929,-0.0281632,-0.188063
2.69427,-0.160069,-0.220335
2.80474,0.107747,0.0816862
2.8186,-0.167456,0.0492856
2.6885,0.103282,-0.17243
2.85101,-0.0298568,0.166045
2.72889,-0.0285779,-0.127123
2.71974,0.104482,-0.110887
2.7551,-0.0288524,-0.0641132
2.74191,0.0957496,-0.0478894
2.78226,0.0971586,0.0161804
2.78644,-0.175308,-0.0162269
2.64444,-0.0369258,-0.284878
2.82296,-0.0394185,0.0656951
2.69715,-0.0376618,-0.188622
2.70165,-0.169974,-0.220986
2.8091,0.0980959,0.0818026
2.81401,-0.177042,0.0492158
2.68485,0.0937571,-0.172174
2.85089,-0.0398085,0.166045
2.73277,-0.0381591,-0.127309
2.73882,-0.172312,-0.143819
2.71609,0.094848,-0.110724
2.75499,-0.0384694,-0.0641132
2.74223,0.086178,-0.0478894
2.77558,-0.0484479,0
2.78258,0.0874461,0.0161804
2.78981,-0.185299,-0.0162501
2.64827,-0.0462258,-0.285307
2.81481,-0.0491327,0.065509
2.697,-0.0470763,-0.188622
2.80942,0.0882897,0.0818026
2.81736,-0.187129,0.0492856
2.69314,0.0846354,-0.172685
2.72463,-0.0475586,-0.126937
2.7204,0.085492,-0.110887
2.75483,-0.0480858,-0.0641132
2.74651,0.076717,-0.0479592
2.77539,-0.0581362,0
2.78687,0.0778442,0.0162036
2.78515,-0.194757,-0.0162269
2.81462,-0.0589579,0.065509
2.69283,-0.0564068,-0.188342
2.81771,0.0787057,0.0820353
2.82068,-0.197241,0.0493554
2.68943,0.0751226,-0.17243
2.85454,-0.059794,0.166278
2.72445,-0.057069,-0.126937
2.73356,-0.191149,-0.14361
2.71669,0.0758839,-0.110724
2.75065,-0.0576179,-0.0640202
2.75476,0.0673248,-0.0480988
2.79112,0.0682135,0.0162269
2.79243,-0.205064,-0.0162734
2.65186,-0.0648101,-0.285735
2.8144,-0.0687824,0.065509
2.69661,-0.0659037,-0.188622
2.69367,0.0658318,-0.172685
2.87427,-0.0702457,0.16744
2.72823,-0.0666764,-0.127123
2.72493,0.0665957,-0.111049
2.76243,-0.0675123,-0.0642993
2.74698,0.057541,-0.0479592
2.78334,0.0583027,0.0161804
2.7917,-0.21481,-0.0162734
2.65162,-0.0740665,-0.285735
2.81814,-0.0787177,0.0656021
2.69237,-0.0752048,-0.188342
2.72798,-0.0761993,-0.127123
2.72115,0.0569999,-0.110887
2.76217,-0.0771545,-0.0642993
2.77863,-0.0873219,0
2.78753,0.0486565,0.0162036
2.78695,-0.224232,-0.0162501
2.82184,-0.08868,0.0656951
2.69608,-0.0847278,-0.188622
2.81038,0.0490554,0.0818026
2.69007,0.0469554,-0.17243
2.73169,-0.0858467,-0.127309
2.73938,-0.220405,-0.144029
2.71733,0.0474312,-0.110724
2.75389,-0.0865446,-0.0641132
2.74731,0.0383622,-0.0479592
2.77831,-0.0970206,0
2.78368,0.0388701,0.0161804
2.79013,-0.234294,-0.0162734
2.65104,-0.0925763,-0.285735
2.81752,-0.0983899,0.0656021
2.70375,-0.0944169,-0.18918
2.81054,0.039245,0.0818026
2.73137,-0.0953816,-0.127309
2.74257,-0.2303,-0.144238
2.72148,0.0380015,-0.110887
2.75358,-0.096157,-0.0641132
2.75543,0.0288559,-0.0480988
2.7838,0.029153,0.0161804
2.79328,-0.244381,-0.0162966
2.82116,-0.108378,0.0656951
2.69543,-0.103548,-0.188622
2.81465,0.0294761,0.0819189
2.69432,0.0282159,-0.172685
2.72304,-0.104608,-0.126937
2.73777,-0.239524,-0.144029
2.72559,0.0285434,-0.111049
2.75722,-0.105922,-0.0642063
2.75551,0.0192374,-0.0480988
2.79188,0.0194913,0.0162269
2.79241,-0.254129,-0.0162966
2.82076,-0.118225,0.0656951
2.69903,-0.113123,-0.188901
2.80674,0.0195951,0.0816862
2.6984,0.0188387,-0.172941
2.73064,-0.114448,-0.127309
2.7409,-0.249441,-0.144238
2.72567,0.0190291,-0.111049
2.76083,-0.115713,-0.0642993
2.74757,0.00959086,-0.0479592
2.78794,0.00973179,0.0162036
2.79151,-0.263875,-0.0162966
2.82033,-0.12807,0.0656951
2.70261,-0.122725,-0.18918
2.81079,0.00981157,0.0818026
2.69845,0.00941941,-0.172941
2.73022,-0.123979,-0.127309
2.74001,-0.259007,-0.144238
2.72173,0.00950067,-0.110887
2.76041,-0.125349,-0.0642993
2.78795,-0,0.0162036
2.81987,-0.137914,0.0656951
2.69818,-0.131963,-0.188901
2.81081,-0,0.0818026
2.69447,-0,-0.172685
2.73376,-0.133703,-0.127495
2.72174,-0,-0.110887
2.75995,-0.134984,-0.0642993
2.75157,-0.00864434,-0.048029
2.78394,-0.00874604,0.0161804
2.81542,-0.146565,0.0656021
2.70572,-0.140854,-0.189459
2.81479,-0.00884297,0.0819189
2.70244,-0.00849001,-0.173197
2.72934,-0.142083,-0.127309
2.72573,-0.00856315,-0.111049
2.75952,-0.143654,-0.0642993
2.75552,-0.0182756,-0.0480988
2.78789,-0.0184903,0.0162036
2.81889,-0.156613,0.0656951
2.81475,-0.0186684,0.0819189
2.7024,-0.0179233,-0.173197
2.72883,-0.15161,-0.127309
2.73367,-0.0181307,-0.111375
2.76299,-0.153508,-0.0643924
2.75543,-0.0283749,-0.0480988
2.7918,-0.0287495,0.0162269
2.8183,-0.166944,0.0656951
2.70066,-0.159976,-0.18918
2.70231,-0.0278279,-0.173197
2.73623,-0.162083,-0.127681
2.72959,-0.0281088,-0.111212
2.7664,-0.16387,-0.0644854
2.76332,-0.037621,-0.0482385
2.78769,-0.0379528,0.0162036
2.82172,-0.176539,0.0657882
2.7041,-0.16918,-0.189459
2.69821,-0.0367346,-0.172941
2.73568,-0.171156,-0.127681
2.72549,-0.0371059,-0.111049
2.76185,-0.172793,-0.0643924
2.78355,-0.047615,0.0161804
2.70349,-0.178618,-0.189459
2.8144,-0.0481428,0.0819189
2.69807,-0.0461529,-0.172941
2.72709,-0.180177,-0.127309
2.76522,-0.182696,-0.0644854
2.755,-0.0567468,-0.0480988
2.79136,-0.0574959,0.0162269
2.70285,-0.188054,-0.189459
2.81821,-0.0580489,0.0820353
2.70188,-0.0556528,-0.173197
2.73315,-0.0562969,-0.111375
2.76457,-0.192348,-0.0644854
2.75478,-0.0663632,-0.0480988
2.78714,-0.0671429,0.0162036
2.81799,-0.0678859,0.0820353
2.70566,-0.06518,-0.173453
2.72495,-0.0656445,-0.111049
2.76388,-0.201997,-0.0644854
2.75453,-0.0759788,-0.0480988
2.79089,-0.0769817,0.0162269
2.70143,-0.074514,-0.173197
2.72904,-0.20903,-0.127495
2.76316,-0.211643,-0.0644854
2.76223,-0.086324,-0.0482385
2.78659,-0.0870854,0.0162036
2.70114,-0.0844147,-0.173197
2.76635,-0.222089,-0.0645785
2.79428,-0.096602,0.0162501
2.81712,-0.0973916,0.0820353
2.70084,-0.0933716,-0.173197
2.72811,-0.0943141,-0.111212
2.75758,-0.104972,-0.0481686
2.79393,-0.106355,0.0162501
2.82076,-0.107377,0.0821517
2.72776,-0.103836,-0.111212
2.76477,-0.240914,-0.0645785
2.7612,-0.114763,-0.0482385
2.78954,-0.115941,0.0162269
2.82436,-0.117388,0.082268
2.7679,-0.250924,-0.0646715
2.78914,-0.125191,0.0162269
2.70373,-0.121357,-0.173453
2.76434,-0.133748,-0.0483083
2.79269,-0.135119,0.0162501
2.70329,-0.130794,-0.173453
2.73054,-0.132113,-0.111375
2.77011,-0.270147,-0.0647646
2.79619,-0.145074,0.0162734
2.70281,-0.140229,-0.173453
2.73405,-0.14185,-0.111538
2.70629,-0.149884,-0.173709
2.73753,-0.151614,-0.111701
2.79511,-0.164592,0.0162734
2.70575,-0.15933,-0.173709
2.73698,-0.161169,-0.111701
2.76712,-0.29914,-0.0647646
2.7662,-0.17258,-0.0483781
2.79452,-0.174347,0.0162734
2.70916,-0.169022,-0.173965
2.76606,-0.308797,-0.0647646
2.76558,-0.182235,-0.0483781
2.79389,-0.184101,0.0162734
2.70856,-0.178478,-0.173965
2.73579,-0.180272,-0.111701
2.77291,-0.319366,-0.0649507
2.80121,-0.194406,0.0163199
2.70792,-0.187931,-0.173965
2.73515,-0.189821,-0.111701
2.80052,-0.204183,0.0163199
2.71123,-0.197673,-0.17422
2.73845,-0.199658,-0.111864
2.79576,-0.214141,0.0162966
2.7377,-0.209694,-0.111864
2.80221,-0.233831,0.0163431
2.73858,-0.247302,-0.112026
2.74167,-0.257234,-0.112189
