2.69298,0.657972,-0.145285
2.68249,0.644504,-0.0802899
2.6017,0.492066,-0.0308256
2.69136,0.646635,-0.0160874
2.5867,0.489229,-0.245744
2.61349,0.494296,0.0309653
2.70655,0.650285,0.0485875
2.58962,0.489782,-0.153487
2.69549,0.647626,-0.145285
2.67305,0.632377,-0.0799408
2.59947,0.482253,-0.030779
2.68192,0.634476,-0.0160176
2.5923,0.480925,-0.246116
2.61126,0.484442,0.0309187
2.69713,0.638073,0.0483781
2.58739,0.480013,-0.153254
2.68753,0.635801,0.112515
2.68607,0.635456,-0.144657
2.58539,0.470312,-0.0305928
2.67633,0.623295,-0.0159711
2.57829,0.469021,-0.244629
2.60507,0.473892,0.0308256
2.6675,0.621239,-0.22359
2.69545,0.627747,0.0483083
2.57727,0.468834,-0.152557
2.68438,0.62517,-0.144447
2.59088,0.462438,-0.0306393
2.67059,0.612627,-0.0159246
2.57199,0.459068,-0.243885
2.59875,0.463844,0.0307325
2.66178,0.610606,-0.222939
2.68192,0.615227,0.048029
2.57094,0.458881,-0.152092
2.67087,0.612691,-0.14361
2.58073,0.450875,-0.0304996
2.66891,0.601955,-0.0159014
2.57366,0.449639,-0.243885
2.58861,0.452251,0.0305928
2.68026,0.604514,0.0479592
2.56868,0.448768,-0.151859
2.67844,0.604105,0.111864
2.6614,0.600262,-0.142982
2.57819,0.442088,-0.0304531
2.66298,0.591832,-0.0158549
2.56328,0.439531,-0.24277
2.58608,0.44344,0.0305462
2.66652,0.592619,0.04768
2.56614,0.440021,-0.151627
2.67252,0.593952,0.111538
2.65548,0.590164,-0.142563
2.57191,0.431313,-0.0303599
2.65341,0.579508,-0.0157852
2.56095,0.429475,-0.242398
2.5798,0.432636,0.0304531
2.63687,0.575895,-0.220335
2.66477,0.581989,0.0476102
2.55592,0.428632,-0.150929
2.67078,0.583301,0.111375
2.64591,0.577871,-0.141935
2.64759,0.568563,-0.0157387
2.55064,0.418599,-0.241283
2.5734,0.422333,0.0303599
2.63106,0.565013,-0.219684
2.65897,0.571005,0.0474705
2.54952,0.418414,-0.150464
2.65717,0.570619,0.110724
2.6362,0.566116,-0.141307
2.74737,0.732048,-0.0661604
2.55906,0.410812,-0.0301737
2.64565,0.558491,-0.0157154
2.54422,0.40843,-0.240539
2.56301,0.411446,0.0302203
2.61742,0.552531,-0.218382
2.6492,0.559241,0.0472611
2.55096,0.409512,-0.150464
2.65132,0.559688,0.110398
2.63034,0.555259,-0.140888
2.73831,0.719404,-0.0658812
2.72981,0.707502,0
2.54855,0.400461,-0.030034
2.64357,0.548902,-0.0156922
2.54556,0.399991,-0.240539
2.55646,0.401703,0.0301271
2.64713,0.54964,0.0471913
2.54442,0.399811,-0.149999
2.64925,0.550081,0.110235
2.62826,0.545722,-0.140679
2.73681,0.709317,-0.0657882
2.61315,0.532601,-0.0776135
2.71688,0.693534,0
2.54605,0.39051,-0.0299874
2.63773,0.53761,-0.0156457
2.53914,0.38945,-0.239796
2.55396,0.391723,0.0300806
2.60949,0.531856,-0.217406
2.63737,0.537538,0.0469819
2.54192,0.389876,-0.149766
2.72168,0.694759,-0.130846
2.62633,0.535287,-0.14047
2.72389,0.695324,-0.0654159
2.71129,0.683041,0
2.54331,0.381916,-0.0299409
2.59887,0.521193,-0.337389
2.61979,0.525389,-0.0155294
2.53247,0.380289,-0.239052
2.54331,0.381916,0.0299409
2.59942,0.521304,-0.21643
2.63512,0.528463,0.0469121
2.52733,0.379517,-0.148836
2.64118,0.529678,0.109747
2.7006,0.680349,-0.129729
2.62016,0.525463,-0.140051
2.71055,0.682857,-0.0650437
2.70601,0.671173,0
2.53678,0.371432,-0.0298477
2.59687,0.510897,-0.336884
2.6217,0.515783,-0.0155294
2.52597,0.36985,-0.238309
2.54469,0.372591,0.0299409
2.59349,0.510233,-0.215779
2.61742,0.514941,0.046563
2.52476,0.369672,-0.148603
2.62741,0.516907,0.109096
2.69144,0.66756,-0.12917
2.61423,0.514314,-0.139632
2.62479,0.51639,0.218382
2.71304,0.672917,-0.0650437
2.69668,0.658875,0
2.59084,0.500325,-0.335873
2.61563,0.505112,-0.0154829
2.5233,0.360468,-0.237937
2.53014,0.361445,0.0297546
2.62313,0.50656,0.0466328
2.52208,0.360293,-0.148371
2.62528,0.506975,0.108933
2.68987,0.657213,-0.128984
2.60425,0.502913,-0.139004
2.61483,0.504958,0.217406
2.70372,0.660595,-0.0647646
2.69896,0.649457,0
2.51554,0.350403,-0.0295684
2.58867,0.490539,-0.335368
2.60952,0.494488,-0.0154364
2.52742,0.352058,0.029708
2.61702,0.495911,0.0464932
2.51146,0.349833,-0.147673
2.62311,0.497063,0.10877
2.68438,0.64595,-0.128612
2.60206,0.493075,-0.138795
2.60874,0.494342,0.216755
2.69732,0.639109,0
2.51675,0.341619,-0.0295684
2.57867,0.479324,-0.333853
2.60729,0.484645,-0.0154132
2.51392,0.341235,-0.236822
2.52071,0.342157,0.0296149
2.67133,0.632953,-0.19197
2.57518,0.478675,-0.213826
2.5087,0.340527,-0.147441
2.68273,0.635653,-0.128426
2.59984,0.483259,-0.138586
2.60261,0.483775,0.216104
2.6927,0.638014,-0.0643924
2.57644,0.469614,-0.0762172
2.68785,0.626966,0
2.50999,0.331785,-0.0294752
2.57252,0.468898,-0.332843
2.59323,0.472673,-0.0153202
2.50999,0.331785,0.0294752
2.66964,0.622719,-0.191691
2.57683,0.469684,-0.213826
2.49404,0.329676,-0.14651
2.60685,0.475156,0.107956
2.67715,0.624472,-0.128054
2.59365,0.47275,-0.138167
2.68712,0.626796,-0.0642063
2.68222,0.615789,0
2.49924,0.32149,-0.0293355
2.56633,0.458519,-0.331833
2.58699,0.462211,-0.0152737
2.49649,0.321136,-0.234963
2.68929,0.617412,0.0642063
2.50717,0.322511,0.0294287
2.66402,0.61161,-0.191133
2.56668,0.458583,-0.212849
2.49518,0.320968,-0.14651
2.59669,0.463944,0.107467
2.66374,0.611546,-0.127309
2.58742,0.462288,-0.137748
2.59023,0.46279,0.214802
2.6737,0.613833,-0.0638341
2.56383,0.449303,-0.0757518
2.67645,0.605126,0
2.50426,0.313697,-0.0293821
2.56783,0.450006,-0.331833
2.58851,0.453629,-0.0152737
2.49359,0.31236,-0.234591
2.49632,0.312703,0.029289
2.65436,0.600132,-0.190296
2.56426,0.44938,-0.212524
2.5921,0.454258,0.0459347
2.49227,0.312195,-0.146278
2.6836,0.606744,0.160231
2.59428,0.45464,0.107304
2.66575,0.602708,-0.127309
2.57713,0.451636,-0.13712
2.57997,0.452132,0.213826
2.66792,0.603199,-0.0636479
2.56151,0.439228,-0.0756354
2.66693,0.59271,0
2.48554,0.302104,-0.0291493
2.55773,0.43858,-0.330318
2.58227,0.442787,-0.0152272
2.49076,0.302739,-0.234219
2.67402,0.594284,0.063741
2.49745,0.303552,0.029289
2.64485,0.587803,-0.189459
2.55803,0.438631,-0.211873
2.4815,0.301613,-0.14558
2.58805,0.443778,0.106979
2.65624,0.590334,-0.126751
2.57877,0.442188,-0.13712
2.57768,0.442,0.2135
2.6545,0.589947,-0.0632757
2.56303,0.430284,-0.0756354
2.66117,0.581688,0
2.48658,0.293425,-0.0291493
2.5436,0.42702,-0.328297
2.57591,0.432445,-0.0151807
2.49849,0.294831,0.029289
2.64299,0.577714,-0.18918
2.55955,0.429699,-0.211873
2.47857,0.292481,-0.145348
2.65667,0.580704,0.158371
2.5817,0.433418,0.106653
2.65438,0.580204,-0.126565
2.57242,0.43186,-0.136702
2.57134,0.431679,0.212849
2.64482,0.578115,-0.0629966
2.55655,0.420486,-0.0754027
2.65917,0.57202,0
2.49151,0.285635,-0.0291958
2.54108,0.417941,-0.327792
2.56549,0.421955,-0.015111
2.48089,0.284418,-0.233104
2.48754,0.285179,0.0291493
2.62929,0.565592,-0.188063
2.54916,0.419269,-0.210897
2.4716,0.283352,-0.144882
2.65858,0.571892,0.158371
2.57524,0.423558,0.106327
2.64067,0.56804,-0.12582
2.56489,0.421857,0.212199
2.64281,0.568502,-0.0629035
2.51714,0.404983,-0.509905
2.65333,0.561079,0
2.48057,0.275611,-0.0290561
2.53861,0.408437,-0.327287
2.63028,0.556206,-0.28959
2.47,0.274436,-0.231988
2.64478,0.559272,0.0629035
2.48454,0.276052,0.0291027
2.62344,0.554759,-0.187505
2.54667,0.409734,-0.210571
2.57055,0.413576,0.0454461
2.46463,0.27384,-0.144417
2.64884,0.56013,0.157673
2.56881,0.413296,0.106002
2.627,0.555511,-0.125076
2.55848,0.411634,0.211548
2.63305,0.55679,-0.0626244
2.72152,0.705861,-0.0490762
2.54758,0.400762,-0.0750536
2.63569,0.547743,0
2.47356,0.266094,-0.028963
2.5361,0.398956,-0.326782
2.72189,0.705957,0.0163431
2.55257,0.401547,-0.015018
2.61663,0.543784,-0.287877
2.46302,0.26496,-0.231245
2.65063,0.55085,0.0629966
2.47356,0.266094,0.028963
2.61364,0.543161,-0.186668
2.54021,0.399603,-0.20992
2.46557,0.265235,-0.144417
2.64296,0.549254,0.157208
2.55444,0.401842,0.10535
2.6211,0.544711,-0.124703
2.54911,0.401003,-0.135236
2.55596,0.402081,0.211222
2.71195,0.703377,-0.114143
2.63497,0.547595,-0.0626244
2.71622,0.694377,-0.0489365
2.53711,0.390045,-0.0747045
2.63366,0.53774,0
2.46652,0.256631,-0.0288699
2.52963,0.388896,-0.325772
2.71659,0.694471,0.0162966
2.54604,0.391419,-0.0149715
2.60683,0.532261,-0.286592
2.46393,0.256361,-0.231245
2.64079,0.539195,0.0627174
2.4705,0.257044,0.0289165
2.61161,0.533237,-0.186389
2.52976,0.388916,-0.208944
2.45854,0.255801,-0.143952
2.64095,0.539227,0.156975
2.55583,0.392923,0.10535
2.61907,0.53476,-0.124517
2.54655,0.391496,-0.135027
2.62903,0.536795,-0.0624383
2.70312,0.680982,-0.0486573
2.53054,0.379998,-0.0744718
2.50961,0.376854,-0.507552
2.62376,0.526183,0
2.46342,0.247618,-0.0288233
2.5192,0.378295,-0.324257
2.60867,0.523157,-0.286592
2.45688,0.246962,-0.230501
2.63481,0.5284,0.0625313
2.4674,0.248019,0.0288699
2.60563,0.522548,-0.185831
2.52322,0.378899,-0.208293
2.55101,0.383071,0.0450272
2.4475,0.246018,-0.143255
2.63498,0.528434,0.15651
2.55718,0.383999,0.10535
2.617,0.524828,-0.124331
2.53899,0.381267,0.209595
2.69741,0.679545,-0.113329
2.62305,0.526041,-0.0622522
2.7016,0.670581,-0.0485875
2.53186,0.371165,-0.0744718
2.50702,0.367524,-0.506767
2.62165,0.516251,0
2.46427,0.23902,-0.0288233
2.51265,0.36835,-0.323247
2.5408,0.372476,-0.014925
2.59487,0.510976,-0.284878
2.4498,0.237617,-0.229758
2.62879,0.517656,0.0623452
2.46427,0.23902,0.0288233
2.59569,0.511138,-0.184994
2.52058,0.369512,-0.207968
2.54441,0.373005,0.0448876
2.44834,0.237475,-0.143255
2.62506,0.51692,0.155813
2.5506,0.373912,0.105025
2.60705,0.513375,-0.123773
2.53242,0.371247,0.208944
2.62094,0.516111,-0.0621591
2.69215,0.658766,-0.0483781
2.51328,0.359932,-0.07389
2.50046,0.358096,-0.505198
2.61157,0.505274,0
2.45708,0.2301,-0.0287302
2.50993,0.359452,-0.322742
2.53806,0.36348,-0.0149017
2.59265,0.501612,-0.28445
2.43868,0.228377,-0.228642
2.61479,0.505897,0.061973
2.45708,0.2301,0.0287302
2.51785,0.360586,-0.207642
2.54168,0.363998,0.0448178
2.67929,0.655619,-0.176779
2.44514,0.228982,-0.143022
2.61499,0.505936,0.155115
2.536,0.363185,0.104373
2.68256,0.65642,-0.112515
2.61872,0.506656,-0.0620661
2.68277,0.646553,-0.0481686
2.51848,0.351709,-0.0740063
2.49393,0.34828,-0.503629
2.59367,0.492423,0
2.45389,0.221162,-0.0286836
2.58225,0.490256,-0.408915
2.50724,0.350139,-0.322237
2.52347,0.352405,-0.0148088
2.58657,0.491075,-0.283593
2.43153,0.219147,-0.227899
2.60868,0.495274,0.0617869
2.4499,0.220803,0.0286371
2.51514,0.351243,-0.207317
2.68982,0.648251,0.0805226
2.43797,0.219728,-0.142557
2.61282,0.49606,0.154882
2.52538,0.352672,0.103885
2.52401,0.352481,-0.133561
2.61261,0.49602,-0.06188
2.68123,0.635793,-0.0480988
2.50787,0.340861,-0.0736572
2.48353,0.337553,-0.501276
2.59546,0.482914,0
2.44273,0.211134,-0.0285439
2.50065,0.339879,-0.321226
2.52078,0.342616,-0.0147855
2.42835,0.209891,-0.227527
2.60655,0.484978,0.0616939
2.44671,0.211478,0.0285905
2.50061,0.339875,-0.206015
2.66838,0.632746,-0.175755
2.43478,0.210447,-0.142324
2.60677,0.485019,0.154417
2.52269,0.342876,0.103722
2.51737,0.342152,-0.133143
2.60655,0.484978,-0.0616939
2.67553,0.625079,-0.0479592
2.4971,0.330967,-0.0733081
2.48464,0.329316,-0.501276
2.5813,0.471431,0
2.44341,0.203033,-0.0285439
2.56617,0.468668,-0.40584
2.48209,0.328978,-0.318701
2.51001,0.332678,-0.0147158
2.56646,0.46872,-0.281023
2.42903,0.201838,-0.227527
2.60421,0.475614,0.0616008
2.44341,0.203033,0.0285439
2.57109,0.469566,-0.182762
2.49777,0.331057,-0.205689
2.6787,0.625819,0.0800572
2.5176,0.333684,0.0443291
2.42751,0.201711,-0.141859
2.60051,0.474938,0.153952
2.51589,0.333458,0.103397
2.58244,0.471638,-0.122284
2.51057,0.332753,-0.132724
2.60027,0.474896,-0.0615077
2.66601,0.613046,-0.0477498
2.49427,0.321736,-0.0731918
2.47799,0.319636,-0.499707
2.58293,0.462417,0
2.42816,0.193233,-0.0283577
2.48322,0.320312,-0.318701
2.50322,0.322891,-0.0146693
2.42178,0.192725,-0.226784
2.59798,0.465111,0.0614147
2.44012,0.194185,0.0284974
2.56879,0.459884,-0.182483
2.49101,0.321316,-0.205038
2.51478,0.324382,0.0442593
2.42422,0.192919,-0.141627
2.59429,0.46445,0.153487
2.50911,0.323651,0.103071
2.50775,0.323476,-0.132515
2.66031,0.611736,-0.111212
2.53291,0.326721,0.465642
2.59011,0.463701,-0.0612286
2.66033,0.601972,-0.0476102
2.47909,0.310985,-0.499707
2.57665,0.452016,0
2.42882,0.184756,-0.0283577
2.54602,0.446643,-0.402151
2.48433,0.311642,-0.318701
2.5083,0.314649,-0.0146925
2.41053,0.183365,-0.225668
2.58383,0.453276,0.0610425
2.43281,0.18506,0.0284042
2.55859,0.448847,-0.181646
2.48816,0.312123,-0.204713
2.66351,0.602691,0.0794753
2.51193,0.315104,0.0441895
2.42089,0.184153,-0.141394
2.59196,0.454702,0.153254
2.49833,0.313399,0.102582
2.50003,0.313611,0.205689
2.65463,0.600683,-0.110887
2.53404,0.317878,0.465642
2.6468,0.589205,-0.0473309
2.46069,0.299956,-0.495785
2.56245,0.440309,0
2.42147,0.175697,-0.0282646
2.53978,0.436414,-0.400921
2.47358,0.301527,-0.317186
2.50144,0.304923,-0.014646
2.55163,0.43845,-0.278881
2.40718,0.174661,-0.225296
2.5854,0.444253,0.0610425
2.42147,0.175697,0.0282646
2.5562,0.439236,-0.181367
2.48132,0.30247,-0.204062
2.41355,0.175123,-0.140929
2.5896,0.444974,0.153022
2.49941,0.304675,0.102582
2.48616,0.30306,-0.131259
2.49715,0.3044,0.205364
2.64501,0.588806,-0.110398
2.47765,0.293249,-0.07261
2.45393,0.290442,-0.494216
2.56002,0.430697,0
2.42207,0.167243,-0.0282646
2.47068,0.292424,-0.316681
2.49455,0.295249,-0.0145995
2.5453,0.42822,-0.278024
2.39983,0.165708,-0.224553
2.58299,0.434562,0.0609494
2.41808,0.166968,0.028218
2.54592,0.428324,-0.18053
2.47444,0.292869,-0.203411
2.49818,0.295679,0.0439103
2.41017,0.166422,-0.140696
2.57932,0.433944,0.152324
2.49649,0.295479,0.10242
2.54937,0.428905,-0.120423
2.47927,0.29344,-0.13084
2.58009,0.434074,0.321248
2.52447,0.298791,0.463489
2.63521,0.567345,-0.0470517
2.47071,0.283687,-0.0723772
2.45104,0.281427,-0.493431
2.55756,0.421109,0
2.41066,0.158003,-0.0281249
2.45592,0.281988,-0.31466
2.49159,0.286083,-0.0145763
2.53501,0.417395,-0.276739
2.40437,0.157591,-0.224925
2.41465,0.158265,0.0281714
2.55133,0.420083,-0.180809
2.46356,0.282866,-0.202435
2.48728,0.285588,0.0437008
2.40276,0.157486,-0.140231
2.58082,0.424938,0.152324
2.49353,0.286307,0.102257
2.54297,0.418706,-0.12005
2.47631,0.284329,-0.130631
2.57767,0.424421,0.32076
2.48733,0.285594,0.204388
2.51377,0.28863,0.461337
2.44031,0.271568,-0.491078
2.55507,0.411542,0
2.40322,0.149092,-0.0280317
2.449,0.272535,-0.31365
2.48064,0.276057,-0.0145065
2.53252,0.407911,-0.27631
2.39695,0.148703,-0.224181
2.40721,0.149339,0.0280783
2.54491,0.409905,-0.180251
2.45661,0.273382,-0.201784
2.48031,0.276019,0.0435612
2.39533,0.148602,-0.139766
2.57046,0.414021,0.151627
2.48658,0.276717,0.101931
2.54047,0.409191,-0.119864
2.47332,0.275241,-0.130421
2.57522,0.414788,0.320273
2.47642,0.275587,0.203411
2.62366,0.555283,-0.109258
2.50694,0.278983,0.459902
2.56227,0.412703,-0.0603911
2.45673,0.264719,-0.0719118
2.44514,0.26347,-0.491862
2.55254,0.402,0
2.39574,0.140236,-0.0279386
2.44994,0.263986,-0.31365
2.47364,0.26654,-0.01446
2.53,0.398451,-0.275882
2.38553,0.139639,-0.223066
2.5637,0.403758,0.0603911
2.39973,0.14047,0.0279852
2.54238,0.4004,-0.179972
2.45755,0.264807,-0.201784
2.47728,0.266933,0.0434914
2.38786,0.139775,-0.139301
2.56005,0.403184,0.150929
2.47958,0.26718,0.101605
2.53793,0.3997,-0.119678
2.47426,0.266608,-0.130421
2.56881,0.404563,0.319298
2.47341,0.266515,0.203086
2.50007,0.269389,0.458467
2.5558,0.402514,-0.060205
2.43425,0.254561,-0.489509
2.54984,0.393368,0
2.39217,0.132486,-0.027892
2.45075,0.256287,-0.31365
2.62158,0.536702,0.0155527
2.47446,0.258766,-0.01446
2.52338,0.389286,-0.275025
2.38595,0.132142,-0.223066
2.39617,0.132707,0.0279386
2.52785,0.389976,-0.178856
2.45044,0.256254,-0.201133
2.47811,0.259147,0.0434914
2.3843,0.13205,-0.139069
2.56526,0.395746,0.151161
2.47643,0.258972,0.101443
2.53128,0.390505,-0.119306
2.4592,0.257169,-0.129584
2.56614,0.395883,0.31881
2.47027,0.258327,0.20276
2.50091,0.261531,0.458467
2.54915,0.393261,-0.0600189
2.42732,0.245275,-0.48794
2.53933,0.382678,0
2.38863,0.123929,-0.0278455
2.43979,0.246535,-0.312135
2.61952,0.526761,0.0155294
2.47137,0.249727,-0.0144368
2.51686,0.379292,-0.274168
2.38242,0.123608,-0.222694
2.55446,0.384958,0.060112
2.38863,0.123929,0.0278455
2.5292,0.381151,-0.178856
2.44339,0.246899,-0.200482
2.47104,0.249693,0.0433518
2.38475,0.123728,-0.139069
2.55872,0.385601,0.150696
2.46937,0.249524,0.101117
2.52867,0.381073,-0.11912
2.4561,0.248184,-0.129375
2.55966,0.385742,0.317835
2.49006,0.251615,0.456314
2.54655,0.383767,-0.0599259
2.42821,0.236378,-0.48794
2.53676,0.372788,0
2.37708,0.114597,-0.0277058
2.43278,0.236823,-0.311125
2.60573,0.51406,0.0154364
2.46431,0.239892,-0.0143903
2.5143,0.369487,-0.27374
2.38286,0.114875,-0.222694
2.38107,0.114789,0.0277523
2.52268,0.370719,-0.178298
2.43237,0.236783,-0.199506
2.46,0.239472,0.0431423
2.3812,0.114795,-0.138836
2.55222,0.37506,0.150231
2.47026,0.240472,0.101117
2.52215,0.370641,-0.118747
2.44905,0.238407,-0.128956
2.5532,0.375204,0.31686
2.47922,0.241343,0.454162
2.53211,0.372105,-0.0595536
2.4363,0.228153,-0.0712136
2.41734,0.226377,-0.485586
2.53019,0.362351,0
2.37349,0.105704,-0.0276592
2.42968,0.227533,-0.31062
2.45721,0.230111,-0.0143438
2.50776,0.35914,-0.272883
2.37133,0.105608,-0.221579
2.37349,0.105704,0.0276592
2.51217,0.359772,-0.17746
2.45687,0.23008,0.0430725
2.36963,0.105532,-0.138138
2.53776,0.363437,0.149301
2.45919,0.230297,0.100628
2.51558,0.36026,-0.118375
2.44593,0.229054,-0.128746
2.5467,0.364716,0.315885
2.4491,0.229352,0.200808
2.47225,0.231519,0.452727
2.51763,0.360553,-0.0591814
2.41417,0.218008,-0.484802
2.52345,0.352852,0
2.36983,0.0976681,-0.0276127
2.43042,0.219475,-0.31062
2.59354,0.492868,0.0153435
2.45397,0.221602,-0.0143206
2.505,0.350272,-0.272455
2.36769,0.0975799,-0.221207
2.36983,0.0976681,0.0276127
2.5094,0.350887,-0.177181
2.43,0.219437,-0.19918
2.60034,0.494161,0.0770317
2.45364,0.221572,0.0430027
2.36997,0.0976739,-0.138138
2.535,0.354467,0.149068
2.45198,0.221422,0.100303
2.5128,0.351363,-0.118189
2.44269,0.220583,-0.128537
2.54003,0.35517,0.31491
2.44588,0.220871,0.200482
2.473,0.22332,0.452727
2.51485,0.351649,-0.0590884
2.40319,0.208563,-0.482449
2.51278,0.342421,0
2.37015,0.0893957,-0.0276127
2.42327,0.210304,-0.30961
2.58738,0.482346,0.015297
2.45075,0.212689,-0.0142973
2.50226,0.340989,-0.272027
2.36005,0.0890148,-0.220463
2.36616,0.089245,0.0275661
2.50666,0.341587,-0.176902
2.41883,0.20992,-0.198204
2.59419,0.483616,0.076799
2.44643,0.212315,0.0428631
2.5782,0.480635,-0.16808
2.3703,0.0894011,-0.138138
2.44478,0.212171,0.0999771
2.50214,0.340971,-0.117631
2.43151,0.21102,-0.127909
2.53338,0.34523,0.313935
2.43869,0.211643,0.199831
2.46593,0.214007,0.451292
2.50417,0.341249,-0.0588092
2.40778,0.200918,-0.483233
2.5139,0.334086,0
2.35445,0.0809849,-0.0274264
2.42395,0.202267,-0.30961
2.58896,0.473763,0.015297
2.44347,0.203895,-0.0142508
2.4955,0.331641,-0.27117
2.36034,0.0811874,-0.220463
2.35845,0.0811224,0.027473
2.49591,0.331695,-0.176065
2.44712,0.2042,0.0428631
2.57585,0.471364,-0.167825
2.35861,0.0811279,-0.137441
2.52548,0.335625,0.148371
2.44547,0.204062,0.0999771
2.49533,0.331619,-0.117258
2.43618,0.203287,-0.128118
2.53058,0.336303,0.313448
2.4627,0.2055,0.450575
2.50529,0.332942,-0.0588092
2.40068,0.191468,-0.481664
2.5032,0.323333,0
2.34673,0.0721097,-0.0273333
2.4049,0.191804,-0.307084
2.57494,0.461449,0.015204
2.43224,0.193985,-0.0141811
2.48881,0.321474,-0.270313
2.34868,0.0721694,-0.219348
2.35473,0.0723554,0.0274264
2.49711,0.322546,-0.176065
2.40832,0.192077,-0.197227
2.58176,0.462672,0.0763336
2.43191,0.193958,0.0425839
2.56578,0.459808,-0.167057
2.3549,0.0723605,-0.137208
2.52273,0.325856,0.148138
2.43424,0.194145,0.0994886
2.49653,0.322471,-0.117258
2.42496,0.193405,-0.12749
2.52392,0.326009,0.312473
2.46344,0.196473,0.450575
2.50253,0.323246,-0.0587162
2.38957,0.18261,-0.479311
2.50029,0.314532,0
2.34696,0.0643277,-0.0273333
2.40552,0.183829,-0.307084
2.57251,0.452216,0.0151807
2.42489,0.185309,-0.0141346
2.48197,0.312226,-0.269456
2.35288,0.0644901,-0.21972
2.34696,0.0643277,0.0273333
2.49024,0.313267,-0.175507
2.43652,0.186198,0.0426537
2.55942,0.449915,-0.166545
2.34714,0.0643327,-0.136743
2.50795,0.315495,0.147208
2.43089,0.185768,0.0993258
2.49362,0.313692,-0.117072
2.52105,0.317143,0.311986
2.56649,0.451156,-0.106165
2.44446,0.186804,0.446987
2.49168,0.313448,-0.058437
2.39411,0.174552,-0.480095
2.49741,0.305316,0
2.39823,0.174853,-0.306074
2.42153,0.176552,-0.0141113
2.4712,0.302112,-0.268171
2.34115,0.0559903,-0.218604
2.50467,0.306204,0.0587162
2.34317,0.0560386,0.0272867
2.48736,0.304088,-0.175228
2.40162,0.1751,-0.196577
2.56909,0.442374,0.0758681
2.42519,0.176819,0.0424443
2.56098,0.440978,-0.166545
2.34735,0.0561386,-0.136743
2.50904,0.306738,0.147208
2.42355,0.176699,0.0990001
2.47884,0.303046,-0.116328
2.42224,0.176603,-0.127281
2.51426,0.307376,0.311011
2.56411,0.441516,-0.106002
2.44902,0.178556,0.447705
2.48482,0.303778,-0.0582509
2.55561,0.430416,-0.0452366
2.37908,0.164693,-0.476957
2.48262,0.294278,0
2.33136,0.0472077,-0.027147
2.39886,0.166063,-0.306074
2.41418,0.167123,-0.0140648
2.47229,0.293053,-0.268171
2.34134,0.0474097,-0.218604
2.33536,0.0472887,0.0271936
2.47261,0.293091,-0.174112
2.39429,0.165746,-0.195926
2.57069,0.432955,0.0758681
2.42582,0.167929,0.0424443
2.55471,0.430263,-0.166034
2.33956,0.0473736,-0.136278
2.50221,0.2966,0.146743
2.4202,0.16754,0.0988373
2.47596,0.293489,-0.116142
2.41091,0.166897,-0.126653
2.51143,0.297692,0.310523
2.55783,0.430788,-0.105676
2.44181,0.169036,0.44627
2.48989,0.29514,-0.058344
2.54906,0.42108,-0.045097
2.3835,0.157476,-0.477742
2.47956,0.286018,0
2.3275,0.0398142,-0.0271004
2.39145,0.158002,-0.305064
2.41469,0.159537,-0.0140648
2.46925,0.284829,-0.267743
2.32953,0.0398489,-0.217489
2.49478,0.287773,0.058437
2.3315,0.0398826,0.027147
2.46163,0.283949,-0.173275
2.39082,0.15796,-0.1956
2.55211,0.421584,-0.165778
2.32771,0.0398179,-0.13558
2.49123,0.287364,0.146045
2.41273,0.159408,0.0985116
2.4729,0.28525,-0.115956
2.41143,0.159322,-0.126653
2.49657,0.28798,0.308573
2.55128,0.421447,-0.10535
2.43447,0.160844,0.444835
2.48286,0.286399,-0.0581579
2.54671,0.410654,-0.0450272
2.37626,0.147837,-0.476173
2.47666,0.276052,0
2.38808,0.148572,-0.304559
2.4113,0.150017,-0.0140416
2.46242,0.274465,-0.266886
2.32568,0.0308516,-0.217117
2.49189,0.27775,0.058344
2.33164,0.0309306,0.027147
2.4627,0.274496,-0.173275
2.38345,0.148284,-0.194949
2.41097,0.149996,0.042165
2.53794,0.40924,-0.164755
2.33184,0.0309333,-0.135813
2.48438,0.276913,0.14558
2.41333,0.150143,0.0985116
2.46604,0.274868,-0.115583
2.40006,0.149318,-0.126025
2.49371,0.277953,0.308086
2.54499,0.410376,-0.105025
2.43507,0.151496,0.444835
2.48394,0.276864,-0.0581579
2.38289,0.1399,-0.0694682
2.36893,0.139081,-0.474604
2.46966,0.266546,0
2.31973,0.0226736,-0.0270073
2.38066,0.13977,-0.303549
2.39983,0.140895,-0.0139718
2.4515,0.264587,-0.265601
2.32179,0.0226937,-0.216746
2.48489,0.268191,0.0581579
2.32773,0.0227517,0.0271004
2.45174,0.264613,-0.172438
2.38395,0.139963,-0.194949
2.40749,0.141345,0.0420952
2.53936,0.400378,-0.164755
2.31996,0.0226758,-0.135115
2.46945,0.266524,0.14465
2.40586,0.141249,0.098186
2.46301,0.265829,-0.115397
2.49072,0.26882,0.307598
2.42773,0.142533,0.4434
2.5337,0.390427,-0.044748
2.3694,0.13081,-0.474604
2.47057,0.257924,0
2.3118,0.0145252,-0.0269142
2.37717,0.131239,-0.303044
2.4003,0.132516,-0.0139718
2.44845,0.255614,-0.265172
2.30991,0.0145133,-0.21563
2.4699,0.257854,0.0577856
2.3238,0.0146005,0.0270539
2.45662,0.256467,-0.172717
2.38044,0.13142,-0.194624
2.53697,0.39093,0.0747045
2.40397,0.132719,0.0420254
2.5289,0.389687,-0.163987
2.31204,0.0145267,-0.13465
2.46242,0.257073,0.144185
2.40235,0.132629,0.0980231
2.45598,0.256399,-0.115025
2.38908,0.131897,-0.125397
2.4798,0.258887,0.306136
2.52804,0.389554,-0.104211
2.42035,0.133623,0.441965
2.4699,0.257854,-0.0577856
2.52701,0.381272,-0.0446084
2.35413,0.122551,-0.471466
2.45147,0.248147,0
2.30783,0.00725025,-0.0268676
2.37361,0.123565,-0.302539
2.39272,0.12456,-0.0139253
2.44133,0.24712,-0.264316
2.30995,0.00725689,-0.21563
2.4707,0.250093,0.0577856
2.31183,0.00726281,0.0269142
2.44153,0.247141,-0.171601
2.38085,0.123941,-0.194624
2.53423,0.382362,0.0745881
2.40038,0.124959,0.0419556
2.52617,0.381145,-0.163731
2.30808,0.00725102,-0.134417
2.39078,0.124458,0.0975347
2.44484,0.247476,-0.114467
2.38948,0.124391,-0.125397
2.46875,0.249896,0.304673
2.5253,0.381014,-0.104048
2.41683,0.125815,0.441247
2.52054,0.370404,-0.0444687
2.36825,0.11417,-0.0690027
2.3585,0.1137,-0.47225
2.44843,0.238345,0
2.3701,0.114259,-0.302034
2.44226,0.237745,-0.264316
2.30597,-0.00160938,-0.215258
2.45572,0.239056,0.0574134
2.31584,-0.00161627,0.0269608
2.36936,0.114223,-0.193647
2.39286,0.115356,0.041816
2.51576,0.369702,-0.162964
2.30809,-0.00161086,-0.134417
2.45621,0.239103,0.14372
2.38724,0.115086,0.0973718
2.4418,0.2377,-0.11428
2.38196,0.114831,-0.124978
2.51488,0.369572,-0.103559
2.40944,0.116155,0.439812
2.46368,0.239831,-0.0575995
2.51378,0.361346,-0.0443291
2.3646,0.10655,-0.0688864
2.35101,0.105937,-0.470682
2.4412,0.229902,0
2.30383,-0.00884518,-0.0268211
2.35856,0.106277,-0.300518
2.37755,0.107133,-0.0138324
2.43904,0.229699,-0.263887
2.30994,-0.00886865,-0.21563
2.46044,0.231715,0.0575065
2.31583,-0.00889125,0.0269608
2.43128,0.228968,-0.170764
2.36572,0.1066,-0.193322
2.38522,0.107479,0.0416763
2.51296,0.361229,-0.162708
2.30009,-0.00883082,-0.133952
2.45297,0.231011,0.143487
2.37562,0.107046,0.0968833
2.43855,0.229653,-0.114094
2.38231,0.107348,-0.124978
2.45858,0.231539,0.303211
2.51603,0.36167,-0.103559
2.40979,0.108586,0.439812
2.36496,0.0982944,-0.0688864
2.40529,0.218052,-0.676095
2.34744,0.0975665,-0.469897
2.44199,0.221379,0
2.30378,-0.0168876,-0.0268211
2.35891,0.0980433,-0.300518
2.37391,0.0986666,-0.0138091
2.42794,0.220106,-0.262602
2.30591,-0.0169032,-0.215258
2.45726,0.222763,0.0574134
2.29978,-0.0168583,0.0267745
2.42809,0.220119,-0.170485
2.3621,0.0981755,-0.192997
2.37758,0.0988193,0.0415367
2.5063,0.351346,-0.162196
2.29205,-0.0168016,-0.133487
2.44581,0.221726,0.143022
2.37598,0.0987524,0.0968833
2.37469,0.0986989,-0.12456
2.45542,0.222597,0.302723
2.50936,0.351775,-0.103234
2.39836,0.0996826,0.43766
2.45327,0.222402,-0.0573204
2.35331,0.0891721,-0.0685373
2.3984,0.208568,-0.673938
2.34387,0.0888141,-0.469113
2.43481,0.211735,0
2.29171,-0.0251988,-0.0266814
2.34736,0.0889465,-0.299003
2.36626,0.0896627,-0.0137626
2.42081,0.210517,-0.261745
2.28991,-0.025179,-0.213771
2.44212,0.21237,0.0570412
2.3077,-0.0253747,0.0268676
2.42093,0.210528,-0.169927
2.35846,0.0893669,-0.192671
2.37793,0.0901049,0.0415367
2.50362,0.341618,-0.161941
2.28798,-0.0251579,-0.133255
2.44263,0.212414,0.142789
2.36833,0.0897412,0.0965577
2.37104,0.0898438,-0.12435
2.44435,0.212564,0.301261
2.50271,0.341495,-0.102908
2.39477,0.0907431,0.436943
2.38759,0.199233,-0.670704
2.3324,0.0802268,-0.466759
2.2916,-0.0331988,-0.0266814
2.34766,0.0807515,-0.299003
2.35857,0.0811267,-0.0137161
2.4136,0.201403,-0.260888
2.28582,-0.033115,-0.2134
2.43886,0.203511,0.0569482
2.2956,-0.0332568,0.0267279
2.35875,0.0811332,-0.192671
2.37024,0.0815282,0.0413971
2.49688,0.331825,-0.161429
2.28389,-0.0330871,-0.133022
2.43937,0.203554,0.142557
2.36064,0.0811982,0.096232
2.35936,0.0811542,-0.123722
2.49597,0.331703,-0.102582
2.39114,0.0822473,0.436225
2.3844,0.191007,-0.669625
2.33266,0.0724923,-0.466759
2.42025,0.193879,0
2.27948,-0.0405838,-0.0265417
2.33998,0.07272,-0.297993
2.36282,0.0734297,-0.0137394
2.41029,0.193081,-0.26046
2.44351,0.195742,0.0570412
2.28748,-0.0407262,0.0266348
2.34706,0.0729398,-0.191695
2.3665,0.073544,0.0413273
2.49005,0.322518,-0.160917
2.28776,-0.0407312,-0.133255
2.43606,0.195145,0.142324
2.35691,0.0732459,0.0960692
2.35164,0.0730821,-0.123304
2.43387,0.19497,0.299799
2.38354,0.0740735,0.43479
2.48801,0.312985,-0.0437706
2.34213,0.0641944,-0.0681882
2.38125,0.181973,-0.668547
2.32506,0.0637267,-0.46519
2.41296,0.184397,0
2.27532,-0.048853,-0.0264951
2.33627,0.0640337,-0.297488
2.35508,0.0645493,-0.0136929
2.41098,0.184245,-0.26046
2.28155,-0.0489868,-0.213028
2.43225,0.18587,0.0567621
2.28732,-0.0491106,0.0266348
2.35129,0.0644455,-0.19202
2.35476,0.0645405,0.0411179
2.27562,-0.0488594,-0.132557
2.43277,0.18591,0.142092
2.36115,0.0647158,0.096232
2.41035,0.184197,-0.112605
2.35189,0.0644619,-0.123304
2.38379,0.0653363,0.43479
2.33834,0.0559233,-0.0680718
2.37803,0.17338,-0.667469
2.32527,0.0556108,-0.46519
2.27914,-0.0568944,-0.0265417
2.33251,0.0557838,-0.296983
2.34329,0.0560417,-0.0136231
2.27341,-0.0567513,-0.212284
2.42889,0.177089,0.056669
2.28713,-0.057094,0.0266348
2.39976,0.174964,-0.168253
2.34353,0.0560475,-0.191369
2.35097,0.0562254,0.0410481
2.43341,0.177418,0.142092
2.35337,0.0562829,0.0959064
2.34411,0.0560613,-0.122885
2.42332,0.176683,0.298336
2.47947,0.303123,-0.101768
2.36827,0.0566391,0.43192
2.37087,0.165372,-0.665312
2.31367,0.0480604,-0.462837
2.40615,0.167833,0
2.26695,-0.0637177,-0.026402
2.32077,0.0482079,-0.295468
2.33546,0.048513,-0.0135766
2.38835,0.166591,-0.25789
2.26127,-0.0635581,-0.211169
2.41747,0.168622,0.0563898
2.28694,-0.0642796,0.0266348
2.39631,0.167146,-0.167974
2.33971,0.0486013,-0.191044
2.34314,0.0486725,0.0409084
2.26726,-0.0637265,-0.132092
2.42997,0.169494,0.141859
2.34155,0.0486396,0.0954179
2.34428,0.0486962,-0.122885
2.42386,0.169068,0.298336
2.35663,0.0489528,0.429768
2.42146,0.1689,-0.0564829
2.36759,0.156841,-0.664234
2.3099,0.0399166,-0.462052
2.26671,-0.07163,-0.026402
2.32489,0.0401756,-0.295973
2.33961,0.04043,-0.0135999
2.26502,-0.0715764,-0.211541
2.41804,0.160183,0.0563898
2.27071,-0.0717563,0.0264485
2.33588,0.0403655,-0.190718
2.33929,0.0404245,0.0408386
2.4665,0.284948,-0.159126
2.26303,-0.0715137,-0.131859
2.41859,0.160219,0.141162
2.34171,0.0404662,0.0954179
2.32846,0.0402372,-0.122047
2.46554,0.284837,-0.101117
2.35679,0.0407269,0.429768
2.36046,0.147681,-0.662077
2.31396,0.031504,-0.462837
2.39532,0.149862,0
2.26244,-0.0797959,-0.0263554
2.31709,0.0315467,-0.294963
2.46857,0.276023,0.0144368
2.33574,0.0318007,-0.0135766
2.38154,0.149,-0.257033
2.26076,-0.0797367,-0.211169
2.41462,0.15107,0.0562968
2.27443,-0.0802189,0.0264951
2.3855,0.149248,-0.167137
2.32405,0.0316415,-0.189742
2.33943,0.0318508,0.0408386
2.26276,-0.0798071,-0.131859
2.42315,0.151603,0.141394
2.33784,0.0318293,0.095255
2.32459,0.0316489,-0.121838
2.41312,0.150976,0.296874
2.35299,0.0320355,0.42905
2.36478,0.140081,-0.663155
2.3062,0.0237502,-0.461268
2.39181,0.141682,0
2.26616,-0.0874518,-0.026402
2.30528,0.0237407,-0.293447
2.46152,0.266974,0.0143903
2.33584,0.0240554,-0.0135766
2.37805,0.140867,-0.256605
2.2565,-0.0870792,-0.210797
2.40713,0.14259,0.0561107
2.26216,-0.0872976,0.0263554
2.37801,0.140865,-0.166578
2.32414,0.023935,-0.189742
2.33552,0.0240521,0.0407688
2.25849,-0.0871558,-0.131627
2.33394,0.0240359,0.0950922
2.38922,0.141529,-0.111489
2.32868,0.0239817,-0.122047
2.40965,0.142739,0.296386
2.45555,0.266326,-0.100628
2.34915,0.0241925,0.428333
2.36528,0.131411,-0.663155
2.30235,0.0152697,-0.460483
2.38832,0.132691,0
2.25384,-0.0952521,-0.0262623
2.30138,0.0152632,-0.292942
2.45851,0.257531,0.0143671
2.32791,0.0154392,-0.0135301
2.37061,0.131707,-0.255748
2.25617,-0.0953508,-0.210797
2.40364,0.133542,0.0560176
2.26582,-0.0957588,0.026402
2.37852,0.132146,-0.166578
2.32422,0.0154147,-0.189742
2.32759,0.0154371,0.0406292
2.25018,-0.0950975,-0.131162
2.41219,0.134017,0.140696
2.33401,0.0154797,0.0950922
2.38174,0.132326,-0.111116
2.32076,0.0153918,-0.121629
2.40619,0.133684,0.295899
2.39965,0.133321,-0.0559246
2.34649,0.122153,-0.657764
2.30239,0.00723336,-0.460483
2.38477,0.124146,0
2.25349,-0.103118,-0.0262623
2.29745,0.00721784,-0.292437
2.45143,0.248143,0.0143206
2.31595,0.00727595,-0.0134604
2.36708,0.123225,-0.255319
2.24389,-0.102679,-0.209682
2.39611,0.124736,0.0558315
2.25748,-0.103301,0.0263088
2.37498,0.123636,-0.166299
2.31628,0.007277,-0.189091
2.32363,0.0073001,0.0405594
2.24185,-0.102586,-0.130697
2.32206,0.00729516,0.0946037
2.37421,0.123596,-0.110744
2.3208,0.0072912,-0.121629
2.40664,0.125285,0.295899
2.39611,0.124736,-0.0558315
2.34304,0.114184,-0.656686
2.28671,-0.000398486,-0.457346
2.37718,0.115848,0
2.24914,-0.110394,-0.0262157
2.30143,-0.000401051,-0.292942
2.45224,0.240013,0.0143206
2.31596,-0.000403583,-0.0134604
2.35953,0.114988,-0.254463
2.23956,-0.109924,-0.20931
2.39251,0.116595,0.0557385
2.25313,-0.11059,0.0262623
2.37139,0.115566,-0.16602
2.30832,-0.000402252,-0.18844
2.32365,-0.000404922,0.0405594
2.2415,-0.110019,-0.130697
2.40108,0.117013,0.139999
2.31408,-0.000403255,0.0942781
2.36662,0.115334,-0.110372
2.30484,-0.000401645,-0.120791
2.39911,0.116917,0.294924
2.3296,-0.000405959,0.424745
2.39251,0.116595,-0.0557385
2.34729,0.10577,-0.657764
2.27885,-0.00874909,-0.455777
2.37759,0.107135,0
2.24473,-0.118426,-0.0261692
2.29348,-0.00880524,-0.291932
2.44912,0.230649,0.0142973
2.31194,-0.00887614,-0.0134371
2.35994,0.10634,-0.254463
2.23516,-0.117921,-0.208938
2.38893,0.107646,0.0556454
2.25271,-0.118847,0.0262623
2.36781,0.106695,-0.165741
2.30033,-0.00883155,-0.187789
2.31563,-0.00889029,0.0404198
2.43223,0.229058,-0.156568
2.24108,-0.118233,-0.130697
2.3975,0.108032,0.139766
2.31007,-0.00886893,0.0941152
2.37102,0.106839,-0.110558
2.30083,-0.00883345,-0.120582
2.39159,0.107766,0.293949
2.32958,-0.00894384,0.424745
2.3361,0.0970951,-0.654529
2.28665,-0.0167618,-0.457346
2.37395,0.0986684,0
2.24031,-0.126036,-0.0261226
2.28153,-0.0167243,-0.290417
2.43398,0.220653,0.0142043
2.3119,-0.0169469,-0.0134371
2.3603,0.0981009,-0.254463
2.23871,-0.125947,-0.20931
2.2443,-0.126261,0.0261692
2.36019,0.0980967,-0.165183
2.2963,-0.0168325,-0.187464
2.31159,-0.0169446,0.04035
2.24065,-0.126056,-0.130697
2.32201,-0.017021,0.0946037
2.37138,0.0985616,-0.110558
2.30078,-0.0168654,-0.120582
2.39196,0.0994168,0.293949
2.3256,-0.0170473,0.424028
2.3813,0.0989739,-0.0554593
2.33641,0.0893472,-0.654529
2.2709,-0.0241781,-0.454208
2.37027,0.0906421,0
2.24387,-0.133703,-0.0261692
2.28146,-0.0242906,-0.290417
2.4347,0.21258,0.0142043
2.30383,-0.0245288,-0.0133907
2.34869,0.0898168,-0.253177
2.23431,-0.133134,-0.208938
2.24786,-0.133941,0.0262157
2.36051,0.0902688,-0.165183
2.29224,-0.0244054,-0.187138
2.43769,0.212841,0.0712136
2.30352,-0.0245255,0.0402103
2.23225,-0.133011,-0.130231
2.38222,0.0910991,0.138836
2.31395,-0.0246365,0.0942781
2.36371,0.0903912,-0.110186
2.29672,-0.0244531,-0.120373
2.38831,0.0913319,0.293461
2.32159,-0.0247179,0.423311
2.36963,0.0906175,-0.0551802
2.329,0.080924,-0.652372
2.27472,-0.0321599,-0.454992
2.36657,0.0822293,0
2.2354,-0.141031,-0.026076
2.28136,-0.0322538,-0.290417
2.42745,0.203413,0.0141578
2.29573,-0.0324569,-0.0133442
2.34899,0.0816183,-0.253177
2.22588,-0.14043,-0.208195
2.37792,0.0826237,0.0553663
2.2394,-0.141283,0.0261226
2.34884,0.0816134,-0.164346
2.28816,-0.0323499,-0.186813
2.43045,0.203664,0.0709809
2.30342,-0.0325656,0.0402103
2.41457,0.202333,-0.155289
2.22779,-0.140551,-0.129999
2.38252,0.0827836,0.138836
2.30186,-0.0325436,0.0937896
2.36002,0.0820015,-0.11
2.29662,-0.0324695,-0.120373
2.38861,0.0829951,0.293461
2.29613,-0.0324626,0.187464
2.41751,0.20258,-0.0988373
2.31756,-0.0327655,0.422593
2.36593,0.0822071,-0.0550871
2.41586,0.193952,-0.0423046
2.32542,0.072674,-0.651294
2.26283,-0.039892,-0.452639
2.35485,0.0735936,0
2.2349,-0.148833,-0.026076
2.27727,-0.0401466,-0.289912
2.42017,0.194298,0.0141113
2.2956,-0.0404699,-0.0133442
2.34528,0.0732946,-0.252749
2.22935,-0.148463,-0.208567
2.2349,-0.148833,0.026076
2.34911,0.0734144,-0.164346
2.28006,-0.0401958,-0.186162
2.42716,0.194859,0.0708645
2.30329,-0.0406054,0.0402103
2.41128,0.193584,-0.155033
2.22728,-0.148326,-0.129999
2.30173,-0.0405779,0.0937896
2.36029,0.0737635,-0.11
2.28451,-0.0402743,-0.119745
2.37301,0.0741612,0.291512
2.30956,-0.0407159,0.421158
2.35821,0.0736986,-0.054901
2.41253,0.185211,-0.0422348
2.32566,0.0645556,-0.651294
2.25483,-0.0476255,-0.45107
2.35509,0.0653726,0
2.23037,-0.156354,-0.0260295
2.26918,-0.0479286,-0.288902
2.42084,0.185848,0.0141113
2.28345,-0.04823,-0.0132744
2.34155,0.0649966,-0.252321
2.22087,-0.155688,-0.207823
2.36245,0.0655768,0.0549941
2.22639,-0.156074,0.0259829
2.34138,0.0649919,-0.163788
2.27592,-0.0480709,-0.185836
2.41985,0.185773,0.0706318
2.29114,-0.0483924,0.0400009
2.40796,0.18486,-0.154777
2.22277,-0.155821,-0.129766
2.36708,0.0657052,0.137906
2.29359,-0.048444,0.0934639
2.35254,0.0653018,-0.109627
2.28036,-0.0481647,-0.119535
2.36929,0.0657666,0.291024
2.3094,-0.0487781,0.421158
2.36245,0.0655768,-0.0549941
2.40918,0.176496,-0.042165
2.27035,-0.0558827,-0.0660937
2.31817,0.0562501,-0.649137
2.25073,-0.0553997,-0.450285
2.35131,0.0570541,0
2.22583,-0.163845,-0.0259829
2.26107,-0.0556541,-0.287892
2.4095,0.17652,0.0140416
2.28727,-0.0562991,-0.0132977
2.34176,0.0568224,-0.252321
2.22031,-0.163439,-0.207823
2.22982,-0.164139,0.0260295
2.3376,0.0567215,-0.163509
2.27175,-0.0559172,-0.185511
2.4165,0.177032,0.0705155
2.28696,-0.0562915,0.0399311
2.40063,0.17587,-0.154266
2.22221,-0.163579,-0.129766
2.2934,-0.0564501,0.0934639
2.34876,0.0569923,-0.109441
2.27619,-0.0560263,-0.119326
2.36553,0.0573993,0.290537
2.30135,-0.0566458,0.419723
2.35067,0.0570387,-0.0547149
2.40177,0.167948,-0.0420254
2.31449,0.0484817,-0.648059
2.25053,-0.0628631,-0.450285
2.34749,0.0491728,0
2.2173,-0.170612,-0.0258898
2.26484,-0.0632626,-0.288397
2.27907,-0.0636603,-0.0132512
2.33001,0.0488067,-0.251036
2.22527,-0.171225,0.0259829
2.33778,0.0489695,-0.163509
2.26757,-0.063339,-0.185186
2.41308,0.168739,0.0703991
2.28276,-0.0637633,0.0398613
2.21768,-0.170641,-0.129534
2.35549,0.0493405,0.137208
2.28921,-0.0639434,0.0933011
2.34894,0.0492032,-0.109441
2.27599,-0.0635741,-0.119326
2.36571,0.0495546,0.290537
2.29328,-0.0640573,0.418288
2.34285,0.0490758,-0.0545288
2.40234,0.159563,-0.0420254
2.3031,0.0402007,-0.644824
2.24246,-0.0704722,-0.448716
2.34364,0.0409084,0
2.22067,-0.178671,-0.0259363
2.26064,-0.0710433,-0.287892
2.39867,0.15932,0.0139718
2.27484,-0.0714897,-0.0132279
2.33016,0.0406732,-0.251036
2.1993,-0.176952,-0.205964
2.34701,0.0409672,0.0546219
2.21669,-0.17835,0.0258898
2.33394,0.0407392,-0.16323
2.26733,-0.0712539,-0.185186
2.40967,0.16005,0.0702827
2.28253,-0.0717312,0.0398613
2.3938,0.158996,-0.153754
2.21309,-0.178061,-0.129301
2.35166,0.0410483,0.136976
2.27699,-0.0715572,0.0928126
2.33711,0.0407944,-0.108883
2.26777,-0.0712674,-0.118907
2.3619,0.0412271,0.290049
2.29305,-0.0720619,0.418288
2.33901,0.0408276,-0.0544357
2.39493,0.150256,-0.0418858
2.30323,0.0317591,-0.644824
2.24219,-0.0786907,-0.448716
2.33578,0.032208,0
2.21602,-0.186474,-0.0258898
2.25639,-0.0791893,-0.287386
2.39525,0.150277,0.0139486
2.27056,-0.0796866,-0.0132047
2.32632,0.0320776,-0.250607
2.19864,-0.185011,-0.205964
2.34714,0.0323647,0.0546219
2.21203,-0.186138,0.0258432
2.3261,0.0320745,-0.162672
2.25909,-0.0792839,-0.184535
2.40226,0.150716,0.07005
2.27825,-0.0799564,0.0397915
2.39039,0.149972,-0.153498
2.20844,-0.185836,-0.129069
2.35179,0.0324288,0.136976
2.27271,-0.0797621,0.0926498
2.33724,0.0322282,-0.108883
2.2635,-0.0794386,-0.118698
2.35013,0.0324058,0.288587
2.27503,-0.0798432,0.185836
2.38932,0.149904,-0.0975347
2.28884,-0.0803278,0.417571
2.33914,0.0322544,-0.0544357
2.39541,0.142314,-0.0418858
2.238,-0.0859751,-0.447932
2.33187,0.0244202,0
2.20343,-0.192775,-0.0257501
2.25612,-0.0866714,-0.287386
2.27428,-0.0873692,-0.0132279
2.32641,0.0243631,-0.250607
2.20198,-0.192648,-0.206336
2.20343,-0.192775,0.0257501
2.31821,0.0242772,-0.162114
2.25881,-0.0867749,-0.184535
2.39476,0.142275,0.0698173
2.27398,-0.0873573,0.0397217
2.39087,0.142044,-0.153498
2.20383,-0.19281,-0.128836
2.33991,0.0245043,0.136278
2.27244,-0.0872982,0.0926498
2.25923,-0.0867909,-0.118489
2.34228,0.0245292,0.287612
2.32724,0.0243717,-0.0541566
2.38791,0.133505,-0.0417462
2.23376,-0.0936224,-0.447147
2.32794,0.0162524,0
2.20275,-0.200466,-0.0257501
2.24787,-0.0942138,-0.286376
2.26198,-0.0948049,-0.0131582
2.31455,0.0161589,-0.249322
2.19733,-0.199972,-0.205964
2.33931,0.0163317,0.0544357
2.19876,-0.200103,0.0257035
2.31429,0.0161571,-0.161835
2.25451,-0.0944922,-0.184209
2.38726,0.133469,0.0695846
2.26567,-0.0949595,0.0395821
2.38737,0.133474,-0.153242
2.26813,-0.0950626,0.0924869
2.32542,0.0162348,-0.108324
2.26291,-0.0948438,-0.118698
2.34632,0.0163807,0.288099
2.37831,0.132968,-0.0970462
2.32331,0.0162201,-0.0540635
2.38037,0.12475,-0.0416065
2.23342,-0.101419,-0.447147
2.31999,0.00809832,0
2.19805,-0.207777,-0.0257035
2.24357,-0.10188,-0.285871
2.25364,-0.102337,-0.0131117
2.31062,0.00806562,-0.248894
2.33135,0.008138,0.0542496
2.19805,-0.207777,0.0257035
2.30236,0.0080368,-0.160998
2.24621,-0.102,-0.183558
2.26532,-0.102868,0.0395821
2.37586,0.124513,-0.152475
2.19846,-0.207815,-0.128604
2.32804,0.00812643,0.13558
2.26379,-0.102798,0.0923241
2.32546,0.00811744,-0.108324
2.25458,-0.10238,-0.118279
2.33842,0.00816268,0.287124
2.37876,0.124666,-0.0970462
2.31936,0.00809612,-0.0539705
2.37282,0.115635,-0.0414669
2.23304,-0.109604,-0.447147
2.312,-0.000403517,0
2.19728,-0.215832,-0.0257035
2.23922,-0.109908,-0.285366
2.37314,0.115651,0.0138091
2.25325,-0.110596,-0.0131117
2.30666,-0.000402585,-0.248465
2.18791,-0.214912,-0.205221
2.32737,-0.0004062,0.0541566
2.19728,-0.215832,0.0257035
2.29839,-0.000401142,-0.160719
2.2498,-0.110427,-0.183884
2.38416,0.116188,0.0694682
2.26093,-0.110974,0.0395123
2.3763,0.115805,-0.152475
2.19371,-0.215481,-0.128371
2.32406,-0.000405623,0.135348
2.25541,-0.110703,0.0919985
2.31349,-0.000403778,-0.107766
2.25419,-0.110643,-0.118279
2.33844,-0.000408132,0.287124
2.2498,-0.110427,0.183884
2.37122,0.115557,-0.0967205
2.31537,-0.000404106,-0.0538774
2.37319,0.107766,-0.0414669
2.22483,-0.116598,-0.445579
2.31199,-0.00807038,0
2.23884,-0.117333,-0.285366
2.25287,-0.118068,-0.0131117
2.30664,-0.00805173,-0.248465
2.17926,-0.221361,-0.204477
2.31536,-0.00808216,0.0538774
2.18461,-0.221905,0.0255638
2.29438,-0.00800894,-0.16044
2.24146,-0.11747,-0.183233
2.25656,-0.118261,0.0394424
2.36869,0.107562,-0.151963
2.31606,-0.00808461,0.134883
2.25104,-0.117972,0.0918356
2.31348,-0.00807559,-0.107766
2.24583,-0.117699,-0.117861
2.32254,-0.00810724,0.285174
2.24544,-0.117678,0.183558
2.36759,0.107512,-0.0965577
2.30736,-0.00805424,-0.0536913
2.37355,0.0994814,-0.0414669
2.23157,-0.124764,-0.0650464
2.22049,-0.124145,-0.444794
2.30794,-0.0161127,0
2.17984,-0.229111,-0.0255173
2.23445,-0.124925,-0.284861
2.36988,0.0993274,0.0137859
2.24446,-0.125485,-0.0130652
2.29467,-0.0160201,-0.24718
2.18244,-0.229383,-0.204849
2.31532,-0.0161642,0.0538774
2.1878,-0.229947,0.0256104
2.29434,-0.0160178,-0.16044
2.23307,-0.124848,-0.182582
2.36906,0.0992928,-0.151963
2.31203,-0.0161412,0.13465
2.24662,-0.125606,0.0916728
2.30544,-0.0160953,-0.107394
2.24142,-0.125315,-0.117651
2.31853,-0.0161867,0.284687
2.35997,0.098912,-0.096232
2.30732,-0.0161084,-0.0536913
2.3619,0.090735,-0.0412575
2.22004,-0.131895,-0.444794
2.30387,-0.024127,0
2.18301,-0.237151,-0.0255638
2.27254,-0.0237988,-0.353573
2.22608,-0.132254,-0.283851
2.24001,-0.133081,-0.0130419
2.29858,-0.0240715,-0.247608
2.16975,-0.23571,-0.203733
2.30325,-0.0241205,0.0535983
2.17903,-0.236719,0.0255173
2.29028,-0.0239846,-0.160161
2.22864,-0.132406,-0.182256
2.36126,0.0907104,0.06877
2.24769,-0.133538,0.0393028
2.35343,0.0904098,-0.15094
2.31196,-0.0242116,0.13465
2.25016,-0.133684,0.0918356
2.30138,-0.0241009,-0.107208
2.24097,-0.133138,-0.117651
2.31052,-0.0241966,0.283712
2.2366,-0.132879,0.182907
2.35631,0.0905201,-0.0960692
2.29925,-0.0240786,-0.0535052
2.35421,0.0822107,-0.0411179
2.21565,-0.139397,-0.44401
2.29578,-0.0320572,0
2.17422,-0.243878,-0.0254707
2.22561,-0.140023,-0.283851
2.23953,-0.1409,-0.0130419
2.28655,-0.0319283,-0.246323
2.31115,-0.0322718,0.0537844
2.29018,-0.0319791,-0.160161
2.22419,-0.139934,-0.181931
2.24322,-0.141132,0.039233
2.34974,0.0820549,-0.150684
2.30387,-0.0321702,0.134185
2.2417,-0.141036,0.09151
2.30128,-0.032134,-0.107208
2.2365,-0.140709,-0.117442
2.31042,-0.0322617,0.283712
2.23215,-0.140435,0.182582
2.35661,0.0822946,-0.0960692
2.29116,-0.0319927,-0.0533191
2.35848,0.0741181,-0.0411877
2.29965,-0.0401405,0
2.17733,-0.251925,-0.0255173
2.27231,-0.0396634,-0.353573
2.22115,-0.147528,-0.283346
2.23105,-0.148186,-0.0129954
2.27847,-0.0397708,-0.245466
2.29503,-0.0400599,0.0534122
2.17335,-0.251465,0.0254707
2.27809,-0.0397642,-0.159324
2.22766,-0.147961,-0.182256
2.35002,0.0738523,-0.150684
2.29975,-0.0401423,0.133952
2.23721,-0.148595,0.0913472
2.28917,-0.0399576,-0.106649
2.3103,-0.0403263,0.283712
2.22766,-0.147961,0.182256
2.34889,0.0738169,-0.0957435
2.29103,-0.0399901,-0.0533191
2.34673,0.06555,-0.0409782
2.2835,-0.0478325,0
2.26426,-0.0474295,-0.352343
2.21666,-0.155004,-0.282841
2.22653,-0.155694,-0.0129722
2.28229,-0.0478072,-0.245895
2.29088,-0.047987,0.0533191
2.16452,-0.258103,0.0253776
2.26996,-0.0475488,-0.158766
2.21918,-0.15518,-0.181606
2.35009,0.0656439,0.0684209
2.34228,0.0654258,-0.150172
2.29161,-0.0480025,0.133487
2.28902,-0.047948,-0.106649
2.2275,-0.155762,-0.117023
2.29426,-0.048058,0.281762
2.22316,-0.155458,0.181931
2.34514,0.0655057,-0.0955807
2.28688,-0.0479033,-0.0532261
2.33893,0.057979,-0.0408386
2.20917,-0.161456,-0.0644646
2.28334,-0.0550061,0
2.15973,-0.264416,-0.025331
2.21616,-0.161967,-0.282841
2.33924,0.0579869,0.0135999
2.29471,-0.0552801,0.0534122
2.1637,-0.264902,0.0253776
2.27379,-0.054776,-0.159045
2.21073,-0.16157,-0.180955
2.33848,0.0579681,-0.149916
2.28746,-0.0551054,0.133255
2.23219,-0.163138,0.0911843
2.28885,-0.0551389,-0.106649
2.29013,-0.0551697,0.281274
2.28672,-0.0550875,-0.0532261
2.34711,0.0499846,-0.0409782
2.20859,-0.169166,-0.0644646
2.27114,-0.0626452,0
2.16276,-0.272453,-0.0253776
2.25599,-0.0622275,-0.351113
2.21163,-0.169399,-0.282336
2.21747,-0.169846,-0.0129257
2.27,-0.0626139,-0.24461
2.15482,-0.271453,0.0252844
2.26162,-0.0623826,-0.158208
2.21015,-0.169286,-0.180955
2.22913,-0.17074,0.0390236
2.33069,0.0496349,-0.149405
2.28326,-0.0629796,0.133022
2.23161,-0.170929,0.0911843
2.28066,-0.0629079,-0.106277
2.28596,-0.063054,0.280787
2.33353,0.0496955,-0.0950922
2.28251,-0.062959,-0.053133
2.32729,0.040623,-0.0406292
2.20394,-0.177325,-0.0643483
2.27088,-0.0713652,0
2.15376,-0.279725,-0.0252844
2.24784,-0.0706411,-0.349884
2.20305,-0.177253,-0.281326
2.2168,-0.178359,-0.0129257
2.26179,-0.0710797,-0.243753
2.28625,-0.0718484,0.0532261
2.15773,-0.28024,0.025331
2.26136,-0.0710661,-0.158208
2.20949,-0.177771,-0.180955
2.32687,0.0406157,-0.149149
2.15423,-0.279785,-0.126511
2.27502,-0.0714954,0.132557
2.22297,-0.178856,0.0908587
2.27641,-0.071539,-0.106091
2.2857,-0.0718309,0.280787
2.32572,0.0405955,-0.0947666
2.27426,-0.0714715,-0.0529469
2.32342,0.0324432,-0.0405594
2.19534,-0.184348,-0.0641155
2.27062,-0.0792917,0
2.24363,-0.0783491,-0.349269
2.21616,-0.186096,-0.0129257
2.26153,-0.0789744,-0.243753
2.26601,-0.0791306,0.0527608
2.15277,-0.287241,0.0252844
2.25711,-0.07882,-0.157929
2.32301,0.0324374,-0.148893
2.27077,-0.0792969,0.132324
2.21038,-0.185611,0.0903702
2.26017,-0.0789269,-0.105346
2.28147,-0.0796705,0.2803
2.21283,-0.185816,0.18128
2.32584,0.032477,-0.0947666
2.274,-0.0794098,-0.0529469
2.32352,0.0243327,-0.0405594
2.19867,-0.192358,-0.0642319
2.25833,-0.0867564,0
2.15176,-0.294754,-0.0252844
2.24334,-0.0861804,-0.349269
2.25329,-0.0865628,-0.242896
2.26971,-0.0871935,0.0528539
2.14383,-0.293669,0.0251913
2.20422,-0.192844,-0.180629
2.31512,0.0242448,-0.148382
2.26649,-0.0870696,0.132092
2.2137,-0.193674,0.090533
2.2519,-0.0865091,-0.104974
2.26927,-0.0871766,0.278837
2.31795,0.0242744,-0.0944409
2.26971,-0.0871935,-0.0528539
2.32758,0.0170624,-0.0406292
2.18611,-0.198182,-0.0638828
2.25405,-0.0936847,0
2.1429,-0.300402,-0.0251913
2.20691,-0.200068,-0.0128792
2.25698,-0.0938065,-0.243325
2.26543,-0.0941575,0.0527608
2.1429,-0.300402,0.0251913
2.24856,-0.0934565,-0.157371
2.19963,-0.199408,-0.180304
2.31519,0.0169715,-0.148382
2.25822,-0.0938579,0.131627
2.21308,-0.200627,0.090533
2.25161,-0.0935832,-0.104974
2.26502,-0.0941404,0.27835
2.31163,0.00887607,-0.04035
2.18938,-0.206186,-0.0639992
2.24972,-0.101372,0
2.23482,-0.100701,-0.348039
2.25267,-0.101505,-0.242896
2.26109,-0.101885,0.0526678
2.13392,-0.306742,0.0250982
2.24424,-0.101125,-0.157092
2.19098,-0.206337,-0.179653
2.30326,0.00884392,-0.147614
2.20839,-0.207976,0.0903702
2.25127,-0.101442,-0.104974
2.30607,0.00885472,-0.0939524
2.30365,0.000804128,-0.0402103
