2.79708,0.718168,-0.0336195
2.80847,0.869368,-0.017087
2.80095,0.719163,0.033666
2.81955,0.872798,0.0515195
2.79181,0.706437,-0.0335263
2.81467,0.71222,-0.271025
2.79181,0.706437,0.0335263
2.81876,0.861781,0.0514497
2.79038,0.695721,-0.0334798
2.80681,0.847428,-0.0170405
2.81327,0.701428,-0.270653
2.79038,0.695721,0.0334798
2.81409,0.849625,0.0513101
2.79747,0.697489,-0.167906
2.79279,0.685976,-0.0334798
2.80592,0.836481,-0.0170173
2.80797,0.689703,-0.26991
2.79668,0.68693,0.0335263
2.80554,0.836368,0.0511006
2.80978,0.837631,-0.153658
2.79128,0.675283,-0.0334332
2.81423,0.680834,-0.270281
2.79517,0.676223,0.0334798
2.80844,0.82657,0.0511006
2.80271,0.824883,0.119028
2.82035,0.830075,-0.154077
2.79339,0.66651,-0.0334332
2.80861,0.67014,-0.269538
2.79339,0.66651,0.0334332
2.81103,0.817743,0.0511006
2.79662,0.667281,-0.16744
2.79761,0.81384,0.118702
2.81144,0.817862,-0.153449
2.7957,0.656756,-0.0334332
2.80271,0.804724,-0.0169475
2.80317,0.658511,-0.268794
2.79181,0.655841,0.0333866
2.80618,0.805718,0.050961
2.79505,0.656602,-0.167208
2.79659,0.802967,0.11854
2.79408,0.646091,-0.0333866
2.8055,0.794935,-0.0169475
2.80933,0.649618,-0.269166
2.79018,0.64519,0.0333401
2.81282,0.797008,0.0510308
2.79343,0.645941,-0.166975
2.79938,0.7932,0.11854
2.80555,0.794948,-0.152821
2.78462,0.633673,-0.0332469
2.80441,0.784062,-0.0169243
2.8077,0.638926,-0.268794
2.79242,0.635448,0.0333401
2.80018,0.782879,0.0507516
2.79567,0.636188,-0.166975
2.79443,0.781273,0.118214
2.80213,0.772889,-0.0845953
2.79071,0.624822,-0.0332935
2.80214,0.627381,-0.268051
2.78681,0.623948,0.0332469
2.80289,0.773099,0.0507516
2.79329,0.77045,0.118051
2.78507,0.613356,-0.0332004
2.79824,0.761313,-0.0168546
2.80043,0.616738,-0.267679
2.79288,0.615076,0.0332935
2.80172,0.762259,0.0506818
2.81757,0.766574,-0.15303
2.81037,0.903394,0
2.79501,0.605324,-0.0332935
2.80474,0.752578,-0.0168778
2.80256,0.60696,-0.267679
2.78328,0.602784,0.0331538
2.81859,0.756294,-0.238235
2.80436,0.752476,0.0506818
2.79047,0.604341,-0.166278
2.80985,0.891878,0
2.80361,0.741271,-0.0168546
2.80477,0.596684,-0.267679
2.78547,0.59258,0.0331538
2.80978,0.742902,-0.237259
2.80323,0.74117,0.050612
2.78876,0.593279,-0.166045
2.78974,0.737604,0.117563
2.8129,0.892846,-0.0686728
2.80898,0.881357,0
2.77959,0.5817,-0.0330607
2.80218,0.730959,-0.0168313
2.80283,0.586564,-0.267307
2.80822,0.881119,0.0684867
2.78742,0.583339,0.0331538
2.80837,0.732573,-0.236933
2.79793,0.729851,0.0504724
2.79071,0.584027,-0.166045
2.79604,0.729357,0.117725
2.80226,0.730978,-0.151774
2.80821,0.870363,0
2.78552,0.5728,-0.0331072
2.79697,0.719182,-0.0167848
2.80096,0.575975,-0.266935
2.81509,0.872495,0.0685797
2.78161,0.571995,0.0330607
2.81091,0.722766,-0.236933
2.79272,0.718088,0.0503327
2.78696,0.716607,0.117237
2.78002,0.714824,0.23433
2.79559,0.708431,-0.0167616
2.79124,0.563828,-0.26582
2.78751,0.563073,0.0331072
2.80955,0.71197,-0.236608
2.79521,0.708335,0.0503327
2.78689,0.562949,-0.16558
2.78557,0.705892,0.117074
2.81583,0.861961,-0.137174
2.77864,0.704135,0.234004
2.78553,0.552561,-0.0330607
2.8058,0.700607,-0.0168081
2.7971,0.554856,-0.266192
2.80963,0.849349,0.0683006
2.78161,0.551783,0.0330141
2.80815,0.701193,-0.236282
2.80154,0.699543,0.0504026
2.78492,0.552441,-0.165347
2.78801,0.696165,0.117074
2.81882,0.852128,-0.137174
2.80568,0.837475,0
2.80046,0.688897,-0.0167616
2.79511,0.544327,-0.26582
2.80492,0.837249,0.0681145
2.77959,0.541305,0.0329675
2.7962,0.687848,0.0502629
2.78292,0.541952,-0.165115
2.79431,0.687383,0.117237
2.82178,0.842282,-0.137174
2.79667,0.687964,-0.150937
2.80875,0.838392,-0.0682075
2.80858,0.827677,0
2.77753,0.530849,-0.032921
2.80285,0.679118,-0.0167616
2.79308,0.53382,-0.265448
2.80399,0.826322,0.0680214
2.78539,0.53235,0.0330141
2.79081,0.6762,0.0501233
2.78871,0.532985,-0.165347
2.78504,0.674801,0.116748
2.81321,0.829039,-0.136615
2.79518,0.677258,-0.150728
2.80782,0.827453,-0.0681145
2.81131,0.818359,0
2.77928,0.521636,-0.032921
2.79342,0.667033,-0.0166918
2.79092,0.523821,-0.265077
2.80671,0.81702,0.0680214
2.78321,0.522373,0.0329675
2.80359,0.669462,-0.235306
2.79693,0.667871,0.0501931
2.78262,0.522262,-0.164882
2.79889,0.814743,0.169766
2.78726,0.665563,0.116748
2.81594,0.819706,-0.136615
2.79352,0.667058,-0.150518
2.80262,0.805227,0
2.78108,0.51193,-0.032921
2.79573,0.657277,-0.0166918
2.78882,0.513354,-0.264705
2.79802,0.803904,0.0677423
2.78108,0.51193,0.032921
2.80591,0.659671,-0.235306
2.79535,0.657188,0.0501233
2.78442,0.512545,-0.164882
2.78568,0.654914,0.116586
2.8111,0.807665,-0.136243
2.79583,0.657302,-0.150518
2.77486,0.652372,0.232702
2.77892,0.501508,-0.0328744
2.79801,0.647513,-0.0166918
2.79696,0.793041,0.0676492
2.77892,0.501508,0.0328744
2.80043,0.648074,-0.234655
2.79373,0.646524,0.0500535
2.79012,0.503531,-0.165115
2.78795,0.645185,0.116586
2.81006,0.796756,-0.136057
2.77324,0.641782,0.232377
2.77277,0.490412,-0.0327813
2.79635,0.636855,-0.0166686
2.79233,0.493872,-0.264705
2.80356,0.784351,0.0677423
2.78065,0.491806,0.0328744
2.79879,0.63741,-0.23433
2.79597,0.636769,0.0500535
2.784,0.492398,-0.16465
2.80342,0.784312,0.169533
2.78628,0.634563,0.116423
2.81282,0.786943,-0.136057
2.80356,0.784351,-0.0677423
2.77447,0.48073,-0.0327813
2.79465,0.626215,-0.0166453
2.79012,0.483441,-0.264333
2.79857,0.772431,0.0675562
2.77841,0.481413,0.0328279
2.8079,0.775005,-0.203689
2.79037,0.625255,0.0499139
2.78964,0.483358,-0.164882
2.79459,0.771333,0.168836
2.78848,0.624832,0.116423
2.81941,0.778182,-0.136243
2.80243,0.773495,-0.0676492
2.77613,0.471044,-0.0327813
2.79291,0.615597,-0.0166221
2.78786,0.473034,-0.263961
2.79353,0.760559,0.0673701
2.77613,0.471044,0.0327813
2.79538,0.61614,-0.233679
2.78472,0.613792,0.0497743
2.7795,0.471615,-0.164185
2.78674,0.614236,0.11626
2.81054,0.765189,-0.135685
2.79693,0.751005,0
2.77381,0.460695,-0.0327347
2.78723,0.604148,-0.0165756
2.78164,0.461994,-0.263218
2.77776,0.46135,0.0327813
2.79751,0.606378,-0.233679
2.80902,0.903502,0.0858753
2.78685,0.604067,0.0497743
2.77719,0.461255,-0.163952
2.7922,0.749735,0.168371
2.78887,0.604504,0.11626
2.80933,0.754337,-0.135499
2.77146,0.450367,-0.0326882
2.79809,0.596283,-0.364158
2.79323,0.595248,-0.0165988
2.7793,0.451642,-0.262846
2.77146,0.450367,0.0326882
2.79571,0.595778,-0.233353
2.78894,0.594334,0.0497743
2.78666,0.452838,-0.164417
2.7948,0.739983,0.168371
2.78315,0.593099,0.115934
2.80809,0.743502,-0.135313
2.77232,0.590792,0.231401
2.79878,0.741036,-0.0673701
2.81221,0.882911,-0.0514497
2.79436,0.72944,0
2.77696,0.441319,-0.0327347
2.79627,0.5857,-0.363652
2.79266,0.443814,-0.263961
2.78974,0.728233,0.0670909
2.76906,0.440063,0.0326416
2.78997,0.584381,-0.232702
2.78708,0.583776,0.0497045
2.78823,0.443109,-0.164417
2.7935,0.729215,0.168138
2.78911,0.5842,0.116097
2.81453,0.734705,-0.135499
2.79748,0.730253,-0.067277
2.80764,0.870719,-0.0513101
2.77058,0.430394,-0.0326416
2.7934,0.574927,-0.0165756
2.78632,0.432839,-0.263218
2.79226,0.71849,0.0670909
2.77453,0.431008,0.0326882
2.80167,0.720911,-0.202294
2.792,0.574638,-0.232702
2.80687,0.870483,0.0855262
2.78519,0.573237,0.0496346
2.78581,0.43276,-0.164185
2.79603,0.719459,0.168138
2.7833,0.572849,0.115772
2.81321,0.72388,-0.135313
2.79614,0.719486,-0.067184
2.77602,0.421321,-0.0326882
2.78755,0.563588,-0.0165291
2.78782,0.423111,-0.263218
2.76811,0.420121,0.032595
2.78325,0.562719,0.0495648
2.77941,0.421835,-0.16372
2.78304,0.705768,0.167208
2.78529,0.56313,0.115772
2.81185,0.713074,-0.135126
2.77054,0.560149,0.23075
2.79475,0.708739,-0.0670909
2.79021,0.697228,0
2.76956,0.410455,-0.032595
2.77773,0.551517,-0.0164593
2.7814,0.412209,-0.262474
2.76956,0.410455,0.032595
2.78812,0.553579,-0.232052
2.7852,0.553,0.0495648
2.77691,0.411544,-0.163487
2.78161,0.695081,0.166975
2.78331,0.552625,0.115609
2.80269,0.700348,-0.134568
2.76466,0.548921,0.230099
2.79333,0.698009,-0.0669978
2.81262,0.840617,-0.0512403
2.77486,0.401842,-0.0326416
2.77954,0.542303,-0.0164593
2.77881,0.402413,-0.262102
2.76299,0.400122,0.0325019
2.79385,0.545095,-0.232377
2.78702,0.543761,0.0495648
2.77826,0.402334,-0.163487
2.7839,0.685853,0.166975
2.77729,0.541862,0.115283
2.79724,0.689139,-0.134196
2.76646,0.53975,0.230099
2.79951,0.689699,-0.0670909
2.80403,0.827399,-0.0510308
2.76833,0.391035,-0.0325485
2.78535,0.53335,-0.0164826
2.8136,0.682761,-0.311867
2.78019,0.392711,-0.262102
2.76833,0.391035,0.0325485
2.78791,0.53384,-0.231726
2.78497,0.533278,0.049495
2.7757,0.392076,-0.163254
2.79016,0.677074,0.167208
2.78309,0.532917,0.115446
2.80351,0.680313,-0.134382
2.78158,0.532628,-0.148425
2.8019,0.679923,-0.0670909
2.80306,0.816487,-0.050961
2.7782,0.521934,-0.082268
2.76968,0.381369,-0.0325485
2.78326,0.522885,-0.0164593
2.80436,0.670162,-0.310581
2.78155,0.383003,-0.262102
2.78481,0.665491,0.0666256
2.76968,0.381369,0.0325485
2.78975,0.524104,-0.231726
2.78288,0.522814,0.0494252
2.77705,0.382384,-0.163254
2.78085,0.664545,0.16651
2.781,0.52246,0.115283
2.80587,0.670522,-0.134382
2.79648,0.668279,-0.0669048
2.77106,0.371215,-0.0325485
2.77729,0.511232,-0.0164128
2.80292,0.658969,-0.310153
2.78688,0.373335,-0.262474
2.78723,0.65528,0.0666256
2.76313,0.370153,0.0324553
2.79166,0.513876,-0.231726
2.78085,0.511887,0.0493554
2.77051,0.371143,-0.162789
2.77938,0.653435,0.166278
2.77897,0.511541,0.11512
2.80053,0.658405,-0.13401
2.8028,0.658941,-0.0669978
2.77227,0.362025,-0.0325485
2.77897,0.50202,-0.0164128
2.77231,0.362029,-0.260987
2.7816,0.64423,0.0664395
2.76434,0.360989,0.0324553
2.7989,0.648236,-0.200899
2.79334,0.504617,-0.231726
2.78647,0.503374,0.0494252
2.77173,0.361954,-0.162789
2.77765,0.643314,0.166045
2.77278,0.500902,0.114795
2.79491,0.647312,-0.133637
2.787,0.503471,-0.148425
2.76196,0.498947,0.229122
2.79718,0.647839,-0.0668117
2.76558,0.351337,-0.0324553
2.77677,0.491619,-0.0163896
2.7775,0.352851,-0.261359
2.78383,0.634515,0.0664395
2.76558,0.351337,0.0324553
2.79116,0.494167,-0.231401
2.77694,0.352779,-0.163022
2.77987,0.633614,0.166045
2.76664,0.489826,0.114469
2.77694,0.49165,-0.147797
2.76368,0.489302,0.229122
2.80333,0.638959,-0.0669048
2.76282,0.341191,-0.0324088
2.77847,0.481924,-0.0163896
2.79792,0.627461,-0.308868
2.77477,0.342666,-0.260987
2.78213,0.62392,0.0663465
2.75885,0.340701,0.0323622
2.78501,0.483059,-0.23075
2.78597,0.483225,0.0493554
2.77419,0.342595,-0.162789
2.77817,0.623033,0.165813
2.77227,0.480849,0.114632
2.79546,0.62691,-0.133451
2.80164,0.628295,-0.0668117
2.80145,0.763238,-0.0506818
2.76003,0.331068,-0.0323622
2.78408,0.472891,-0.0164128
2.80009,0.61769,-0.308868
2.77595,0.332978,-0.260987
2.78429,0.614204,0.0663465
2.75606,0.330592,0.0323156
2.78668,0.473334,-0.23075
2.7837,0.472827,0.0492856
2.77537,0.332908,-0.162789
2.78423,0.614191,0.166045
2.77394,0.471169,0.114632
2.79373,0.616287,-0.133265
2.78031,0.472251,-0.147797
2.7631,0.469328,0.228797
2.80381,0.618511,-0.0668117
2.77275,0.461014,-0.0818026
2.76514,0.321894,-0.0324088
2.76993,0.460545,-0.0163199
2.77709,0.323285,-0.260987
2.78641,0.60448,0.0663465
2.76514,0.321894,0.0324088
2.79208,0.605709,-0.199783
2.78832,0.463603,-0.23075
2.78139,0.462451,0.0492158
2.76858,0.322294,-0.162324
2.77465,0.601928,0.165347
2.77162,0.460827,0.114469
2.79586,0.60653,-0.133265
2.778,0.461887,-0.147587
2.77415,0.60182,0.348546
2.75999,0.458892,0.510125
2.80205,0.607872,-0.0667187
2.76227,0.311791,-0.0323622
2.77152,0.450874,-0.0163199
2.77029,0.312696,-0.260243
2.77677,0.592248,0.0660673
2.75432,0.310894,0.0322691
2.78992,0.453868,-0.23075
2.78299,0.45274,0.0492158
2.76572,0.312181,-0.162092
2.77673,0.59224,0.165347
2.76532,0.449866,0.114143
2.78624,0.594267,-0.132707
2.77959,0.452188,-0.147587
2.75769,0.448624,0.509408
2.80024,0.597253,-0.0666256
2.75539,0.301278,-0.0322691
2.77307,0.441197,-0.0163199
2.77136,0.303025,-0.260243
2.77883,0.582553,0.0660673
2.79149,0.444127,-0.23075
2.77076,0.302959,-0.162324
2.77878,0.582544,0.165347
2.76688,0.440211,0.114143
2.7883,0.584539,-0.132707
2.77721,0.441855,-0.147378
2.77052,0.580811,0.347571
2.75146,0.437759,0.507973
2.79839,0.586655,-0.0665326
2.7746,0.431516,-0.0163199
2.76844,0.292931,-0.259872
2.78084,0.57285,0.0660673
2.75245,0.291238,0.0322225
2.78514,0.433155,-0.230099
2.7718,0.293286,-0.162324
2.7808,0.572841,0.165347
2.76445,0.429937,0.11398
2.79032,0.574803,-0.132707
2.77874,0.432159,-0.147378
2.77253,0.571137,0.347571
2.75686,0.428758,0.50869
2.7614,0.282442,-0.0323156
2.77609,0.421827,-0.0163199
2.77737,0.284075,-0.260615
2.7789,0.562345,0.0659743
2.75345,0.281628,0.0322225
2.7827,0.422831,-0.229773
2.77571,0.42177,0.0490064
2.77281,0.283608,-0.162324
2.77887,0.562338,0.165115
2.76198,0.419683,0.113818
2.78448,0.563473,-0.132335
2.78023,0.422456,-0.147378
2.77061,0.560667,0.347084
2.75445,0.41854,0.507973
2.7985,0.566311,-0.0664395
2.7685,0.410792,-0.0814535
2.76237,0.2728,-0.0323156
2.76567,0.410372,-0.0162501
2.77438,0.273986,-0.260243
2.78085,0.552641,0.0659743
2.75441,0.272014,0.0322225
2.79204,0.414285,-0.230424
2.77717,0.412078,0.0490064
2.76186,0.27275,-0.161626
2.7769,0.551856,0.164882
2.76343,0.410039,0.113818
2.79035,0.554528,-0.132521
2.78169,0.412748,-0.147378
2.75261,0.408433,0.22717
2.74811,0.407766,0.506538
2.7887,0.5542,-0.0661604
2.76326,0.263638,-0.0323156
2.77098,0.401772,-0.0162734
2.76735,0.264027,-0.2595
2.77482,0.541883,0.0657882
2.7553,0.262878,0.0322225
2.78447,0.543768,-0.198387
2.78551,0.403879,-0.229773
2.77852,0.402865,0.0490064
2.76275,0.263589,-0.161626
2.77479,0.541878,0.16465
2.77909,0.402947,-0.147169
2.74556,0.398086,0.50582
2.79052,0.544948,-0.0661604
2.7562,0.25326,-0.0322225
2.78695,0.67681,0.0166686
2.7684,0.391539,-0.0162501
2.76825,0.254368,-0.2595
2.77669,0.532195,0.0657882
2.7869,0.394155,-0.229773
2.76366,0.253945,-0.161626
2.78059,0.532942,0.164882
2.76615,0.391221,0.113818
2.78621,0.534019,-0.132148
2.77257,0.392127,-0.14675
2.76454,0.529866,0.345621
2.74693,0.388501,0.50582
2.7491,0.242933,-0.0321294
2.77371,0.382418,-0.0162734
2.79066,0.524779,-0.305869
2.76912,0.244702,-0.2595
2.78246,0.523238,0.0658812
2.7491,0.242933,0.0321294
2.77641,0.38279,-0.228797
2.77334,0.382366,0.0488667
2.76452,0.244296,-0.161626
2.77459,0.521756,0.164417
2.76354,0.381016,0.113655
2.79198,0.525028,-0.132335
2.77787,0.382992,-0.146959
2.77028,0.520946,0.346109
2.74827,0.37891,0.50582
2.7671,0.371669,-0.0162269
2.76996,0.235035,-0.2595
2.78034,0.512797,0.0657882
2.75392,0.233674,0.032176
2.78217,0.513134,-0.197829
2.78168,0.373628,-0.229122
2.78658,0.656153,0.0833153
2.77069,0.372151,0.0487969
2.76138,0.234307,-0.161394
2.77639,0.512069,0.164417
2.75693,0.370304,0.113329
2.78201,0.513105,-0.131776
2.77919,0.373293,-0.146959
2.77208,0.511273,0.346109
2.76329,0.361342,-0.0811044
2.75073,0.223735,-0.0321294
2.76838,0.362007,-0.0162269
2.78643,0.503869,-0.305012
2.77076,0.225364,-0.2595
2.78211,0.503088,0.0657882
2.74674,0.22341,0.0320828
2.77902,0.363398,-0.228797
2.78106,0.644616,0.0830826
2.76801,0.361958,0.0487271
2.76616,0.22499,-0.161626
2.77816,0.502373,0.164417
2.75821,0.360677,0.113329
2.78048,0.363589,-0.146959
2.76994,0.500886,0.345621
2.74739,0.359262,0.226193
2.75548,0.214441,-0.032176
2.76566,0.351836,-0.0162036
2.76756,0.215381,-0.259128
2.77598,0.491977,0.0656021
2.74352,0.21351,0.0320363
2.78422,0.354197,-0.229122
2.7794,0.634014,0.0829662
2.77322,0.352798,0.0487969
2.76295,0.215022,-0.161394
2.77596,0.491975,0.164185
2.75152,0.350037,0.113003
2.78173,0.35388,-0.146959
2.77167,0.491214,0.345621
2.74037,0.348619,0.503668
2.79173,0.494769,-0.0659743
2.75222,0.204526,-0.0321294
2.76687,0.342181,-0.0162036
2.78596,0.483723,-0.304584
2.7683,0.20572,-0.259128
2.77768,0.482285,0.0656021
2.74425,0.203933,0.0320363
2.78544,0.344477,-0.229122
2.78549,0.625185,0.0830826
2.75572,0.204785,-0.160929
2.77373,0.4816,0.163952
2.77106,0.342698,-0.146331
2.75772,0.47882,0.343672
2.74548,0.339535,0.504385
2.76408,0.332044,-0.0161804
2.769,0.196056,-0.259128
2.77935,0.472587,0.0656021
2.74095,0.19407,0.0319897
2.77871,0.333802,-0.228471
2.77165,0.332953,0.0487271
2.75642,0.195165,-0.160929
2.7754,0.471915,0.163952
2.7539,0.330821,0.113003
2.77224,0.333024,-0.146331
2.75546,0.468526,0.343184
2.74665,0.32995,0.504385
2.79117,0.474598,-0.0658812
2.7792,0.603424,0.0165291
2.7692,0.322857,-0.0162036
2.76967,0.18639,-0.259128
2.78098,0.462883,0.0656021
2.74161,0.184502,0.0319897
2.7759,0.323639,-0.228146
2.77807,0.603179,0.0827335
2.76485,0.32235,0.0485875
2.76107,0.185811,-0.161161
2.77702,0.462225,0.163952
2.75901,0.321669,0.113166
2.77872,0.462507,-0.131218
2.76545,0.32242,-0.145913
2.75708,0.458905,0.343184
2.74778,0.320361,0.504385
2.75726,0.311714,-0.0807553
2.74224,0.17493,-0.0319897
2.76236,0.31229,-0.0161571
2.76235,0.176213,-0.258385
2.77863,0.452529,0.065509
2.74224,0.17493,0.0319897
2.77701,0.313947,-0.228146
2.77625,0.592643,0.0826171
2.75801,0.311798,0.0484479
2.74974,0.175409,-0.160464
2.7668,0.450602,0.163254
2.75614,0.311587,0.113003
2.77243,0.451519,-0.130846
2.77053,0.313213,-0.146122
2.76258,0.449916,0.343672
2.74136,0.309916,0.225217
2.73715,0.30944,0.502233
2.78652,0.453815,-0.0656951
2.77943,0.583184,0.0165058
2.75548,0.301774,-0.0161106
2.76295,0.166569,-0.258385
2.77229,0.441568,0.0653229
2.74683,0.165597,0.0320363
2.77809,0.30425,-0.228146
2.7783,0.582947,0.0826171
2.76306,0.302603,0.0485177
2.75831,0.166289,-0.160929
2.77624,0.442197,0.16372
2.75324,0.301529,0.112841
2.7716,0.303539,-0.146122
2.76022,0.439644,0.343184
2.74604,0.30074,0.503668
2.78809,0.444084,-0.0656951
2.74339,0.155781,-0.0319897
2.77396,0.294003,-0.355066
2.78536,0.574287,0.0165291
2.75254,0.291732,-0.0160874
2.75954,0.156698,-0.258013
2.77382,0.431889,0.0653229
2.7394,0.155555,0.0319431
2.77914,0.294552,-0.228146
2.78032,0.573246,0.0826171
2.76807,0.293379,0.0485875
2.7509,0.156208,-0.160464
2.77382,0.43189,0.163487
2.74633,0.291074,0.112515
2.7647,0.293021,-0.145703
2.75781,0.429397,0.342697
2.78172,0.43312,-0.065509
2.77102,0.283913,-0.354561
2.78343,0.563766,0.0165058
2.7615,0.282937,-0.0161339
2.76405,0.147276,-0.258385
2.77531,0.422203,0.0653229
2.74392,0.146204,0.0319897
2.77324,0.421889,-0.196155
2.76825,0.283629,-0.22717
2.77446,0.56195,0.0823844
2.76112,0.282899,0.0484479
2.7594,0.147029,-0.160929
2.75528,0.2823,0.112841
2.77305,0.42186,-0.130659
2.76968,0.283775,-0.145913
2.75144,0.418573,0.341722
2.74024,0.28076,0.502233
2.75737,0.272793,-0.080639
2.76565,0.410863,0
2.75451,0.27251,-0.0160874
2.76454,0.137629,-0.258385
2.73643,0.136229,0.0318966
2.77319,0.274359,-0.227495
2.77249,0.551483,0.082268
2.75413,0.272473,0.0483083
2.75192,0.137,-0.160464
2.76887,0.411342,0.163022
2.75227,0.272289,0.112678
2.77056,0.411593,-0.130473
2.76668,0.273714,-0.145703
2.75289,0.408968,0.341722
2.74121,0.271194,0.502233
2.75432,0.262786,-0.0805226
2.73688,0.126675,-0.0318966
2.75942,0.263273,-0.0161106
2.76103,0.127793,-0.258013
2.73688,0.126675,0.0318966
2.77047,0.541035,0.0821517
2.75905,0.263237,0.0483781
2.75238,0.127393,-0.160464
2.76634,0.4011,0.162789
2.75718,0.263059,0.112841
2.77593,0.402492,-0.130659
2.76364,0.263675,-0.145494
2.7543,0.399355,0.341722
2.73822,0.26125,0.501515
2.76053,0.390424,0
2.73731,0.11712,-0.0318966
2.76594,0.254154,-0.353551
2.78133,0.533082,0.0164593
2.75236,0.252906,-0.0160641
2.7535,0.117813,-0.257269
2.77166,0.391998,0.0651368
2.7453,0.117462,0.0319897
2.77234,0.53136,0.0821517
2.75995,0.253604,0.0483781
2.74882,0.117613,-0.160231
2.76772,0.391441,0.162789
2.74614,0.252335,0.112352
2.76941,0.391679,-0.130287
2.76852,0.254391,-0.145703
2.75568,0.389737,0.341722
2.73931,0.251707,0.224566
2.73912,0.251689,0.501515
2.78354,0.393678,-0.0654159
2.76187,0.380786,0
2.7417,0.107722,-0.0319431
2.77531,0.521892,0.0164128
2.76119,0.244002,-0.0161106
2.75389,0.108201,-0.257269
2.76905,0.381775,0.0650437
2.73371,0.107408,0.03185
2.77194,0.244952,-0.22717
2.77025,0.520941,0.0820353
2.76082,0.243969,0.0483781
2.7572,0.108331,-0.160696
2.74701,0.242748,0.112352
2.7668,0.381465,-0.130101
2.76143,0.244023,-0.145285
2.74915,0.379032,0.340747
2.76319,0.371142,0
2.76369,0.234502,-0.353046
2.77318,0.511475,0.0163896
2.75406,0.233685,-0.0160641
2.76221,0.0988719,-0.258013
2.77433,0.372639,0.0651368
2.73806,0.0980074,0.0318966
2.76881,0.234936,-0.226844
2.76812,0.510542,0.0819189
2.75368,0.233653,0.0482385
2.75357,0.0985624,-0.160464
2.74386,0.232819,0.112189
2.76811,0.371804,-0.130101
2.76625,0.234719,-0.145494
2.75046,0.369433,0.340747
2.73296,0.231895,0.50008
2.7605,0.360976,0
2.73839,0.0884497,-0.0318966
2.77101,0.501081,0.0163664
2.74688,0.223422,-0.0160176
2.76254,0.08923,-0.258013
2.73439,0.0883206,0.03185
2.7696,0.362167,-0.195318
2.75769,0.224301,-0.225868
2.7505,0.223716,0.0481686
2.7539,0.0889507,-0.160464
2.76771,0.361919,0.162557
2.74864,0.223565,0.112352
2.76939,0.36214,-0.130101
2.75961,0.36086,0.341722
2.75044,0.215015,-0.0802899
2.76559,0.352808,0
2.73465,0.0797291,-0.03185
2.74757,0.214791,-0.0160176
2.75883,0.0804339,-0.257641
2.77277,0.353724,0.0650437
2.73065,0.0796125,0.0318034
2.77072,0.353463,-0.195318
2.7703,0.216568,-0.226844
2.76751,0.491473,0.0818026
2.75119,0.215073,0.0481686
2.74219,0.0799487,-0.159766
2.74136,0.214305,0.112026
2.77052,0.353437,-0.130101
2.75285,0.351183,0.340747
2.73444,0.213764,0.50008
2.77674,0.35423,-0.0651368
2.74719,0.205116,-0.0801735
2.7668,0.343152,0
2.73891,0.070286,-0.0318966
2.76197,0.206219,-0.352541
2.7483,0.205199,-0.0160176
2.75113,0.0705996,-0.256897
2.76605,0.34306,0.0648576
2.73491,0.0701834,0.03185
2.77194,0.34379,-0.195318
2.76309,0.206303,-0.226193
2.76921,0.48181,0.0818026
2.74793,0.205171,0.0480988
2.74644,0.0704792,-0.159999
2.7381,0.204437,0.111864
2.7638,0.342781,-0.129729
2.76848,0.206706,-0.145494
2.75406,0.341572,0.340747
2.73125,0.203926,0.499363
2.77796,0.344536,-0.0651368
2.73115,0.0600717,-0.0318034
2.7627,0.196095,-0.352541
2.77208,0.47185,0.0163431
2.75303,0.195408,-0.0160409
2.75535,0.0606039,-0.257269
2.76729,0.33292,0.0648576
2.73115,0.0600717,0.0318034
2.76781,0.196457,-0.226519
2.77096,0.471658,0.0818026
2.75265,0.195382,0.0481686
2.74668,0.0604132,-0.159999
2.74282,0.194684,0.112026
2.76504,0.332649,-0.129729
2.74741,0.330528,0.339772
2.73202,0.193917,0.22359
2.76939,0.46145,-0.0490064
2.76124,0.322417,0
2.75941,0.186183,-0.352036
2.77371,0.46217,0.0163431
2.75768,0.186066,-0.0160641
2.75555,0.0509848,-0.257269
2.76844,0.323257,0.0648576
2.72735,0.0504631,0.0317569
2.77037,0.323483,-0.195039
2.7645,0.186526,-0.226193
2.7647,0.460668,0.0815699
2.74135,0.184964,0.0479592
2.74687,0.0508244,-0.159999
2.74348,0.185108,0.112026
2.76222,0.322531,-0.129543
2.75249,0.321395,0.340259
2.73264,0.184376,0.499363
2.75832,0.312808,0
2.7315,0.0414799,-0.0318034
2.7503,0.176409,-0.0160176
2.75968,0.0419078,-0.257641
2.76552,0.313625,0.0647646
2.7355,0.0415406,0.03185
2.7635,0.313395,-0.194481
2.76112,0.177103,-0.225868
2.76226,0.450854,0.0814535
2.74195,0.175873,0.0479592
2.74304,0.041655,-0.159766
2.74408,0.17601,0.112026
2.76724,0.31382,-0.129729
2.76651,0.177448,-0.145285
2.74565,0.311372,0.339284
2.77347,0.314526,-0.0649507
2.75547,0.302261,0
2.73163,0.0314687,-0.0318034
2.76897,0.441536,0.0162966
2.74294,0.165845,-0.0159711
2.73563,0.0315148,0.03185
2.76463,0.303265,-0.194481
2.76573,0.167223,-0.226193
2.7639,0.440727,0.0814535
2.74257,0.165822,0.0479592
2.73918,0.0315556,-0.159533
2.76272,0.303056,0.161859
2.74471,0.165951,0.112026
2.76837,0.303676,-0.129729
2.74283,0.300874,0.338797
2.72207,0.164583,0.49721
2.7746,0.30436,-0.0649507
2.77012,0.431809,-0.0489365
2.76859,0.157697,-0.55462
2.76447,0.293485,0
2.72773,0.0219005,-0.0317569
2.75725,0.157051,-0.351531
2.7475,0.156496,-0.0159944
2.74796,0.022063,-0.256526
2.76769,0.293827,0.0647646
2.72773,0.0219005,0.0317569
2.76567,0.293612,-0.194481
2.76542,0.431076,0.0814535
2.73914,0.15602,0.0478894
2.77276,0.43222,-0.179849
2.73927,0.0219932,-0.159533
2.75979,0.292988,0.161626
2.7575,0.292745,-0.12917
2.76372,0.15742,-0.145075
2.74781,0.291716,0.339284
2.73048,0.155526,0.223264
2.72263,0.155079,0.49721
2.75349,0.283088,0
2.748,0.147383,-0.0159944
2.74802,0.0129495,-0.256526
2.7607,0.283829,0.0645785
2.72779,0.0128542,0.0317569
2.76266,0.284031,-0.194202
2.76681,0.148392,-0.226193
2.77079,0.422505,0.0815699
2.74763,0.147363,0.048029
2.77418,0.423022,-0.179849
2.74332,0.0129274,-0.159766
2.73779,0.146836,0.111701
2.76243,0.284007,-0.129357
2.76024,0.148039,-0.144866
2.74876,0.282602,0.339284
2.727,0.146257,0.222939
2.72706,0.14626,0.497928
2.76508,0.411766,-0.0487969
2.76569,0.138653,-0.553835
2.75446,0.273476,0
2.75429,0.138082,-0.351026
2.7615,0.411233,0.0162269
2.74451,0.137592,-0.0159711
2.75966,0.273993,-0.193923
2.75934,0.138335,-0.225542
2.76038,0.411066,0.0812208
2.74414,0.137573,0.0479592
2.77169,0.412749,-0.179593
2.74335,0.00335323,-0.159766
2.7343,0.13708,0.111538
2.7634,0.274365,-0.129357
2.74578,0.272615,0.338797
2.72362,0.136545,0.49721
2.76963,0.274983,-0.0647646
2.74383,0.128437,-0.0799408
2.74495,0.128489,-0.0159711
2.75203,-0.00576303,-0.256897
2.73181,-0.00572069,0.0318034
2.76453,0.26522,-0.194202
2.75581,0.128997,-0.225217
2.76173,0.401909,0.0812208
2.73659,0.128098,0.0478196
2.73935,-0.00573648,-0.159533
2.73473,0.128011,0.111538
2.76827,0.26558,-0.129543
2.74667,0.263507,0.338797
2.72013,0.127327,0.496493
2.77053,0.265796,-0.0647646
2.74027,0.118685,-0.0798244
2.76657,0.119823,-0.553835
2.75626,0.25472,0
2.72377,-0.0152125,-0.0317103
2.73739,0.11856,-0.0159246
2.75199,-0.0153701,-0.256897
2.76347,0.255387,0.0645785
2.72777,-0.0152348,0.0317569
2.76543,0.255568,-0.194202
2.76022,0.119549,-0.225542
2.76311,0.392265,0.0812208
2.73702,0.118544,0.0478196
2.77048,0.393311,-0.179337
2.73932,-0.0152993,-0.159533
2.75557,0.254656,0.161161
2.73916,0.118636,0.111701
2.76521,0.255547,-0.129357
2.76162,0.119609,-0.144866
2.74362,0.253552,0.338309
2.72437,0.117996,0.222613
2.76595,0.392668,-0.113818
2.71663,0.11766,0.495776
2.76347,0.255387,-0.0645785
2.76307,0.109528,-0.553051
2.75319,0.244263,0
2.7237,-0.0251949,-0.0317103
2.7418,0.108685,-0.0159479
2.74794,-0.0254191,-0.256526
2.75642,0.24455,0.0643924
2.7237,-0.0251949,0.0317103
2.7584,0.244726,-0.193644
2.76064,0.109432,-0.225542
2.75661,0.381041,0.080988
2.73743,0.108512,0.0478196
2.7719,0.383155,-0.179337
2.73924,-0.0253387,-0.159533
2.75648,0.244556,0.161161
2.75816,0.244705,-0.128984
2.72479,0.108011,0.222613
2.76737,0.382528,-0.113818
2.72097,0.107859,0.496493
2.76439,0.245257,-0.0645785
2.75008,0.233832,0
2.72359,-0.035177,-0.0317103
2.75597,0.0991315,-0.351026
2.76307,0.37162,0.0162036
2.74218,0.0986356,-0.0159479
2.74782,-0.03549,-0.256526
2.7573,0.234446,0.0643924
2.75928,0.234615,-0.193644
2.75306,0.0990267,-0.224891
2.73781,0.0984785,0.0478196
2.73514,-0.0353262,-0.159301
2.73596,0.0984118,0.111538
2.75904,0.234594,-0.128984
2.74145,0.233098,0.337822
2.72517,0.0980236,0.222613
2.76875,0.372383,-0.113818
2.71742,0.0977448,0.495776
2.76527,0.235124,-0.0645785
2.76398,0.361923,-0.0486573
2.75986,0.0896257,-0.552266
2.75088,0.22423,0
2.72345,-0.0446846,-0.0317103
2.7563,0.08951,-0.351026
2.76039,0.361452,0.0161804
2.74651,0.0891921,-0.0159711
2.74768,-0.0450822,-0.256526
2.7581,0.22482,0.0643924
2.71945,-0.044619,0.0316637
2.75611,0.224657,-0.193365
2.75338,0.0894154,-0.224891
2.74214,0.0890502,0.0478894
2.77062,0.362792,-0.179081
2.73899,-0.0449396,-0.159533
2.73229,0.0887305,0.111375
2.76383,0.225286,-0.12917
2.7462,0.223849,0.338309
2.72167,0.0883856,0.496493
2.76114,0.352731,-0.0485875
2.76013,0.0809555,-0.552266
2.74758,0.215275,0
2.7233,-0.0532398,-0.0317103
2.73878,0.0803292,-0.0159246
2.7233,-0.0532398,0.0317103
2.7568,0.215998,-0.193365
2.75764,0.0808824,-0.225217
2.76039,0.352636,0.080988
2.73441,0.0802011,0.0477498
2.74283,-0.0536217,-0.159766
2.73256,0.0801468,0.111375
2.76452,0.216603,-0.12917
2.73897,0.214601,0.337334
2.76323,0.352999,-0.113492
2.71407,0.0796046,0.495058
2.76677,0.216779,-0.0645785
2.76434,0.070456,-0.553051
2.75237,0.20502,0
2.72307,-0.0636968,-0.0317103
2.74892,0.070063,-0.350016
2.73906,0.0698118,-0.0159246
2.7473,-0.0642636,-0.256526
2.71907,-0.0636032,0.0316637
2.76159,0.205706,-0.193644
2.75793,0.0702926,-0.225217
2.75379,0.341051,0.0807553
2.73869,0.0698024,0.0478196
2.76516,0.342459,-0.178569
2.73462,-0.0639669,-0.159301
2.7517,0.20497,0.160696
2.72885,0.0695515,0.111212
2.75736,0.205392,-0.128798
2.74374,0.204377,0.337822
2.72206,0.0693784,0.222288
2.76853,0.342877,-0.113655
2.70649,0.0689816,0.493623
2.75961,0.205559,-0.0643924
2.76065,0.0607193,-0.552266
2.75307,0.195411,0
2.71883,-0.0730949,-0.0316637
2.73929,0.0602496,-0.0159246
2.74308,-0.0737467,-0.256154
2.75233,0.195358,0.0642063
2.72283,-0.0732024,0.0317103
2.75433,0.1955,-0.193086
2.75018,0.0604891,-0.224566
2.75099,0.330958,0.080639
2.73892,0.0602414,0.0478196
2.76634,0.332804,-0.178569
2.73039,-0.0734055,-0.159068
2.7524,0.195363,0.160696
2.72508,0.059937,0.111049
2.75408,0.195482,-0.128612
2.74047,0.194516,0.337334
2.72228,0.0598755,0.222288
2.76971,0.33321,-0.113655
2.71065,0.0596195,0.494341
2.76071,0.323332,-0.0485177
2.7569,0.0519728,-0.551482
2.74968,0.186491,0
2.72259,-0.0817555,-0.0317103
2.74932,0.0518299,-0.350016
2.73947,0.0516441,-0.0159246
2.75768,0.187033,-0.29773
2.74283,-0.0823635,-0.256154
2.74894,0.18644,0.0641132
2.71459,-0.0815154,0.0316172
2.75095,0.186576,-0.192807
2.75599,0.322779,0.0807553
2.7351,0.0515617,0.0477498
2.76737,0.324112,-0.178569
2.73014,-0.0819823,-0.159068
2.753,0.186716,0.160696
2.72925,0.0514515,0.111212
2.75866,0.1871,-0.128798
2.73711,0.185638,0.336847
2.71847,0.0512483,0.221962
2.76678,0.324043,-0.113492
2.76187,0.313212,-0.0485177
2.75035,0.176412,0
2.75346,0.0418136,-0.350521
2.7543,0.312353,0.0161106
2.73964,0.0416037,-0.0159246
2.74649,-0.0925494,-0.256526
2.74561,0.176108,0.0640202
2.71827,-0.0915985,0.0316637
2.75559,0.176748,-0.193086
2.75452,0.0418296,-0.224891
2.73927,0.041598,0.0478196
2.76457,0.313518,-0.178314
2.7378,-0.0922566,-0.159533
2.72942,0.0414485,0.111212
2.75933,0.176988,-0.128798
2.74173,0.175859,0.337334
2.75759,0.176876,-0.0642993
2.75897,0.303132,-0.0484479
2.73066,0.031933,-0.0794753
2.74695,0.166567,0
2.71794,-0.101087,-0.0316637
2.73977,0.0320396,-0.0159246
2.75419,0.167006,0.0642063
2.72193,-0.101236,0.0317103
2.76018,0.167369,-0.193365
2.75028,0.302176,0.0805226
2.7314,0.0319417,0.04768
2.72948,-0.101517,-0.159068
2.72955,0.0319201,0.111212
2.76392,0.167596,-0.128984
2.73837,0.166047,0.336847
2.76108,0.303363,-0.113166
2.75419,0.167006,-0.0642063
2.75599,0.293558,-0.0483781
2.73075,0.0228782,-0.0794753
2.75149,0.157687,0
2.71759,-0.110099,-0.0316637
2.73186,0.0228875,-0.0158782
2.72158,-0.110261,0.0317103
2.75673,0.157987,-0.193086
2.75075,0.0230458,-0.224566
2.75127,0.293055,0.0805226
2.73149,0.0228844,0.04768
2.76267,0.29427,-0.178058
2.73312,-0.110729,-0.159301
2.74683,0.15742,0.160231
2.72564,0.0228355,0.111049
2.76047,0.158202,-0.128798
2.71886,0.0227786,0.221962
2.76207,0.294206,-0.113166
2.75473,0.157873,-0.0642063
2.757,0.283936,-0.0483781
2.75202,0.148082,0
2.72118,-0.11976,-0.0317103
2.72792,0.0133325,-0.0158549
2.73346,-0.1203,-0.25541
2.74329,0.147612,0.0639271
2.71719,-0.119584,0.0316637
2.75727,0.148364,-0.193086
2.75082,0.0134443,-0.224566
2.73155,0.0133502,0.04768
2.75971,0.284216,-0.177802
2.72873,-0.120092,-0.159068
2.73939,0.147402,0.159766
2.72571,0.0133216,0.111049
2.75702,0.148351,-0.128612
2.73547,0.147191,0.336359
2.71892,0.0132885,0.221962
2.76308,0.284563,-0.113166
2.75527,0.148257,-0.0642063
2.75802,0.273829,-0.0483781
2.74455,0.137593,0
2.71673,-0.129543,-0.0316637
2.74584,0.00335519,-0.34951
2.73995,0.00334799,-0.0159246
2.74096,-0.130698,-0.256154
2.7518,0.137956,0.0641132
2.71273,-0.129352,0.0316172
2.74982,0.137857,-0.192528
2.74931,0.272965,0.0804062
2.73558,0.00334265,0.0477498
2.76471,0.274493,-0.178058
2.73226,-0.130283,-0.159301
2.74789,0.13776,0.160231
2.72174,0.00332574,0.110887
2.76153,0.138444,-0.128798
2.74823,0.0033581,-0.144029
2.73203,0.136965,0.335872
2.75615,0.273644,-0.112841
2.75891,0.264681,-0.0483781
2.741,0.128303,0
2.71229,-0.138348,-0.0316172
2.74187,-0.00574282,-0.349005
2.73195,-0.00572204,-0.0158782
2.75304,0.128867,-0.296873
2.74051,-0.139787,-0.256154
2.75224,0.128829,0.0641132
2.71229,-0.138348,0.0316172
2.75027,0.128737,-0.192528
2.74686,-0.00575326,-0.22424
2.74622,0.263463,0.0802899
2.73158,-0.00572126,0.04768
2.7656,0.265323,-0.178058
2.74434,0.128459,0.159999
2.72573,-0.00570902,0.111049
2.754,0.128911,-0.128426
2.74423,-0.00574776,-0.143819
2.73247,0.127904,0.335872
2.75704,0.264502,-0.112841
2.75624,0.129016,-0.0642063
2.75584,0.254681,-0.0483083
2.7268,-0.0152292,-0.079359
2.74543,0.118908,0
2.71179,-0.147814,-0.0316172
2.7458,-0.0153353,-0.34951
2.73591,-0.01528,-0.0159014
2.7495,0.119085,-0.296445
2.74868,0.119049,0.0640202
2.75468,0.119309,-0.192807
2.74682,-0.015341,-0.22424
2.73154,-0.0152556,0.04768
2.75856,0.254933,-0.177546
2.73131,-0.148878,-0.159301
2.74078,0.118707,0.159766
2.7217,-0.0152007,0.110887
2.75842,0.119471,-0.128612
2.74819,-0.0153486,-0.144029
2.7329,0.118365,0.335872
2.74878,0.243871,-0.0481686
2.74185,0.108686,0
2.71522,-0.157986,-0.0316637
2.74176,-0.0253631,-0.349005
2.73184,-0.0252713,-0.0158782
2.73944,-0.159394,-0.256154
2.71522,-0.157986,0.0316637
2.75112,0.109053,-0.192528
2.74406,0.243452,0.0801735
2.72747,-0.0252308,0.0476102
2.7555,0.244467,-0.17729
2.73075,-0.158889,-0.159301
2.73721,0.108502,0.159533
2.72163,-0.0251768,0.110887
2.75887,0.244766,-0.112841
2.7451,0.108815,-0.0639271
2.74962,0.234275,-0.0481686
2.74621,0.0992592,0
2.71865,-0.167708,-0.0317103
2.73769,-0.0348823,-0.3485
2.73573,-0.0348574,-0.0159014
2.73886,-0.168955,-0.256154
2.74147,0.0990879,0.0638341
2.71466,-0.167462,0.0316637
2.74749,0.0993057,-0.192249
2.74489,0.233872,0.0801735
2.73136,-0.0348017,0.04768
2.76032,0.235187,-0.177546
2.72619,-0.168174,-0.159068
2.73757,0.0989471,0.159533
2.72152,-0.0346763,0.110887
2.71076,-0.0345392,0.221311
2.7597,0.235135,-0.112841
2.74546,0.0992324,-0.0639271
2.75831,0.226291,-0.0483083
2.74251,0.0904999,0
2.71012,-0.17573,-0.0316172
2.74153,-0.0435453,-0.349005
2.72761,-0.0433242,-0.0158549
2.74661,0.0906352,-0.296016
2.73435,-0.177301,-0.255782
2.74576,0.0906073,0.0639271
2.71412,-0.175989,0.0316637
2.74779,0.0906742,-0.192249
2.74959,0.225575,0.0802899
2.72724,-0.0433183,0.0476102
2.75706,0.226188,-0.17729
2.73362,-0.177253,-0.159533
2.74186,0.0904785,0.159766
2.7174,-0.0431621,0.110724
2.75551,0.090929,-0.128426
2.74389,-0.0435827,-0.143819
2.73,0.0900872,0.335384
2.71064,-0.0430546,0.221311
2.76043,0.226464,-0.112841
2.74976,0.0907392,-0.0640202
2.75514,0.215866,-0.0482385
2.73882,0.0803295,0
2.70946,-0.185663,-0.0316172
2.74135,-0.0535939,-0.349005
2.74355,0.214958,0.0159944
2.73143,-0.0534,-0.0158782
2.74692,0.0805671,-0.296016
2.73765,-0.187594,-0.256154
2.74208,0.080425,0.0638341
2.71345,-0.185936,0.0316637
2.74811,0.0806018,-0.192249
2.74235,-0.0536134,-0.223915
2.72307,-0.0532364,0.0475404
2.73295,-0.187272,-0.159533
2.73818,0.0803107,0.159533
2.72122,-0.0532004,0.110887
2.74784,0.0805939,-0.128054
2.75726,0.216032,-0.112678
2.75007,0.0806595,-0.0640202
2.75188,0.20595,-0.0481686
2.73909,0.0707693,0
2.7088,-0.195119,-0.0316172
2.73523,-0.0630257,-0.0159014
2.74719,0.0709786,-0.296016
2.73301,-0.196863,-0.255782
2.74234,0.0708535,0.0638341
2.7088,-0.195119,0.0316172
2.75236,0.0711122,-0.192528
2.74613,-0.063277,-0.22424
2.73918,0.204999,0.0799408
2.73086,-0.062925,0.04768
2.73228,-0.19681,-0.159533
2.73845,0.0707528,0.159533
2.72102,-0.0626983,0.110887
2.75609,0.0712087,-0.128426
2.73058,0.0705494,0.335384
2.75002,0.20581,-0.112352
2.74856,0.196537,-0.0480988
2.73931,0.0616852,0
2.71212,-0.204402,-0.0316637
2.73696,-0.0721478,-0.3485
2.72301,-0.0717801,-0.0158317
2.74256,0.0617585,0.0638341
2.71212,-0.204402,0.0316637
2.74859,0.0618943,-0.192249
2.74591,-0.0723837,-0.22424
2.72264,-0.0717703,0.0475404
2.7553,0.197019,-0.177034
2.72365,-0.20527,-0.159068
2.73467,0.0615809,0.159301
2.7168,-0.0716165,0.110724
2.75232,0.0619782,-0.12824
2.70605,-0.0713332,0.220986
2.75069,0.196689,-0.112352
2.74256,0.0617585,-0.0638341
2.74926,0.186462,-0.0480988
2.73951,0.0516447,0
2.71136,-0.214341,-0.0316637
2.73668,-0.0821788,-0.3485
2.73072,-0.082,-0.0158782
2.74364,0.0517225,-0.295588
2.7276,-0.215624,-0.25541
2.73877,0.0516308,0.063741
2.71534,-0.214656,0.0317103
2.7488,0.0518198,-0.192249
2.74562,-0.0824475,-0.22424
2.72236,-0.0817488,0.0475404
2.75998,0.187189,-0.17729
2.72686,-0.215566,-0.159301
2.73488,0.0515574,0.159301
2.71253,-0.0814536,0.110561
2.75253,0.05189,-0.12824
2.70578,-0.0812509,0.220986
2.7474,0.186336,-0.112189
2.74277,0.0517061,-0.0638341
2.74987,0.177344,-0.0480988
2.73967,0.0425599,0
2.70664,-0.223002,-0.0316172
2.73242,-0.0911212,-0.347995
2.72644,-0.0909217,-0.0158549
2.7438,0.042624,-0.295588
2.7348,-0.225322,-0.256154
2.74293,0.0426105,0.0638341
2.71063,-0.223331,0.0316637
2.74098,0.0425802,-0.191691
2.74534,-0.0915519,-0.22424
2.73715,0.176524,0.0798244
2.72207,-0.090776,0.0475404
2.72613,-0.224608,-0.159301
2.73504,0.0424879,0.159301
2.71624,-0.0905814,0.110724
2.75268,0.042762,-0.12824
2.73472,-0.091198,-0.143401
2.72719,0.042366,0.334897
2.70549,-0.0902231,0.220986
2.752,0.177481,-0.112352
2.74693,0.0426726,-0.0639271
2.75047,0.167744,-0.0480988
2.7318,0.0329001,0
2.70585,-0.232449,-0.0316172
2.73209,-0.100659,-0.347995
2.7261,-0.100438,-0.0158549
2.74393,0.0330461,-0.295588
2.74306,0.0330356,0.0638341
2.70585,-0.232449,0.0316172
2.7451,0.0330602,-0.19197
2.72174,-0.100277,0.0475404
2.74924,0.167669,-0.176523
2.72135,-0.23378,-0.159068
2.73517,0.0329406,0.159301
2.7159,-0.100062,0.110724
2.74882,0.033105,-0.128054
2.73439,-0.100743,-0.143401
2.72335,0.0327983,0.33441
2.74306,0.0330356,-0.0638341
2.75107,0.157662,-0.0480988
2.7359,0.0229208,0
2.70498,-0.242365,-0.0316172
2.7317,-0.110672,-0.347995
2.72572,-0.110429,-0.0158549
2.74005,0.0229556,-0.295159
2.70896,-0.242722,0.0316637
2.74919,0.0230321,-0.192249
2.71736,-0.11009,0.0474705
2.73527,0.0229155,0.159301
2.71152,-0.109854,0.110561
2.74493,0.0229964,-0.127868
2.72345,0.0228165,0.33441
2.74521,0.157327,-0.112026
2.74716,0.0230151,-0.0639271
2.73962,0.147413,-0.0478894
2.73197,0.013351,0
2.71208,-0.252547,-0.0317103
2.7313,-0.120206,-0.347995
2.72931,-0.120119,-0.0158782
2.74807,0.0134297,-0.296016
2.71208,-0.252547,0.0317103
2.75324,0.013455,-0.192528
2.74022,-0.120599,-0.223915
2.73488,0.147159,0.0797081
2.71696,-0.119575,0.0474705
2.71961,-0.253248,-0.159068
2.73134,0.0133479,0.159068
2.71112,-0.119318,0.110561
2.74899,0.0134342,-0.128054
2.74974,0.147958,-0.112189
2.73923,0.0133865,-0.063741
2.74409,0.138529,-0.0479592
2.732,0.00429142,0
2.71123,-0.261539,-0.0317103
2.73088,-0.129263,-0.347995
2.71691,-0.128602,-0.0158084
2.74015,0.00430422,-0.295159
2.73126,0.00429026,0.0635549
2.70725,-0.261155,0.0316637
2.7413,0.00430603,-0.191691
2.73536,0.138089,0.0797081
2.71654,-0.128584,0.0474705
2.75085,0.138871,-0.176523
2.72273,-0.262648,-0.159301
2.73137,0.00429043,0.159068
2.70672,-0.128119,0.110398
2.74502,0.00431187,-0.127868
2.71957,0.0042719,0.333922
2.74223,0.138436,-0.111864
2.73926,0.00430282,-0.063741
2.74855,0.129138,-0.048029
2.732,-0.00524506,0
2.7103,-0.271002,-0.0317103
2.73042,-0.138795,-0.347995
2.72444,-0.138491,-0.0158549
2.74014,-0.0052607,-0.295159
2.73126,-0.00524364,0.0635549
2.70632,-0.270604,0.0316637
2.73731,-0.00525526,-0.191412
2.73183,0.128352,0.0795917
2.72007,-0.138269,0.0475404
2.72179,-0.272151,-0.159301
2.72338,-0.00522852,0.158603
2.71025,-0.13777,0.110561
2.74502,-0.00527006,-0.127868
2.73671,-0.139114,-0.14361
2.7156,-0.00521358,0.333435
2.74669,0.12905,-0.112026
2.73925,-0.00525899,-0.063741
2.74501,0.11889,-0.0479592
2.72796,-0.0152359,0
2.73385,-0.149017,-0.3485
2.72391,-0.148475,-0.0158549
2.74408,-0.015326,-0.295588
2.70531,-0.280521,0.0316637
2.74126,-0.0153103,-0.191691
2.73483,-0.149071,-0.22359
2.71955,-0.148238,0.0475404
2.75177,0.119182,-0.176523
2.72078,-0.282125,-0.159301
2.73133,-0.0152548,0.159068
2.70973,-0.147702,0.110561
2.73618,-0.149144,-0.14361
2.71953,-0.0151889,0.333922
2.73922,-0.0152988,-0.063741
2.74541,0.109307,-0.0479592
2.73589,-0.0248308,0
2.70034,-0.289536,-0.0316172
2.72737,-0.158214,-0.0158782
2.74401,-0.0249046,-0.295588
2.73515,-0.0248241,0.0636479
2.71227,-0.290816,0.0317569
2.74518,-0.0249152,-0.19197
2.73429,-0.158616,-0.22359
2.71103,-0.157266,0.0474007
2.72375,-0.292046,-0.159533
2.72727,-0.0247526,0.158836
2.7052,-0.156929,0.110398
2.72343,-0.0247178,0.33441
2.69847,-0.156538,0.22066
2.73915,-0.0248604,-0.063741
2.74176,0.100056,-0.0478894
2.73179,-0.0338536,0
2.70334,-0.298929,-0.0316637
2.71884,-0.166768,-0.0158317
2.73994,-0.0339546,-0.295159
2.73505,-0.033894,0.0636479
2.70334,-0.298929,0.0316637
2.73711,-0.0339195,-0.191412
2.73773,-0.167926,-0.223915
2.71848,-0.166745,0.0475404
2.71086,-0.29976,-0.158836
2.71918,-0.0336974,0.158371
2.70467,-0.165898,0.110398
2.74481,-0.034015,-0.127868
2.72334,-0.0337489,0.33441
2.69794,-0.165486,0.22066
2.7439,0.100135,-0.111864
2.73105,-0.0338445,-0.0635549
2.74209,0.0904854,-0.0478894
2.73166,-0.0433891,0
2.70228,-0.308363,-0.0316637
2.71825,-0.176257,-0.0158317
2.7398,-0.0435186,-0.295159
2.73491,-0.0434409,0.0636479
2.71023,-0.30927,0.0317569
2.74096,-0.0435369,-0.191691
2.72936,0.0900653,0.0794753
2.74886,0.0907088,-0.176267
2.70979,-0.309221,-0.158836
2.71905,-0.0431889,0.158371
2.73669,-0.0434691,-0.127495
2.74023,0.0904242,-0.111701
2.74237,0.0813918,-0.0478894
2.7235,-0.0522938,0
2.70521,-0.31779,-0.0317103
2.72164,-0.185543,-0.0158549
2.7476,-0.0527565,-0.296016
2.73076,-0.0524332,0.0635549
2.70124,-0.317323,0.0316637
2.73681,-0.0525495,-0.191412
2.71668,-0.319137,-0.159301
2.72688,-0.0523587,0.158836
2.74452,-0.0526974,-0.127868
2.71908,-0.0522089,0.333922
2.74052,0.0813367,-0.111701
2.73875,-0.0525868,-0.063741
2.74664,0.0719233,-0.0479592
2.7313,-0.0619818,0
2.70409,-0.327231,-0.0317103
2.72097,-0.195042,-0.0158549
2.73547,-0.0620765,-0.294731
2.73056,-0.061965,0.0635549
2.70409,-0.327231,0.0317103
2.73262,-0.0620119,-0.191133
2.73586,-0.196109,-0.223915
2.74542,0.0718915,-0.176011
2.72268,-0.0617864,0.158603
2.71876,-0.194883,0.111049
2.74032,-0.0621866,-0.127681
2.72526,-0.195349,-0.143191
2.71094,-0.0615198,0.332947
2.74079,0.07177,-0.111701
2.73855,-0.0621465,-0.063741
2.73889,0.0616758,-0.0478196
2.72705,-0.0718867,0
2.6989,-0.336644,-0.0316637
2.72423,-0.205314,-0.0158782
2.7392,-0.0722068,-0.295159
2.70287,-0.337139,0.0317103
2.73637,-0.0721322,-0.191412
2.72615,0.0613891,0.079359
2.71845,-0.0716598,0.158371
2.71803,-0.204847,0.111049
2.71466,-0.0715601,0.333435
2.73704,0.0616341,-0.111538
2.72232,-0.0717618,-0.0633688
2.73509,0.0520389,-0.0477498
2.73078,-0.0815248,0
2.69771,-0.346063,-0.0316637
2.71951,-0.214507,-0.0158549
2.73495,-0.0816493,-0.294731
2.70564,-0.347081,0.0317569
2.74009,-0.0818025,-0.191691
2.71419,-0.0810294,0.158138
2.7173,-0.214333,0.111049
2.73981,-0.0817942,-0.127681
2.71837,-0.0811541,0.333922
2.69464,-0.212546,0.22066
2.73723,0.0520797,-0.111538
2.72605,-0.0813834,-0.0634618
2.73525,0.0424913,-0.0477498
2.72249,-0.0907899,0
2.70442,-0.356523,-0.0317569
2.71077,-0.223342,-0.0158084
2.73068,-0.091063,-0.294303
2.72175,-0.0907653,0.0633688
2.69649,-0.355478,0.0316637
2.7358,-0.0912337,-0.191412
2.71788,-0.0906363,0.158371
2.71255,-0.223489,0.110887
2.73551,-0.0912243,-0.127495
2.71807,-0.0906425,0.333922
2.74139,0.0425867,-0.111701
2.72974,-0.0910319,-0.0635549
2.73538,0.0334206,-0.0477498
2.71817,-0.0996709,0
2.69529,-0.364418,-0.0316637
2.71798,-0.233013,-0.0158549
2.73433,-0.100263,-0.294731
2.69133,-0.363882,0.0316172
2.73149,-0.100159,-0.191133
2.71363,-0.23264,0.0475404
2.71358,-0.0995023,0.158138
2.73519,-0.100295,-0.127495
2.70981,-0.0993644,0.332947
2.74552,0.0335445,-0.111864
2.72543,-0.099937,-0.0634618
2.73948,0.0239071,-0.0478196
2.72181,-0.109319,0
2.694,-0.373824,-0.0316637
2.71715,-0.2425,-0.0158549
2.73397,-0.109807,-0.294731
2.69797,-0.374374,0.0317103
2.73112,-0.109693,-0.191133
2.70882,-0.241756,0.0474705
2.73828,0.0238966,-0.1755
2.71321,-0.108974,0.158138
2.73882,-0.110002,-0.127681
2.70945,-0.108823,0.332947
2.73306,-0.109771,-0.0636479
2.73555,0.0143234,-0.0477498
2.72141,-0.118819,0
2.69664,-0.383789,-0.0317103
2.71231,-0.251613,-0.0158317
2.73357,-0.11935,-0.294731
2.72467,-0.118961,0.0634618
2.69664,-0.383789,0.0317103
2.73072,-0.119226,-0.191133
2.70398,-0.25084,0.0474007
2.73834,0.0143381,-0.1755
2.72079,-0.118792,0.158603
2.69817,-0.250301,0.110398
2.70906,-0.11828,0.332947
2.73769,0.0143346,-0.111538
2.72866,-0.119136,-0.0635549
2.73558,0.00477449,-0.0477498
2.71698,-0.12813,0
2.70743,-0.260696,-0.0158084
2.73313,-0.128891,-0.294731
2.69133,-0.392622,0.0316637
2.73029,-0.128757,-0.191133
2.70707,-0.260661,0.0474705
2.73439,0.00477241,-0.175244
2.71238,-0.127913,0.158138
2.73373,0.00477126,-0.111375
2.72823,-0.12866,-0.0635549
2.73158,-0.00476751,-0.04768
2.72051,-0.137815,0
2.69785,-0.403197,-0.0317569
2.70651,-0.270145,-0.0158084
2.7287,-0.13823,-0.294303
2.71578,-0.137576,0.0632757
2.70181,-0.403788,0.0318034
2.7378,-0.138691,-0.191691
2.70614,-0.270109,0.0474705
2.73439,-0.00477241,-0.175244
2.71591,-0.137582,0.158371
2.73353,-0.138475,-0.127495
2.73772,-0.00477824,-0.111538
2.72776,-0.138183,-0.0635549
2.73155,-0.0143025,-0.04768
2.72001,-0.147311,0
2.69248,-0.412007,-0.0317103
2.7135,-0.280413,-0.0158549
2.73614,-0.148184,-0.295159
2.69643,-0.412612,0.0317569
2.72933,-0.147815,-0.191133
2.71314,-0.280375,0.0476102
2.73834,-0.0143381,-0.1755
2.71541,-0.147062,0.158371
2.6954,-0.278542,0.110398
2.73303,-0.148015,-0.127495
2.72175,-0.281266,-0.143401
2.73769,-0.0143347,-0.111538
2.73126,-0.14792,-0.0636479
2.73148,-0.0238373,-0.04768
2.7115,-0.156344,0
2.69497,-0.422021,-0.0317569
2.71251,-0.289884,-0.0158549
2.73164,-0.157505,-0.294731
2.69102,-0.421403,0.0317103
2.72879,-0.157341,-0.191133
2.70419,-0.288994,0.0474705
2.73828,-0.0238966,-0.1755
2.70691,-0.156079,0.157906
2.69441,-0.287949,0.110398
2.73363,-0.023856,-0.111375
2.72673,-0.157222,-0.0635549
2.73138,-0.0333718,-0.04768
2.71892,-0.166296,0
2.69348,-0.431426,-0.0317569
2.71148,-0.29935,-0.0158549
2.73107,-0.167039,-0.294731
2.69348,-0.431426,0.0317569
2.72823,-0.166866,-0.191133
2.70316,-0.298432,0.0474705
2.73019,-0.0333573,-0.174988
2.71033,-0.165771,0.158138
2.69339,-0.297353,0.110398
2.73193,-0.167092,-0.127495
2.73353,-0.033398,-0.111375
2.72325,-0.0427802,-0.0475404
2.71832,-0.175786,0
2.69196,-0.440825,-0.0317569
2.70644,-0.30836,-0.0158317
2.73047,-0.176572,-0.294731
2.73161,-0.176645,-0.191412
2.7021,-0.307866,0.0474705
2.70575,-0.174973,0.157906
2.69233,-0.306753,0.110398
2.73339,-0.0429396,-0.111375
2.71759,-0.175738,-0.0633688
2.72708,-0.0523626,-0.0476102
2.71769,-0.185274,0
2.70932,-0.318272,-0.0158549
2.72587,-0.185831,-0.294303
2.71297,-0.184952,0.0632757
2.73496,-0.186451,-0.191691
2.70101,-0.317296,0.0474705
2.73389,-0.0524933,-0.175244
2.70513,-0.184417,0.157906
2.73069,-0.18616,-0.127495
2.73722,-0.0525574,-0.111538
2.72494,-0.185767,-0.0635549
2.72289,-0.0613157,-0.0475404
2.70908,-0.193714,0
2.70825,-0.327255,-0.0158549
2.73714,-0.19572,-0.295588
2.71633,-0.194232,0.0633688
2.72238,-0.194665,-0.190854
2.69598,-0.325771,0.0474007
2.7337,-0.0615589,-0.175244
2.70848,-0.193671,0.158138
2.69018,-0.325072,0.110398
2.73304,-0.0615441,-0.111375
2.7243,-0.194803,-0.0635549
2.72268,-0.0703448,-0.0475404
2.71241,-0.202995,0
2.71112,-0.336727,-0.0158782
2.71567,-0.203239,0.0633688
2.72968,-0.204288,-0.191412
2.70282,-0.335696,0.0475404
2.73348,-0.0706238,-0.175244
2.71181,-0.20295,0.158371
2.69702,-0.334976,0.110724
2.71538,-0.337256,-0.143401
2.73282,-0.0706069,-0.111375
2.71966,-0.203537,-0.0634618
2.7184,-0.0802054,-0.0474705
2.69687,-0.344999,-0.0791263
2.71564,-0.213249,0
2.7059,-0.346154,-0.0158549
2.71491,-0.213191,0.0633688
2.72494,-0.213979,-0.191133
2.69364,-0.344585,0.0474007
2.71105,-0.212888,0.158371
2.72863,-0.214269,-0.127495
2.72855,-0.0805048,-0.111212
2.71889,-0.213504,-0.0634618
2.71811,-0.089694,-0.0474705
2.71488,-0.222727,0
2.69675,-0.354555,-0.0158084
2.71813,-0.222993,0.0634618
2.72417,-0.223489,-0.191133
2.69638,-0.354507,0.0474705
2.72492,-0.0899189,-0.174732
2.69835,-0.22137,0.157673
2.72825,-0.0900287,-0.111212
2.71414,-0.222666,-0.0633688
2.71779,-0.098707,-0.0474705
2.71014,-0.231388,0
