2.37657,0.982952,-0.0299409
2.38369,0.976165,-0.0299874
2.38691,0.968255,-0.0299874
2.39345,0.951986,-0.0299874
2.39698,0.953392,-0.150231
2.4042,0.946555,-0.0300806
2.4042,0.946555,0.0300806
2.40765,0.937738,-0.0300806
2.40765,0.937738,0.0300806
2.41448,0.931188,-0.0301271
2.41075,0.929749,0.0300806
2.42519,0.925606,-0.0302203
2.42145,0.92418,0.0301737
2.42125,0.924103,-0.150929
2.42841,0.917136,-0.0302203
2.42841,0.917136,0.0302203
2.4355,0.909628,-0.0302668
2.43632,0.909932,-0.24277
2.4355,0.909628,0.0302668
2.4385,0.901547,-0.0302668
2.4385,0.901547,0.0302668
2.44539,0.894402,-0.0303134
2.44539,0.894402,0.0303134
2.36254,0.997489,-0.134399
2.4485,0.88586,-0.0303134
2.45602,0.888582,0.0304065
2.45926,0.879575,-0.0304065
2.46003,0.87985,-0.243885
2.46679,0.882269,0.0304996
2.38807,0.988194,-0.135445
2.46684,0.872585,-0.244257
2.47363,0.874986,0.0305462
2.3915,0.979851,-0.135445
2.46912,0.863706,-0.0304531
2.47667,0.866347,0.0305462
2.39861,0.973001,-0.135655
2.47953,0.858129,-0.0305462
2.48331,0.859437,0.0305928
2.39812,0.963551,-0.135445
2.48236,0.849903,-0.0305462
2.48614,0.851198,0.0305928
2.40872,0.958548,-0.135864
2.48546,0.840798,-0.0305462
2.4006,0.945138,-0.0149947
2.49373,0.843596,-0.245744
2.48925,0.84208,0.0305928
2.40752,0.947863,-0.211222
2.48899,0.841992,-0.153022
2.41965,0.952639,-0.136283
2.50044,0.83615,-0.246116
2.49976,0.835923,0.0306859
2.41474,0.940983,0.0452366
2.42296,0.944188,-0.136283
2.49886,0.825937,-0.0306393
2.41461,0.931236,-0.0150412
2.50266,0.827192,0.0306859
2.42547,0.935427,0.0453763
2.42624,0.935725,-0.136283
2.50553,0.818451,-0.0306859
2.42532,0.925654,-0.0150877
2.50933,0.819693,0.0307325
2.42476,0.925443,-0.211873
2.42872,0.926954,0.0453763
2.4295,0.927249,-0.136283
2.51204,0.811366,-0.0307325
2.43211,0.919019,-0.015111
2.51649,0.812805,-0.246859
2.51584,0.812596,0.030779
2.43553,0.920308,0.0454461
2.51176,0.811276,-0.15372
2.43629,0.920599,-0.136492
2.51881,0.80337,-0.030779
2.43547,0.910099,-0.015111
2.52705,0.805997,-0.247603
2.52262,0.804585,0.0308256
2.44263,0.912776,0.0455159
2.51852,0.803279,-0.153952
2.44339,0.913062,-0.136702
2.52146,0.795013,-0.030779
2.43847,0.902018,-0.015111
2.5335,0.798811,-0.247975
2.52909,0.797419,0.0308722
2.44189,0.903284,0.0454461
2.52498,0.796124,-0.154185
2.44024,0.902673,0.106002
2.45016,0.906341,-0.136911
2.53185,0.788585,-0.0308722
2.44536,0.894875,-0.0151342
2.53567,0.789774,0.0309187
2.45254,0.897503,0.0455857
2.4533,0.897782,-0.136911
2.36128,0.997444,-0.0596467
2.53459,0.779743,-0.0308722
2.45599,0.889057,-0.0151807
2.53841,0.780919,0.0309187
2.46318,0.891659,0.0457253
2.53811,0.780825,-0.15465
2.36651,0.989934,-0.119492
2.45267,0.887854,-0.136702
2.36475,0.989196,-0.0596467
2.45908,0.880478,-0.0151807
2.55316,0.77571,-0.24909
2.54112,0.772053,0.0309187
2.45847,0.880261,-0.213175
2.46628,0.883055,0.0457253
2.54846,0.774282,-0.155115
2.45332,0.878416,0.106165
2.45951,0.880633,-0.136911
2.37558,0.983996,-0.0598328
2.46866,0.874196,-0.333348
2.46968,0.874559,-0.0152272
2.55967,0.767936,-0.249462
2.54764,0.764327,0.0309653
2.46557,0.873105,0.0456555
2.55497,0.766528,-0.155347
2.46014,0.87118,0.106327
2.47387,0.876042,-0.137539
2.3827,0.977214,-0.0599259
2.55412,0.756567,-0.0310118
2.47272,0.865934,-0.0152272
2.56997,0.761261,-0.250205
2.55796,0.757703,0.0310584
2.47616,0.867139,0.0457951
2.56146,0.758741,-0.15558
2.46694,0.86391,0.10649
2.47691,0.867403,-0.137539
2.3898,0.970397,-0.0600189
2.38639,0.959325,0
2.4795,0.858606,-0.0152505
2.56879,0.751167,-0.249834
2.56059,0.748769,0.0310584
2.47886,0.858383,-0.214151
2.56409,0.749794,-0.15558
2.46616,0.853985,0.106327
2.48747,0.861365,-0.137958
2.39688,0.96354,-0.060112
2.48627,0.851242,-0.0152737
2.57905,0.744405,-0.250577
2.56703,0.740936,0.031105
2.48561,0.851016,-0.214477
2.4935,0.853717,0.0460045
2.57437,0.743055,-0.156045
2.48047,0.849256,0.106816
2.49046,0.852677,-0.137958
2.40766,0.958125,-0.0602981
2.50059,0.846404,-0.0153435
2.58546,0.736488,-0.250949
2.57345,0.733066,0.0311515
2.49647,0.845007,0.0460045
2.58463,0.736251,-0.15651
2.48342,0.840592,0.106816
2.49721,0.845259,-0.138167
2.41099,0.949714,-0.0602981
2.50353,0.83767,-0.0153435
2.59185,0.728536,-0.251321
2.41056,0.93984,0.060205
2.57984,0.72516,0.0311981
2.49527,0.834907,-0.214802
2.4994,0.836287,0.0460045
2.59487,0.729385,-0.156975
2.49392,0.834453,0.107142
2.40861,0.939076,-0.120423
2.50393,0.837803,-0.138376
2.42174,0.944197,-0.0604842
2.58621,0.717219,-0.0312447
2.50264,0.82767,-0.0153202
2.60205,0.721614,-0.252064
2.58621,0.717219,0.0312447
2.50574,0.828696,-0.215453
2.5023,0.827558,0.0460045
2.58971,0.718189,-0.15651
2.50441,0.828253,0.107467
2.51063,0.830313,-0.138586
2.41756,0.932859,-0.0602981
2.59641,0.710298,-0.0313378
2.51312,0.821414,-0.0153667
2.60456,0.712526,-0.252064
2.4208,0.924414,0.0602981
2.59255,0.709242,0.0312912
2.5162,0.82242,-0.216104
2.50348,0.818264,0.107304
2.51352,0.821543,-0.138586
2.42827,0.927267,-0.0604842
2.59875,0.701684,-0.0313378
2.51964,0.814306,-0.0153899
2.6069,0.703885,-0.252064
2.4276,0.917796,0.0603911
2.59489,0.700642,0.0312912
2.52271,0.815298,-0.21643
2.5193,0.814196,0.046214
2.6061,0.703668,-0.157208
2.50618,0.809958,0.107304
2.42562,0.91705,-0.120795
2.51623,0.813204,-0.138586
2.49995,0.807942,0.214477
2.43508,0.920624,-0.0605772
2.60505,0.693638,-0.0313844
2.52878,0.807522,-0.337894
2.52246,0.805507,-0.0153899
2.61704,0.696831,-0.252808
2.43827,0.912119,0.0605772
2.60505,0.693638,0.0313844
2.52974,0.807831,0.0463536
2.61626,0.696622,-0.157673
2.52042,0.804853,0.107793
2.52286,0.805632,-0.138795
2.50655,0.800424,0.214802
2.44202,0.91352,-0.0606703
2.61133,0.685556,-0.0314309
2.53289,0.799103,-0.0154364
2.62716,0.689714,-0.253551
2.44895,0.906378,0.0607633
2.61133,0.685556,0.0314309
2.52834,0.797667,-0.21643
2.52492,0.796588,0.046214
2.62254,0.688498,-0.157906
2.52321,0.796049,0.107793
2.53708,0.800425,-0.139423
2.44895,0.906378,-0.0607633
2.53185,0.789067,-0.0154132
2.63341,0.681537,-0.253923
2.45209,0.897825,0.0607633
2.61758,0.677439,0.0314775
2.54252,0.792395,-0.217406
2.53532,0.79015,0.0463536
2.63265,0.681341,-0.158371
2.53361,0.789616,0.108119
2.44635,0.895721,-0.121353
2.53605,0.790376,-0.139214
2.51969,0.785278,0.215453
2.35979,0.997299,-0.104373
2.45209,0.897825,-0.0607633
2.44836,0.886777,0
2.62768,0.670276,-0.0315706
2.53841,0.781402,-0.0154364
2.63577,0.672341,-0.253923
2.45897,0.890622,0.0608564
2.63155,0.671264,0.0316172
2.54908,0.784689,-0.217731
2.54189,0.782473,0.0464234
2.63889,0.673135,-0.158603
2.53635,0.780767,0.108119
2.44946,0.887177,-0.121353
2.54642,0.78387,-0.139632
2.52622,0.777651,0.215779
2.36694,0.990599,-0.104536
2.45145,0.887899,-0.0606703
2.63764,0.663509,-0.0316637
2.54481,0.774143,-0.0154597
2.63799,0.663596,-0.253923
2.45815,0.881113,0.0607633
2.626,0.660582,0.0315241
2.55549,0.777391,-0.218057
2.55212,0.776367,0.046563
2.54274,0.773515,0.108281
2.54901,0.775421,-0.139632
2.5326,0.770429,0.216104
2.3739,0.984275,-0.104699
2.46191,0.882462,-0.0608564
2.55529,0.767112,-0.0155062
2.64814,0.655839,-0.254667
2.4689,0.874769,0.0609494
2.63617,0.652876,0.0316172
2.55832,0.76802,-0.218057
2.55112,0.765858,0.0464932
2.65515,0.657576,-0.159301
2.46915,0.874859,0.152557
2.54556,0.764191,0.108281
2.55566,0.767222,-0.139842
2.47267,0.876105,-0.0610425
2.64621,0.645565,-0.0317103
2.56563,0.76046,-0.0155527
2.65815,0.648478,-0.25541
2.47571,0.867467,0.0610425
2.65009,0.646513,0.0317569
2.56481,0.760217,-0.218382
2.56144,0.759221,0.0466328
2.66131,0.649249,-0.159533
2.56354,0.759843,0.108933
2.46993,0.865441,-0.121912
2.56981,0.761701,-0.14047
2.38459,0.968767,-0.104862
2.47571,0.867467,-0.0610425
2.65222,0.637722,-0.0317569
2.56813,0.751949,-0.0155527
2.66416,0.640591,-0.255782
2.48613,0.861873,0.0612286
2.65222,0.637722,0.0317569
2.57114,0.752829,-0.218708
2.57162,0.752971,0.0467725
2.66733,0.641355,-0.159766
2.47505,0.858032,0.152557
2.56221,0.750215,0.10877
2.47656,0.858555,-0.122098
2.57232,0.753176,-0.14047
2.55201,0.747228,0.21708
2.39891,0.96533,-0.10535
2.47858,0.859253,-0.0610425
2.66233,0.629838,-0.03185
2.57087,0.74253,-0.0155527
2.66649,0.630822,-0.255782
2.49306,0.85405,0.0613216
2.66233,0.629838,0.03185
2.58154,0.745612,-0.219359
2.57437,0.743539,0.0467725
2.66966,0.631573,-0.159766
2.4744,0.84766,0.152324
2.56111,0.739709,0.108607
2.58658,0.747067,-0.141098
2.40244,0.956531,-0.10535
2.48171,0.850162,-0.0610425
2.6762,0.623262,-0.0319897
2.58342,0.736394,-0.341934
2.40027,0.945975,0.0149947
2.5773,0.734647,-0.0155759
2.67643,0.623316,-0.256526
2.49602,0.845342,0.0613216
2.66841,0.621448,0.0318966
2.58796,0.737688,-0.219684
2.58464,0.736741,0.0469121
2.67963,0.624061,-0.160231
2.48113,0.840298,0.152557
2.57136,0.732955,0.108933
2.49021,0.843373,-0.12247
2.58149,0.735843,-0.140679
2.56113,0.730038,0.217406
2.40204,0.946673,-0.105188
2.49602,0.845342,-0.0613216
2.67056,0.612131,-0.0318966
2.40356,0.937593,0.0149947
2.58754,0.727815,-0.0156224
2.68247,0.614862,-0.256897
2.49896,0.836626,0.0613216
2.66666,0.611237,0.03185
2.59052,0.728652,-0.219684
2.58719,0.727716,0.0469121
2.68957,0.61649,-0.160696
2.49541,0.835437,0.153254
2.57775,0.725059,0.109096
2.49314,0.834678,-0.12247
2.59173,0.728993,-0.141098
2.40905,0.939736,-0.10535
2.50275,0.837896,-0.0614147
2.68417,0.60638,-0.0320363
2.41022,0.931477,0.015018
2.59753,0.721822,-0.0156689
2.69216,0.608184,-0.257641
2.50917,0.831284,0.0615077
2.68027,0.605499,0.0319897
2.60432,0.72371,-0.22066
2.59332,0.720653,0.0469819
2.49802,0.827591,0.153254
2.58772,0.719096,0.109421
2.50333,0.829352,-0.122842
2.60556,0.724053,-0.141726
2.51296,0.832542,-0.0616008
2.50161,0.818138,0
2.69039,0.596938,-0.0320828
2.41752,0.923645,0.0150412
2.59642,0.710788,-0.0156457
2.69836,0.598707,-0.258013
2.51614,0.822889,0.0616008
2.69429,0.597804,0.0321294
2.61093,0.71476,-0.220986
2.59993,0.711748,0.0470517
2.70161,0.599428,-0.161161
2.50497,0.819237,0.153487
2.59046,0.709156,0.109421
2.5103,0.820978,-0.123028
2.60832,0.714045,-0.141726
2.58016,0.706338,0.218382
2.41929,0.924322,-0.105513
2.50854,0.820403,-0.0614147
2.50826,0.81063,0
2.70027,0.589248,-0.032176
2.42447,0.916615,0.0150645
2.59889,0.70172,-0.0156457
2.70044,0.589284,-0.258013
2.519,0.8141,0.0616008
2.70418,0.5901,0.0322225
2.6211,0.707719,-0.221637
2.41974,0.914828,0.0752863
2.69978,0.589142,-0.160929
2.50402,0.809259,0.153254
2.59292,0.700109,0.109421
2.61465,0.705977,-0.141935
2.42624,0.917284,-0.105676
2.51519,0.81287,-0.0615077
2.70622,0.580657,-0.0322225
2.61505,0.6963,-0.34446
2.43515,0.910948,0.015111
2.61678,0.69676,-0.0157387
2.70248,0.579853,-0.258013
2.52563,0.806518,0.0616939
2.6984,0.578978,0.0321294
2.62356,0.698565,-0.221637
2.42667,0.907776,0.0754027
2.61643,0.696666,0.0472611
2.71744,0.583065,-0.161859
2.51444,0.802942,0.15372
2.59921,0.692081,0.109584
2.51978,0.804647,-0.123214
2.62096,0.697873,-0.142144
2.52182,0.805301,-0.0616008
2.70412,0.571326,-0.032176
2.62106,0.68909,-0.344965
2.44175,0.904684,0.0151342
2.62283,0.689553,-0.0157619
2.71208,0.573008,-0.258756
2.52434,0.797375,0.0616008
2.7002,0.570499,0.0321294
2.6296,0.691333,-0.221962
2.62247,0.68946,0.0473309
2.51695,0.795039,0.15372
2.6091,0.685945,0.10991
2.5261,0.797931,-0.123401
2.43602,0.902561,-0.105839
2.52816,0.79858,-0.0616939
2.44081,0.894657,-0.0453763
2.71784,0.564322,-0.0323156
2.62729,0.680932,-0.34547
2.44114,0.894778,0.015111
2.62522,0.680393,-0.0157619
2.72186,0.565156,-0.2595
2.53474,0.790941,0.0617869
2.71393,0.563509,0.0322691
2.63585,0.68315,-0.222288
2.44014,0.894414,0.0756354
2.62099,0.679298,0.0472611
2.73298,0.567465,-0.162557
2.52352,0.787437,0.153952
2.61148,0.676832,0.10991
2.5365,0.791488,-0.123773
2.63713,0.683481,-0.142773
2.44291,0.895427,-0.106002
2.53474,0.790941,-0.0617869
2.73165,0.556754,-0.0324553
2.44816,0.887188,0.0151342
2.62382,0.669778,-0.0157387
2.73172,0.556767,-0.260243
2.54145,0.782823,0.06188
2.73165,0.556754,0.0324553
2.64606,0.675457,-0.222939
2.44716,0.886827,0.0757518
2.63509,0.672655,0.0474705
2.73504,0.557444,-0.162557
2.53402,0.780535,0.154417
2.61781,0.668245,0.110073
2.5432,0.783363,-0.123959
2.64349,0.674799,-0.142982
2.54145,0.782823,-0.06188
2.54103,0.772993,0
2.7375,0.548001,-0.0325019
2.64364,0.665019,-0.346985
2.45877,0.881337,0.0151807
2.6339,0.662567,-0.0157852
2.73364,0.547229,-0.260243
2.54417,0.773947,0.06188
2.73358,0.547216,0.0324553
2.65227,0.66719,-0.223264
2.45777,0.880979,0.0759845
2.6413,0.664429,0.0475404
2.74089,0.548678,-0.162789
2.53673,0.771685,0.154417
2.62788,0.661054,0.110398
2.54417,0.773947,-0.06188
2.54754,0.765268,0
2.74332,0.539212,-0.0325485
2.6498,0.656741,-0.34749
2.46183,0.872748,0.0151807
2.64784,0.656255,-0.0158549
2.74335,0.539219,-0.260987
2.55068,0.766212,0.061973
2.7394,0.538441,0.0325019
2.4646,0.87373,0.0761008
2.65136,0.657129,0.04768
2.7467,0.539877,-0.163022
2.54323,0.763974,0.15465
2.63793,0.653799,0.110724
2.54861,0.765589,-0.123959
2.4636,0.873375,-0.10649
2.55068,0.766212,-0.061973
2.74911,0.530391,-0.032595
2.6675,0.651252,-0.34951
2.47241,0.866797,0.0152272
2.65789,0.648906,-0.0159014
2.74913,0.530395,-0.261359
2.55717,0.758441,0.0620661
2.74911,0.530391,0.032595
2.66461,0.650548,-0.223915
2.46386,0.863799,0.0759845
2.75249,0.531043,-0.163254
2.54588,0.755092,0.15465
2.64796,0.646484,0.111049
2.56276,0.760097,-0.124517
2.56101,0.759578,-0.0621591
2.65117,0.637957,-0.079359
2.75479,0.522016,-0.0326416
2.65807,0.639617,-0.347995
2.47528,0.858592,0.0152272
2.66391,0.641024,-0.0159246
2.75479,0.522016,-0.261731
2.56735,0.752205,0.0622522
2.75479,0.522016,0.0326416
2.56179,0.750576,-0.186668
2.67063,0.64264,-0.22424
2.46671,0.855623,0.0759845
2.65966,0.640002,0.0477498
2.75816,0.522655,-0.163487
2.55604,0.74889,0.155115
2.64621,0.636763,0.110887
2.56526,0.751593,-0.124517
2.5489,0.7468,0.326122
2.47327,0.857895,-0.106653
2.56735,0.752205,-0.0622522
2.65738,0.629158,-0.0794753
2.5631,0.740771,0
2.76061,0.512647,-0.0326882
2.66426,0.630786,-0.3485
2.48219,0.850812,0.0152505
2.66235,0.630335,-0.0159014
2.57009,0.742791,0.0622522
2.76455,0.513377,0.0327347
2.57219,0.743398,-0.187226
2.67685,0.633767,-0.224566
2.66978,0.632093,0.0478894
2.76006,0.512543,-0.163487
2.66019,0.629823,0.111375
2.568,0.742187,-0.124517
2.56307,0.740761,0.327585
2.48017,0.850121,-0.106816
2.57009,0.742791,-0.0622522
2.56952,0.732917,0
2.77026,0.504441,-0.0327813
2.67417,0.623284,-0.34951
2.48893,0.843426,0.0152737
2.67233,0.622854,-0.0159479
2.5842,0.737106,0.0625313
2.77026,0.504441,0.0327813
2.58244,0.736604,-0.187784
2.68293,0.625324,-0.224891
2.48413,0.8418,0.0763336
2.67586,0.623678,0.0479592
2.76576,0.503622,-0.16372
2.65848,0.619627,0.111212
2.57826,0.735411,-0.12489
2.56564,0.73181,0.327585
2.48691,0.842741,-0.106979
2.5842,0.737106,-0.0625313
2.77576,0.496439,-0.0328279
2.68385,0.616656,-0.350521
2.49157,0.835602,0.0152737
2.68597,0.617142,-0.0160176
2.58381,0.728223,-0.289162
2.58651,0.728983,0.0625313
2.77576,0.496439,0.0328279
2.58859,0.729569,-0.188063
2.49056,0.835263,0.0764499
2.6817,0.616163,0.048029
2.77519,0.496336,-0.164185
2.57514,0.72578,0.155813
2.6682,0.613061,0.111538
2.5844,0.728391,-0.125076
2.56792,0.723745,0.327585
2.49334,0.836195,-0.107142
2.58651,0.728983,-0.0625313
2.58601,0.718623,0
2.78151,0.486952,-0.0328744
2.6977,0.609439,-0.352036
2.50601,0.830239,0.0153435
2.69211,0.608176,-0.0160409
2.59029,0.719814,-0.28959
2.59301,0.720569,0.0626244
2.77757,0.486262,0.0328279
2.59124,0.720077,-0.188063
2.69879,0.609683,-0.225868
2.4974,0.827387,0.0765663
2.68785,0.607212,0.0480988
2.78486,0.487538,-0.16465
2.58933,0.719545,0.15651
2.67433,0.604159,0.111701
2.59861,0.722123,-0.125634
2.69626,0.609113,-0.144866
2.57438,0.715392,0.328072
2.59687,0.72164,-0.0627174
2.68141,0.595928,-0.0799408
2.78713,0.477915,-0.032921
2.69207,0.598296,-0.351026
2.50509,0.820241,0.0153202
2.60323,0.713627,0.0628105
2.59759,0.712082,-0.188342
2.7009,0.600258,-0.225868
2.50027,0.818664,0.0765663
2.69385,0.598693,0.0481686
2.79441,0.479163,-0.165115
2.68423,0.596554,0.112026
2.60111,0.713048,-0.125634
2.50685,0.820819,-0.107467
2.60323,0.713627,-0.0628105
2.7887,0.46867,-0.032921
2.70566,0.59191,-0.352541
2.50779,0.81193,0.0153202
2.69619,0.589837,-0.0160409
2.60944,0.706036,0.0629035
2.60379,0.704507,-0.188622
2.70677,0.592151,-0.226193
2.50297,0.810368,0.0765663
2.78811,0.468571,-0.16465
2.59417,0.701904,0.15651
2.694,0.589358,0.112352
2.61503,0.707549,-0.126192
2.51336,0.813733,-0.10763
2.60944,0.706036,-0.0629035
2.60885,0.695624,0
2.79829,0.459742,-0.0330141
2.71558,0.583656,-0.353551
2.51837,0.805168,0.0153667
2.71398,0.583312,-0.0161339
2.60815,0.695436,0.0628105
2.61021,0.695986,-0.188901
2.72061,0.584739,-0.22717
2.51354,0.803624,0.076799
2.51706,0.804749,-0.16936
2.79769,0.459643,-0.165115
2.60058,0.693419,0.156743
2.69223,0.578639,0.112189
2.60989,0.6959,-0.12582
2.52014,0.805732,-0.107793
2.61201,0.696466,-0.0629035
2.6074,0.685497,0
2.80778,0.451242,-0.0331072
2.53261,0.799988,0.0154364
2.716,0.573836,-0.0161339
2.62216,0.689379,0.0630896
2.61648,0.687886,-0.18918
2.72264,0.575239,-0.22717
2.52014,0.79605,0.0769154
2.52366,0.797161,-0.169615
2.8111,0.451776,-0.165813
2.61071,0.686368,0.157208
2.71379,0.57337,0.113003
2.62003,0.688818,-0.126192
2.52674,0.798134,-0.107956
2.62216,0.689379,-0.0630896
2.61752,0.678399,0
2.80539,0.440818,-0.0330607
2.54302,0.793526,0.0154829
2.7219,0.565165,-0.0161571
2.62842,0.681225,0.0631827
2.62273,0.67975,-0.189459
2.72463,0.565732,-0.22717
2.52291,0.787248,0.0769154
2.53024,0.789536,-0.169871
2.8245,0.443821,-0.16651
2.61695,0.678253,0.15744
2.71577,0.563894,0.113003
2.62628,0.680672,-0.126379
2.52951,0.78931,-0.107956
2.63229,0.682229,-0.0632757
2.71491,0.553836,-0.080639
2.62374,0.670247,0
2.53813,0.782287,0.0154364
2.63282,0.672565,-0.190017
2.73831,0.558608,-0.228146
2.52946,0.779614,0.0770317
2.62318,0.670102,0.157673
2.64413,0.675455,-0.127123
2.53607,0.781652,-0.108119
2.63466,0.673035,-0.0632757
2.6377,0.664015,0
2.54085,0.773423,0.0154364
2.73754,0.548507,-0.0162269
2.63515,0.663371,-0.190017
2.74415,0.54983,-0.228471
2.53599,0.771945,0.0771481
2.73717,0.548432,0.0487271
2.6255,0.660942,0.157673
2.65035,0.667197,-0.127309
2.54643,0.775123,-0.108444
2.64087,0.664811,-0.0633688
2.63989,0.655263,0
2.55106,0.767297,0.0154829
2.7472,0.54097,-0.0162734
2.64694,0.657013,0.0634618
2.64121,0.65559,-0.190296
2.74987,0.541497,-0.228797
2.54237,0.764682,0.0772645
2.64318,0.656079,0.158603
2.64867,0.657441,-0.127123
2.54899,0.766674,-0.108444
2.63918,0.655086,-0.0632757
2.64605,0.646994,0
2.55372,0.758386,0.0154829
2.74907,0.531377,-0.0162734
2.65511,0.649209,-0.191133
2.75957,0.533407,-0.229448
2.55652,0.759216,0.0776135
2.56002,0.760256,-0.17115
2.64933,0.647796,0.158836
2.66259,0.651038,-0.127681
2.55931,0.760046,-0.10877
2.64922,0.647769,-0.0634618
2.56368,0.751618,-0.0466328
2.64829,0.637755,0
2.56403,0.75172,0.0155294
2.75877,0.52327,-0.0163199
2.65736,0.639939,-0.191133
2.7575,0.52303,-0.229122
2.55532,0.749165,0.0774972
2.56649,0.75244,-0.171406
2.65546,0.639481,0.159068
2.66873,0.642677,-0.127868
2.56195,0.75111,-0.10877
2.66701,0.642264,-0.0638341
2.65818,0.630816,0
2.57035,0.744325,0.0155527
2.6661,0.632698,-0.295159
2.67111,0.633886,-0.19197
2.76314,0.514612,-0.229448
2.56163,0.741798,0.0776135
2.5728,0.745034,-0.171662
2.66696,0.632901,-0.127681
2.77246,0.516348,-0.147797
2.57978,0.747056,-0.109421
2.67302,0.634339,-0.0639271
2.66436,0.621979,0
2.57306,0.7349,0.0155527
2.67342,0.624093,-0.19197
2.77285,0.505913,-0.230099
2.56817,0.733503,0.0777299
2.76591,0.504647,0.0490762
2.66764,0.622743,0.159533
2.67704,0.624939,-0.128054
2.57866,0.736498,-0.109258
2.66754,0.62272,-0.063741
2.67822,0.615361,0
2.57946,0.726998,0.0155759
2.77984,0.497168,-0.0164128
2.68336,0.616543,-0.192528
2.78637,0.498336,-0.231075
2.57842,0.726703,0.0779626
2.58191,0.727688,-0.171918
2.67368,0.614321,0.159766
2.67921,0.61559,-0.128054
2.58891,0.72966,-0.109584
2.68139,0.61609,-0.0640202
2.67645,0.605126,0
2.58584,0.719061,0.0155992
2.68549,0.607172,-0.192528
2.58864,0.71984,0.0781954
2.67581,0.604983,0.159766
2.68914,0.607995,-0.128426
2.79354,0.489559,-0.148634
2.59914,0.72276,-0.10991
2.69132,0.60849,-0.0642063
2.59172,0.711445,-0.0469121
2.68625,0.597986,0
2.59978,0.713659,0.0156689
2.79499,0.480267,-0.0164826
2.69528,0.599998,-0.193086
2.58716,0.710194,0.078079
2.5945,0.71221,-0.17243
2.6895,0.59871,0.160464
2.69894,0.600811,-0.128798
2.79514,0.480293,-0.148634
2.59767,0.713079,-0.109747
2.70113,0.6013,-0.0643924
2.69613,0.590318,0
2.5984,0.703535,0.0156457
2.80059,0.471172,-0.0165058
2.70321,0.591868,0.0643924
2.59348,0.702204,0.0781954
2.60468,0.705236,-0.172941
2.68767,0.588465,0.160231
2.70492,0.592242,-0.128984
2.80862,0.472522,-0.149262
2.604,0.705052,-0.10991
2.70321,0.591868,-0.0643924
2.60435,0.695397,-0.0470517
2.69818,0.580902,0
2.6047,0.695491,0.0156689
2.80222,0.461393,-0.0165058
2.69941,0.581167,-0.193086
2.60364,0.695209,0.0784281
2.61484,0.698198,-0.173453
2.70697,0.582796,-0.128984
2.61031,0.696989,-0.110073
2.70526,0.582428,-0.0643924
2.7041,0.572309,0
2.61485,0.688433,0.0157154
2.71703,0.575046,-0.194202
2.60992,0.687135,0.0785444
2.6134,0.688051,-0.173197
2.71681,0.574998,-0.129357
2.62432,0.690926,-0.110561
2.71511,0.574638,-0.0645785
2.70608,0.562866,0
2.62111,0.680305,0.0157387
2.71512,0.564745,-0.193923
2.61617,0.679024,0.0786608
2.62738,0.681932,-0.173965
2.7188,0.565511,-0.129357
2.82525,0.444949,-0.14989
2.63445,0.683769,-0.110887
2.72493,0.566785,-0.0647646
2.62311,0.671061,-0.0472611
2.63122,0.673135,0.0157852
2.7308,0.558071,0.0648576
2.72098,0.556063,-0.194202
2.6224,0.670879,0.0787772
2.63361,0.673747,-0.17422
2.72859,0.557617,-0.129729
2.83468,0.4363,-0.150309
2.63682,0.674569,-0.110887
2.7308,0.558071,-0.0648576
2.63707,0.664834,-0.0474705
2.72563,0.54711,0
2.62967,0.662969,0.0157619
2.72945,0.547877,-0.299872
2.73073,0.548133,-0.19476
2.62473,0.661722,0.0787772
2.64368,0.666502,-0.174732
2.73835,0.549663,-0.130101
2.63916,0.665361,-0.110887
2.73145,0.538365,0
2.64362,0.656678,0.0158317
2.74437,0.540912,-0.195597
2.63866,0.655447,0.0791263
2.64987,0.658231,-0.174988
2.74417,0.540873,-0.130287
2.6531,0.659035,-0.111375
2.7464,0.541313,-0.0651368
2.64553,0.647358,-0.0475404
2.73724,0.529588,0
2.64201,0.646495,0.0158084
2.74232,0.530572,-0.195318
2.64093,0.646233,0.0791263
2.65215,0.648978,-0.174988
2.74604,0.531291,-0.130287
2.66315,0.65167,-0.111701
2.7522,0.532483,-0.0652298
2.65544,0.640458,-0.04768
2.73898,0.520508,0
2.6558,0.640545,0.0158782
2.74799,0.52222,-0.195597
2.65472,0.640284,0.0794753
2.65817,0.641116,-0.175244
2.75564,0.523674,-0.130659
2.66918,0.643773,-0.111864
2.76181,0.524847,-0.0654159
2.65366,0.630723,-0.0476102
2.6618,0.632658,0.0159014
2.66072,0.632401,0.0795917
2.67193,0.635066,-0.176011
2.76915,0.516732,-0.131218
2.66742,0.633993,-0.111701
2.76354,0.515685,-0.0654159
2.67153,0.624636,-0.0478894
2.75829,0.504251,0
2.66021,0.621988,0.0158782
2.76727,0.505893,-0.196713
2.67081,0.624466,0.0798244
2.67424,0.625269,-0.176011
2.76316,0.505142,-0.130846
2.6814,0.626943,-0.112189
2.6659,0.613512,-0.0477498
2.67406,0.615389,0.0159479
2.77687,0.497638,-0.197271
2.66907,0.614242,0.0797081
2.6803,0.616825,-0.176267
2.77671,0.497608,-0.131404
2.68357,0.617578,-0.112189
2.77896,0.498012,-0.0656951
2.68363,0.607735,-0.048029
2.77356,0.487057,0
2.68789,0.608701,0.0160176
2.78645,0.489321,-0.197829
2.6829,0.60757,0.0800572
2.68633,0.608346,-0.176523
2.79023,0.489985,-0.131962
2.69351,0.609972,-0.112515
2.78069,0.488308,-0.0656951
2.68573,0.598364,-0.048029
2.77524,0.477373,0
2.6939,0.600185,0.0160409
2.78421,0.478916,-0.19755
2.68891,0.599072,0.0801735
2.69623,0.600702,-0.177034
2.79586,0.48092,-0.132148
2.7942,0.480633,-0.0659743
2.69551,0.591169,-0.0481686
2.78075,0.468833,0
2.70369,0.592963,0.0160874
2.7026,0.592722,0.0805226
2.7021,0.592614,-0.17729
2.79744,0.471646,-0.132148
2.7054,0.593337,-0.112841
2.80366,0.472695,-0.0661604
2.70939,0.583813,-0.0483781
2.70585,0.58305,0.0160874
2.70475,0.582813,0.0805226
2.71206,0.584388,-0.177802
2.70756,0.583418,-0.112841
2.80538,0.462416,-0.0661604
2.7074,0.573995,-0.0483083
2.71559,0.575732,0.0161339
2.71058,0.574669,0.080639
2.71789,0.576219,-0.178058
2.81645,0.454652,-0.132893
2.72121,0.576922,-0.113329
2.81084,0.453747,-0.0662534
2.7133,0.565356,-0.0483781
2.71759,0.566249,0.0161339
2.71648,0.566018,0.0807553
2.71988,0.566727,-0.178058
2.72321,0.567419,-0.113329
2.82031,0.445179,-0.0664395
2.71928,0.55621,-0.0484479
2.7314,0.55869,0.0162036
2.72246,0.55686,0.0808717
2.73759,0.559955,-0.179081
2.83147,0.436312,-0.133451
2.72918,0.558236,-0.113492
2.82587,0.435449,-0.0665326
2.72512,0.547501,-0.0485177
2.73726,0.549939,0.0162269
2.73952,0.550395,-0.179081
2.73503,0.549492,-0.113655
2.83528,0.426772,-0.0667187
2.73468,0.540489,-0.0486573
2.74289,0.542113,0.0162501
2.73393,0.540342,0.0811044
2.73732,0.541012,-0.178825
2.74067,0.541673,-0.113818
2.73262,0.530177,-0.0485875
2.7487,0.533296,0.0162734
2.75095,0.533734,-0.179593
2.74624,0.522881,-0.0487969
2.7584,0.525196,0.0163199
2.75672,0.524877,-0.179849
2.75616,0.52477,-0.114306
2.75198,0.514025,-0.0488667
2.76415,0.516298,0.0163431
2.75854,0.51525,-0.179849
2.76583,0.516613,-0.114632
2.7618,0.504893,-0.0490064
2.77004,0.5064,0.0163664
2.77227,0.506807,-0.180616
2.77173,0.506707,-0.114795
2.77125,0.497628,-0.049146
2.7795,0.499109,0.0164128
2.76992,0.49739,-0.18036
2.78117,0.49941,-0.11512
2.76911,0.486776,-0.0490762
2.78525,0.489612,0.0164361
2.78745,0.49,-0.181384
2.78692,0.489906,-0.115283
2.793,0.481431,-0.181639
2.79247,0.48134,-0.115446
2.78419,0.469911,-0.0492856
2.79466,0.471678,-0.181639
2.80595,0.473584,-0.115934
2.78984,0.460355,-0.0493554
2.80819,0.463382,-0.182407
2.80767,0.463297,-0.115934
2.79925,0.452378,-0.049495
2.81314,0.454622,-0.116097
2.8226,0.446047,-0.116423
2.8142,0.434656,-0.0497045
2.83758,0.427624,-0.116911
2.83891,0.418708,-0.116911
