2.35942,0.311044,-0.0277058
2.29941,0.418289,-0.297488
2.20032,0.627193,0.0132977
2.26282,0.526991,0.0540635
2.35942,0.311044,0.0277058
2.25791,0.52585,-0.162114
2.31027,0.420265,-0.191695
2.36747,0.312105,-0.139069
2.31604,0.421314,0.0959064
2.30243,0.418838,0.191044
2.19084,0.624493,-0.0928126
2.20989,0.62159,-0.0400707
2.30269,0.410587,-0.0680718
2.36446,0.303314,-0.0277523
2.30476,0.410955,-0.297993
2.20634,0.620591,0.0133209
2.26464,0.519088,0.0540635
2.36446,0.303314,0.0277523
2.31565,0.412898,-0.19202
2.3175,0.413226,0.0959064
2.3078,0.411498,0.191369
2.19686,0.617923,-0.0929754
2.19664,0.609594,-0.0397915
2.30805,0.403234,-0.0681882
2.36948,0.295554,-0.0277989
2.30618,0.402907,-0.297993
2.20079,0.610746,0.0132744
2.32081,0.405463,-0.0136929
2.26644,0.51118,0.0540635
2.37345,0.296049,0.0278455
2.2076,0.612636,0.0666755
2.36959,0.295568,-0.139069
2.27101,0.51221,0.13558
2.31892,0.405134,0.0959064
2.199,0.61025,-0.0929754
2.26254,0.5103,-0.0539705
2.20625,0.604805,-0.0399311
2.27255,0.505062,0
2.37436,0.288591,-0.0278455
2.30743,0.395661,-0.297993
2.20655,0.604887,0.0132977
2.32601,0.398846,-0.0137161
2.38006,0.289284,-0.223809
2.3823,0.289556,0.0279386
2.20951,0.605698,0.0666755
2.37051,0.288123,-0.139069
2.27651,0.50594,0.135813
2.32412,0.398522,0.0960692
2.31834,0.397531,0.19202
2.21247,0.606509,-0.0934639
2.26803,0.504057,-0.0540635
2.21628,0.598415,-0.0400707
2.27448,0.496332,0
2.3834,0.280407,-0.0279386
2.31285,0.387454,-0.298498
2.21272,0.597453,0.0133209
2.32753,0.389913,-0.0137161
2.26917,0.495174,-0.250179
2.38115,0.280143,-0.223809
2.27777,0.497051,0.0542496
2.37545,0.279473,0.0278455
2.26894,0.495123,-0.162393
2.38349,0.280419,-0.139766
2.27843,0.497196,0.135813
2.32958,0.390256,0.096232
2.21092,0.596968,-0.0933011
2.21836,0.590675,-0.0400707
2.31609,0.379691,-0.0683046
2.27619,0.48839,0
2.38039,0.271633,-0.027892
2.3181,0.380021,-0.299003
2.21479,0.589726,0.0133209
2.33677,0.38308,-0.0137626
2.27477,0.488084,-0.250607
2.38607,0.272282,-0.224181
2.38834,0.27254,0.0279852
2.27455,0.488038,-0.162672
2.20644,0.587501,-0.146335
2.38843,0.27255,-0.139999
2.33093,0.382123,0.096232
2.213,0.589247,-0.0933011
2.22794,0.585736,-0.0402103
2.32517,0.373681,-0.0685373
2.28554,0.48289,0
2.38123,0.264153,-0.027892
2.31929,0.372736,-0.299003
2.2205,0.583782,0.0133442
2.33796,0.375737,-0.0137626
2.2724,0.480113,-0.250179
2.39316,0.265476,0.0280317
2.21573,0.582528,0.0666755
2.21213,0.581581,-0.146591
2.33212,0.374797,0.096232
2.32631,0.373865,0.192346
2.21484,0.582291,-0.0933011
2.22233,0.575561,-0.0400707
2.33047,0.365775,-0.0686537
2.2873,0.474509,0
2.39014,0.256276,-0.0279852
2.32848,0.365462,-0.300013
2.2265,0.576641,0.0133674
2.33932,0.367164,-0.0137626
2.27804,0.472588,-0.250607
2.39579,0.256882,-0.224925
2.39809,0.257129,0.0280783
2.22173,0.575405,0.0667919
2.21812,0.57447,-0.146847
2.38229,0.255434,-0.139534
2.34137,0.367486,0.0965577
2.3316,0.365953,0.192671
2.22082,0.575171,-0.0934639
2.28276,0.473569,-0.0542496
2.22422,0.568188,-0.0400707
2.28886,0.466922,0
2.39893,0.249175,-0.0280783
2.3336,0.358342,-0.300518
2.2284,0.569255,0.0133674
2.34843,0.36062,-0.0138091
2.27959,0.465032,-0.250607
2.39663,0.248936,-0.224925
2.28824,0.466796,0.0543427
2.40689,0.250002,0.0281714
2.28719,0.466583,-0.16323
2.22362,0.568034,0.0667919
2.22388,0.568099,-0.147102
2.38709,0.247945,-0.139766
2.33863,0.359114,0.0963948
2.34525,0.360132,-0.12435
2.33675,0.358825,0.192997
2.23434,0.570771,-0.0939524
2.29216,0.467595,-0.0544357
2.23405,0.561984,-0.0402103
2.29056,0.458531,0
2.40381,0.24078,-0.0281249
2.3349,0.349787,-0.300518
2.23047,0.561085,0.0133674
2.28518,0.457455,-0.251036
2.40149,0.240548,-0.225296
2.39983,0.240382,0.0280783
2.2928,0.45898,-0.163509
2.22957,0.560857,0.0669082
2.23369,0.561893,-0.147614
2.33993,0.35054,0.0963948
2.29684,0.459789,0.287612
2.33805,0.350258,0.192997
2.23254,0.561604,-0.0937896
2.29386,0.459191,-0.0544357
2.23988,0.555144,-0.0402802
2.29607,0.451303,0
2.39667,0.231618,-0.0280317
2.34003,0.342208,-0.301023
2.23242,0.553295,0.0133674
2.35095,0.343805,-0.0138091
2.29457,0.451008,-0.251892
2.40628,0.232546,-0.225668
2.40065,0.232002,0.0280783
2.29047,0.450204,-0.16323
2.34714,0.343248,-0.193647
2.35855,0.344916,0.0416065
2.23176,0.553131,-0.147358
2.40073,0.23201,-0.140464
2.353,0.344105,0.0968833
2.30233,0.452533,0.288099
2.23448,0.553807,-0.0937896
2.29937,0.451952,-0.0545288
2.24569,0.548271,-0.04035
2.34327,0.334332,-0.0688864
2.30156,0.444044,0
2.40941,0.224363,-0.0281714
2.34121,0.334038,-0.301023
2.23433,0.545499,0.0133674
2.29613,0.442997,-0.251892
2.30486,0.444681,0.0546219
2.41339,0.224734,0.028218
2.29595,0.442962,-0.163509
2.23731,0.546226,0.0670246
2.23368,0.545338,-0.147358
2.40948,0.224369,-0.140929
2.35814,0.336454,0.0970462
2.31169,0.445999,0.289074
2.34833,0.335054,0.193647
2.24417,0.5479,-0.0941152
2.2437,0.539493,-0.0402802
2.35234,0.327251,-0.0691191
2.3426,0.325896,-0.473035
2.41416,0.216308,-0.028218
2.34629,0.32641,-0.301529
2.29375,0.434239,-0.251464
2.41416,0.216308,0.028218
2.30532,0.436429,-0.164067
2.23557,0.537537,-0.147358
2.40627,0.2156,-0.140696
2.3593,0.32822,0.0970462
2.31323,0.437926,0.289074
2.35343,0.327403,0.193973
2.24607,0.540062,-0.0941152
2.37363,0.330214,0.436943
2.29461,0.434401,-0.0543427
2.25335,0.5335,-0.0404198
2.34951,0.3185,-0.0690027
2.3515,0.31877,-0.474604
2.3046,0.427964,0
2.41889,0.208222,-0.0282646
2.35135,0.31875,-0.302034
2.24587,0.531729,0.0134139
2.36632,0.320779,-0.0138789
2.29526,0.426229,-0.251464
2.41652,0.208018,-0.226412
2.31184,0.429308,0.0547149
2.42288,0.208565,0.0283111
2.30291,0.42765,-0.163788
2.24496,0.531513,0.067141
2.24131,0.53065,-0.147614
2.41098,0.207541,-0.140929
2.36043,0.319982,0.0970462
2.30996,0.42896,-0.109441
2.35456,0.319185,0.193973
2.24794,0.532218,-0.0941152
2.37867,0.322454,0.43766
2.31184,0.429308,-0.0547149
2.24723,0.5246,-0.0402802
2.35446,0.311643,-0.0691191
2.34471,0.310352,-0.473035
2.3138,0.422158,0
2.41156,0.199961,-0.0281714
2.35627,0.311883,-0.302539
2.25143,0.525581,0.0134371
2.36335,0.312819,-0.0138556
2.3005,0.41973,-0.251892
2.41716,0.200426,-0.226412
2.31318,0.422044,0.0547149
2.41953,0.200622,0.0282646
2.31209,0.421846,-0.164346
2.24686,0.524514,-0.14787
2.4156,0.200297,-0.141162
2.36539,0.313089,0.097209
2.31218,0.421862,0.288587
2.3595,0.31231,0.194298
2.25738,0.526971,-0.0944409
2.31318,0.422044,-0.0547149
2.26074,0.51944,-0.0404896
2.35553,0.303423,-0.0691191
2.34967,0.302667,-0.473819
2.31526,0.414079,0
2.42022,0.192176,-0.0282646
2.36128,0.304163,-0.303044
2.25715,0.518615,0.0134604
2.30586,0.412398,-0.252321
2.42976,0.192933,-0.227527
2.42022,0.192176,0.0282646
2.30962,0.413071,-0.164067
2.25645,0.518456,-0.148382
2.42027,0.19218,-0.141394
2.3744,0.305853,0.0975347
2.37311,0.305687,-0.125397
2.25531,0.518194,-0.0942781
2.31857,0.414671,-0.054808
2.25864,0.510664,-0.0404198
2.36451,0.296193,-0.0693518
2.35849,0.295439,-0.475388
2.32457,0.407376,0
2.43284,0.184635,-0.0284042
2.36233,0.295919,-0.303044
2.25504,0.509851,0.0134371
2.3112,0.405033,-0.252749
2.43683,0.184938,0.0284508
2.31498,0.405695,-0.164346
2.25803,0.510526,0.0673737
2.37706,0.297765,0.041816
2.25046,0.508816,-0.14787
2.42889,0.184335,-0.141859
2.37942,0.29806,0.0976975
2.36558,0.296327,0.194624
2.26101,0.5112,-0.0944409
2.26049,0.502382,-0.0404198
2.36558,0.287524,-0.0693518
2.36735,0.287739,-0.476957
2.32211,0.398177,0
2.42951,0.175428,-0.0283577
2.36734,0.287737,-0.303549
2.37846,0.289089,-0.0139253
2.31267,0.396559,-0.252749
2.43902,0.176115,-0.228271
2.4335,0.175716,0.0284042
2.32432,0.398556,-0.164904
2.25988,0.502246,0.0673737
2.38607,0.290015,0.0419556
2.26011,0.502296,-0.148382
2.42955,0.175431,-0.141859
2.38049,0.289336,0.0976975
2.26287,0.502909,-0.0944409
2.39461,0.291052,0.439812
2.27005,0.496196,-0.0405594
2.36444,0.279013,-0.476173
2.32743,0.390731,0
2.4341,0.16722,-0.0284042
2.37227,0.279936,-0.304054
2.25863,0.4937,0.0134371
2.31404,0.388483,-0.252749
2.43962,0.1676,-0.228271
2.39104,0.282152,0.0420254
2.26965,0.496108,-0.148893
2.43413,0.167222,-0.142092
2.38149,0.281024,0.0976975
2.32885,0.390969,-0.11
2.38348,0.281259,0.195926
2.26851,0.49586,-0.0946037
2.33074,0.391287,-0.0549941
2.27168,0.488666,-0.0405594
2.37146,0.271871,-0.0694682
2.36925,0.271618,-0.476957
2.32871,0.383011,0
2.43464,0.159148,-0.0284042
2.38107,0.272972,-0.305064
2.27199,0.488732,0.0135069
2.39229,0.274259,-0.0139951
2.31532,0.380808,-0.252749
2.44414,0.159769,-0.228642
2.44661,0.159931,0.0285439
2.32304,0.382078,-0.164625
2.26716,0.487692,0.06749
2.27518,0.489418,-0.149149
2.43865,0.159411,-0.142324
2.38638,0.273581,0.0978603
2.33408,0.383893,-0.110186
2.38044,0.2729,0.1956
2.27405,0.489175,-0.0947666
2.28128,0.48199,-0.040699
2.38038,0.264059,-0.0697009
2.37023,0.262933,-0.476957
2.3301,0.374474,0
2.4392,0.15047,-0.0284508
2.38599,0.264682,-0.305569
2.27768,0.481229,0.0135301
2.32848,0.374213,-0.254034
2.45517,0.151455,0.0286371
2.3323,0.374828,-0.165183
2.26893,0.47938,0.06749
2.39693,0.265895,0.0420952
2.27696,0.481077,-0.149149
2.43922,0.150472,-0.142324
2.38736,0.264833,0.0978603
2.33547,0.375336,-0.110186
2.27192,0.480012,-0.0946037
2.28295,0.474023,-0.040699
2.38527,0.256175,-0.0698173
2.37894,0.255495,-0.478526
2.33535,0.366958,0
2.4437,0.142187,-0.0284974
2.3869,0.256351,-0.305569
2.27151,0.471648,0.0134836
2.32977,0.366082,-0.254034
2.45568,0.142884,0.0286371
2.3336,0.366684,-0.165183
2.27842,0.473082,0.0677228
2.27863,0.473125,-0.149149
2.44771,0.14242,-0.142789
2.40019,0.257778,0.0983488
2.34071,0.367801,-0.110372
2.28141,0.473703,-0.0949294
2.27667,0.464849,-0.0405594
2.3861,0.248263,-0.0698173
2.38367,0.24801,-0.479311
2.34446,0.360427,0
2.45215,0.13452,-0.0285905
2.38774,0.248433,-0.305569
2.27698,0.464912,0.0135069
2.40299,0.25002,-0.0140416
2.32704,0.35775,-0.253606
2.33875,0.359549,-0.165462
2.40266,0.249986,0.042165
2.28409,0.466364,-0.149405
2.44816,0.134301,-0.142789
2.40501,0.25023,0.0985116
2.35445,0.361963,0.292486
2.39506,0.249195,0.196577
2.2908,0.467733,-0.095255
2.28621,0.458074,-0.040699
2.38847,0.239664,-0.480095
2.34972,0.352425,0
2.45262,0.125532,-0.0285905
2.3296,0.349409,-0.366486
2.38864,0.239681,-0.305569
2.28259,0.45735,0.0135301
2.33227,0.349809,-0.254034
2.45808,0.125811,-0.229758
2.46461,0.126145,0.0287302
2.34399,0.351567,-0.165741
2.28167,0.457164,0.0677228
2.41152,0.241977,0.0423046
2.2897,0.458774,-0.149661
2.44864,0.125328,-0.142789
2.40989,0.241813,0.0986745
2.34322,0.351451,-0.110372
2.35969,0.353921,0.292974
2.39596,0.240415,0.196577
2.2925,0.459334,-0.095255
2.28779,0.45009,-0.040699
2.38539,0.230946,-0.479311
2.34302,0.343062,0
2.46104,0.11735,-0.0286836
2.39736,0.232105,-0.306579
2.2881,0.450151,0.0135534
2.41268,0.233589,-0.0140881
2.33741,0.342241,-0.254463
2.46646,0.117609,-0.230501
2.35821,0.345286,0.0554593
2.46503,0.117541,0.0287302
2.34521,0.343382,-0.165741
2.28325,0.449196,0.0677228
2.46502,0.11754,-0.14372
2.35881,0.345374,0.138836
2.41072,0.233399,0.0986745
2.36091,0.345681,0.292974
2.40869,0.233202,0.197553
2.29409,0.451329,-0.095255
2.29327,0.442861,-0.0407688
2.40055,0.223961,-0.0701664
2.39008,0.222984,-0.480095
2.35212,0.336014,0
2.45744,0.108584,-0.0286371
2.39815,0.223737,-0.306579
2.28966,0.442163,0.0135534
2.33466,0.333519,-0.254034
2.47084,0.109176,-0.230873
2.46942,0.109114,0.0287768
2.35429,0.336324,-0.166299
2.29677,0.443536,-0.149916
2.46142,0.10876,-0.143487
2.36395,0.337704,0.139069
2.35748,0.33678,-0.11093
2.36603,0.338001,0.293461
2.40552,0.224424,0.197227
2.29172,0.442562,-0.0950922
2.30259,0.436744,-0.0409084
2.39862,0.215759,-0.481664
2.35718,0.328764,0
2.46577,0.10076,-0.0287302
2.40283,0.216138,-0.307084
2.42218,0.217879,-0.0141346
2.34363,0.326873,-0.254891
2.46977,0.100924,0.0287768
2.34749,0.327412,-0.165741
2.29411,0.435136,0.0679555
2.42185,0.217849,0.0424443
2.29822,0.435916,-0.149916
2.46975,0.100923,-0.143952
2.41623,0.217344,0.0988373
2.35463,0.328408,-0.110744
2.30103,0.436449,-0.0954179
2.30017,0.427972,-0.0408386
2.40601,0.207959,-0.0702827
2.40327,0.207723,-0.482449
2.36228,0.321072,0
2.46611,0.0921518,-0.0287302
2.40753,0.208091,-0.307589
2.29655,0.427298,0.0135766
2.42691,0.209766,-0.0141578
2.47948,0.0926514,-0.231617
2.4821,0.0927492,0.0289165
2.36048,0.320827,-0.166578
2.29561,0.427124,0.0679555
2.42658,0.209738,0.0425141
2.30366,0.428621,-0.150172
2.47009,0.0923004,-0.143952
2.3662,0.321604,0.139069
2.42892,0.20994,0.0993258
2.35972,0.320724,-0.11093
2.37614,0.322956,0.294436
2.41891,0.209074,0.198204
2.3104,0.429875,-0.0957435
2.30558,0.420658,-0.0409084
2.40789,0.199657,-0.483233
2.36339,0.312825,0
2.47042,0.0836788,-0.0287768
2.41219,0.200014,-0.308094
2.29802,0.419279,0.0135766
2.48377,0.0841312,-0.231988
2.48641,0.0842205,0.028963
2.36159,0.312586,-0.166578
2.30496,0.420544,0.0681882
2.31299,0.422011,-0.150684
2.47039,0.0836781,-0.143952
2.37522,0.314391,0.139534
2.42566,0.20113,0.0991629
2.36083,0.312486,-0.11093
2.37726,0.314661,0.294436
2.42359,0.200959,0.198529
2.31189,0.421808,-0.0957435
2.30696,0.413011,-0.0409084
2.40463,0.19136,-0.482449
2.35648,0.303963,0
2.47868,0.075731,-0.0288699
2.35199,0.303383,-0.368946
2.4168,0.192329,-0.3086
2.30728,0.413067,0.0136231
2.35081,0.303232,-0.255319
2.48404,0.0758948,-0.231988
2.49067,0.0760974,0.0290096
2.35865,0.304243,-0.166299
2.31028,0.413604,0.0683046
2.31438,0.414338,-0.150684
2.48263,0.0758519,-0.14465
2.37625,0.306514,0.139534
2.43428,0.19372,0.0994886
2.36978,0.305678,-0.111302
2.38223,0.307284,0.294924
2.43219,0.193554,0.19918
2.31721,0.414844,-0.0959064
2.3124,0.405244,-0.0409782
2.41313,0.18314,-0.484018
2.36551,0.296319,0
2.48293,0.0667537,-0.0289165
2.4254,0.184071,-0.30961
2.32059,0.406679,0.0136929
2.43695,0.184947,-0.0142043
2.49093,0.0669687,0.0290096
2.37163,0.297085,-0.167137
2.42891,0.184337,-0.198855
2.31178,0.405134,0.0683046
2.44061,0.185225,0.0427235
2.31588,0.405854,-0.150684
2.48689,0.06686,-0.144882
2.38132,0.298299,0.139766
2.43896,0.1851,0.0996514
2.37088,0.296991,-0.111302
2.38334,0.298551,0.294924
2.42494,0.184036,0.198529
2.31871,0.406349,-0.0959064
2.32563,0.399199,-0.0411877
2.41376,0.174715,-0.484018
2.37447,0.289026,0
2.48715,0.0581791,-0.028963
2.42207,0.175316,-0.309105
2.31412,0.397223,0.0136464
2.49115,0.0582727,0.0290096
2.36869,0.288322,-0.166857
2.42954,0.175857,-0.198855
2.44124,0.176704,0.0427235
2.31335,0.397091,-0.150428
2.4911,0.0582714,-0.145115
2.44357,0.176873,0.0998143
2.37984,0.289678,-0.111675
2.3883,0.290709,0.295411
2.42954,0.175857,0.198855
2.32011,0.398252,-0.0959064
2.32299,0.39082,-0.0411179
2.42215,0.167249,-0.485586
2.37542,0.281149,0
2.49133,0.0500107,-0.0290096
2.4266,0.167556,-0.30961
2.50333,0.0502515,0.0291493
2.37756,0.281402,-0.167416
2.43807,0.168348,-0.199506
2.31448,0.389387,0.0683046
2.44979,0.169158,0.0428631
2.32253,0.390742,-0.15094
2.49527,0.0500898,-0.145348
2.39123,0.28302,0.140231
2.44814,0.169043,0.0999771
2.37682,0.281314,-0.111489
2.38531,0.28232,0.294924
2.43807,0.168348,0.199506
2.32931,0.391882,-0.096232
2.32829,0.383359,-0.0411877
2.43055,0.159307,-0.487155
2.38433,0.273769,0
2.49949,0.0414472,-0.0291027
2.36385,0.271416,-0.370176
2.43113,0.159345,-0.310115
2.32071,0.382111,0.0136696
2.50476,0.0415347,-0.233847
2.39164,0.274607,0.0560176
2.50749,0.0415798,0.0291958
2.38249,0.273557,-0.167695
2.44659,0.160359,-0.200157
2.32766,0.383255,0.0686537
2.32782,0.383281,-0.151196
2.49144,0.0413137,-0.145115
2.3922,0.274672,0.140231
2.44871,0.160497,0.0999771
2.37381,0.272561,-0.111302
2.39417,0.274898,0.295899
2.44262,0.160098,0.199831
2.33066,0.383749,-0.096232
2.33356,0.375866,-0.0412575
2.42717,0.150579,-0.486371
2.38528,0.265445,0
2.50362,0.032775,-0.0291493
2.36871,0.263601,-0.370791
2.43563,0.151104,-0.31062
2.33388,0.375917,0.0137394
2.45125,0.152073,-0.0142741
2.51286,0.032896,-0.234591
2.50762,0.0328273,0.0291958
2.37947,0.264798,-0.167416
2.45112,0.152065,-0.200482
2.33688,0.3764,0.0688864
2.32914,0.375154,-0.151196
2.50354,0.032774,-0.145813
2.40108,0.267204,0.140696
2.45723,0.152444,0.100303
2.37475,0.264273,-0.111302
2.39906,0.266979,0.296386
2.4551,0.152312,0.200808
2.33888,0.367933,-0.0413273
2.43162,0.141911,-0.487155
2.38623,0.256701,0
2.37359,0.255341,-0.371406
2.44805,0.14287,-0.312135
2.33919,0.367982,0.0137626
2.45977,0.143554,-0.0143206
2.51695,0.0237237,-0.234963
2.39751,0.257915,0.0561107
2.51172,0.0236745,0.0292424
2.38439,0.256503,-0.167695
2.45166,0.14308,-0.200482
2.33034,0.36659,0.0686537
2.45944,0.143535,0.0430027
2.3305,0.366615,-0.151196
2.51163,0.0236737,-0.146278
2.45379,0.143205,0.10014
2.38365,0.256423,-0.111675
2.40003,0.258185,0.296386
2.45166,0.14308,0.200482
2.34124,0.368305,-0.0965577
2.34008,0.360174,-0.0413273
2.43991,0.134277,-0.488724
2.38707,0.248786,0
2.37835,0.247877,-0.37202
2.44059,0.134314,-0.311125
2.33645,0.359614,0.0137394
2.52099,0.0154008,-0.235334
2.40233,0.250377,0.0562037
2.51578,0.0153689,0.029289
2.39316,0.249421,-0.168253
2.46008,0.135387,-0.201133
2.33155,0.35886,0.0686537
2.3317,0.358884,-0.151196
2.51968,0.0153928,-0.146743
2.46223,0.135505,0.100466
2.39243,0.249345,-0.112047
2.46089,0.135432,-0.129165
2.40482,0.250636,0.296874
2.4561,0.135168,0.200808
2.3464,0.361146,-0.0967205
2.33737,0.351408,-0.0412575
2.44429,0.125961,-0.489509
2.51182,0.00657599,-0.0292424
2.44896,0.126202,-0.312135
2.34164,0.35205,0.0137626
2.46868,0.127218,-0.0143671
2.52501,0.00661053,-0.235706
2.40717,0.24239,0.0562968
2.51982,0.00659693,0.0293355
2.38608,0.240265,-0.167695
2.46054,0.126798,-0.201133
2.34069,0.351907,0.0688864
2.46835,0.127201,0.0431423
2.33689,0.351336,-0.151451
2.51573,0.00658622,-0.14651
2.40772,0.242445,0.140929
2.46668,0.127115,0.100628
2.39329,0.240992,-0.112047
2.40963,0.242637,0.297361
2.46054,0.126798,0.201133
2.47978,0.12779,0.452727
2.33858,0.343246,-0.0412575
2.45255,0.117804,-0.491078
2.40069,0.233274,0
2.52783,-0.00220659,-0.0294287
2.38789,0.232031,-0.37325
2.45335,0.117842,-0.31264
2.34682,0.344455,0.0137859
2.41198,0.234372,0.0563898
2.52383,-0.00220309,0.0293821
2.39882,0.233092,-0.168532
2.46893,0.118591,-0.201784
2.35377,0.345476,0.0692355
2.47277,0.118775,0.0432122
2.346,0.344335,-0.151963
2.52372,-0.002203,-0.146975
2.41253,0.234425,0.141162
2.46311,0.118311,0.100466
2.39809,0.233022,-0.112233
2.41441,0.234607,0.297849
2.46893,0.118591,0.201784
2.48414,0.119321,0.453444
2.35164,0.336784,-0.0414669
2.45686,0.109418,-0.491862
2.40548,0.225268,0
2.52381,-0.0110111,-0.0293821
2.39656,0.224433,-0.37448
2.46564,0.109809,-0.314155
2.4775,0.110337,-0.0144135
2.41677,0.226325,0.0564829
2.5318,-0.011046,0.0294752
2.40359,0.225091,-0.168811
2.47331,0.110151,-0.202109
2.35497,0.337259,0.0692355
2.35509,0.337277,-0.152475
2.53169,-0.0110455,-0.147441
2.42129,0.226748,0.141627
2.4715,0.11007,0.100791
2.40685,0.225396,-0.112605
2.47415,0.110188,-0.129793
2.41522,0.22618,0.297849
2.46933,0.109973,0.201784
2.35797,0.337689,-0.0970462
2.35281,0.328572,-0.0414669
2.46115,0.101002,-0.492647
2.41421,0.217587,0
2.53175,-0.0198843,-0.0294752
2.40126,0.21642,-0.375095
2.46601,0.101201,-0.314155
2.35313,0.328617,0.0138091
2.48187,0.101852,-0.0144368
2.39637,0.215979,-0.259175
2.54087,-0.019956,-0.237193
2.41754,0.217887,0.0564829
2.53575,-0.0199157,0.0295218
2.40436,0.216699,-0.168811
2.47767,0.101679,-0.202435
2.35217,0.328483,0.0691191
2.48153,0.101838,0.0433518
2.3523,0.328502,-0.152219
2.42206,0.218294,0.141627
2.47985,0.101769,0.101117
2.40762,0.216993,-0.112605
2.41599,0.217747,0.297849
2.47368,0.101516,0.202109
2.35913,0.329455,-0.0970462
2.36186,0.321437,-0.0416065
2.46932,0.0927048,-0.494216
2.41496,0.209159,0
2.53167,-0.0287211,-0.0294752
2.47031,0.092742,-0.31466
2.36218,0.32148,0.0138556
2.42227,0.209793,0.056576
2.53966,-0.0288119,0.0295684
2.4051,0.208305,-0.168811
2.35726,0.32081,0.0692355
2.48187,0.0931759,0.0433518
2.35343,0.320289,-0.152219
2.53953,-0.0288104,-0.147906
2.43077,0.210528,0.142092
2.48419,0.0932628,0.10128
2.42031,0.209622,-0.113164
2.48284,0.0932123,-0.130212
2.42465,0.209998,0.298824
2.47402,0.0928811,0.202109
2.36027,0.321219,-0.0970462
2.35895,0.313076,-0.0415367
2.46962,0.084515,-0.494216
2.41963,0.201481,0
2.53956,-0.0372342,-0.0295684
2.40662,0.200398,-0.37571
2.46664,0.0844132,-0.314155
2.36324,0.313644,0.0138556
2.48251,0.0849561,-0.0144368
2.43093,0.202422,0.0567621
2.54755,-0.0373515,0.0296615
2.41771,0.201321,-0.169648
2.36228,0.313517,0.0693518
2.49016,0.0852181,0.0434914
2.3624,0.313533,-0.152731
2.53942,-0.0372323,-0.147906
2.43145,0.202466,0.142092
2.49247,0.0852972,0.101605
2.48314,0.0849777,-0.130212
2.43324,0.202615,0.299799
2.48228,0.0849485,0.20276
2.36924,0.314441,-0.0973718
2.36394,0.305765,-0.0416065
2.47772,0.0765678,-0.495785
2.42427,0.193775,0
2.55141,-0.0458707,-0.029708
2.41121,0.192732,-0.376325
2.47088,0.0763561,-0.31466
2.36823,0.306319,0.0138789
2.49477,0.0770944,-0.0145065
2.54851,-0.0458184,-0.237937
2.43557,0.194679,0.0568551
2.55541,-0.0459426,0.0297546
2.42632,0.193939,-0.170206
2.37123,0.306708,0.0695846
2.49443,0.077084,0.0435612
2.35946,0.305185,-0.152475
2.54328,-0.0457244,-0.148138
2.42813,0.194084,0.141859
2.49274,0.0770318,0.101605
2.42164,0.193565,-0.113164
2.43786,0.194862,0.300286
2.48255,0.076717,0.20276
2.37027,0.306583,-0.0973718
2.36505,0.297099,-0.0416065
2.47015,0.0672729,-0.494216
2.42496,0.184889,0
2.55523,-0.0553078,-0.0297546
2.4119,0.183893,-0.376325
2.487,0.067732,-0.316681
2.37728,0.298635,0.0139253
2.41498,0.184128,-0.260888
2.43627,0.185751,0.0568551
2.55123,-0.0552212,0.029708
2.42303,0.184742,-0.169927
2.37631,0.298514,0.0697009
2.49869,0.0680504,0.043631
2.36453,0.297034,-0.152731
2.55507,-0.0553044,-0.148836
2.43679,0.185791,0.142324
2.497,0.0680043,0.101768
2.42632,0.184993,-0.11335
2.49565,0.0679675,-0.13084
2.4346,0.185624,0.299799
2.49079,0.0678351,0.203411
2.50968,0.0683496,0.457749
2.37798,0.290295,-0.041816
2.47821,0.0588357,-0.495785
2.42958,0.176713,0
2.55902,-0.064328,-0.0298012
2.41647,0.175759,-0.37694
2.49516,0.0592381,-0.317691
2.50325,0.0594302,-0.014553
2.41957,0.175985,-0.261317
2.44488,0.177825,0.0570412
2.55502,-0.0642275,0.0297546
2.4356,0.177151,-0.170764
2.37734,0.290216,0.0697009
2.50691,0.0595171,0.0437706
2.37744,0.290229,-0.153498
2.56285,-0.0644243,-0.149301
2.43742,0.177283,0.142324
2.50522,0.0594768,0.102094
2.43891,0.177391,-0.113908
2.49986,0.0593498,-0.131049
2.43523,0.177124,0.299799
2.49101,0.0591395,0.203411
2.37241,0.289614,-0.0973718
2.37893,0.282407,-0.041816
2.48623,0.0507768,-0.497353
2.43814,0.169208,0
2.56679,-0.0730419,-0.0298943
2.49137,0.0508818,-0.317186
2.37925,0.282445,0.0139253
2.42411,0.168235,-0.261745
2.44545,0.169716,0.0570412
2.56679,-0.0730419,0.0298943
2.43618,0.169072,-0.170764
2.37829,0.282331,0.0697009
2.5071,0.0512028,0.0437706
2.37442,0.281872,-0.153242
2.56661,-0.0730369,-0.149534
2.44198,0.169475,0.142557
2.50939,0.0512498,0.102257
2.43948,0.169302,-0.113908
2.44373,0.169596,0.300774
2.49518,0.0509594,0.203737
2.38129,0.282687,-0.0976975
2.37995,0.273687,-0.041816
2.49425,0.0417959,-0.498922
2.44273,0.160534,0
2.5705,-0.082577,-0.0299409
2.42553,0.159403,-0.37817
2.49948,0.0418836,-0.318196
2.38822,0.274638,0.0139718
2.51161,0.0420868,-0.0145995
2.45005,0.161015,0.0571343
2.5705,-0.082577,0.0299409
2.44474,0.160666,-0.171322
2.37931,0.273612,0.0697009
2.50727,0.0420141,0.0437706
2.38337,0.27408,-0.153754
2.55834,-0.0821865,-0.149068
2.44258,0.160524,0.142557
2.51356,0.0421196,0.10242
2.44806,0.160884,-0.11428
2.45225,0.16116,0.301749
2.39025,0.274871,-0.0980231
2.526,0.042328,0.460619
2.37692,0.264934,-0.0417462
2.4983,0.0331405,-0.499707
2.44727,0.152254,0
2.5702,-0.0915499,-0.0299409
2.43396,0.151426,-0.379399
2.50358,0.0332105,-0.318701
2.38916,0.266299,0.0139718
2.50774,0.0332657,-0.0145763
2.4506,0.152461,0.0571343
2.58219,-0.0919771,0.0300806
2.44529,0.152131,-0.171322
2.38819,0.266191,0.0699336
2.5154,0.0333673,0.0439103
2.38828,0.2662,-0.15401
2.57001,-0.0915434,-0.149766
2.4511,0.152492,0.143022
2.51769,0.0333977,0.102582
2.44063,0.151841,-0.113908
2.4528,0.152598,0.301749
2.50744,0.0332617,0.204713
2.3912,0.266525,-0.0980231
2.53006,0.0335619,0.461337
2.45459,0.152709,-0.0572273
2.38971,0.25834,-0.0419556
2.50624,0.0249342,-0.501276
2.44776,0.144138,0
2.58586,-0.100695,-0.0301271
2.43839,0.143586,-0.380014
2.50764,0.0249481,-0.319206
2.39799,0.259235,0.0140183
2.51983,0.0250694,-0.014646
2.57485,-0.100265,-0.240539
2.45109,0.144334,0.0571343
2.57787,-0.100383,0.030034
2.44578,0.144021,-0.171322
2.39701,0.259129,0.0701664
2.38518,0.25785,-0.153754
2.58167,-0.100531,-0.150464
2.45956,0.144833,0.143487
2.52178,0.0250888,0.102745
2.46122,0.144931,0.302723
2.51152,0.0249867,0.205038
2.39207,0.258595,-0.0980231
2.39064,0.24958,-0.0419556
2.51416,0.015798,-0.502845
2.46025,0.135828,0
2.58148,-0.110001,-0.0300806
2.4389,0.134649,-0.380014
2.51962,0.0158324,-0.320721
2.39892,0.250445,0.0140183
2.44213,0.134827,-0.263459
2.58242,-0.110041,-0.241283
2.45559,0.13557,0.0572273
2.59347,-0.110512,0.0302203
2.45426,0.135497,-0.17188
2.39397,0.249928,0.07005
2.39405,0.249936,-0.154266
2.58527,-0.110162,-0.150696
2.46008,0.135818,0.143487
2.52985,0.0158966,0.103071
2.46158,0.135901,-0.114839
2.4657,0.136128,0.303211
2.5116,0.0157819,0.205038
2.39697,0.250241,-0.098186
2.40344,0.242437,-0.042165
2.51093,0.00701207,-0.0730754
2.46071,0.127238,0
2.58907,-0.11938,-0.0301737
2.4433,0.126338,-0.380629
2.51569,0.00702538,-0.320216
2.39978,0.242069,0.0140183
2.53195,0.00707077,-0.0147158
2.44259,0.126301,-0.263459
2.586,-0.119238,-0.241655
2.46005,0.127204,0.0573204
2.58508,-0.119196,0.0301271
2.46269,0.12734,-0.172438
2.39881,0.24197,0.0701664
2.52761,0.00705865,0.0441197
2.39094,0.241176,-0.15401
2.58487,-0.119186,-0.150696
2.46851,0.127642,0.143952
2.52589,0.00705387,0.102908
2.52852,0.0070612,-0.132515
2.47409,0.12793,0.304186
2.5236,0.00704745,0.206015
2.39386,0.241471,-0.0980231
2.39622,0.234108,-0.0420254
2.51494,-0.000877179,-0.0731918
2.47309,0.120089,0
2.59668,-0.127906,-0.0302668
2.44764,0.118854,-0.381244
2.52364,-0.000880214,-0.321226
2.41247,0.235696,0.0140881
2.53596,-0.000884511,-0.014739
2.47242,0.120057,0.0575995
2.46706,0.119797,-0.172717
2.53158,-0.000882984,-0.206666
2.40751,0.235211,0.0703991
2.39566,0.234053,-0.154266
2.58847,-0.127502,-0.150929
2.46491,0.119693,0.14372
2.5339,-0.000883793,0.103234
2.53252,-0.000883313,-0.132724
2.47845,0.12035,0.304673
2.5236,-0.000880203,0.206015
2.40256,0.234727,-0.0983488
2.54603,-0.000888023,0.464207
2.47242,0.120057,-0.0575995
2.40109,0.225279,-0.0420952
2.47752,0.110771,0
2.60415,-0.138301,-0.0303599
2.45202,0.109631,-0.381859
2.52362,-0.0105709,-0.321226
2.41734,0.226804,0.0141113
2.53994,-0.0106392,-0.0147623
2.45136,0.109601,-0.264316
2.58908,-0.1375,-0.242026
2.46886,0.110383,0.0575065
2.60415,-0.138301,0.0303599
2.47149,0.110501,-0.172996
2.41238,0.226338,0.0705155
2.40449,0.225597,-0.154777
2.59594,-0.137865,-0.151394
2.47732,0.110762,0.144417
2.53388,-0.0106138,0.103234
2.46686,0.110294,-0.115025
2.48682,0.111186,0.305648
2.53156,-0.0106041,0.206666
2.40742,0.225873,-0.0985116
2.49346,0.111483,0.668788
2.55388,-0.0106976,0.465642
2.47685,0.110741,-0.0576926
2.41373,0.218818,-0.0423046
2.47786,0.102987,0
2.6077,-0.146706,-0.0304065
2.4642,0.10242,-0.383704
2.42203,0.21957,0.0141346
2.59261,-0.145857,-0.242398
2.48119,0.103125,0.0577856
2.6077,-0.146706,0.0304065
2.47182,0.102736,-0.172996
2.41706,0.21912,0.0706318
2.54754,-0.0186742,0.0444687
2.40916,0.218403,-0.155033
2.59549,-0.146019,-0.151394
2.48165,0.103145,0.14465
2.53783,-0.018603,0.103397
2.47917,0.103042,-0.115583
2.54045,-0.0186222,-0.133143
2.48319,0.103209,0.305161
2.53151,-0.0185567,0.206666
2.4121,0.21867,-0.0986745
2.49766,0.10381,0.669824
2.47319,0.102793,-0.0575995
2.41448,0.21039,-0.0423046
2.53078,-0.0273869,-0.0736572
2.53367,-0.0274181,-0.506767
2.4782,0.0943366,0
2.61516,-0.156285,-0.0304996
2.45665,0.093516,-0.382474
2.42676,0.211461,0.0141578
2.45998,0.0936428,-0.265172
2.60004,-0.155382,-0.243142
2.47753,0.0943111,0.0576926
2.61116,-0.156047,0.0304531
2.48014,0.0944104,-0.173554
2.42578,0.211375,0.0708645
2.55146,-0.0276107,0.0445385
2.40991,0.209992,-0.155033
2.60294,-0.155555,-0.151859
2.54574,-0.0275487,0.103722
2.49147,0.0948416,0.306136
2.40887,0.209901,-0.0985116
2.50187,0.0952374,0.670859
2.48153,0.0944632,-0.0577856
2.41919,0.202295,-0.0423744
2.53867,-0.0363347,-0.07389
2.53748,-0.0363177,-0.507552
2.48651,0.0859624,0
2.6146,-0.165412,-0.0304996
2.46881,0.0853503,-0.384319
2.54322,-0.0363998,-0.323752
2.43147,0.203322,0.0141811
2.46426,0.0851932,-0.265601
2.60743,-0.164959,-0.243885
2.48984,0.0860773,0.0579717
2.61859,-0.165665,0.0305462
2.48445,0.0858909,-0.173833
2.42252,0.202573,0.0707482
2.41858,0.202244,-0.155545
2.61035,-0.165144,-0.152324
2.54962,-0.0364915,0.103885
2.55224,-0.0365289,-0.133771
2.49972,0.086419,0.307111
2.53929,-0.0363436,0.207317
2.41357,0.201825,-0.0986745
2.49832,0.0863707,0.669824
2.48584,0.0859392,-0.0578787
2.41593,0.193107,-0.0423046
2.61397,-0.174995,-0.0304996
2.47306,0.0764225,-0.384934
2.551,-0.0458642,-0.324762
2.4322,0.194408,0.0141811
2.55954,-0.0460178,-0.0148785
2.47251,0.0764057,-0.266457
2.61873,-0.175313,-0.245001
2.49813,0.0771974,0.0581579
2.62594,-0.175796,0.0306393
2.48873,0.076907,-0.174112
2.43121,0.194329,0.0709809
2.5592,-0.0460116,0.0446782
2.41533,0.193059,-0.155289
2.61371,-0.174977,-0.152557
2.49458,0.0770877,0.145348
2.55746,-0.0459804,0.104211
2.50399,0.0773785,0.307598
2.54711,-0.0457943,0.207968
2.41827,0.193295,-0.0988373
2.50249,0.077332,0.670859
2.48614,0.0768269,-0.0578787
2.42054,0.185402,-0.0423744
2.54235,-0.0541409,-0.0740063
2.54893,-0.0542811,-0.509905
2.49105,0.0687127,0
2.62535,-0.184501,-0.0306393
2.47725,0.0683318,-0.385548
2.43682,0.186649,0.0142043
2.47673,0.0683175,-0.266886
2.61416,-0.183715,-0.244629
2.49438,0.0688043,0.0580648
2.62934,-0.184782,0.0306859
2.43184,0.186268,0.0709809
2.41993,0.185355,-0.155545
2.6171,-0.183922,-0.152789
2.49881,0.0689268,0.14558
2.5573,-0.0544593,0.104211
2.49634,0.0688586,-0.116328
2.55093,-0.0543238,0.208293
2.42289,0.185582,-0.0990001
2.51045,0.0692478,0.67293
2.57299,-0.0547935,0.469229
2.49038,0.0686941,-0.0579717
2.42516,0.177242,-0.0424443
2.55014,-0.0632147,-0.074239
2.49528,0.0601117,0
2.62868,-0.19396,-0.0306859
2.48537,0.0598731,-0.386778
2.55856,-0.0634236,-0.325772
2.44145,0.178432,0.0142276
2.56717,-0.0636369,-0.014925
2.47695,0.0596702,-0.266886
2.61747,-0.193134,-0.245001
2.5026,0.0602881,0.0582509
2.63266,-0.194255,0.0307325
2.49319,0.0600614,-0.174391
2.43647,0.178068,0.0710973
2.57082,-0.0637274,0.0448876
2.42455,0.177197,-0.155801
2.62042,-0.193352,-0.153022
2.56508,-0.0635852,0.104536
2.50843,0.0604286,0.308086
2.56269,-0.0635258,0.209269
2.42751,0.177413,-0.0991629
2.4986,0.0601917,-0.0581579
2.42975,0.169053,-0.0425141
2.5539,-0.072229,-0.0743554
2.55633,-0.0722978,-0.511474
2.50347,0.0515659,0
2.62798,-0.203135,-0.0306859
2.47766,0.0510344,-0.385548
2.56229,-0.0724665,-0.326277
2.48509,0.0511875,-0.267743
2.62075,-0.202576,-0.245372
2.50679,0.0516343,0.058344
2.63596,-0.203751,0.030779
2.50136,0.0515225,-0.174949
2.44106,0.16984,0.0712136
2.43311,0.169286,-0.156312
2.62371,-0.202805,-0.153254
2.57284,-0.0727646,0.104862
2.50862,0.0516721,0.308086
2.4321,0.169216,-0.0993258
2.50679,0.0516343,-0.058344
2.43435,0.160409,-0.0425839
2.56161,-0.0818444,-0.0745881
2.56389,-0.0819173,-0.513043
2.51164,0.0425254,0
2.63121,-0.213089,-0.0307325
2.48574,0.0420868,-0.386778
2.56994,-0.0821107,-0.327287
2.45064,0.161483,0.0142741
2.57864,-0.0823886,-0.0149947
2.49322,0.0422135,-0.268599
2.62793,-0.212824,-0.246116
2.51096,0.0425139,0.058437
2.64715,-0.21438,0.0309187
2.50951,0.0424893,-0.175507
2.44566,0.161154,0.07133
2.57829,-0.0823774,0.0450272
2.43372,0.160368,-0.156312
2.63091,-0.213065,-0.15372
2.58054,-0.0824493,0.105188
2.52071,0.0426789,0.309548
2.57013,-0.0821168,0.20992
2.4327,0.160301,-0.0993258
2.50696,0.0424462,-0.058344
2.43489,0.151911,-0.0425839
2.5653,-0.0909272,-0.0747045
2.51577,0.0338116,0
2.6424,-0.223282,-0.0308722
2.49773,0.033569,-0.388623
2.4472,0.152678,0.0142508
2.58233,-0.0915309,-0.015018
2.49733,0.0335637,-0.269028
2.63908,-0.223001,-0.247231
2.51909,0.0338562,0.0586231
2.4502,0.152865,0.0714464
2.58198,-0.0915185,0.045097
2.43825,0.15212,-0.156568
2.63015,-0.222247,-0.15372
2.51551,0.0338081,0.14651
2.58423,-0.0915982,0.10535
2.57382,-0.091229,0.210246
2.43724,0.152057,-0.0994886
2.50709,0.033695,-0.058344
2.44337,0.144307,-0.0427235
2.56898,-0.0995884,-0.0748209
2.57111,-0.099671,-0.514612
2.51987,0.0255093,0
2.64563,-0.232393,-0.0309187
2.50177,0.0253261,-0.389238
2.45568,0.145034,0.0142973
2.5014,0.0253223,-0.269456
2.63833,-0.231752,-0.247231
2.51919,0.0255024,0.0586231
2.65759,-0.233443,0.0310584
2.45069,0.144739,0.0714464
2.58966,-0.10039,0.0452366
2.43874,0.144033,-0.156568
2.63736,-0.231667,-0.154185
2.58391,-0.100167,0.10535
2.58545,-0.100227,0.211222
2.44172,0.144209,-0.0996514
2.59917,-0.100759,0.474251
2.50719,0.025381,-0.058344
2.44386,0.135777,-0.0427235
2.57261,-0.108724,-0.0749372
2.57467,-0.108811,-0.515396
2.51594,0.0166866,0
2.64879,-0.241991,-0.0309653
2.50185,0.0165931,-0.389238
2.58482,-0.10924,-0.329308
2.46016,0.136683,0.0143206
2.50943,0.0166434,-0.270313
2.64543,-0.241684,-0.247975
2.52326,0.0167352,0.0587162
2.65676,-0.242719,0.0310584
2.52179,0.0167254,-0.176344
2.45517,0.136406,0.0715627
2.44321,0.135741,-0.156824
2.64449,-0.241598,-0.15465
2.59553,-0.109692,0.105839
2.59013,-0.109464,-0.135864
2.53292,0.0167992,0.311011
2.58907,-0.109419,0.211548
2.45019,0.136129,-0.0999771
2.51526,0.0166821,-0.0585301
2.44833,0.127026,-0.0427933
2.58019,-0.118519,-0.0751699
2.52799,0.00750071,0
2.64788,-0.251698,-0.0309653
2.50189,0.00742328,-0.389238
2.58836,-0.118895,-0.329813
2.46065,0.127665,0.0143206
2.51345,0.00745757,-0.270741
2.65642,-0.252509,-0.24909
2.5313,0.00751055,0.0589023
2.65983,-0.252833,0.031105
2.52183,0.00748244,-0.176344
2.45566,0.127406,0.0715627
2.44768,0.126992,-0.15708
2.65551,-0.252423,-0.155347
2.5937,-0.11914,-0.136073
2.53297,0.00751548,0.311011
2.58467,-0.118725,0.211222
2.45067,0.127147,-0.0999771
2.52331,0.00748682,-0.0587162
2.58379,-0.126821,-0.0752863
2.532,-0.000441914,0
2.65106,-0.260406,-0.0310118
2.58798,-0.127026,-0.329813
2.46104,0.119934,0.0143206
2.51744,-0.000439373,-0.27117
2.66355,-0.261632,-0.249834
2.66698,-0.26197,0.0311981
2.52982,-0.000441534,-0.176902
2.46004,0.119886,0.0716791
2.65868,-0.261154,-0.15558
2.52926,-0.000441436,-0.117817
2.59225,-0.127235,0.211873
2.45505,0.119642,-0.10014
2.53531,-0.000442493,-0.0589953
2.45711,0.111147,-0.0429329
2.59132,-0.136259,-0.075519
2.53998,-0.00930956,0
2.65809,-0.270468,-0.031105
2.51374,-0.00921339,-0.391083
2.46544,0.111524,0.0143438
2.60436,-0.136944,-0.0151575
2.5214,-0.00924144,-0.271598
2.67799,-0.272493,0.0313378
2.5338,-0.00928689,-0.177181
2.46444,0.111478,0.0717954
2.46043,0.111297,-0.157847
2.65378,-0.270029,-0.155347
2.54367,-0.00932309,0.148138
2.60623,-0.137043,0.106327
2.54487,-0.00932748,0.312473
2.59975,-0.136702,0.212524
2.45545,0.111072,-0.10014
2.5353,-0.00929239,-0.0589953
2.4615,0.102307,-0.0430027
2.5908,-0.145756,-0.075519
2.54393,-0.0186483,0
2.66504,-0.281048,-0.0311981
2.51765,-0.0184556,-0.391698
2.47382,0.102819,0.0143903
2.5293,-0.0185411,-0.272455
2.67349,-0.281938,-0.250949
2.54724,-0.0186726,0.0592745
2.67697,-0.282306,0.0313378
2.53773,-0.0186029,-0.17746
2.46882,0.102611,0.0719118
2.46082,0.102279,-0.157847
2.66071,-0.280591,-0.155813
2.54362,-0.0186461,0.148138
2.6137,-0.147043,0.106653
2.53718,-0.0185988,-0.118189
2.55276,-0.018713,0.313448
2.61117,-0.146901,0.2135
2.46782,0.102569,-0.100628
2.53525,-0.0185847,-0.0589953
2.46582,0.0942963,-0.0430725
2.59829,-0.154822,-0.0757518
2.53986,-0.0270416,0
2.67205,-0.290749,-0.0312912
2.52152,-0.0268464,-0.392312
2.48214,0.0949205,0.0144368
2.5332,-0.0269708,-0.272883
2.68046,-0.291664,-0.251693
2.55116,-0.027162,0.0593675
2.67602,-0.291182,0.0313378
2.54165,-0.0270607,-0.17774
2.46915,0.0944236,0.0719118
2.61896,-0.156053,0.0457951
2.47311,0.0945752,-0.158615
2.67168,-0.290709,-0.15651
2.55153,-0.0271659,0.148603
2.61718,-0.155948,0.106816
2.55665,-0.0272205,0.313935
2.61067,-0.15556,0.2135
2.47214,0.094538,-0.100791
2.54717,-0.0271195,-0.0592745
2.47414,0.0855343,-0.0432122
2.54774,-0.036465,0
2.67096,-0.300541,-0.0312912
2.48248,0.0858223,0.0144368
2.53706,-0.0363122,-0.273312
2.68333,-0.301932,-0.252064
2.55505,-0.0365696,0.0594606
2.68289,-0.301882,0.0314309
2.54951,-0.0364904,-0.178298
2.62236,-0.165904,0.0458649
2.47344,0.0855102,-0.158615
2.67456,-0.300946,-0.156743
2.61916,-0.165702,-0.137539
2.56051,-0.0366477,0.314423
2.61008,-0.165127,0.2135
2.47646,0.0856146,-0.100954
2.48641,0.0777041,-0.0434216
2.60512,-0.173489,-0.0759845
2.5556,-0.0450544,0
2.6779,-0.310317,-0.0313844
2.61308,-0.174019,-0.333348
2.47875,0.0774648,0.0144135
2.5409,-0.0447953,-0.27374
2.69022,-0.311745,-0.252808
2.55891,-0.0451127,0.0595536
2.68584,-0.311238,0.0314775
2.54938,-0.0449446,-0.178298
2.47774,0.0774333,0.0721445
2.62578,-0.174865,0.0459347
2.47371,0.0773075,-0.158615
2.68148,-0.310732,-0.157208
2.62145,-0.174576,0.214477
2.47674,0.0774019,-0.100954
2.48666,0.0690245,-0.0434216
2.60849,-0.182861,-0.0761008
2.56343,-0.0541438,0
2.68474,-0.320611,-0.0314775
2.53296,-0.0535002,-0.394157
2.62038,-0.183694,-0.334358
2.483,0.0689228,0.0144368
2.53676,-0.0535804,-0.273312
2.69268,-0.32156,0.0315706
2.55718,-0.0540119,-0.178856
2.48199,0.0688948,0.0722609
2.63314,-0.184589,0.0460744
2.48594,0.0690044,-0.159382
2.68435,-0.320564,-0.15744
2.56065,-0.0540851,-0.119306
2.57211,-0.054327,0.315885
2.62878,-0.184283,0.215128
2.48898,0.0690887,-0.101443
2.55874,-0.0540447,-0.0595536
2.49489,0.060538,-0.0435612
2.56322,-0.0630915,0
2.69155,-0.330957,-0.0315706
2.54461,-0.0626333,-0.396002
2.62763,-0.193422,-0.335368
2.49122,0.0604492,0.0144833
2.54848,-0.0627286,-0.274597
2.57053,-0.0632712,0.0598328
2.69551,-0.331445,0.0316172
2.49016,0.0604233,-0.159638
2.6951,-0.331394,-0.158138
2.63867,-0.194235,0.107793
2.56444,-0.0631215,-0.119492
2.57587,-0.0634027,0.316373
2.6321,-0.193751,0.215453
2.49719,0.060594,-0.101768
2.49109,0.051311,-0.0434914
2.61908,-0.202447,-0.0764499
2.55898,-0.0723726,0
2.69825,-0.341825,-0.0316637
2.54831,-0.0720711,-0.396617
2.63086,-0.203358,-0.335873
2.49543,0.0514003,0.0145065
2.55221,-0.0721813,-0.275025
2.70651,-0.342871,-0.254667
2.57427,-0.0728053,0.0599259
2.70222,-0.342328,0.0317103
2.55673,-0.0723092,-0.178856
2.63137,-0.203397,-0.215453
2.49042,0.0512971,0.0724936
2.64371,-0.204351,0.0462838
2.49435,0.0513782,-0.159894
2.70179,-0.342274,-0.158603
2.5786,-0.0729276,0.150231
2.64192,-0.204212,0.107956
2.5602,-0.0724072,-0.119306
2.57165,-0.0727311,0.315885
2.63932,-0.204011,0.216104
2.50139,0.0515232,-0.101931
2.57028,-0.0726922,-0.0598328
2.49925,0.042752,-0.043631
2.5667,-0.0815588,0
2.54805,-0.0809659,-0.396617
2.63409,-0.212859,-0.336379
2.49959,0.0427578,0.0145298
2.55194,-0.0810897,-0.275025
2.578,-0.0819177,0.0600189
2.70894,-0.352791,0.0318034
2.56444,-0.0814868,-0.179414
2.63859,-0.213223,-0.216104
2.5025,0.0428075,-0.160406
2.70454,-0.352218,-0.158836
2.64916,-0.214077,0.108281
2.57191,-0.0817242,-0.119864
2.64374,-0.213639,-0.139004
2.58329,-0.0820857,0.317348
2.63859,-0.213223,0.216104
2.49756,0.042723,-0.101768
2.50338,0.0345191,-0.0437008
2.56642,-0.0900698,0
2.70379,-0.361243,-0.0317569
2.55171,-0.0895537,-0.397232
2.63733,-0.221926,-0.336884
2.50372,0.0345237,0.014553
2.55961,-0.0898308,-0.275882
2.71172,-0.362302,0.03185
2.57612,-0.0904102,-0.180251
2.64184,-0.222306,-0.21643
2.65023,-0.223012,0.0464234
2.50263,0.0345087,-0.160406
2.71127,-0.362243,-0.159301
2.58602,-0.0907578,0.150696
2.65242,-0.223196,0.108444
2.57562,-0.0903927,-0.12005
2.647,-0.22274,-0.139214
2.58697,-0.090791,0.317835
2.64184,-0.222306,0.21643
2.51368,0.034661,-0.10242
2.51148,0.0258628,-0.0438404
2.57808,-0.0994905,0
2.7144,-0.372309,-0.0318966
2.56323,-0.0989176,-0.399076
2.64049,-0.231477,-0.337389
2.50383,0.0257839,0.014553
2.58937,-0.0999262,0.0602981
2.72233,-0.373396,0.0319897
2.57978,-0.0995559,-0.18053
2.64899,-0.232223,-0.21708
2.65342,-0.232611,0.0464932
2.51471,0.025896,-0.161173
2.70999,-0.371705,-0.159301
2.6556,-0.232802,0.108607
2.57928,-0.0995368,-0.120236
2.59457,-0.100127,0.31881
2.64899,-0.232223,0.21708
2.51778,0.0259276,-0.102582
2.58538,-0.099772,-0.060205
2.51156,0.0170959,-0.0438404
2.72101,-0.382897,-0.0319897
2.57077,-0.108197,-0.400306
2.65152,-0.241774,-0.338904
2.5119,0.0170982,0.0145995
2.56687,-0.108032,-0.276739
2.593,-0.109132,0.0603911
2.72497,-0.383454,0.0320363
2.58739,-0.108896,-0.181088
2.65214,-0.24183,-0.217406
2.66056,-0.242598,0.0466328
2.51478,0.0171178,-0.161173
2.7245,-0.383388,-0.160231
2.59331,-0.109145,0.151161
2.66274,-0.242797,0.108933
2.58291,-0.108708,-0.120423
2.60214,-0.109517,0.319785
2.66008,-0.242554,0.218057
2.51785,0.0171387,-0.102582
2.5196,0.00879512,-0.0439801
2.58534,-0.117399,0
2.71972,-0.391918,-0.0319897
2.57435,-0.1169,-0.400921
2.51594,0.00878234,0.0146228
2.59662,-0.117912,0.0604842
2.72764,-0.393059,0.0320828
2.58701,-0.117475,-0.181088
2.6677,-0.252172,0.0467725
2.52281,0.00880631,-0.161685
2.72716,-0.39299,-0.160464
2.60091,-0.118107,0.151627
2.66589,-0.252001,0.109096
2.58653,-0.117454,-0.120609
2.6565,-0.251113,-0.139842
2.59779,-0.117965,0.319298
2.65926,-0.251374,0.218057
2.52189,0.00880312,-0.102745
2.52362,-0.000440465,-0.0440499
2.58489,-0.126874,0
2.57785,-0.126529,-0.401536
2.66161,-0.261442,-0.340419
2.51996,-0.000439827,0.014646
2.57797,-0.126535,-0.278024
2.60416,-0.12782,0.0606703
2.73805,-0.404808,0.0322225
2.65832,-0.261119,-0.218057
2.67074,-0.262339,0.0468423
2.52282,-0.000440327,-0.161685
2.73755,-0.404735,-0.161161
2.60445,-0.127834,0.151859
2.59406,-0.127325,-0.120981
2.66351,-0.261629,-0.14026
2.60131,-0.12768,0.319785
2.65832,-0.261119,0.218057
2.5259,-0.000440865,-0.102908
2.5356,-0.0092935,-0.0442593
2.6044,-0.136947,0
2.73267,-0.413765,-0.032176
2.57739,-0.135526,-0.401536
2.66068,-0.270732,-0.340419
2.67415,-0.272101,-0.0156224
2.57751,-0.135533,-0.278024
2.73662,-0.414363,0.0322225
2.60204,-0.136823,-0.182204
2.66929,-0.271607,-0.219033
2.67378,-0.272065,0.0469121
2.53079,-0.00927588,-0.162196
2.74797,-0.416082,-0.161859
2.60797,-0.137134,0.152092
2.67595,-0.272285,0.109584
2.5936,-0.136379,-0.120981
2.67053,-0.271733,-0.140679
2.60481,-0.136968,0.320273
2.66929,-0.271607,0.219033
2.52988,-0.00927256,-0.103071
2.53555,-0.0177018,-0.0442593
2.59994,-0.145359,0
2.75104,-0.425884,-0.0324088
2.59666,-0.145176,-0.404611
2.68119,-0.281804,-0.0156689
2.74709,-0.425272,0.0323622
2.60157,-0.145451,-0.182204
2.67631,-0.281291,-0.219684
2.67685,-0.281348,0.0469819
2.53474,-0.0176961,-0.162452
2.74263,-0.424581,-0.161626
2.61149,-0.146005,0.152324
2.68298,-0.281993,0.10991
2.59712,-0.145202,-0.121167
2.61227,-0.146049,0.321248
2.67631,-0.281291,0.219684
2.53783,-0.0177177,-0.103397
2.53947,-0.0265943,-0.0443291
2.60341,-0.154671,0
2.75349,-0.43611,-0.0324553
2.60008,-0.154473,-0.405226
2.53582,-0.026556,0.014739
2.68416,-0.291593,-0.0156922
2.58844,-0.153781,-0.279309
2.61069,-0.155103,0.0608564
2.75349,-0.43611,0.0324553
2.60503,-0.154768,-0.182483
2.53479,-0.0265452,0.0737736
2.6838,-0.291554,0.0471215
2.54264,-0.0266275,-0.162964
2.61495,-0.155357,0.152557
2.68198,-0.291357,0.10991
2.60059,-0.154503,-0.121353
2.6845,-0.29163,-0.141516
2.61175,-0.155166,0.321248
2.67927,-0.291062,0.22001
2.54175,-0.0266181,-0.103559
2.54736,-0.0355702,-0.0444687
2.61483,-0.164511,0
2.75985,-0.446997,-0.0325485
2.60742,-0.164045,-0.406455
2.54371,-0.0355192,0.0147855
2.69108,-0.301853,-0.0157387
2.59979,-0.163565,-0.280594
2.6221,-0.164969,0.0611355
2.7559,-0.446358,0.0325019
2.60846,-0.16411,-0.182762
2.68674,-0.301366,0.0471913
2.54653,-0.0355585,-0.16322
2.61838,-0.164734,0.152789
2.68889,-0.301608,0.110235
2.60801,-0.164082,-0.121725
2.68744,-0.301444,-0.141726
2.61515,-0.164531,0.321735
2.6822,-0.300857,0.220335
2.55522,-0.0446016,-0.0446084
2.75827,-0.456628,-0.0325485
2.60683,-0.173145,-0.406455
2.55157,-0.0445378,0.014832
2.69796,-0.312164,-0.0157852
2.61111,-0.17343,-0.281879
2.76221,-0.457282,0.032595
2.61185,-0.173479,-0.183041
2.69302,-0.311592,-0.221311
2.54254,-0.0443801,0.0740063
2.69362,-0.311662,0.0473309
2.55038,-0.044517,-0.163475
2.62576,-0.174402,0.153254
2.69179,-0.311451,0.110398
2.6154,-0.173714,-0.122098
2.6943,-0.311741,-0.142144
2.62248,-0.174185,0.32271
2.6851,-0.310676,0.22066
2.5495,-0.0445016,-0.103885
2.55505,-0.0535207,-0.0446084
2.67987,-0.319555,-0.0785444
2.60963,-0.182483,0
2.76849,-0.468255,-0.0326882
2.61015,-0.18252,-0.40707
2.5554,-0.0535279,0.0148553
2.61049,-0.182543,-0.281879
2.77243,-0.468922,0.0327347
2.61919,-0.183152,-0.183599
2.54636,-0.0533387,0.0741227
2.69648,-0.321536,0.0474007
2.5542,-0.0535028,-0.163731
2.62911,-0.183846,0.153487
2.7026,-0.322265,0.110887
2.61477,-0.182843,-0.122098
2.69716,-0.321617,-0.142354
2.62978,-0.183892,0.323685
2.68795,-0.320519,0.220986
2.56131,-0.0536519,-0.104373
2.56684,-0.0627323,-0.0448178
2.61695,-0.192177,0
2.77472,-0.479278,-0.0327813
2.61738,-0.192208,-0.4083
2.55119,-0.0623499,0.014832
2.70365,-0.331966,-0.0158317
2.62173,-0.192528,-0.283165
2.7826,-0.480639,0.0328744
2.63048,-0.19317,-0.184436
2.55416,-0.0624222,0.0743554
2.69931,-0.331434,0.0474705
2.56198,-0.0626134,-0.164243
2.62846,-0.193022,0.153487
2.70939,-0.332671,0.111212
2.62607,-0.192847,-0.122656
2.641,-0.193943,0.325147
2.56511,-0.0626898,-0.104536
2.55861,-0.0714685,-0.0446782
2.62823,-0.202231,0
2.78091,-0.490349,-0.0328744
2.56296,-0.0715899,0.0149017
2.71041,-0.342405,-0.0158782
2.62501,-0.201984,-0.283593
2.63549,-0.20279,0.0615077
2.56591,-0.0716724,0.0747045
2.71004,-0.342358,0.04768
2.56573,-0.0716674,-0.164499
2.63175,-0.202502,0.15372
2.70821,-0.342127,0.111212
2.62538,-0.202012,-0.122656
2.64031,-0.203161,0.325147
2.57434,-0.0809018,-0.0449574
2.6962,-0.350176,-0.0791263
2.62751,-0.211404,0
2.78705,-0.50147,-0.0329675
2.56669,-0.0806615,0.014925
2.71317,-0.352379,-0.0159014
2.62825,-0.211464,-0.284021
2.64274,-0.21263,0.0616939
2.63304,-0.211849,-0.184715
2.57364,-0.0808799,0.0749372
2.72073,-0.353361,0.0478894
2.64297,-0.212648,0.154417
2.71096,-0.352093,0.111375
2.64059,-0.212457,-0.123401
2.71346,-0.352416,-0.143401
2.64354,-0.212694,0.325635
2.58203,-0.0901665,-0.045097
2.70289,-0.360643,-0.079359
2.63473,-0.221244,0
2.78922,-0.511918,-0.0330141
2.57439,-0.0898996,0.0149715
2.71588,-0.362376,-0.0159246
2.63939,-0.221636,-0.285307
2.64995,-0.222523,0.06188
2.62831,-0.220705,-0.184436
2.56535,-0.089584,0.0747045
2.65017,-0.222541,0.154882
2.71764,-0.362611,0.111701
2.64674,-0.222253,0.326122
2.57629,-0.0899661,-0.105025
2.58174,-0.0982778,-0.045097
2.70571,-0.369674,-0.0794753
2.64199,-0.230215,0
2.57809,-0.0981389,0.0149947
2.6466,-0.230617,-0.286163
2.65721,-0.231541,0.0620661
2.63158,-0.229308,-0.184715
2.57704,-0.0980991,0.0750536
2.72625,-0.372481,0.048029
2.58083,-0.0982434,-0.165522
2.65343,-0.231212,0.155115
2.72441,-0.372229,0.112026
2.65394,-0.231256,0.327097
2.58398,-0.0983633,-0.10535
2.58937,-0.107621,-0.0452366
2.71628,-0.380781,-0.0798244
2.65312,-0.240519,0
2.58572,-0.10747,0.0150412
2.72134,-0.381491,-0.0159711
2.64182,-0.239495,-0.285735
2.65639,-0.240815,0.0620661
2.64268,-0.239573,-0.185552
2.57668,-0.107094,0.0750536
2.73286,-0.383105,0.0481686
2.65261,-0.240473,0.155115
2.72705,-0.382291,0.112189
2.66498,-0.241594,0.32856
2.58762,-0.107548,-0.105513
2.66037,-0.241176,-0.0621591
2.58498,-0.116479,-0.0451668
2.71889,-0.390829,-0.0799408
2.66421,-0.250904,0
2.58933,-0.116675,0.0150645
2.73583,-0.393265,-0.0160641
2.65285,-0.249834,-0.28702
2.65553,-0.250086,0.0620661
2.64978,-0.249544,-0.18611
2.59227,-0.116808,0.075519
2.73942,-0.393781,0.0483083
2.59205,-0.116798,-0.16629
2.65573,-0.250105,0.155347
2.72966,-0.392377,0.112352
2.65735,-0.250257,-0.124331
2.65951,-0.250461,-0.0621591
2.59255,-0.12589,-0.0453064
2.72542,-0.401483,-0.0801735
2.66332,-0.260202,0
2.5929,-0.125907,0.0150877
2.74632,-0.404561,-0.0161339
2.65988,-0.259866,-0.287877
2.67056,-0.260909,0.0624383
2.6608,-0.259956,-0.186947
2.59185,-0.125856,0.075519
2.67074,-0.260927,0.156278
2.73618,-0.403068,0.112678
2.66441,-0.260309,-0.124703
