2.08397,0.181957,-0.225332
1.95937,-0.0208615,-0.182914
2.09147,0.182612,0.0488526
1.94376,-0.0206953,0.0226303
2.07502,0.181175,-0.145652
2.00785,0.0767825,-0.164031
2.01822,0.077179,0.0352539
1.96057,-0.0208743,-0.114185
2.00487,0.0766686,0.0817402
2.07783,0.181421,-0.097157
2.01576,0.077085,-0.105719
1.99988,0.0764778,0.16338
2.14225,0.293071,-0.0880906
2.07554,0.181221,-0.0484804
2.13674,0.285102,-0.0376274
1.99394,0.06963,-0.0580647
2.07669,0.174385,0
1.95168,-0.0272522,-0.0227234
2.00261,0.0699329,-0.255062
2.13306,0.284611,0.0125072
2.01874,0.0704959,-0.0117401
2.07267,0.174047,-0.224047
1.95133,-0.0272473,-0.18217
2.08011,0.174672,0.0485734
1.93168,-0.026973,0.0224906
2.06766,0.173626,-0.145093
2.01208,0.0702634,-0.164356
2.01846,0.0704864,0.0352539
1.9525,-0.0272637,-0.11372
2.00511,0.0700202,0.0817402
2.07842,0.17453,-0.097157
2.01201,0.0702611,-0.105509
1.99614,0.0697068,0.163054
2.13529,0.284909,-0.0877649
2.07214,0.174003,-0.0483873
2.13772,0.277642,-0.0376274
1.99017,0.0625443,-0.0579483
1.99156,0.0625877,-0.39851
2.06931,0.166494,0
1.94357,-0.0339247,-0.0226303
2.00284,0.0629424,-0.255062
2.01897,0.0634492,-0.0117401
2.07327,0.166812,-0.224047
1.95122,-0.0340581,-0.18217
2.08071,0.167411,0.0485734
1.93557,-0.033785,0.0225371
2.07223,0.166728,-0.145372
1.99637,0.062739,-0.163054
2.0107,0.0631894,0.0351142
1.9484,-0.0340089,-0.113487
2.07377,0.166852,0.121162
2.00135,0.0628955,0.0815774
2.07902,0.167275,-0.097157
2.00825,0.0631124,-0.1053
1.98442,0.0623633,0.162078
2.12834,0.276424,-0.0874392
2.06875,0.166449,-0.0482943
2.13475,0.269305,-0.0375576
1.99039,0.05525,-0.0579483
1.99177,0.0552883,-0.39851
2.06991,0.158908,0
1.93544,-0.0408786,-0.0225371
1.99513,0.0553815,-0.254052
2.01119,0.0558274,-0.0116936
2.06594,0.158603,-0.22319
1.9471,-0.0411249,-0.181799
2.07334,0.159172,0.0483873
1.92744,-0.0407097,0.022444
2.05691,0.15791,-0.144256
1.9926,0.0553113,-0.162729
2.01092,0.0558198,0.0351142
2.12279,0.267795,-0.137125
1.94826,-0.0411495,-0.113487
2.06243,0.158334,0.120464
2.00157,0.0555602,0.0815774
2.07564,0.159348,-0.0969709
2.00048,0.0555301,-0.104881
1.97666,0.0548688,0.161427
2.11745,0.267121,-0.0869508
2.06536,0.158559,-0.0482012
2.12373,0.260761,-0.0373482
1.98657,0.048551,-0.057832
1.99194,0.0486825,-0.39851
2.07043,0.152043,0
1.9233,-0.0470039,-0.0223974
1.9953,0.0487645,-0.254052
2.12004,0.260309,0.0124142
2.00337,0.0489617,-0.0116471
2.05455,0.150877,-0.221905
1.94297,-0.0474847,-0.181427
2.07385,0.152295,0.0483873
1.93129,-0.0471993,0.0224906
2.05742,0.151088,-0.144256
1.98879,0.0486054,-0.162403
2.0031,0.0489551,0.0349746
2.11574,0.25978,-0.136613
1.93215,-0.0472203,-0.112557
2.05498,0.150908,0.119999
1.99375,0.0487266,0.0812517
2.0642,0.151586,-0.0964125
2.00066,0.0488954,-0.104881
1.98082,0.0484106,0.161753
2.12229,0.260585,-0.0871136
2.0579,0.151123,-0.0480151
2.12462,0.253346,-0.0373482
1.98273,0.0415321,-0.0577156
1.98426,0.0415642,-0.396941
2.06695,0.144535,0
1.92712,-0.0538294,-0.022444
1.98752,0.0416326,-0.253042
2.11299,0.251959,0.0123678
1.99553,0.0418003,-0.0116006
2.04713,0.143149,-0.221048
1.93483,-0.0540448,-0.180683
2.05842,0.143938,0.0480151
1.91512,-0.0534943,0.0223043
2.05794,0.143905,-0.144256
1.98895,0.0416624,-0.162403
1.99926,0.0418784,0.0349048
2.11267,0.25192,-0.136357
1.93197,-0.053965,-0.112557
2.05151,0.143455,0.119766
1.97793,0.0414315,0.0806004
2.05276,0.143543,-0.0958541
2.00481,0.0419946,-0.105091
1.96902,0.0412449,0.160776
2.11922,0.252701,-0.0869508
2.05842,0.143938,-0.0480151
2.11358,0.244548,-0.0371387
1.97486,0.0344707,-0.0574829
1.96871,0.0343633,-0.393804
2.05148,0.136258,0
1.92692,-0.0605565,-0.022444
1.98766,0.0346941,-0.253042
2.10194,0.243202,0.012298
1.99966,0.0349036,-0.0116238
2.04365,0.135738,-0.22062
1.93065,-0.0606737,-0.180312
2.04693,0.135957,0.047736
1.91093,-0.0600539,0.0222578
2.0425,0.135662,-0.14314
1.98908,0.0347189,-0.162403
2.113,0.244482,0.0619047
1.99539,0.0348291,0.034835
2.11353,0.244544,-0.136357
2.04403,0.135763,0.119301
1.97806,0.0345265,0.0806004
2.05723,0.136641,-0.0960402
1.99296,0.0347866,-0.104463
1.96516,0.0343014,0.160451
2.10818,0.243923,-0.0864623
2.05092,0.136222,-0.047829
2.11044,0.236725,-0.0370689
1.97497,0.0275783,-0.0574829
1.97274,0.0275471,-0.394588
2.04396,0.128596,0
1.90671,-0.066583,-0.0222112
1.9838,0.0277016,-0.252536
2.10278,0.235865,0.012298
1.99177,0.0278129,-0.0115773
2.04014,0.128356,-0.220192
1.93043,-0.0674112,-0.180312
2.05538,0.129314,0.0479221
1.91071,-0.0667226,0.0222578
2.03898,0.128283,-0.142861
1.98122,0.0276655,-0.161753
1.9915,0.0278092,0.0347652
2.11041,0.236721,-0.136102
1.93155,-0.0674504,-0.112557
2.04449,0.128629,0.119301
1.97017,0.0275113,0.0802748
2.04175,0.128456,-0.0952957
1.99307,0.0278311,-0.104463
1.9573,0.0273315,0.1598
2.10107,0.235674,-0.0861366
2.05538,0.129314,-0.0479221
2.10728,0.228924,-0.0369991
1.97106,0.0206418,-0.0573665
1.9689,0.0206192,-0.393804
2.0404,0.121222,0
1.90247,-0.0730852,-0.0221646
2.03982,0.121188,-0.317908
1.97595,0.020693,-0.251526
2.09166,0.227227,0.0122283
1.98786,0.0208178,-0.0115541
2.03661,0.120997,-0.219763
1.92222,-0.073844,-0.179568
2.04783,0.121664,0.047736
1.90247,-0.0730852,0.0221646
2.03942,0.121164,-0.142861
1.97731,0.0207073,-0.161427
1.98359,0.0207731,0.0346256
2.10329,0.22849,-0.13559
1.91933,-0.073733,-0.111859
2.04492,0.121491,0.119301
1.96626,0.0205916,0.0801119
2.04218,0.121328,-0.0952957
1.98916,0.0208314,-0.104253
1.95738,0.0204986,0.1598
2.09791,0.227906,-0.0859738
2.04384,0.121427,-0.0476429
2.10011,0.220731,-0.0368595
1.96312,0.013706,-0.0571338
1.96504,0.0137194,-0.393019
2.04081,0.1141,0
1.9022,-0.0797252,-0.0221646
2.03629,0.113847,-0.317293
1.97204,0.0137683,-0.251021
2.09244,0.219925,0.0122283
1.97192,0.0137674,-0.0114611
2.0251,0.113222,-0.218478
1.92593,-0.0807197,-0.17994
2.04425,0.114292,0.0476429
1.8982,-0.0795577,0.0221181
2.03584,0.113822,-0.142582
1.97339,0.0137777,-0.161102
2.09159,0.219835,0.0612065
1.97565,0.0137935,0.034486
2.1001,0.22073,-0.135334
1.91108,-0.0800974,-0.111394
2.03337,0.113684,0.118604
1.96632,0.0137284,0.0801119
2.04658,0.114422,-0.0954819
1.98523,0.0138604,-0.104044
1.94947,0.0136107,0.159149
2.09869,0.220582,-0.0859738
2.04026,0.114069,-0.0475499
2.09284,0.213321,-0.0367199
1.95116,0.00749201,-0.0567847
1.96115,0.00753035,-0.392235
2.03717,0.107477,0
1.89395,-0.0853412,-0.0220715
2.02874,0.107032,-0.316064
1.97604,0.00758755,-0.251526
2.09312,0.21335,0.0122283
1.97195,0.00757184,-0.0114611
2.02545,0.106858,-0.218478
1.90975,-0.0860532,-0.178453
2.03262,0.107237,0.0473638
1.89795,-0.0855213,0.0221181
2.02025,0.106584,-0.141466
1.96545,0.00754687,-0.160451
2.07636,0.211641,0.060741
1.97968,0.00760153,0.0345558
2.09284,0.213321,-0.134823
1.91481,-0.0862812,-0.111627
2.03372,0.107295,0.118604
1.95436,0.00750431,0.0796234
2.02299,0.106729,-0.0943651
1.98127,0.00760761,-0.103835
1.94551,0.00747033,0.158823
2.0954,0.213582,-0.085811
2.03262,0.107237,-0.0473638
2.08564,0.204867,-0.0365802
1.95917,0.00034243,-0.0570174
1.94939,0.000340721,-0.389881
2.02157,0.0992253,0
1.89762,-0.0924766,-0.0221181
2.02517,0.0994022,-0.315449
1.96812,0.000343994,-0.250516
2.08991,0.205286,0.012205
1.96797,0.000343967,-0.0114378
2.01391,0.0988496,-0.217193
1.90942,-0.0930518,-0.178453
2.02901,0.0995905,0.0472707
1.88963,-0.0920872,0.0220249
2.01266,0.0987879,-0.140908
1.96546,0.00034353,-0.160451
2.07712,0.20403,0.060741
1.9717,0.00034462,0.0344161
2.08566,0.204869,-0.134311
1.9065,-0.0929096,-0.111162
2.02214,0.0992532,0.117906
1.94639,0.000340195,0.0792978
2.02337,0.0993137,-0.0943651
1.9693,0.0003442,-0.103207
1.94154,0.000339349,0.158498
2.08423,0.204729,-0.0853225
2.037,0.0999826,-0.0474568
2.08233,0.197571,-0.0365104
1.95516,-0.0061424,-0.0569011
1.94938,-0.00612425,-0.389881
2.02188,0.0925204,0
1.88931,-0.0983535,-0.0220249
2.01759,0.092324,-0.314219
1.96017,-0.00615815,-0.249506
2.08659,0.197976,0.0121818
1.96396,-0.00617003,-0.0114146
2.01026,0.0919883,-0.216764
1.91308,-0.0995908,-0.178824
2.02933,0.092861,0.0472707
1.88931,-0.0983535,0.0220249
2.01297,0.0921126,-0.140908
1.95748,-0.00614968,-0.1598
2.0738,0.196763,0.0606247
1.96369,-0.0061692,0.0342765
2.08236,0.197574,-0.134055
1.9022,-0.0990242,-0.110929
2.01846,0.0923639,0.117673
1.94638,-0.0061148,0.0792978
2.01969,0.0924202,-0.094179
1.97328,-0.00619933,-0.103416
1.92558,-0.00604948,0.157196
2.07296,0.196683,-0.084834
1.94394,-0.00610716,0.354433
2.02933,0.092861,-0.0472707
2.07902,0.189938,-0.0364406
1.94313,-0.0128872,-0.056552
1.94543,-0.0129024,-0.389097
2.01021,0.0849559,0
1.88896,-0.104947,-0.0220249
2.00606,0.0847805,-0.312374
1.95221,-0.0129474,-0.248496
2.06736,0.188872,0.0120655
1.95192,-0.0129455,-0.0113449
2.00659,0.0848031,-0.216336
1.90079,-0.105605,-0.177709
2.02964,0.0857772,0.0472707
1.88497,-0.104726,0.0219784
2.00531,0.0847489,-0.14035
1.95745,-0.0129821,-0.1598
2.06652,0.188795,0.060392
1.95966,-0.0129968,0.0342067
2.07508,0.189578,-0.133543
1.88988,-0.104999,-0.110232
2.01877,0.085318,0.117673
1.94634,-0.0129085,0.0792978
2.01202,0.0850326,-0.0938067
1.96526,-0.0130339,-0.102997
1.92157,-0.0127441,0.156871
2.07364,0.189446,-0.084834
1.94391,-0.0128923,0.354433
2.02165,0.0854395,-0.0470846
2.07171,0.181979,-0.036301
1.94708,-0.0197109,-0.0566684
1.94537,-0.0196937,-0.389097
2.00649,0.077783,0
1.87261,-0.110598,-0.0218387
2.00239,0.0776239,-0.311759
1.95612,-0.0198024,-0.249001
2.07199,0.182004,0.0120888
1.95587,-0.0197999,-0.0113681
2.0029,0.0776437,-0.215908
1.90041,-0.11224,-0.177709
2.02193,0.0783815,0.0470846
1.88459,-0.111305,0.0219784
2.00559,0.0777481,-0.14035
1.94942,-0.0197346,-0.159149
2.06318,0.18123,0.0602756
1.9556,-0.0197972,0.0341369
2.06778,0.181634,-0.133032
1.88153,-0.111124,-0.109766
2.01108,0.0779608,0.117208
1.9343,-0.0195815,0.0788093
2.00831,0.0778535,-0.0936206
1.96121,-0.019854,-0.102788
1.92151,-0.0194521,0.156871
2.0703,0.181856,-0.0846712
1.92811,-0.019519,0.351563
2.01394,0.0780717,-0.0468985
2.05642,0.173044,-0.0360218
1.93899,-0.0267365,-0.0564356
1.94136,-0.0267692,-0.388312
2.00676,0.0704287,0
1.87618,-0.11771,-0.0218852
1.99081,0.0698688,-0.309915
1.9481,-0.026862,-0.247991
2.06865,0.174074,0.0120655
1.94378,-0.0268025,-0.0112984
1.99125,0.0698842,-0.214623
1.88409,-0.118206,-0.176222
2.01421,0.0706902,0.0468985
1.87618,-0.11771,0.0218852
1.9939,0.0699772,-0.139513
1.94933,-0.026879,-0.159149
2.05984,0.173332,0.0601592
1.94752,-0.026854,0.0339973
2.06445,0.17372,-0.132776
1.88509,-0.118269,-0.109999
2.01135,0.0705897,0.117208
1.92222,-0.0265052,0.0783208
1.9966,0.0700721,-0.0930622
1.95713,-0.0269865,-0.102578
1.91744,-0.0264393,0.156545
2.06299,0.173597,-0.0843455
1.92016,-0.0264768,0.350128
2.01421,0.0706902,-0.0468985
2.05698,0.166224,-0.0360218
1.9389,-0.0331659,-0.0564356
1.9295,-0.0330052,-0.385959
1.991,0.0632659,0
1.8678,-0.123404,-0.0217921
1.99103,0.0632671,-0.309915
1.94403,-0.0332537,-0.247486
2.06523,0.166891,0.0120423
1.93968,-0.0331794,-0.0112751
1.99544,0.0634073,-0.215051
1.88766,-0.124716,-0.176594
2.01444,0.0640108,0.0468985
1.87179,-0.123667,0.0218387
1.99013,0.0632385,-0.139234
1.94126,-0.0332063,-0.158498
2.05642,0.166179,0.0600429
1.94342,-0.0332433,0.0339275
2.05308,0.165909,-0.132008
1.88469,-0.12452,-0.109999
1.9996,0.0635394,0.116511
1.91813,-0.0328107,0.078158
1.98884,0.0631974,-0.09269
1.94904,-0.0333394,-0.10216
1.91335,-0.032729,0.15622
2.05957,0.166434,-0.0841827
1.92006,-0.0328437,0.350128
2.00644,0.0637568,-0.0467124
2.05356,0.158734,-0.035952
1.93477,-0.0398519,-0.0563193
1.92937,-0.0397407,-0.385959
1.9992,0.0565413,0
1.85539,-0.12909,-0.0216524
1.97939,0.0559809,-0.30807
1.9439,-0.0400399,-0.247486
2.0658,0.15968,0.0120423
1.93156,-0.0397857,-0.0112286
1.9877,0.0562161,-0.214194
1.87927,-0.130752,-0.17585
2.00665,0.0567521,0.0467124
1.87135,-0.130201,0.0218387
1.98635,0.0561779,-0.138955
1.93714,-0.0399008,-0.158173
2.04503,0.158075,0.0596938
1.93929,-0.039945,0.0338577
2.05763,0.159049,-0.132264
1.87229,-0.130267,-0.109301
1.99582,0.0564456,0.116278
1.922,-0.0395888,0.0783208
1.98905,0.0562541,-0.09269
1.94092,-0.0399786,-0.101741
1.98827,0.0562321,0.244226
1.90526,-0.039244,0.155569
2.04819,0.158319,-0.0836942
1.91207,-0.0393842,0.348693
2.00665,0.0567521,-0.0467124
2.05011,0.151271,-0.0358821
1.92263,-0.046316,-0.0559702
1.9253,-0.0463804,-0.385174
1.98339,0.0491663,0
1.85493,-0.135566,-0.0216524
1.98352,0.0491696,-0.308685
1.93185,-0.0465381,-0.245971
2.05438,0.151586,0.0119725
1.9394,-0.0467201,-0.0112751
1.97596,0.0489821,-0.212909
1.87085,-0.13673,-0.175107
2.00284,0.0496485,0.0466193
1.86689,-0.13644,0.0217921
1.98654,0.0492443,-0.138955
1.93699,-0.046662,-0.158173
2.04557,0.150936,0.0596938
1.92715,-0.0464248,0.0336482
2.04225,0.150691,-0.131241
1.87581,-0.137092,-0.109534
1.996,0.049479,0.116278
1.92185,-0.0462972,0.0783208
1.98124,0.0491131,-0.0923178
1.94477,-0.0468493,-0.10195
1.98845,0.0492918,0.244226
1.90112,-0.0457979,0.155243
2.04474,0.150875,-0.0835313
1.90405,-0.0458684,0.347258
1.99884,0.0495494,-0.0465263
2.03866,0.143272,-0.0356727
1.92245,-0.0530274,-0.0559702
1.92513,-0.0531012,-0.385174
1.98355,0.0422422,0
1.85843,-0.142346,-0.021699
1.97183,0.0419925,-0.30684
1.92374,-0.0530629,-0.24496
2.05091,0.144133,0.0119493
1.91924,-0.0529387,-0.0111589
1.96817,0.0419145,-0.212052
1.87831,-0.143868,-0.17585
1.99901,0.0425713,0.0465263
1.86641,-0.142957,0.0217921
1.97872,0.0421393,-0.138397
1.92885,-0.0532038,-0.157522
2.03811,0.143233,0.0594611
1.93097,-0.0532624,0.033718
2.0348,0.143001,-0.130729
1.85939,-0.14242,-0.108604
1.98419,0.0422557,0.11558
1.91768,-0.0528957,0.078158
1.9854,0.0422815,-0.0925039
1.9366,-0.0534177,-0.101532
1.99258,0.0424345,0.244714
1.89697,-0.0523244,0.154918
2.04525,0.143736,-0.0835313
1.99501,0.0424862,-0.0464332
2.03117,0.135622,-0.0355331
1.91427,-0.0594894,-0.0557375
1.91709,-0.0595771,-0.383605
1.98369,0.035318,0
1.84995,-0.148193,-0.0216059
1.97196,0.0351093,-0.30684
1.91958,-0.0596545,-0.244455
2.03942,0.136173,0.0118796
1.91904,-0.0596378,-0.0111589
1.96432,0.0349733,-0.211624
1.86191,-0.149152,-0.174363
1.99514,0.035522,0.0464332
1.85792,-0.148832,0.021699
1.97087,0.0350899,-0.137839
1.93263,-0.0600602,-0.157847
2.04259,0.136385,0.0595774
1.91878,-0.0596297,0.0335086
2.03528,0.135897,-0.130729
1.86287,-0.149228,-0.108836
1.9963,0.0355426,0.116278
1.9055,-0.0592169,0.0776695
1.96955,0.0350664,-0.0917594
1.93641,-0.0601774,-0.101532
1.98081,0.0352668,0.243251
1.89677,-0.0589457,0.154918
2.03777,0.136063,-0.0832057
1.98715,0.0353796,-0.0462471
2.03163,0.128531,-0.0355331
1.91005,-0.0660329,-0.0556211
1.90903,-0.0659976,-0.382037
1.9758,0.028279,0
1.84942,-0.15465,-0.0216059
1.96812,0.0281691,-0.306225
1.91539,-0.0662176,-0.24395
2.03989,0.129054,0.0118796
1.91083,-0.0660597,-0.0111124
1.96443,0.0281163,-0.211624
1.85741,-0.155319,-0.173991
1.98726,0.028443,0.0462471
1.85739,-0.155317,0.021699
1.97098,0.0282101,-0.137839
1.92843,-0.0666683,-0.157522
2.03507,0.128749,0.0593447
1.92256,-0.0664653,0.0335784
2.03176,0.12854,-0.130473
1.86233,-0.15573,-0.108836
1.98044,0.0283454,0.115348
1.90129,-0.0657299,0.0775067
1.96966,0.0281911,-0.0917594
1.9282,-0.0666604,-0.101113
1.97695,0.0282954,0.242764
1.89655,-0.0655663,0.154918
2.03823,0.128949,-0.0832057
1.98326,0.0283858,-0.0461541
2.03206,0.121439,-0.0355331
1.90182,-0.0723956,-0.0553884
1.90487,-0.0725118,-0.381252
1.97188,0.0213387,0
1.83691,-0.160063,-0.0214662
1.95635,0.0211706,-0.30438
1.91911,-0.0730541,-0.244455
2.03633,0.121694,0.0118563
1.90659,-0.0725772,-0.0110891
1.95657,0.0211729,-0.210767
1.85686,-0.161801,-0.173991
1.98335,0.0214627,0.0461541
1.85285,-0.161452,0.0216524
1.96309,0.0212435,-0.137281
1.91623,-0.0729444,-0.156545
2.03151,0.121406,0.0592283
1.91432,-0.0728716,0.0334388
2.02821,0.121209,-0.130218
1.85382,-0.161536,-0.108371
1.98053,0.0214322,0.115348
1.89306,-0.0720622,0.077181
1.96575,0.0212723,-0.0915733
1.91997,-0.0730867,-0.100694
1.97307,0.0213515,0.242276
1.88436,-0.0717312,0.153942
2.0267,0.121118,-0.0827172
1.97935,0.0214194,-0.046061
2.02449,0.113895,-0.0353935
1.89756,-0.0788677,-0.055272
1.89677,-0.0788348,-0.379683
1.97195,0.0144554,0
1.84033,-0.166835,-0.0215127
1.95246,0.0143125,-0.303765
1.90299,-0.0790935,-0.242435
2.02876,0.114136,0.0118098
1.91032,-0.0793981,-0.0111124
1.95265,0.0143139,-0.210339
1.85232,-0.167922,-0.17362
1.85228,-0.167919,0.0216524
1.96315,0.0143909,-0.137281
1.91597,-0.0796328,-0.156545
2.02394,0.113865,0.0589956
1.90606,-0.0792212,0.0332992
2.02065,0.11368,-0.129706
1.84529,-0.167285,-0.107906
1.9726,0.0144602,0.114883
1.8888,-0.0785038,0.0770182
1.95782,0.0143519,-0.091201
1.91571,-0.0796224,-0.100485
1.96519,0.0144058,0.241301
1.8841,-0.0783084,0.153942
2.02312,0.113818,-0.0825544
1.97541,0.0144808,-0.045968
2.01287,0.106547,-0.0351841
1.89729,-0.0851598,-0.055272
1.90433,-0.085476,-0.381252
1.96398,0.00788398,0
1.82782,-0.171814,-0.021373
1.94854,0.007822,-0.303151
1.90272,-0.0854036,-0.242435
2.02513,0.107196,0.0117866
1.89406,-0.0850151,-0.0110194
1.94871,0.00782267,-0.20991
1.84779,-0.173691,-0.173248
1.97545,0.00793,0.045968
1.83976,-0.172937,0.0215127
1.95521,0.00784876,-0.136723
1.90374,-0.0854497,-0.155569
2.01632,0.10673,0.0587629
1.9018,-0.0853622,0.0332294
2.01703,0.106767,-0.12945
1.8328,-0.172283,-0.107208
1.96466,0.00788667,0.114418
1.88454,-0.0845876,0.0768554
1.96186,0.00787544,-0.0913871
1.90746,-0.0856164,-0.100066
1.96126,0.00787303,0.240814
1.87586,-0.0841983,0.153291
2.0155,0.106686,-0.0822287
1.96345,0.00788185,-0.0456888
2.00525,0.0991253,-0.0350444
1.881,-0.0910091,-0.0548066
1.88835,-0.0913647,-0.378114
1.964,0.00102835,0
1.83119,-0.178582,-0.0214196
1.94856,0.00102026,-0.303151
1.90241,-0.0920448,-0.242435
2.0175,0.0997312,0.0117401
1.88976,-0.0914328,-0.0109961
1.94077,0.00101619,-0.209053
1.83924,-0.179367,-0.172504
1.96747,0.00103016,0.0457819
1.83517,-0.17897,0.0214662
1.95124,0.00102166,-0.136444
1.89945,-0.0919018,-0.155243
2.01668,0.0996907,0.0587629
1.8935,-0.0916137,0.0330898
2.00543,0.0991346,-0.128683
1.83219,-0.178679,-0.107208
1.96068,0.00102661,0.114185
1.88024,-0.0909722,0.0766925
1.94989,0.00102096,-0.0908288
1.90715,-0.0922742,-0.100066
1.96127,0.00102692,0.240814
1.87158,-0.0905531,0.152965
2.01187,0.0994529,-0.0820659
1.96347,0.00102807,-0.0456888
2.01357,0.0924922,-0.0351841
1.87269,-0.0971602,-0.0545738
1.8841,-0.0977524,-0.37733
1.94399,-0.00576795,0
1.82259,-0.184168,-0.0213265
1.9446,-0.00576975,-0.302536
1.89811,-0.0984793,-0.24193
2.01784,0.0926882,0.0117401
1.89342,-0.0982359,-0.0110194
1.94076,-0.00575838,-0.209053
1.83464,-0.185386,-0.172132
1.95946,-0.00581385,0.0455958
1.83453,-0.185375,0.0214662
1.94724,-0.00577758,-0.136165
1.89912,-0.0985316,-0.155243
2.01702,0.0926506,0.0587629
1.88518,-0.0978082,0.0329501
2.00178,0.0919505,-0.128427
1.82758,-0.184672,-0.106976
1.95668,-0.00580559,0.113952
1.87991,-0.0975349,0.0766925
1.94588,-0.00577356,-0.0906426
1.89485,-0.0983099,-0.0994383
1.95332,-0.00579564,0.239839
1.87125,-0.0970856,0.152965
2.01221,0.0924296,-0.0820659
1.95546,-0.00580199,-0.0455027
2.00589,0.0851238,-0.0350444
1.87633,-0.103918,-0.0546902
1.872,-0.103678,-0.374976
1.94396,-0.0125537,0
1.81796,-0.190113,-0.0212799
1.92876,-0.0124555,-0.300076
1.88587,-0.104446,-0.240415
2.00616,0.0851353,0.0116703
1.88907,-0.104623,-0.0109961
1.93676,-0.0125072,-0.208625
1.83002,-0.191374,-0.171761
1.96343,-0.0126794,0.0456888
1.82194,-0.190529,0.0213265
1.93922,-0.0125231,-0.135607
1.88682,-0.104499,-0.154267
2.00535,0.0851007,0.0584138
1.89281,-0.10483,0.0330898
2.00607,0.0851317,-0.128683
1.82295,-0.190635,-0.106743
1.95265,-0.0126098,0.11372
1.87158,-0.103654,0.0763669
1.94185,-0.0125401,-0.0904565
1.89449,-0.104924,-0.0994383
1.94932,-0.0125883,0.239351
1.86294,-0.103176,0.152314
1.99255,0.0845578,-0.0812517
1.95943,-0.0126536,-0.0455958
2.00218,0.0779658,-0.0349746
1.87595,-0.110467,-0.0546902
1.87554,-0.110442,-0.375761
1.9479,-0.0193791,0
1.81331,-0.196028,-0.0212333
1.92475,-0.0191488,-0.299461
1.88153,-0.110795,-0.23991
2.01044,0.0782876,0.0116936
1.87672,-0.110511,-0.0109264
1.93272,-0.0192281,-0.208197
1.8333,-0.198189,-0.172132
1.95937,-0.0194932,0.0455958
1.82922,-0.197748,0.0214196
1.94715,-0.0193716,-0.136165
1.89043,-0.111319,-0.154593
1.99764,0.0777891,0.0581811
1.87646,-0.110497,0.0328105
1.99439,0.0776627,-0.127915
1.82625,-0.197426,-0.106976
1.9486,-0.0193861,0.113487
1.87519,-0.110422,0.0765297
1.9418,-0.0193184,-0.0904565
1.88215,-0.110832,-0.0988103
1.94529,-0.0193532,0.238864
1.86257,-0.109678,0.152314
1.99683,0.0777575,-0.0814146
1.95138,-0.0194137,-0.0454097
1.99444,0.0706931,-0.034835
1.86359,-0.116267,-0.0543411
1.87515,-0.116989,-0.375761
1.93982,-0.0260709,0
1.81659,-0.2028,-0.0212799
1.92467,-0.0258673,-0.299461
1.87718,-0.117115,-0.239405
1.99871,0.0708444,0.0116238
1.87233,-0.116813,-0.0109032
1.91674,-0.0257607,-0.206483
1.82468,-0.203704,-0.171389
1.95529,-0.0262788,0.0455027
1.81659,-0.2028,0.0212799
1.93111,-0.0259538,-0.135049
1.87411,-0.116924,-0.153291
1.9939,0.0706739,0.0580647
1.87207,-0.116797,0.0327407
1.99066,0.0705591,-0.127659
1.82158,-0.203357,-0.106743
1.93255,-0.0259732,0.112557
1.87081,-0.116718,0.0763669
1.93373,-0.025989,-0.0900843
1.88574,-0.11765,-0.0990196
1.94125,-0.02609,0.238376
1.85421,-0.115683,0.151663
1.99309,0.0706453,-0.0812517
1.9353,-0.0260101,-0.0450374
1.99068,0.063603,-0.0347652
1.86317,-0.122772,-0.0543411
1.8669,-0.123018,-0.374192
1.93972,-0.032842,0
1.8119,-0.208682,-0.0212333
1.92457,-0.0325855,-0.299461
1.87675,-0.123667,-0.239405
1.99895,0.0638671,0.0116238
1.87191,-0.123348,-0.0109032
1.92459,-0.0325858,-0.20734
1.81605,-0.20916,-0.170645
1.9432,-0.0329008,0.0452235
1.81587,-0.20914,0.0212799
1.935,-0.032762,-0.135328
1.86971,-0.123203,-0.152965
1.99014,0.0635858,0.0579483
1.86766,-0.123068,0.0326709
1.9909,0.06361,-0.127659
1.81689,-0.209257,-0.106511
1.93644,-0.0327865,0.11279
1.86241,-0.122722,0.0760412
1.92564,-0.0326035,-0.089712
1.88532,-0.124231,-0.0990196
1.94114,-0.0328661,0.238376
1.8538,-0.122154,0.151663
1.99333,0.0636876,-0.0812517
1.9392,-0.0328332,-0.0451305
1.98689,0.0565401,-0.0346954
1.85874,-0.128998,-0.0542248
1.85081,-0.128447,-0.371054
1.9276,-0.0393677,0
1.80719,-0.214534,-0.0211868
1.92049,-0.0392226,-0.298846
1.86444,-0.129393,-0.237889
1.99116,0.0566615,0.0115773
1.86748,-0.129604,-0.0108799
1.91651,-0.0391413,-0.206483
1.81531,-0.215498,-0.170645
1.93107,-0.0394387,0.0449444
1.80719,-0.214534,0.0211868
1.92689,-0.0393533,-0.134769
1.86529,-0.129453,-0.15264
1.98635,0.0565248,0.057832
1.87121,-0.129863,0.0327407
1.98313,0.0564329,-0.127148
1.81218,-0.215128,-0.106278
1.93631,-0.0395457,0.11279
1.854,-0.128669,0.0757155
1.91752,-0.0391619,-0.0893398
1.86495,-0.129429,-0.0979729
1.92117,-0.0392364,0.235939
1.84938,-0.128349,0.151338
1.98555,0.0565018,-0.0809261
1.93507,-0.0395204,-0.0450374
1.98308,0.0495044,-0.0346256
1.85429,-0.135195,-0.0541084
1.85426,-0.135192,-0.371838
1.92745,-0.046096,0
1.80643,-0.220841,-0.0211868
1.90059,-0.0454536,-0.295772
1.87189,-0.136478,-0.238899
1.98735,0.0496109,0.0115541
1.86302,-0.135831,-0.0108567
1.92432,-0.0460211,-0.20734
1.80268,-0.220384,-0.16953
1.93093,-0.0461792,0.0449444
1.8104,-0.221327,0.0212333
1.91478,-0.045793,-0.133932
1.86085,-0.135673,-0.152314
1.98254,0.049491,0.0577156
1.86676,-0.136104,0.0326709
1.9873,0.0496098,-0.127403
1.80746,-0.220967,-0.106046
1.92419,-0.0460181,0.112092
1.84955,-0.134849,0.0755527
1.91737,-0.0458551,-0.0893398
1.86449,-0.135938,-0.0979729
1.92102,-0.0459423,0.235939
1.84097,-0.134224,0.150687
1.97774,0.0493712,-0.0806004
1.92693,-0.0460836,-0.0448513
1.98325,0.0422357,-0.0346256
1.85777,-0.142295,-0.0542248
1.85375,-0.141987,-0.371838
1.91927,-0.0529396,0
1.80561,-0.227461,-0.0211868
1.90436,-0.0525283,-0.296387
1.85159,-0.141822,-0.236374
1.97552,0.0420711,0.0114843
1.85454,-0.142048,-0.0108102
1.92016,-0.0529641,-0.206912
1.80186,-0.226989,-0.16953
1.93474,-0.0533663,0.0450374
1.80957,-0.227961,0.0212333
1.92656,-0.0531407,-0.134769
1.86829,-0.143101,-0.152965
1.97472,0.042054,0.0574829
1.85827,-0.142334,0.0325313
1.97151,0.0419857,-0.12638
1.8106,-0.22809,-0.106278
1.92401,-0.0530703,0.112092
1.85303,-0.141932,0.0757155
1.91719,-0.0528823,-0.0893398
1.86397,-0.142771,-0.0979729
1.9129,-0.0527639,0.234964
1.84047,-0.14097,0.150687
1.96992,0.0419519,-0.0802748
1.92275,-0.0530355,-0.0447583
1.97138,0.0354431,-0.0344161
1.84533,-0.147499,-0.0538757
1.84936,-0.147821,-0.371054
1.92308,-0.0594274,0
1.79294,-0.231908,-0.0210471
1.90022,-0.058721,-0.295772
1.85507,-0.148278,-0.236879
1.96765,0.035376,0.0114378
1.85007,-0.147878,-0.0107869
1.90805,-0.0589628,-0.205626
1.79715,-0.232452,-0.169158
1.93056,-0.0596583,0.0449444
1.79691,-0.232421,0.0210936
1.91441,-0.0591594,-0.133932
1.85986,-0.148661,-0.152314
1.97484,0.0355054,0.0574829
1.84982,-0.147858,0.0323917
1.97164,0.0354477,-0.12638
1.79399,-0.232044,-0.105348
1.91185,-0.0590802,0.111394
1.84857,-0.147758,0.0755527
1.91701,-0.0592396,-0.0893398
1.85951,-0.148633,-0.0977636
1.91668,-0.0592297,0.235452
1.83602,-0.146755,0.150362
1.97005,0.0354191,-0.0802748
1.91856,-0.0592878,-0.0446652
1.96349,0.0284456,-0.0342765
1.83285,-0.152942,-0.0535266
1.91087,-0.0657273,0
1.79609,-0.238692,-0.0210936
1.90001,-0.0653536,-0.295772
1.84268,-0.153762,-0.235364
1.97176,0.0285654,0.0114611
1.84954,-0.154335,-0.0107869
1.90385,-0.065486,-0.205198
1.78843,-0.237675,-0.168415
1.91435,-0.065847,0.0445722
1.79609,-0.238692,0.0210936
1.9102,-0.0657044,-0.133653
1.85933,-0.155152,-0.152314
1.96696,0.0284959,0.0572502
1.85328,-0.154647,0.0324615
1.97175,0.0285652,-0.12638
1.79713,-0.23883,-0.10558
1.91562,-0.0658907,0.111627
1.84406,-0.153877,0.0753899
1.90081,-0.0653814,-0.0885953
1.85898,-0.155123,-0.0977636
1.91647,-0.0659198,0.235452
1.83549,-0.153163,0.150362
1.97016,0.0285422,-0.0802748
1.91035,-0.0657095,-0.0444791
1.96358,0.0215916,-0.0342765
1.82832,-0.158993,-0.0534102
1.90263,-0.0720942,0
1.79524,-0.24496,-0.0210936
1.89187,-0.0716862,-0.294542
1.84213,-0.160194,-0.235364
1.96785,0.0216385,0.0114378
1.84899,-0.16079,-0.0107869
1.89964,-0.0719807,-0.20477
1.79154,-0.244455,-0.168786
1.91411,-0.0725289,0.0445722
1.78335,-0.243338,0.020954
1.90597,-0.0722208,-0.133374
1.85481,-0.161296,-0.151989
1.96305,0.0215857,0.0571338
1.84874,-0.160768,0.0323917
1.96385,0.0215946,-0.125868
1.79628,-0.245102,-0.10558
1.91139,-0.0724258,0.111394
1.84351,-0.160313,0.0753899
1.90457,-0.0721674,-0.0887814
1.84649,-0.160573,-0.0971355
1.90432,-0.0721581,0.233989
1.827,-0.158878,0.149711
1.96625,0.0216209,-0.0801119
1.91011,-0.0723775,-0.0444791
1.96764,0.0147673,-0.0343463
1.82776,-0.165374,-0.0534102
1.89837,-0.0785698,0
1.78249,-0.249561,-0.020954
1.89161,-0.0782896,-0.294542
1.84156,-0.166623,-0.235364
1.95591,0.0146792,0.0113681
1.84443,-0.166883,-0.0107637
1.8954,-0.0784468,-0.204341
1.78673,-0.250155,-0.168415
1.90585,-0.0788793,0.0443861
1.78645,-0.250116,0.0210005
1.90571,-0.0788734,-0.133374
1.84232,-0.166692,-0.151012
1.95112,0.0146433,0.0567847
1.8402,-0.1665,0.032252
1.95992,0.0147093,-0.125613
1.79146,-0.250817,-0.105348
1.90713,-0.0789323,0.111162
1.83896,-0.166387,0.0752271
1.9083,-0.0789804,-0.0889675
1.84194,-0.166657,-0.0969262
1.90009,-0.0786408,0.233502
1.8185,-0.164536,0.14906
1.95432,0.0146673,-0.0796234
1.90585,-0.0788793,-0.0443861
1.95968,0.00820878,-0.0342067
1.81924,-0.170687,-0.0531775
1.89411,-0.0846859,0
1.7777,-0.254903,-0.0209074
1.88344,-0.0842089,-0.293312
1.82519,-0.171246,-0.233344
1.95195,0.00817638,0.0113449
1.84387,-0.172998,-0.0107637
1.89911,-0.0849094,-0.20477
1.77801,-0.254948,-0.167671
1.90558,-0.0851988,0.0443861
1.78166,-0.255471,0.020954
1.89348,-0.0846578,-0.132537
1.83382,-0.172055,-0.150362
1.94716,0.00815631,0.0566684
1.83566,-0.172228,0.0321822
1.95198,0.0081765,-0.125101
1.78272,-0.255623,-0.104883
1.89489,-0.084721,0.110464
1.83442,-0.172111,0.0750642
1.90004,-0.0849511,-0.0885953
1.84138,-0.172764,-0.0969262
1.89585,-0.084764,0.233014
1.81397,-0.170193,0.148734
1.95436,0.00818648,-0.0796234
1.90159,-0.0850202,-0.044293
1.9517,0.00136257,-0.0340671
1.82261,-0.177424,-0.0532939
1.88981,-0.0911044,0
1.7768,-0.261107,-0.0209074
1.89103,-0.0911634,-0.294542
1.83248,-0.178385,-0.234354
1.95197,0.00136275,0.0113449
1.83529,-0.178659,-0.0107172
1.88688,-0.0909635,-0.203484
1.7771,-0.261152,-0.167671
1.90128,-0.0916575,0.044293
1.7768,-0.261107,0.0209074
1.89317,-0.0912668,-0.132537
1.82924,-0.178069,-0.150036
1.93918,0.00135382,0.0564356
1.83505,-0.178634,0.0321822
1.948,0.00135998,-0.124845
1.77786,-0.261264,-0.10465
1.88661,-0.0909503,0.109999
1.8338,-0.178514,0.0750642
1.89973,-0.091583,-0.0885953
1.83281,-0.178417,-0.0965075
1.89158,-0.0911901,0.232527
1.81734,-0.17691,0.14906
1.95438,0.00136443,-0.0796234
1.90128,-0.0916575,-0.044293
1.9397,-0.00541668,-0.0338577
1.81004,-0.182581,-0.0529448
1.88948,-0.0977006,0
1.77192,-0.266712,-0.0208608
1.87886,-0.0971515,-0.292697
1.8279,-0.184382,-0.233849
1.93996,-0.00541742,0.0112751
1.8267,-0.184261,-0.0106707
1.87861,-0.0971386,-0.202628
1.77224,-0.266761,-0.167299
1.89296,-0.0978806,0.0441069
1.77983,-0.267903,0.020954
1.88487,-0.0974626,-0.131979
1.82861,-0.184453,-0.150036
1.94317,-0.00542638,0.056552
1.83043,-0.184637,0.0321124
1.944,-0.00542871,-0.124589
1.77694,-0.267468,-0.10465
1.8783,-0.0971229,0.109534
1.82124,-0.18371,0.0745757
1.88344,-0.0973884,-0.0878508
1.83615,-0.185214,-0.0967169
1.88729,-0.0975874,0.232039
1.80877,-0.182453,0.148409
1.94638,-0.00543534,-0.0792978
1.88497,-0.0974676,-0.0439208
1.93567,-0.0121623,-0.0337879
1.81735,-0.189728,-0.0531775
1.87714,-0.103634,0
1.77098,-0.272896,-0.0208608
1.87456,-0.103491,-0.292082
1.8233,-0.19035,-0.233344
1.93993,-0.0121891,0.0112751
1.83002,-0.191052,-0.0106939
1.87826,-0.103696,-0.202628
1.76737,-0.272339,-0.166928
1.89261,-0.104488,0.0441069
1.76702,-0.272287,0.0208143
1.88054,-0.103821,-0.1317
1.82795,-0.190835,-0.150036
1.93914,-0.0121841,0.0564356
1.82978,-0.191026,0.0321124
1.93599,-0.0121643,-0.124078
1.77994,-0.274277,-0.104883
1.88194,-0.103899,0.109766
1.81661,-0.189651,0.0744129
1.88309,-0.103962,-0.0878508
1.82755,-0.190793,-0.0962982
1.87901,-0.103737,0.231064
1.81209,-0.189179,0.148734
1.94235,-0.0122043,-0.079135
1.88462,-0.104047,-0.0439208
1.93961,-0.0189581,-0.0338577
1.80475,-0.194784,-0.0528284
1.87677,-0.110186,0
1.76211,-0.27783,-0.0207677
1.87024,-0.109803,-0.291467
1.81868,-0.196287,-0.232839
1.93587,-0.0189215,0.0112519
1.82537,-0.197009,-0.0106707
1.88186,-0.110484,-0.203056
1.7664,-0.278507,-0.166928
1.88424,-0.110625,0.0439208
1.76211,-0.27783,0.0207677
1.8722,-0.109917,-0.131142
1.81538,-0.195931,-0.14906
1.92309,-0.0187966,0.0559702
1.82512,-0.196982,0.0320426
1.93594,-0.0189221,-0.124078
1.77108,-0.279245,-0.104418
1.87758,-0.110233,0.109534
1.81991,-0.19642,0.0745757
1.88271,-0.110535,-0.0878508
1.82687,-0.197171,-0.0962982
1.8826,-0.110528,0.231552
1.80349,-0.194648,0.148083
1.93031,-0.0188671,-0.0786465
1.88424,-0.110625,-0.0439208
1.93953,-0.0257285,-0.0338577
1.80009,-0.20064,-0.052712
1.87637,-0.116736,0
1.76113,-0.283979,-0.0207677
1.86985,-0.11633,-0.291467
1.8101,-0.201755,-0.231828
1.9238,-0.0255197,0.0111821
1.82467,-0.20338,-0.0106707
1.87352,-0.116559,-0.202199
1.76149,-0.284037,-0.166556
1.87986,-0.116953,0.0438278
1.76508,-0.284616,0.0208143
1.8718,-0.116452,-0.131142
1.81073,-0.201826,-0.148734
1.92302,-0.0255094,0.0559702
1.82045,-0.202909,0.0319728
1.92787,-0.0255738,-0.123566
1.77404,-0.286061,-0.10465
1.8732,-0.116539,0.109301
1.81524,-0.202329,0.0744129
1.88232,-0.117106,-0.0878508
1.81823,-0.202662,-0.0958795
1.87031,-0.116359,0.230089
1.8028,-0.200942,0.148083
1.93423,-0.0256581,-0.0788093
1.87586,-0.116705,-0.0437347
1.92744,-0.0322975,-0.0336482
1.79937,-0.206922,-0.052712
1.86797,-0.122761,0
1.75618,-0.289475,-0.0207211
1.86549,-0.122597,-0.290852
1.80938,-0.208072,-0.231828
1.9237,-0.0322349,0.0111821
1.81203,-0.208377,-0.0106009
1.8612,-0.122315,-0.200914
1.76049,-0.290184,-0.166556
1.88343,-0.123776,0.0439208
1.75618,-0.289475,0.0207211
1.86342,-0.122462,-0.130584
1.81397,-0.2086,-0.14906
1.92292,-0.0322218,0.0559702
1.81973,-0.209262,0.0319728
1.92378,-0.0322363,-0.12331
1.76121,-0.290303,-0.103953
1.86083,-0.122291,0.108604
1.81056,-0.208208,0.0742501
1.87791,-0.123414,-0.0876646
1.81751,-0.209007,-0.0958795
1.86989,-0.122887,0.230089
1.93013,-0.0323426,-0.0786465
1.87146,-0.12299,-0.0436417
1.91132,-0.0387014,-0.033369
1.7907,-0.21226,-0.0524793
1.86354,-0.129004,0
1.75516,-0.295603,-0.0207211
1.8611,-0.128835,-0.290237
1.8047,-0.21392,-0.231323
1.91957,-0.0388686,0.0111589
1.80732,-0.21423,-0.0105777
1.86076,-0.128811,-0.200914
1.74768,-0.294343,-0.16544
1.87101,-0.129522,0.0436417
1.75516,-0.295603,0.0207211
1.86298,-0.128965,-0.130584
1.80531,-0.213992,-0.148409
1.92279,-0.0389338,0.0559702
1.81104,-0.214672,0.0318332
1.92765,-0.0390322,-0.123566
1.76019,-0.296449,-0.103953
1.86039,-0.128786,0.108604
1.80585,-0.214056,0.0740873
1.86551,-0.12914,-0.0871063
1.80487,-0.21394,-0.0952514
1.85361,-0.128317,0.228139
1.91802,-0.0388371,-0.078158
1.86304,-0.128969,-0.0434555
1.91917,-0.0455628,-0.0335086
1.78995,-0.21851,-0.0524793
1.8551,-0.134928,0
1.75412,-0.301728,-0.0207211
1.86064,-0.135331,-0.290237
1.80001,-0.219737,-0.230818
1.91543,-0.0454741,0.0111356
1.80656,-0.220537,-0.0105777
1.8603,-0.135306,-0.200914
1.74664,-0.300442,-0.16544
1.86656,-0.135762,0.0435486
1.74623,-0.300372,0.020628
1.85456,-0.134889,-0.130026
1.8006,-0.21981,-0.148083
1.91465,-0.0454556,0.0557375
1.81425,-0.221477,0.031903
1.92351,-0.0456659,-0.12331
1.76308,-0.303269,-0.104185
1.86391,-0.135569,0.108836
1.80509,-0.220358,0.0740873
1.86106,-0.135362,-0.0869201
1.80411,-0.220239,-0.0952514
1.85711,-0.135074,0.228627
1.91787,-0.045532,-0.078158
1.86656,-0.135762,-0.0435486
1.911,-0.0520439,-0.033369
1.78521,-0.224258,-0.052363
1.84664,-0.140794,0
1.7373,-0.305082,-0.0205349
1.85228,-0.141224,-0.289008
1.79923,-0.226019,-0.230818
1.91126,-0.052051,0.0111124
1.80181,-0.226343,-0.0105544
1.85188,-0.141194,-0.200057
1.75343,-0.307915,-0.166184
1.86209,-0.141972,0.0434555
1.74124,-0.305774,0.0205814
1.8501,-0.141058,-0.129747
1.79586,-0.225597,-0.147758
1.90649,-0.051921,0.0555047
1.8095,-0.22731,0.0318332
1.91935,-0.0522713,-0.123054
1.75414,-0.30804,-0.10372
1.85148,-0.141163,0.108139
1.79638,-0.225662,0.0737616
1.86058,-0.141857,-0.0869201
1.79937,-0.226037,-0.0950421
1.84475,-0.14065,0.227164
1.9137,-0.0521175,-0.0779952
1.86209,-0.141972,-0.0434555
1.90681,-0.0585914,-0.0332992
1.78045,-0.229976,-0.0522466
1.84215,-0.146922,0
1.72835,-0.309733,-0.0204417
1.84783,-0.147375,-0.288393
1.79056,-0.231282,-0.229808
1.90707,-0.0585993,0.0110891
1.79704,-0.232119,-0.0105312
1.85931,-0.14829,-0.200914
1.74842,-0.313331,-0.165812
1.86557,-0.148789,0.0435486
1.84562,-0.147198,-0.129468
1.79111,-0.231353,-0.147432
1.8983,-0.0583299,0.055272
1.80076,-0.2326,0.0316936
1.90719,-0.058603,-0.122287
1.75699,-0.314865,-0.103953
1.85098,-0.147626,0.108139
1.79954,-0.232443,0.0739244
1.85609,-0.148033,-0.086734
1.80253,-0.232828,-0.0952514
1.90951,-0.0586745,-0.0778323
1.8576,-0.148154,-0.0433625
1.8986,-0.0649735,-0.0331596
1.77964,-0.23619,-0.0522466
1.84163,-0.153351,0
1.73119,-0.316484,-0.0204883
1.83549,-0.15284,-0.286548
1.78974,-0.237531,-0.229808
1.89486,-0.0648455,0.0110194
1.78829,-0.237338,-0.0104847
1.83896,-0.153129,-0.198772
1.7434,-0.318716,-0.16544
1.85707,-0.154637,0.0433625
1.84509,-0.15364,-0.129468
1.78634,-0.23708,-0.147107
1.89409,-0.0648191,0.0551557
1.79598,-0.238358,0.0316238
1.90697,-0.0652599,-0.122287
1.74802,-0.31956,-0.103487
1.84249,-0.153423,0.107673
1.79476,-0.238197,0.0737616
1.85556,-0.154511,-0.086734
1.79775,-0.238593,-0.0950421
1.9093,-0.0653396,-0.0778323
1.8491,-0.153973,-0.0431764
1.89837,-0.0712691,-0.0331596
1.77092,-0.241011,-0.0520139
1.83712,-0.159112,0
1.738,-0.323687,-0.0205814
1.83497,-0.158926,-0.286548
1.78894,-0.243464,-0.229808
1.89463,-0.0711287,0.0110194
1.79542,-0.244346,-0.0105312
1.83448,-0.158883,-0.198344
1.74234,-0.324496,-0.16544
1.84858,-0.160104,0.0431764
1.8406,-0.159413,-0.129189
1.78555,-0.243002,-0.147107
1.89386,-0.0710998,0.0551557
1.79121,-0.243773,0.031554
1.89478,-0.071134,-0.121519
1.74302,-0.324624,-0.103255
1.83402,-0.158843,0.107208
1.78208,-0.242531,0.0732731
1.83911,-0.159284,-0.0859895
1.8009,-0.245092,-0.0952514
1.89709,-0.0712209,-0.0773438
1.84858,-0.160104,-0.0431764
1.89012,-0.0775673,-0.03302
1.76611,-0.246639,-0.0518975
1.82859,-0.164806,0
1.73293,-0.329006,-0.0205349
1.83441,-0.16533,-0.286548
1.78415,-0.249159,-0.229303
1.88638,-0.0774138,0.0109729
1.78267,-0.248952,-0.0104614
1.83788,-0.165643,-0.198772
1.73728,-0.329833,-0.165069
1.84402,-0.166197,0.0430833
1.82413,-0.164404,-0.128073
1.78074,-0.248682,-0.146782
1.88961,-0.0775462,0.0550393
1.79431,-0.250578,0.0316238
1.90249,-0.078075,-0.122031
1.73403,-0.329217,-0.10279
1.82947,-0.164885,0.106976
1.77331,-0.247644,0.0729474
1.83855,-0.165703,-0.0859895
1.78421,-0.249167,-0.0944141
1.89284,-0.0776787,-0.077181
1.84004,-0.165838,-0.0429903
1.88984,-0.0841646,-0.03302
1.76523,-0.252802,-0.0518975
1.82004,-0.170442,0
1.72391,-0.333534,-0.0204417
1.82201,-0.170627,-0.284703
1.78327,-0.255385,-0.229303
1.8861,-0.083998,0.0109729
1.78575,-0.25574,-0.0104847
1.82937,-0.171316,-0.197915
1.73221,-0.335138,-0.164697
1.84343,-0.172633,0.0430833
1.83547,-0.171887,-0.12891
1.77197,-0.253766,-0.146131
1.87335,-0.0834302,0.0545738
1.78551,-0.255705,0.0314841
1.89423,-0.0843602,-0.121519
1.73287,-0.335268,-0.10279
1.84081,-0.172387,0.107673
1.77243,-0.253833,0.0729474
1.83796,-0.17212,-0.0859895
1.78333,-0.255394,-0.0944141
1.89255,-0.0842854,-0.077181
1.84741,-0.173006,-0.0431764
1.88554,-0.0905689,-0.0329501
1.76434,-0.258962,-0.0518975
1.81943,-0.176794,0
1.81747,-0.176604,-0.284088
1.77452,-0.260456,-0.228293
1.8818,-0.0903893,0.0109496
1.78485,-0.261972,-0.0104847
1.83667,-0.178469,-0.198772
1.83884,-0.17868,0.0429903
1.82294,-0.177135,-0.128073
1.77107,-0.25995,-0.146131
1.87704,-0.0901607,0.0546902
1.78065,-0.261356,0.0314143
1.88196,-0.0903973,-0.120752
1.73561,-0.342087,-0.103022
1.82828,-0.177653,0.106976
1.83734,-0.178535,-0.0859895
1.77848,-0.261037,-0.0942047
1.88027,-0.0903159,-0.0766925
1.8468,-0.179453,-0.0431764
1.86923,-0.0963268,-0.0326709
1.75157,-0.263336,-0.0515484
1.8188,-0.183144,0
1.82471,-0.183739,-0.285318
1.76575,-0.265468,-0.227283
1.87748,-0.0967516,0.0109264
1.77997,-0.267606,-0.0104614
1.82021,-0.183286,-0.197059
1.8382,-0.185097,0.0429903
1.82231,-0.183497,-0.128073
1.76621,-0.265538,-0.145805
1.87272,-0.0965065,0.0545738
1.77972,-0.26757,0.0314143
1.88164,-0.096966,-0.120752
1.73049,-0.347357,-0.10279
1.82367,-0.183634,0.106743
1.82876,-0.184146,-0.0856173
1.78151,-0.267838,-0.0944141
1.88394,-0.0970844,-0.0768554
1.83423,-0.184697,-0.0428972
1.8609,-0.102412,-0.0325313
1.75064,-0.269449,-0.0515484
1.81417,-0.189077,0
1.82013,-0.189697,-0.284703
1.76873,-0.272234,-0.227788
1.87313,-0.103085,0.0109032
1.77111,-0.272601,-0.0104149
1.81561,-0.189226,-0.19663
1.82959,-0.190684,0.0428042
1.80975,-0.188616,-0.127236
1.76527,-0.271701,-0.145805
1.86439,-0.102603,0.0543411
1.77087,-0.272564,0.0312747
1.87332,-0.103095,-0.12024
1.71362,-0.350197,-0.10186
1.81508,-0.189171,0.106278
1.81618,-0.189286,-0.0850589
1.77661,-0.273447,-0.0942047
1.88358,-0.10366,-0.0768554
1.82959,-0.190684,-0.0428042
1.87249,-0.109935,-0.0327407
1.74964,-0.275863,-0.0515484
1.80154,-0.194437,0
1.81549,-0.195943,-0.284088
1.87274,-0.10995,0.0109032
1.7701,-0.27909,-0.0104149
1.8149,-0.195879,-0.19663
1.82491,-0.196959,0.0427111
1.80112,-0.194392,-0.126678
1.76426,-0.27817,-0.145805
1.864,-0.109436,0.0543411
1.76196,-0.277807,0.0311351
1.86894,-0.109726,-0.119984
1.71232,-0.356476,-0.10186
1.81834,-0.196251,0.106511
1.81548,-0.195942,-0.0850589
1.76771,-0.278712,-0.093786
1.87122,-0.10986,-0.0763669
1.82888,-0.197388,-0.0428042
1.86014,-0.1154,-0.0325313
1.74871,-0.281664,-0.0515484
1.80486,-0.200853,0
1.80697,-0.201088,-0.282858
1.86838,-0.115911,0.0108799
1.76917,-0.284958,-0.0104149
1.81029,-0.201457,-0.196202
1.82027,-0.202567,0.0426181
1.80443,-0.200805,-0.126957
1.75546,-0.282751,-0.145154
1.85964,-0.115369,0.0542248
1.76103,-0.283648,0.0311351
1.86857,-0.115923,-0.119984
1.81768,-0.20228,0.106511
1.81482,-0.201961,-0.0850589
1.76677,-0.284573,-0.093786
1.86287,-0.11557,-0.0760412
1.82027,-0.202567,-0.0426181
1.85973,-0.121893,-0.0325313
1.74377,-0.287116,-0.0514321
1.80017,-0.206695,0
1.80233,-0.206943,-0.282244
1.85998,-0.121909,0.0108334
1.76422,-0.290482,-0.0103917
1.80167,-0.206867,-0.195345
1.81955,-0.20892,0.0426181
1.79975,-0.206647,-0.126678
1.75446,-0.288877,-0.145154
1.85124,-0.121337,0.053992
1.76398,-0.290443,0.0312049
1.86018,-0.121923,-0.119473
1.71376,-0.368963,-0.102092
1.813,-0.208168,0.106278
1.80616,-0.207383,-0.0846866
1.76577,-0.290738,-0.093786
1.85847,-0.12181,-0.0758784
1.82352,-0.209376,-0.0427111
1.85131,-0.127833,-0.0323917
1.7467,-0.293865,-0.0515484
1.79547,-0.212508,0
1.79375,-0.212304,-0.281014
1.85954,-0.128401,0.0108334
1.75136,-0.294648,-0.010322
1.80094,-0.213155,-0.195345
1.81881,-0.21527,0.0426181
1.79506,-0.212459,-0.126399
1.75344,-0.294999,-0.145154
1.8548,-0.128074,0.0541084
1.74323,-0.293281,0.0308559
1.85576,-0.12814,-0.119217
1.70466,-0.373235,-0.101627
1.80433,-0.213556,0.105813
1.80543,-0.213686,-0.0846866
1.76474,-0.2969,-0.093786
1.85803,-0.128297,-0.0758784
1.81484,-0.2148,-0.042525
1.84287,-0.133715,-0.032252
1.74173,-0.299283,-0.0514321
1.79472,-0.218774,0
1.85908,-0.134891,0.0108334
1.73849,-0.298727,-0.0102522
1.79624,-0.218959,-0.194917
1.81011,-0.22065,0.042432
1.79827,-0.219206,-0.126678
1.7524,-0.301118,-0.145154
1.85035,-0.134258,0.053992
1.85133,-0.134329,-0.118961
1.69945,-0.378315,-0.101394
1.80357,-0.219853,0.105813
1.79277,-0.218537,-0.0841283
1.75976,-0.302382,-0.0935767
1.86156,-0.135071,-0.0760412
1.81408,-0.221134,-0.042525
1.85037,-0.140754,-0.0323917
1.72886,-0.303289,-0.051083
1.78203,-0.223543,0
1.85062,-0.140773,0.0107869
1.74926,-0.306868,-0.010322
1.79151,-0.224733,-0.194488
1.80933,-0.226967,0.042432
1.78957,-0.224489,-0.12612
1.74741,-0.306544,-0.144829
1.84588,-0.140413,0.0538757
1.84288,-0.140185,-0.118449
1.70591,-0.386008,-0.10186
1.80279,-0.226148,0.105813
1.792,-0.224793,-0.0841283
1.74689,-0.306452,-0.0929487
1.84912,-0.140659,-0.0755527
1.80933,-0.226967,-0.042432
1.82994,-0.145626,-0.0320426
1.73172,-0.310026,-0.0511993
1.78124,-0.229763,0
1.85012,-0.147232,0.0107869
1.7403,-0.311562,-0.0102755
1.78678,-0.230476,-0.19406
1.80059,-0.232258,0.0422459
1.78086,-0.229713,-0.125562
1.73848,-0.311237,-0.144178
1.8414,-0.146538,0.0537593
1.84636,-0.146933,-0.118705
1.80199,-0.232439,0.105813
1.78724,-0.230536,-0.0839422
1.74581,-0.312548,-0.0929487
1.84065,-0.146479,-0.0752271
1.80456,-0.23277,-0.0423389
1.82947,-0.151374,-0.0320426
1.73074,-0.315465,-0.0511993
1.77655,-0.234833,0
1.84168,-0.152384,0.0107404
1.73144,-0.315593,-0.010229
1.7821,-0.235567,-0.193631
1.80382,-0.238438,0.0423389
1.78013,-0.235307,-0.125562
1.73358,-0.315982,-0.143852
1.83296,-0.151663,0.0535266
1.82998,-0.151416,-0.117682
1.78254,-0.235626,-0.083756
1.74482,-0.318031,-0.0929487
1.84018,-0.15226,-0.0752271
1.80382,-0.238438,-0.0423389
1.83291,-0.158103,-0.0321124
1.7257,-0.320774,-0.051083
1.77175,-0.240495,0
1.84113,-0.158812,0.0107404
1.71853,-0.319442,-0.0101592
1.77733,-0.241252,-0.193203
1.79901,-0.244195,0.0422459
1.78325,-0.242056,-0.125841
1.73638,-0.32276,-0.144178
1.84038,-0.158747,0.0537593
1.83342,-0.158146,-0.117938
1.78171,-0.241847,-0.083756
1.73977,-0.32339,-0.0927393
1.83566,-0.158339,-0.0750642
1.79505,-0.243657,-0.0421528
1.82037,-0.163745,-0.031903
1.71273,-0.324861,-0.0507339
1.7669,-0.246435,0
1.83655,-0.165201,0.0107172
1.76855,-0.246665,-0.192346
1.7981,-0.250787,0.0422459
1.77445,-0.247488,-0.125283
1.73519,-0.329122,-0.144178
1.83581,-0.165133,0.0536429
1.82487,-0.16415,-0.117426
1.7729,-0.247272,-0.0833838
1.73465,-0.32902,-0.09253
1.8271,-0.16435,-0.0747386
1.79018,-0.249682,-0.0420598
1.82374,-0.170789,-0.0319728
1.71152,-0.331137,-0.0507339
1.76598,-0.252909,0
1.83594,-0.171931,0.0107172
1.77157,-0.25371,-0.192775
1.76958,-0.253424,-0.125004
1.72614,-0.333965,-0.143527
1.82723,-0.171115,0.0534102
1.82426,-0.170837,-0.117426
1.76802,-0.253202,-0.0831977
1.72951,-0.334617,-0.0923206
1.83047,-0.171418,-0.0749014
1.78926,-0.256242,-0.0420598
1.8232,-0.176517,-0.0319728
1.70263,-0.334968,-0.0505012
1.75331,-0.256717,0
1.83141,-0.177312,0.0106939
1.76683,-0.258698,-0.192346
1.78844,-0.261862,0.0420598
1.76088,-0.257826,-0.124446
1.72117,-0.338616,-0.143201
1.81872,-0.176084,0.0531775
1.81974,-0.176183,-0.11717
1.76722,-0.258755,-0.0831977
1.72453,-0.339277,-0.0921113
1.81401,-0.175628,-0.0742501
1.78844,-0.261862,-0.0420598
1.81461,-0.182082,-0.0318332
1.70145,-0.34091,-0.0505012
1.76031,-0.264022,0
1.82282,-0.182905,0.0106474
1.76198,-0.264274,-0.191918
1.78356,-0.26751,0.0419667
1.75602,-0.263379,-0.124167
1.71998,-0.344622,-0.143201
1.8181,-0.182432,0.0531775
1.81117,-0.181737,-0.116659
1.76631,-0.264922,-0.0831977
1.72334,-0.345295,-0.0921113
1.81736,-0.182358,-0.0744129
1.77961,-0.266917,-0.0418737
1.80597,-0.187904,-0.0316936
1.70411,-0.347943,-0.0506175
1.75142,-0.269257,0
1.81815,-0.189171,0.0106242
1.74921,-0.268917,-0.190633
1.77466,-0.27283,0.0417806
1.75505,-0.269814,-0.124167
1.82139,-0.189508,0.0532939
1.81049,-0.188374,-0.116659
1.75743,-0.27018,-0.0828254
1.72206,-0.351609,-0.0921113
1.80873,-0.18819,-0.0740873
1.77071,-0.272222,-0.0416875
1.80136,-0.193464,-0.0316238
1.74657,-0.274443,0
1.80956,-0.194345,0.0105777
1.75224,-0.275333,-0.191061
1.7698,-0.278093,0.0416875
1.75414,-0.275632,-0.124167
1.8128,-0.194693,0.0530611
1.80986,-0.194377,-0.116659
1.74863,-0.274765,-0.0824532
1.72088,-0.357318,-0.0921113
1.80809,-0.194187,-0.0740873
1.77375,-0.278713,-0.0417806
1.80465,-0.200192,-0.0316936
1.7377,-0.279268,0
1.81285,-0.201101,0.0106009
1.74734,-0.280817,-0.190633
1.76487,-0.283634,0.0415945
1.74923,-0.28112,-0.123888
1.80814,-0.200579,0.0529448
1.8052,-0.200253,-0.116403
1.74766,-0.280868,-0.0824532
1.7079,-0.360845,-0.0914833
1.8074,-0.200497,-0.0740873
1.76882,-0.284269,-0.0416875
1.79993,-0.20635,-0.0316238
1.74061,-0.286284,0
1.80813,-0.207289,0.0105777
1.73453,-0.285283,-0.189348
1.74031,-0.286235,-0.123329
1.79547,-0.205838,0.0525957
1.80049,-0.206413,-0.116147
1.74267,-0.286623,-0.082267
1.70266,-0.366263,-0.0912739
1.79475,-0.205755,-0.0735988
1.76776,-0.29075,-0.0416875
1.79527,-0.211849,-0.031554
1.73571,-0.291393,0
1.79948,-0.212346,0.0105312
1.74534,-0.293009,-0.190633
1.73935,-0.292004,-0.123329
1.79478,-0.211791,0.0525957
1.79187,-0.211447,-0.115635
1.74565,-0.293062,-0.0824532
1.70924,-0.373613,-0.0916926
1.79008,-0.211237,-0.0734359
1.7589,-0.295286,-0.0415014
1.78658,-0.217149,-0.0314143
1.73074,-0.296774,0
1.79476,-0.218143,0.0105079
1.74822,-0.299772,-0.191061
1.73832,-0.298074,-0.123329
1.798,-0.218537,0.052712
1.78715,-0.217219,-0.115379
1.74068,-0.298478,-0.082267
1.69623,-0.376977,-0.0910646
1.78934,-0.217484,-0.0734359
1.74998,-0.300072,-0.0413153
1.78184,-0.222887,-0.0313445
1.72969,-0.302813,0
1.79796,-0.224904,0.0105312
1.73727,-0.30414,-0.123329
1.79326,-0.224316,0.0525957
1.77846,-0.222465,-0.114868
1.72782,-0.302485,-0.0817087
1.6949,-0.382896,-0.0910646
1.78063,-0.222737,-0.0731103
1.75286,-0.306869,-0.0414084
1.78101,-0.229417,-0.0313445
1.72463,-0.308447,0
1.80109,-0.232003,0.0105544
1.73222,-0.309803,-0.12305
1.78449,-0.229865,0.052363
1.78555,-0.230002,-0.115379
1.73063,-0.309519,-0.0818948
1.78377,-0.229772,-0.0732731
1.74385,-0.311883,-0.0412223
1.77227,-0.234583,-0.0312049
1.73142,-0.315901,0
1.78837,-0.236714,0.0104847
1.72327,-0.314415,-0.122492
1.77972,-0.235568,0.0522466
1.77287,-0.234662,-0.114612
1.72168,-0.314124,-0.0815225
1.77503,-0.234948,-0.0729474
1.74275,-0.317969,-0.0412223
1.77144,-0.240768,-0.0312049
1.77961,-0.241878,0.0104382
1.72217,-0.320428,-0.122492
1.77492,-0.241241,0.0521302
1.76808,-0.240311,-0.114356
1.7245,-0.320863,-0.0817087
1.77024,-0.240605,-0.0727846
1.73377,-0.322587,-0.0410362
1.75875,-0.244985,-0.0309955
1.7788,-0.247778,0.0104382
1.72109,-0.326138,-0.122492
1.77807,-0.247677,0.0522466
1.76728,-0.246173,-0.114356
