1.40601,0.0606503,0.114887
1.41269,0.200301,-0.05813
1.44149,0.132962,-0.033685
1.39849,0.19331,-0.0246428
1.42628,0.0565375,-0.0415413
1.4264,0.12655,0
1.43584,-0.0132819,-0.0167166
1.43925,0.0570518,-0.183341
1.43885,0.0570358,-0.00836916
1.43008,0.126877,-0.154648
1.44964,-0.0134095,-0.135327
1.43398,0.127223,0.0334989
1.43984,-0.0133189,0.0167632
1.43882,0.127652,-0.101007
1.44207,0.0571635,-0.117816
1.43865,0.0570281,0.0251315
1.41956,0.196223,-0.091843
1.44549,-0.0133711,-0.0841853
1.42969,0.0566729,0.0582928
1.43281,0.127119,-0.0670048
1.44089,0.0571168,-0.0755731
1.4102,0.0559002,0.115212
1.42525,0.19701,-0.0586185
1.44194,0.12793,-0.033685
1.41108,0.189783,-0.0248522
1.42248,0.0511662,-0.0414249
1.43084,0.121661,0
1.43578,-0.0185441,-0.0167166
1.43945,0.0517766,-0.183341
1.42713,0.191941,0.00836916
1.43505,0.0516183,-0.00834591
1.42657,0.121298,-0.15422
1.44958,-0.0187223,-0.135327
1.42647,0.121289,0.0333128
1.43978,-0.0185958,0.0167632
1.44326,0.122716,-0.101286
1.44625,0.0520213,-0.118141
1.44285,0.0518989,0.0252013
1.41632,0.190487,-0.0915872
1.44543,-0.0186687,-0.0841853
1.4324,0.121793,0.0837202
1.42589,0.0512891,0.05813
1.43327,0.121867,-0.0670048
1.44109,0.0518356,-0.0755731
1.40641,0.0505882,0.114887
1.41805,0.19072,-0.0582928
1.4424,0.122644,-0.033685
1.40377,0.184062,-0.0247126
1.41864,0.0463179,-0.0413086
1.42326,0.116263,0
1.43571,-0.0233056,-0.0167166
1.44358,0.047132,-0.183847
1.44321,0.0471199,-0.0083924
1.43489,0.117214,-0.155077
1.43358,-0.023271,-0.133839
1.43085,0.116883,0.0334059
1.43571,-0.0233056,0.0167166
1.42775,0.11663,-0.10017
1.44243,0.0470946,-0.117816
1.43901,0.046983,0.0251315
1.41694,0.185789,-0.0915872
1.44536,-0.0234622,-0.0841853
1.43005,0.0466904,0.0582928
1.43366,0.117113,-0.0670048
1.44525,0.0471865,-0.0757825
1.41055,0.0460538,0.115212
1.42263,0.186536,-0.0584557
1.4428,0.11786,-0.033685
1.41234,0.180173,-0.0248522
1.42279,0.0414818,-0.0414249
1.41967,0.110982,0
1.43162,-0.0282386,-0.01667
1.44373,0.0420923,-0.183847
1.42443,0.181716,0.00834591
1.43936,0.0419649,-0.00836916
1.43133,0.111894,-0.154648
1.44942,-0.0285895,-0.135327
1.43523,0.112199,0.0334989
1.43562,-0.0283175,0.0167166
1.42417,0.111334,-0.0998913
1.44259,0.0420589,-0.117816
1.43917,0.0419593,0.0251315
1.41758,0.180842,-0.0915872
1.43728,-0.0283502,-0.0837202
1.42921,0.111728,0.0834876
1.42621,0.0415814,0.05813
1.4261,0.111485,-0.0666326
1.4454,0.042141,-0.0757825
1.41469,0.0412456,0.115538
1.42328,0.181568,-0.0584557
1.43922,0.112511,-0.033592
1.41299,0.174996,-0.0248522
1.43493,0.0365727,-0.041774
1.42007,0.105779,0
1.43951,-0.0336723,-0.0167632
1.43198,0.0364975,-0.182331
1.42112,0.176002,0.00832266
1.44751,0.0368933,-0.00841565
1.43966,0.107238,-0.155505
1.4493,-0.0339014,-0.135327
1.42766,0.106344,0.0333128
1.43951,-0.0336723,0.0167632
1.4365,0.107003,-0.100728
1.44672,0.0368731,-0.118141
1.43931,0.0366845,0.0251315
1.41427,0.175154,-0.0913314
1.45314,-0.0339912,-0.0846504
1.42563,0.106193,0.0832551
1.43035,0.036456,0.0582928
1.43447,0.106851,-0.0670048
1.44555,0.0368433,-0.0757825
1.40686,0.0358573,0.114887
1.416,0.175368,-0.05813
1.4476,0.107829,-0.0337781
1.40959,0.169831,-0.0247824
1.43104,0.0317257,-0.0416576
1.42041,0.101069,0
1.43539,-0.0383386,-0.0167166
1.44002,0.0319249,-0.183341
1.42567,0.171768,0.00834591
1.44362,0.0320046,-0.0083924
1.44001,0.102464,-0.155505
1.45714,-0.0389196,-0.13607
1.43199,0.101893,0.0334059
1.43539,-0.0383386,0.0167166
1.43287,0.101956,-0.100449
1.44284,0.0319874,-0.117816
1.44343,0.0320003,0.0252013
1.41484,0.170464,-0.0913314
1.44504,-0.0385962,-0.0841853
1.42199,0.101182,0.0830225
1.43446,0.0318014,0.0584557
1.4388,0.102378,-0.0671909
1.44167,0.0319613,-0.0755731
1.40697,0.0311921,0.114887
1.42451,0.171628,-0.0584557
1.44396,0.102745,-0.033685
1.41415,0.165374,-0.0248522
1.42315,0.0265806,-0.0414249
1.42873,0.09665,0
1.43925,-0.04347,-0.0167632
1.44013,0.0268977,-0.183341
1.42228,0.166325,0.00832266
1.44372,0.0269648,-0.0083924
1.42845,0.0966309,-0.15422
1.44506,-0.0436454,-0.134955
1.42835,0.0966238,0.0333128
1.43925,-0.04347,0.0167632
1.4372,0.0972225,-0.100728
1.45092,0.0270992,-0.118467
1.42568,0.166722,0.041774
1.43553,0.0268118,0.0250617
1.41543,0.165524,-0.0913314
1.44489,-0.0436405,-0.0841853
1.41835,0.0959474,0.08279
1.42657,0.0266444,0.05813
1.4232,0.0962756,-0.0664464
1.44976,0.0270775,-0.0759918
1.40707,0.0262803,0.114887
1.4251,0.166654,-0.0584557
1.44431,0.0977034,-0.033685
1.40679,0.15929,-0.0247126
1.42324,0.0213646,-0.0414249
1.4171,0.090647,0
1.43908,-0.0487445,-0.0167632
1.44815,0.0217386,-0.184352
1.42288,0.161111,0.00832266
1.43981,0.0216134,-0.00836916
1.4288,0.091395,-0.15422
1.45683,-0.0493457,-0.13607
1.43268,0.0916436,0.0334059
1.43908,-0.0487445,0.0167632
1.4256,0.0911904,-0.0998913
1.45101,0.0217815,-0.118467
1.44362,0.0216705,0.0252013
1.41999,0.160784,-0.0915872
1.44871,-0.0490708,-0.0844179
1.42268,0.0910035,0.0830225
1.42666,0.0214159,0.05813
1.42753,0.091314,-0.0666326
1.44186,0.0216441,-0.0755731
1.41115,0.0211831,0.115212
1.42173,0.160981,-0.0582928
1.44466,0.0924094,-0.033685
1.40729,0.15487,-0.0247126
1.4233,0.0168935,-0.0414249
1.459,0.0173173,-0.291823
1.41339,0.0859521,0
1.43892,-0.0532649,-0.0167632
1.44028,0.0170951,-0.183341
1.41941,0.156203,0.00829941
1.43987,0.0170903,-0.00836916
1.44099,0.0876304,-0.155505
1.44075,-0.0533326,-0.134583
1.42897,0.0868998,0.0333128
1.43892,-0.0532649,0.0167632
1.43384,0.087196,-0.100449
1.45107,0.0172232,-0.118467
1.41486,0.155702,0.0414249
1.44768,0.0171829,0.0252711
1.42049,0.156323,-0.0915872
1.44456,-0.0534739,-0.0841853
1.42694,0.0867763,0.0832551
1.43071,0.0169815,0.0582928
1.43579,0.0873142,-0.0670048
1.44591,0.017162,-0.0757825
1.40722,0.0167027,0.114887
1.41428,0.155639,-0.0579672
1.44095,0.087628,-0.033592
1.39989,0.148864,-0.024573
1.43135,0.0117413,-0.0416576
1.45513,0.0119364,-0.291038
1.41769,0.0809983,0
1.43472,-0.0583769,-0.0167166
1.43636,0.0117825,-0.182836
1.41997,0.150999,0.00829941
1.44393,0.0118445,-0.0083924
1.43733,0.0821204,-0.155077
1.45248,-0.0590997,-0.135698
1.42928,0.0816607,0.0333128
1.44271,-0.0587021,0.0168097
1.44212,0.0823943,-0.101007
1.44315,0.0118382,-0.117816
1.41542,0.150515,0.0414249
1.43573,0.0117773,0.0250617
1.42106,0.151114,-0.0915872
1.45234,-0.0590938,-0.0846504
1.42326,0.0813168,0.0830225
1.42277,0.011671,0.0579672
1.4361,0.0820502,-0.0670048
1.44197,0.0118285,-0.0755731
1.40727,0.0115438,0.114887
1.41484,0.150453,-0.0579672
1.44525,0.0825731,-0.033685
1.41236,0.144957,-0.0247824
1.42738,0.00647727,-0.0415413
1.45909,0.00662116,-0.291823
1.42197,0.0760155,0
1.43849,-0.063812,-0.0167632
1.4364,0.00651818,-0.182836
1.41653,0.145385,0.00827617
1.44396,0.00655251,-0.0083924
1.42173,0.0760029,-0.153363
1.45623,-0.064599,-0.13607
1.43356,0.0766353,0.0334059
1.43849,-0.063812,0.0167632
1.43046,0.0764694,-0.10017
1.44318,0.00654899,-0.117816
1.41198,0.144918,0.0413086
1.43577,0.00651533,0.0250617
1.41366,0.14509,-0.0910755
1.45211,-0.0644162,-0.0846504
1.42355,0.0761001,0.0830225
1.4308,0.00649278,0.0582928
1.4324,0.0765731,-0.0668187
1.43801,0.00652551,-0.0753638
1.41528,0.00642235,0.115538
1.41936,0.145675,-0.05813
1.44554,0.0772758,-0.033685
1.40485,0.139728,-0.0246428
1.42739,0.00199327,-0.0415413
1.4591,0.00203755,-0.291823
1.41821,0.0713472,0
1.43429,-0.0681407,-0.0167166
1.44477,0.0726836,-0.225057
1.44038,0.0020114,-0.183341
1.41698,0.140935,0.00827617
1.43997,0.00201084,-0.00836916
1.43388,0.0721358,-0.154648
1.44806,-0.0687953,-0.135327
1.4298,0.0719306,0.0333128
1.44228,-0.0685203,0.0168097
1.43069,0.0719754,-0.10017
1.45117,0.00202647,-0.118467
1.42039,0.141273,0.0415413
1.43978,0.00201056,0.0251315
1.42205,0.141439,-0.0915872
1.4519,-0.0689775,-0.0846504
1.41581,0.0712265,0.0825574
1.42682,0.00199246,0.05813
1.42864,0.0718722,-0.0666326
1.45001,0.00202485,-0.0759918
1.41928,0.00198193,0.115863
1.41981,0.141216,-0.05813
1.44179,0.0725334,-0.033592
1.40931,0.135205,-0.0247126
1.43139,-0.00299803,-0.0416576
1.47087,-0.00308072,-0.294176
1.41845,0.0663959,0
1.43803,-0.073351,-0.0167632
1.44896,0.0678244,-0.225672
1.44038,-0.00301685,-0.183341
1.42941,0.137133,0.00834591
1.43997,-0.00301601,-0.00836916
1.44207,0.0675017,-0.155505
1.45179,-0.0740529,-0.135698
1.42605,0.0667519,0.0332198
1.43803,-0.073351,0.0167632
1.43094,0.0669805,-0.10017
1.45914,-0.00305616,-0.119118
1.41689,0.135932,0.0414249
1.44378,-0.00302398,0.0252013
1.41856,0.136092,-0.0913314
1.45165,-0.0740456,-0.0846504
1.42403,0.066657,0.0830225
1.43081,-0.00299682,0.0582928
1.43687,0.0672581,-0.0670048
1.44601,-0.00302866,-0.0757825
1.41529,-0.00296431,0.115538
1.42825,0.137022,-0.0584557
1.44602,0.0676868,-0.033685
1.40982,0.129793,-0.0247126
1.42737,-0.00847009,-0.0415413
1.45123,-0.00861169,-0.290254
1.4147,0.0607776,0
1.44173,-0.0790909,-0.0168097
1.44921,0.0622606,-0.225672
1.44432,-0.00857067,-0.183847
1.42196,0.130911,0.00829941
1.44795,-0.00859221,-0.00841565
1.44232,0.0619644,-0.155505
1.45547,-0.0798446,-0.13607
1.43029,0.0614477,0.0333128
1.44173,-0.0790909,0.0168097
1.43118,0.0614859,-0.10017
1.45115,-0.00861118,-0.118467
1.4174,0.130491,0.0414249
1.43976,-0.00854358,0.0251315
1.41908,0.130645,-0.0913314
1.44737,-0.0793999,-0.0844179
1.42028,0.0610176,0.08279
1.43079,-0.00849036,0.0582928
1.42913,0.0613978,-0.0666326
1.44599,-0.00858058,-0.0757825
1.41128,-0.00837461,0.115212
1.41683,0.130438,-0.0579672
1.44627,0.0621343,-0.033685
1.41027,0.124871,-0.0247126
1.43133,-0.0134899,-0.0416576
1.45512,-0.013714,-0.291038
1.42289,0.0561548,0
1.43346,-0.0836566,-0.0167166
1.44152,0.0568901,-0.224442
1.44428,-0.0136119,-0.183847
1.42241,0.125946,0.00829941
1.45191,-0.0136838,-0.0084389
1.44253,0.0569297,-0.155505
1.46314,-0.0853884,-0.136814
1.43449,0.0566127,0.0334059
1.44145,-0.0841227,0.0168097
1.4274,0.0563327,-0.0998913
1.45111,-0.0136763,-0.118467
1.41387,0.12519,0.0413086
1.43972,-0.0135689,0.0251315
1.41555,0.125339,-0.0910755
1.45904,-0.0851493,-0.0851155
1.42847,0.0563748,0.0832551
1.42675,-0.0134467,0.05813
1.43333,0.0565667,-0.0668187
1.44595,-0.0136277,-0.0757825
1.41523,-0.0133381,0.115538
1.42126,0.125844,-0.05813
1.44249,0.0569281,-0.033592
1.41065,0.12044,-0.0247126
1.42728,-0.0179359,-0.0415413
1.45899,-0.0183344,-0.291823
1.42306,0.0516847,0
1.43319,-0.0881593,-0.0167166
1.44564,0.0525049,-0.225057
1.44423,-0.0181489,-0.183847
1.42678,0.121818,0.00832266
1.44786,-0.0181945,-0.00841565
1.43475,0.0521091,-0.154648
1.45491,-0.0894953,-0.13607
1.43467,0.0521061,0.0334059
1.44118,-0.0886504,0.0168097
1.43555,0.0521381,-0.100449
1.45106,-0.0182347,-0.118467
1.41425,0.120748,0.0413086
1.44367,-0.0181418,0.0252013
1.41593,0.120891,-0.0910755
1.45079,-0.089242,-0.0846504
1.42864,0.0518871,0.0832551
1.4267,-0.0179287,0.05813
1.44149,0.0523538,-0.0671909
1.4459,-0.0181699,-0.0757825
1.41917,-0.0178339,0.115863
1.42164,0.121379,-0.05813
1.44665,0.0525415,-0.033685
1.40708,0.115189,-0.0246428
1.42721,-0.0229184,-0.0415413
1.45892,-0.0234275,-0.291823
1.41524,0.0464541,0
1.44485,-0.0939404,-0.0168563
1.44582,0.0474579,-0.225057
1.44019,-0.0231268,-0.183341
1.41923,0.116183,0.00827617
1.43979,-0.0231203,-0.00836916
1.4389,0.0472307,-0.155077
1.45857,-0.0948321,-0.136442
1.43484,0.0470975,0.0334059
1.44485,-0.0939404,0.0168563
1.43572,0.0471264,-0.100449
1.45497,-0.0233641,-0.118792
1.41467,0.11581,0.0413086
1.44359,-0.0231814,0.0252013
1.41237,0.115622,-0.0908197
1.45047,-0.094306,-0.0846504
1.42482,0.0467685,0.0830225
1.42663,-0.0229091,0.05813
1.43367,0.0470592,-0.0668187
1.44982,-0.0232815,-0.0759918
1.42308,-0.022852,0.116188
1.42206,0.116415,-0.05813
1.44683,0.0474911,-0.033685
1.41148,0.110343,-0.0247126
1.42712,-0.0281489,-0.0415413
1.4549,-0.0286968,-0.291038
1.4154,0.041267,0
1.44849,-0.0995092,-0.0169029
1.44993,0.0422739,-0.225672
1.44803,-0.0285614,-0.184352
1.42363,0.111293,0.00829941
1.44769,-0.0285547,-0.00841565
1.43111,0.0417251,-0.15422
1.45821,-0.100177,-0.136442
1.435,0.0418386,0.0334059
1.43652,-0.0986868,0.0167632
1.43588,0.0418642,-0.100449
1.45089,-0.0286178,-0.118467
1.42305,0.111248,0.0415413
1.4435,-0.028472,0.0252013
1.42074,0.111067,-0.0913314
1.46207,-0.100442,-0.0853481
1.42897,0.0416627,0.0832551
1.42654,-0.0281375,0.05813
1.42585,0.0415717,-0.0664464
1.44973,-0.0285949,-0.0759918
1.419,-0.0279888,0.115863
1.42646,0.111514,-0.0582928
1.44699,0.0421882,-0.033685
1.41185,0.105415,-0.0247126
1.42701,-0.0331307,-0.0415413
1.45479,-0.0337756,-0.291038
1.41553,0.0363257,0
1.43616,-0.103701,-0.0167632
1.43822,0.0369079,-0.223827
1.44792,-0.0336162,-0.184352
1.42401,0.106323,0.00829941
1.45158,-0.0337012,-0.0084389
1.44317,0.037035,-0.155505
1.44991,-0.104693,-0.135698
1.43114,0.0367262,0.0333128
1.44414,-0.104277,0.0168563
1.43203,0.0367491,-0.10017
1.45875,-0.0338676,-0.119118
1.41546,0.105684,0.0413086
1.44339,-0.033511,0.0252013
1.42112,0.106107,-0.0913314
1.45375,-0.104971,-0.084883
1.42512,0.0365716,0.0830225
1.43043,-0.03321,0.0582928
1.43397,0.0367989,-0.0668187
1.44563,-0.0335628,-0.0757825
1.41491,-0.0328497,0.115538
1.42684,0.106534,-0.0582928
1.45113,0.0372392,-0.0337781
1.4162,0.100769,-0.0247824
1.42689,-0.038112,-0.0415413
1.4625,-0.0390633,-0.292607
1.41565,0.031384,0
1.43978,-0.109016,-0.0168097
1.43439,0.0317994,-0.223212
1.43986,-0.0384586,-0.183341
1.42836,0.101635,0.00832266
1.44746,-0.0386615,-0.00841565
1.43534,0.0318206,-0.154648
1.4535,-0.110055,-0.13607
1.43126,0.0317301,0.0333128
1.44377,-0.109318,0.0168563
1.44013,0.0319267,-0.100728
1.44667,-0.0386404,-0.118141
1.41981,0.101026,0.0414249
1.43927,-0.0384427,0.0251315
1.42546,0.101428,-0.0915872
1.45735,-0.110346,-0.0851155
1.43322,0.0317735,0.0834876
1.4303,-0.0382032,0.0582928
1.43809,0.0318814,-0.0670048
1.4455,-0.0386091,-0.0757825
1.4108,-0.0376824,0.115212
1.42322,0.101269,-0.05813
1.45125,0.0321732,-0.0337781
1.40456,0.0952607,-0.024573
1.42675,-0.0428435,-0.0415413
1.46237,-0.043913,-0.292607
1.41975,0.0267648,0
1.43542,-0.113474,-0.0167632
1.43844,0.0271171,-0.223827
1.43973,-0.0432332,-0.183341
1.42071,0.0963562,0.00827617
1.43933,-0.0432211,-0.00836916
1.42749,0.0269107,-0.153791
1.46107,-0.115502,-0.136814
1.43536,0.027059,0.0334059
1.43941,-0.11379,0.0168097
1.44023,0.0271508,-0.100728
1.46247,-0.0439162,-0.119443
1.42013,0.0963171,0.0414249
1.43913,-0.0432152,0.0251315
1.42181,0.0964307,-0.0913314
1.453,-0.114864,-0.084883
1.42533,0.02687,0.0830225
1.42617,-0.0428261,0.05813
1.43818,0.0271124,-0.0670048
1.44936,-0.0435223,-0.0759918
1.4171,0.0267149,0.174029
1.41067,-0.0423605,0.115212
1.42355,0.0965484,-0.05813
1.44735,0.0272852,-0.033685
1.41287,0.0908707,-0.0247126
1.42659,-0.0478235,-0.0415413
1.45436,-0.0487545,-0.291038
1.41983,0.0218088,0
1.43901,-0.118813,-0.0168097
1.44643,0.0222173,-0.225057
1.44354,-0.0483915,-0.183847
1.42503,0.0916532,0.00829941
1.44317,-0.048379,-0.0083924
1.44746,0.0222331,-0.155933
1.46066,-0.120601,-0.136814
1.42745,0.0219257,0.0332198
1.43901,-0.118813,0.0168097
1.4443,0.0221846,-0.101007
1.45036,-0.0486202,-0.118467
1.41647,0.0911027,0.0413086
1.44697,-0.0485065,0.0252711
1.42612,0.0917233,-0.0915872
1.45657,-0.120264,-0.0851155
1.42941,0.0219559,0.0832551
1.42602,-0.0478041,0.05813
1.43428,0.0220306,-0.0668187
1.4492,-0.0485812,-0.0759918
1.42513,0.0218901,0.175004
1.42247,-0.0476852,0.116188
1.42786,0.0918353,-0.0582928
1.44344,0.0221714,-0.033592
1.41319,0.0856916,-0.0247126
1.42641,-0.0530519,-0.0415413
1.45418,-0.0540847,-0.291038
1.4199,0.0166047,0
1.45052,-0.125118,-0.0169494
1.4544,0.0170081,-0.226287
1.44335,-0.053682,-0.183847
1.42536,0.0864295,0.00829941
1.44298,-0.0536682,-0.0083924
1.44355,0.0168812,-0.155505
1.46021,-0.125954,-0.136814
1.43551,0.0167872,0.0334059
1.44653,-0.124774,0.0169029
1.43639,0.0167975,-0.100449
1.44619,-0.0537875,-0.118141
1.42079,0.0861524,0.0414249
1.44278,-0.0536609,0.0252013
1.41848,0.0860124,-0.0910755
1.4601,-0.125944,-0.0853481
1.43347,0.0167634,0.0834876
1.42583,-0.0530304,0.05813
1.43435,0.0167736,-0.0668187
1.44502,-0.053744,-0.0757825
1.42123,0.0166202,0.174517
1.4183,-0.0527503,0.115863
1.42819,0.0866013,-0.0582928
1.44351,0.0168808,-0.033592
1.41747,0.0809863,-0.0247824
1.43421,-0.0583558,-0.041774
1.45006,-0.0590009,-0.290254
1.41995,0.0116482,0
1.4421,-0.129465,-0.0168563
1.44655,0.0118664,-0.225057
1.45108,-0.0590425,-0.184857
1.42964,0.0816817,0.00832266
1.44678,-0.0588674,-0.00841565
1.46348,0.0120053,-0.157647
1.45976,-0.13105,-0.136814
1.43556,0.0117763,0.0334059
1.43812,-0.129108,0.0168097
1.43245,0.0117508,-0.10017
1.45396,-0.0591595,-0.118792
1.42108,0.0811924,0.0414249
1.44259,-0.0586968,0.0252013
1.42674,0.0815159,-0.0915872
1.45965,-0.13104,-0.0853481
1.42554,0.011694,0.0830225
1.43762,-0.0584946,0.0586185
1.4344,0.0117667,-0.0668187
1.44482,-0.0587877,-0.0757825
1.41731,0.0116265,0.174029
1.41811,-0.0577007,0.115863
1.42449,0.0813874,-0.05813
1.4312,-0.0582336,0.261161
1.44756,0.0118747,-0.033685
1.40575,0.0756407,-0.024573
1.43001,-0.0629357,-0.0416576
1.45377,-0.0639816,-0.291038
1.42398,0.00695895,0
1.4337,-0.133505,-0.0167632
1.43472,0.00701143,-0.223212
1.44295,-0.0635052,-0.183847
1.42591,0.0767255,0.00829941
1.45457,-0.0640165,-0.00846215
1.44363,0.00705497,-0.155505
1.45931,-0.13589,-0.136814
1.43559,0.00701569,0.0334059
1.44167,-0.134247,0.0168563
1.44047,0.0070395,-0.100728
1.45375,-0.0639806,-0.118792
1.42134,0.0764795,0.0414249
1.44238,-0.0634803,0.0252013
1.42302,0.0765697,-0.0913314
1.47113,-0.136991,-0.0860458
1.43355,0.00700572,0.0834876
1.42544,-0.0627344,0.05813
1.43842,0.00702952,-0.0670048
1.44063,-0.063403,-0.0755731
1.41734,0.00692648,0.174029
1.40994,-0.0620524,0.115212
1.42476,0.0766632,-0.05813
1.43493,-0.0631524,0.261879
1.44759,0.00707432,-0.033685
1.41,0.0709342,-0.0246428
1.43378,-0.0681167,-0.041774
1.46138,-0.0694281,-0.292607
1.424,0.00198828,0
1.44517,-0.139663,-0.0169029
1.45055,0.00202535,-0.225672
1.44272,-0.0685416,-0.183847
1.41818,0.0713457,0.00825292
1.44235,-0.0685241,-0.0083924
1.42774,0.0019935,-0.153791
1.46676,-0.14175,-0.137557
1.44361,0.00201566,0.033592
1.44517,-0.139663,0.0169029
1.43649,0.00200572,-0.100449
1.45352,-0.0690548,-0.118792
1.4216,0.0715176,0.0414249
1.44615,-0.0687046,0.0252711
1.41929,0.0714014,-0.0910755
1.45872,-0.140973,-0.0853481
1.42558,0.00199049,0.0830225
1.43319,-0.0680891,0.0584557
1.43045,0.00199729,-0.0666326
1.45237,-0.069,-0.0762012
1.42132,0.00198455,0.174517
1.4137,-0.0671629,0.115538
1.42501,0.0716894,-0.05813
1.4347,-0.0681608,0.261879
1.44361,0.00201566,-0.033592
1.40626,0.0655795,-0.024573
1.43352,-0.0733713,-0.041774
1.46895,-0.0751848,-0.294176
1.42,-0.00322187,0
1.44465,-0.144959,-0.0169029
1.44264,-0.00327325,-0.224442
1.45038,-0.0742347,-0.184857
1.42643,0.06652,0.00829941
1.44209,-0.0738101,-0.0083924
1.43569,-0.00325748,-0.154648
1.45831,-0.146329,-0.136814
1.43161,-0.00324822,0.0333128
1.44465,-0.144959,0.0169029
1.44048,-0.00326834,-0.100728
1.45724,-0.0745855,-0.119118
1.41786,0.0661205,0.0413086
1.44189,-0.0738001,0.0252013
1.41954,0.066199,-0.0910755
1.45422,-0.14592,-0.0851155
1.42558,-0.00323454,0.0830225
1.42894,-0.0731372,0.0582928
1.43444,-0.00325465,-0.0668187
1.45609,-0.0745269,-0.0764105
1.42132,-0.00322488,0.174517
1.4214,-0.0727514,0.116188
1.43325,0.0668384,-0.0584557
1.43051,-0.0732177,0.261161
1.4476,-0.00328451,-0.033685
1.40646,0.0611613,-0.024573
1.42929,-0.0776575,-0.0416576
1.46479,-0.0795865,-0.293391
1.41598,-0.00766126,0
1.44816,-0.149909,-0.0169494
1.45053,-0.00784819,-0.225672
1.44618,-0.0785755,-0.184352
1.43062,0.0622122,0.00832266
1.44185,-0.0783402,-0.0083924
1.43965,-0.00778933,-0.155077
1.4618,-0.15132,-0.137185
1.43559,-0.00776736,0.0334059
1.43623,-0.148673,0.0168097
1.44046,-0.00779372,-0.100728
1.457,-0.0791632,-0.119118
1.42605,0.0620132,0.0415413
1.44565,-0.0785465,0.0252711
1.42373,0.0619125,-0.0913314
1.45376,-0.150487,-0.0851155
1.43355,-0.00775633,0.0834876
1.4327,-0.0778429,0.0584557
1.43442,-0.00776105,-0.0668187
1.44787,-0.0786675,-0.0759918
1.41734,-0.00766859,0.174029
1.42117,-0.0772166,0.116188
1.43346,0.0623353,-0.0584557
1.45159,-0.00785391,-0.0337781
1.43699,-0.0831079,-0.0418904
1.4645,-0.0846991,-0.293391
1.42394,-0.0126751,0
1.43968,-0.154111,-0.0168563
1.44259,-0.0128411,-0.224442
1.44986,-0.0838523,-0.184857
1.43083,0.057218,0.00832266
1.44556,-0.0836036,-0.00841565
1.43962,-0.0128146,-0.155077
1.46126,-0.156422,-0.137185
1.43555,-0.0127785,0.0334059
1.43968,-0.154111,0.0168563
1.44043,-0.0128218,-0.100728
1.45671,-0.0842486,-0.119118
1.41827,0.0567155,0.0413086
1.44536,-0.0835923,0.0252711
1.43192,0.0572614,-0.091843
1.46513,-0.156836,-0.0858132
1.42952,-0.0127248,0.0832551
1.42843,-0.0826127,0.0582928
1.43439,-0.0127681,-0.0668187
1.45158,-0.0839517,-0.0762012
1.4173,-0.012616,0.174029
1.41691,-0.0819467,0.115863
1.42568,0.0570119,-0.05813
1.43,-0.0827035,0.261161
1.44755,-0.0128852,-0.033685
1.40686,0.0510954,-0.024573
1.43268,-0.0881287,-0.041774
1.47201,-0.0905478,-0.29496
1.42789,-0.0179443,0
1.44705,-0.160267,-0.0169494
1.45044,-0.0182277,-0.225672
1.44558,-0.0889221,-0.184352
1.41904,0.0515379,0.00825292
1.44524,-0.0889013,-0.00841565
1.43956,-0.018091,-0.155077
1.46068,-0.161777,-0.137185
1.4315,-0.0179897,0.0333128
1.44308,-0.159827,0.0169029
1.43638,-0.018051,-0.100449
1.45241,-0.0893423,-0.118792
1.42246,0.051662,0.0414249
1.44505,-0.0888892,0.0252711
1.42414,0.051723,-0.0913314
1.46455,-0.162205,-0.0858132
1.42946,-0.0179641,0.0832551
1.4321,-0.0880929,0.0584557
1.43433,-0.0180253,-0.0668187
1.45126,-0.0892714,-0.0762012
1.41724,-0.0178105,0.174029
1.4166,-0.0871394,0.115863
1.42588,0.0517861,-0.05813
1.43361,-0.0881858,0.261879
1.44749,-0.0181907,-0.033685
1.44036,-0.0933966,-0.0420067
1.4717,-0.0954287,-0.29496
1.42782,-0.0226792,0
1.44254,-0.164612,-0.0169029
1.45037,-0.0230374,-0.225672
1.44132,-0.0934586,-0.183847
1.4232,0.0469638,0.00827617
1.44893,-0.0939522,-0.0084389
1.45142,-0.0230541,-0.156362
1.46409,-0.167071,-0.137557
1.44343,-0.0229271,0.033592
1.44254,-0.164612,0.0169029
1.44828,-0.0230042,-0.101286
1.46404,-0.0949321,-0.119769
1.42262,0.0469447,0.0414249
1.43277,-0.0929044,0.0250617
1.4243,0.0470001,-0.0913314
1.45607,-0.166155,-0.0853481
1.4294,-0.0227043,0.0832551
1.44377,-0.0936173,0.0589441
1.44625,-0.022972,-0.0673771
1.45494,-0.094342,-0.0764105
1.42115,-0.0225733,0.174517
1.42426,-0.0923525,0.116514
1.43003,0.0471893,-0.0582928
1.43724,-0.0931939,0.262596
1.45142,-0.0230542,-0.0337781
1.40718,0.0412725,-0.024573
1.43602,-0.0984019,-0.0418904
1.46743,-0.100554,-0.294176
1.42773,-0.0279123,0
1.44193,-0.169898,-0.0169029
1.44632,-0.0282758,-0.225057
1.44888,-0.0992832,-0.184857
1.41937,0.0416299,0.00825292
1.44459,-0.0989887,-0.00841565
1.4394,-0.0281405,-0.155077
1.45951,-0.17197,-0.137185
1.43534,-0.0280611,0.0334059
1.4459,-0.170366,0.0169494
1.4442,-0.0282343,-0.101007
1.45971,-0.100025,-0.119443
1.42279,0.0417302,0.0414249
1.44838,-0.0992488,0.0253409
1.42845,0.0418965,-0.0915872
1.45545,-0.171491,-0.0853481
1.4293,-0.0279432,0.0832551
1.42747,-0.0978155,0.0582928
1.43417,-0.0280383,-0.0668187
1.45459,-0.099674,-0.0764105
1.42502,-0.0278595,0.175004
1.41994,-0.0972995,0.116188
1.4262,0.0418304,-0.05813
1.42904,-0.097923,0.261161
1.44733,-0.0282956,-0.033685
1.40732,0.0363603,-0.024573
1.43966,-0.103701,-0.0420067
1.47098,-0.105957,-0.29496
1.42762,-0.0328959,0
1.45324,-0.176376,-0.0170425
1.45017,-0.0334153,-0.225672
1.45249,-0.104625,-0.185362
1.4235,0.0367784,0.00827617
1.44822,-0.104318,-0.0084389
1.43929,-0.0331647,-0.155077
1.46681,-0.178023,-0.137929
1.43923,-0.0331633,0.0334989
1.44132,-0.17493,0.0169029
1.43611,-0.0330915,-0.100449
1.46333,-0.105406,-0.119769
1.42292,0.0367635,0.0414249
1.44803,-0.104304,0.0253409
1.42061,0.0367038,-0.0910755
1.45484,-0.17657,-0.0853481
1.43319,-0.0330242,0.0834876
1.4311,-0.103085,0.0584557
1.44605,-0.0333204,-0.0673771
1.44626,-0.104177,-0.0759918
1.42095,-0.0327421,0.174517
1.41561,-0.101969,0.115863
1.43034,0.036955,-0.0582928
1.43653,-0.103476,0.262596
1.45122,-0.0334397,-0.0337781
1.41543,0.0318733,-0.0247126
1.43133,-0.107874,-0.041774
1.4628,-0.110245,-0.293391
1.42351,-0.0375244,0
1.4328,-0.178719,-0.0168097
1.4461,-0.0381199,-0.225057
1.46005,-0.110038,-0.186372
1.42362,0.0320578,0.00827617
1.44787,-0.10912,-0.0084389
1.43917,-0.0379374,-0.155077
1.46621,-0.182887,-0.137929
1.44711,-0.0381465,0.033685
1.4328,-0.178719,0.0168097
1.432,-0.0377485,-0.10017
1.45502,-0.109659,-0.119118
1.41504,0.0318647,0.0411922
1.44767,-0.109105,0.0253409
1.4327,0.0322623,-0.091843
1.46614,-0.182877,-0.0860458
1.43307,-0.0377766,0.0834876
1.43075,-0.10783,0.0584557
1.44593,-0.0381155,-0.0673771
1.44591,-0.108972,-0.0759918
1.42083,-0.037454,0.174517
1.41924,-0.106962,0.116188
1.42645,0.0321217,-0.05813
1.44011,-0.108535,0.263313
1.44711,-0.0381465,-0.033685
1.43493,-0.113184,-0.0418904
1.47414,-0.116276,-0.295745
1.41937,-0.0423738,0
1.44407,-0.185246,-0.0169494
1.4499,-0.0432854,-0.225672
1.44383,-0.113885,-0.184352
1.42772,0.0271643,0.00829941
1.45147,-0.114488,-0.00846215
1.45096,-0.0433168,-0.156362
1.46557,-0.188003,-0.137929
1.43497,-0.0428396,0.0334059
1.44804,-0.185754,0.016996
1.44383,-0.0431041,-0.101007
1.46258,-0.115364,-0.119769
1.41514,0.0269251,0.0411922
1.44728,-0.114158,0.0253409
1.42482,0.0271092,-0.0913314
1.46153,-0.187485,-0.0858132
1.42894,-0.0426596,0.0832551
1.43435,-0.113138,0.0586185
1.44179,-0.0430433,-0.0671909
1.4495,-0.114333,-0.0762012
1.42466,-0.0425318,0.175004
1.41886,-0.111916,0.116188
1.43455,0.0272943,-0.0584557
1.43972,-0.113561,0.263313
1.45096,-0.043317,-0.0337781
1.43453,-0.118192,-0.0418904
1.46981,-0.121099,-0.29496
1.42721,-0.0475947,0
1.45531,-0.191853,-0.0170891
1.45369,-0.048478,-0.226287
1.45529,-0.119902,-0.185867
1.4238,0.0221183,0.00827617
1.44707,-0.119225,-0.0084389
1.43887,-0.0479837,-0.155077
1.4728,-0.194159,-0.138673
1.44281,-0.048115,0.033592
1.45134,-0.191331,0.0170425
1.44766,-0.0482767,-0.101286
1.45819,-0.120141,-0.119443
1.41123,0.021923,0.0410758
1.44688,-0.119209,0.0253409
1.4249,0.0221354,-0.0913314
1.46482,-0.193108,-0.0860458
1.43277,-0.0477804,0.0834876
1.44191,-0.1188,0.0589441
1.44163,-0.0480758,-0.0671909
1.44909,-0.119392,-0.0762012
1.42054,-0.0473723,0.174517
1.41846,-0.116868,0.116188
1.43064,0.0222245,-0.0582928
1.43931,-0.118586,0.263313
1.4508,-0.0483815,-0.0337781
1.43409,-0.123449,-0.0418904
1.46545,-0.126149,-0.294176
1.42303,-0.0526774,0
1.44271,-0.195574,-0.0169494
1.44561,-0.0535133,-0.225057
1.45484,-0.125235,-0.185867
1.43587,0.0170421,0.00834591
1.45061,-0.124871,-0.00846215
1.46253,-0.0541398,-0.157647
1.46024,-0.197951,-0.137557
1.44262,-0.0534028,0.033592
1.44271,-0.195574,0.0169494
1.44348,-0.0534347,-0.101007
1.46171,-0.125827,-0.119769
1.4233,0.0168928,0.0414249
1.45041,-0.124854,0.0254107
1.42498,0.0169128,-0.0913314
1.46806,-0.199012,-0.0862783
1.4286,-0.0528837,0.0832551
1.43351,-0.123399,0.0586185
1.43746,-0.0532116,-0.0670048
1.45661,-0.125387,-0.0766198
1.43226,-0.0530191,0.175979
1.41802,-0.122066,0.116188
1.43071,0.0169808,-0.0582928
1.43495,-0.123523,0.262596
1.45461,-0.0538466,-0.0338711
1.41573,0.0118607,-0.0247126
1.43365,-0.128454,-0.0418904
1.465,-0.131263,-0.294176
1.42683,-0.0578063,0
1.44994,-0.201711,-0.0170425
1.45331,-0.0588791,-0.226287
1.45439,-0.130313,-0.185867
1.43193,0.0119963,0.00832266
1.45017,-0.129934,-0.00846215
1.44644,-0.0586007,-0.155933
1.47137,-0.204693,-0.138673
1.43843,-0.0582763,0.0334989
1.44598,-0.20116,0.016996
1.44329,-0.0584731,-0.101007
1.46127,-0.130929,-0.119769
1.42335,0.0119245,0.0414249
1.44997,-0.129917,0.0254107
1.42103,0.0119051,-0.0910755
1.45945,-0.203034,-0.0858132
1.4324,-0.0580318,0.0834876
1.42908,-0.128045,0.0584557
1.44125,-0.0583907,-0.0671909
1.4482,-0.129758,-0.0762012
1.41223,-0.0572147,0.173542
1.42156,-0.127371,0.116514
1.43076,0.0119866,-0.0582928
1.43843,-0.128883,0.263313
1.45042,-0.0587619,-0.0337781
1.41577,0.00716591,-0.0247126
1.44118,-0.133948,-0.0421231
1.46456,-0.136121,-0.294176
1.41464,-0.0620119,0
1.44134,-0.20539,-0.0169494
1.45706,-0.0638712,-0.226902
1.4579,-0.135502,-0.186372
1.43596,0.00726811,0.00834591
1.44973,-0.134742,-0.00846215
1.45418,-0.0637453,-0.15679
1.46674,-0.209009,-0.138301
1.44222,-0.0632211,0.033592
1.4453,-0.205954,0.016996
1.44309,-0.0632589,-0.101007
1.46082,-0.135774,-0.119769
1.41938,0.0071842,0.0413086
1.44555,-0.134354,0.0253409
1.42905,0.00723314,-0.0915872
1.46667,-0.209,-0.0862783
1.42821,-0.0626066,0.0832551
1.43263,-0.133153,0.0586185
1.44105,-0.0631697,-0.0671909
1.45572,-0.135299,-0.0766198
1.4279,-0.0625929,0.175492
1.42113,-0.132084,0.116514
1.4268,0.00722175,-0.05813
1.43408,-0.133288,0.262596
1.44622,-0.0633962,-0.033685
1.41578,0.00222391,-0.0247126
1.43274,-0.13821,-0.0418904
1.46407,-0.141232,-0.294176
1.4264,-0.067517,0
1.44062,-0.21042,-0.0169494
1.45682,-0.0689569,-0.226902
1.44952,-0.139828,-0.185362
1.43197,0.00224935,0.00832266
1.45323,-0.140186,-0.00848539
1.43806,-0.0680688,-0.155077
1.48177,-0.216431,-0.139788
1.44199,-0.068255,0.033592
1.44853,-0.211576,0.0170425
1.45083,-0.0686731,-0.101565
1.46034,-0.140872,-0.119769
1.4234,0.00223587,0.0414249
1.44905,-0.139783,0.0254107
1.43306,0.00225105,-0.091843
1.46198,-0.213541,-0.0860458
1.43596,-0.0679692,0.0837202
1.43614,-0.138537,0.0587813
1.44481,-0.0683884,-0.0673771
1.45921,-0.140763,-0.0768292
1.4237,-0.0673892,0.175004
1.42463,-0.137427,0.116839
1.43481,0.0022538,-0.0584557
1.43752,-0.138671,0.263313
1.45398,-0.0688222,-0.0338711
1.41578,-0.00247101,-0.0247126
1.44421,-0.144151,-0.0422395
1.4714,-0.146866,-0.295745
1.43416,-0.0726515,0
1.44782,-0.216378,-0.0170425
1.45659,-0.0737875,-0.226902
1.44905,-0.144634,-0.185362
1.43597,-0.00250625,0.00834591
1.44878,-0.144607,-0.00846215
1.4696,-0.0744469,-0.158504
1.47316,-0.220166,-0.139044
1.44176,-0.0730364,0.033592
1.44782,-0.216378,0.0170425
1.44262,-0.0730801,-0.101007
1.46383,-0.14611,-0.120094
1.4234,-0.0024843,0.0414249
1.45654,-0.145382,0.0255503
1.42507,-0.00248723,-0.0913314
1.46127,-0.218388,-0.0860458
1.43971,-0.0729326,0.0839528
1.43567,-0.143299,0.0587813
1.44458,-0.0731792,-0.0673771
1.45476,-0.145205,-0.0766198
1.42744,-0.0723108,0.175492
1.4202,-0.141754,0.116514
1.43481,-0.00250421,-0.0584557
1.43705,-0.143437,0.263313
1.44975,-0.0734411,-0.0337781
1.41976,-0.00743395,-0.0247824
1.43177,-0.147959,-0.0418904
1.47478,-0.152404,-0.296529
1.4339,-0.0776572,0
1.4431,-0.220826,-0.016996
1.45632,-0.0788715,-0.226902
1.46038,-0.150915,-0.186877
1.43596,-0.00751873,0.00834591
1.44826,-0.149663,-0.00846215
1.43359,-0.0776407,-0.154648
1.46451,-0.224102,-0.138301
1.43351,-0.0776362,0.0334059
1.44706,-0.221431,0.0170425
1.45033,-0.078547,-0.101565
1.46728,-0.151629,-0.120419
1.42338,-0.00745287,0.0414249
1.44807,-0.149643,0.0254107
1.42905,-0.00748256,-0.0915872
1.4605,-0.223487,-0.0860458
1.43147,-0.0775258,0.0834876
1.43118,-0.147899,0.0586185
1.44431,-0.0782213,-0.0673771
1.45822,-0.150693,-0.0768292
1.41925,-0.0768636,0.174517
1.42762,-0.14753,0.117165
1.43479,-0.00751262,-0.0584557
1.43654,-0.148452,0.263313
1.44948,-0.0785012,-0.0337781
1.41173,-0.0125664,-0.0246428
1.43519,-0.153631,-0.0420067
1.47812,-0.158226,-0.297314
1.42562,-0.0824502,0
1.45414,-0.227972,-0.0171357
1.45602,-0.0842087,-0.226902
1.45587,-0.155844,-0.186372
1.42792,-0.0127105,0.00829941
1.45168,-0.155396,-0.00848539
1.43727,-0.0831242,-0.155077
1.47155,-0.230702,-0.139044
1.43322,-0.0828897,0.0334059
1.43833,-0.225494,0.0169494
1.44605,-0.0836317,-0.101286
1.46671,-0.157005,-0.120419
1.42734,-0.0127053,0.0415413
1.45944,-0.156227,0.0256201
1.43699,-0.0127913,-0.0920989
1.46361,-0.229457,-0.0862783
1.43517,-0.0830025,0.0837202
1.43461,-0.153569,0.0587813
1.44402,-0.0835145,-0.0673771
1.45766,-0.156036,-0.0768292
1.42292,-0.0822941,0.175004
1.42707,-0.152762,0.117165
1.43875,-0.0128069,-0.0586185
1.43599,-0.153716,0.263313
1.45318,-0.0840442,-0.0338711
1.41967,-0.0175933,-0.0247824
1.43067,-0.1582,-0.0418904
1.46586,-0.162091,-0.29496
1.42532,-0.0874261,0
1.44938,-0.232413,-0.0170891
1.45572,-0.0892906,-0.226902
1.45532,-0.160925,-0.186372
1.43587,-0.0177939,0.00834591
1.45511,-0.160902,-0.00850864
1.4727,-0.090332,-0.158932
1.4668,-0.235206,-0.138673
1.43691,-0.0881369,0.0334989
1.44149,-0.231147,0.016996
1.4338,-0.087946,-0.100449
1.46616,-0.162124,-0.120419
1.42329,-0.0176381,0.0414249
1.45491,-0.160881,0.0255503
1.43295,-0.0177578,-0.091843
1.46675,-0.235197,-0.0865109
1.43487,-0.0880116,0.0837202
1.43406,-0.158575,0.0587813
1.44771,-0.0887991,-0.0675632
1.45711,-0.161124,-0.0768292
1.42262,-0.0872606,0.175004
1.43049,-0.158181,0.11749
1.4347,-0.0177795,-0.0584557
1.43544,-0.158728,0.263313
1.44888,-0.0888714,-0.0337781
1.42361,-0.0223638,-0.0248522
1.45,-0.165207,-0.0424722
1.46837,-0.0949549,-0.411911
1.47311,-0.167839,-0.296529
1.42902,-0.0924103,0
1.44071,-0.235926,-0.016996
1.45542,-0.0941175,-0.226902
1.44689,-0.164852,-0.185362
1.4318,-0.0224925,0.00832266
1.45854,-0.16618,-0.00853189
1.44064,-0.093162,-0.155505
1.45815,-0.238782,-0.137929
1.4406,-0.0931594,0.033592
1.44861,-0.237218,0.0170891
1.44544,-0.0934727,-0.101286
1.46561,-0.166985,-0.120419
1.41922,-0.0222949,0.0413086
1.45039,-0.165252,0.0254805
1.4249,-0.0223841,-0.0913314
1.4699,-0.240705,-0.0867434
1.43855,-0.093027,0.0839528
1.4375,-0.163782,0.0589441
1.43943,-0.0930837,-0.0671909
1.45656,-0.165955,-0.0768292
1.43025,-0.0924901,0.175979
1.42204,-0.162021,0.116839
1.43463,-0.022537,-0.0584557
1.44273,-0.164378,0.264748
1.45257,-0.0939336,-0.0338711
1.41552,-0.0271794,-0.0247126
1.44544,-0.169801,-0.0423558
1.46862,-0.172523,-0.295745
1.42469,-0.0971258,0
1.44382,-0.241613,-0.0170425
1.46296,-0.0997349,-0.228132
1.45025,-0.170365,-0.185867
1.42771,-0.0274135,0.00829941
1.45,-0.170336,-0.00848539
1.47302,-0.2465,-0.139416
1.44426,-0.0984595,0.033685
1.44382,-0.241613,0.0170425
1.44909,-0.098789,-0.101565
1.46898,-0.172565,-0.120745
1.42314,-0.0273256,0.0414249
1.44981,-0.170313,0.0254805
1.4288,-0.0274345,-0.0915872
1.45723,-0.243857,-0.0860458
1.42228,-0.0969615,0.0830225
1.44089,-0.169265,0.059107
1.45105,-0.098923,-0.0677493
1.46391,-0.17197,-0.0772479
1.42596,-0.097212,0.175492
1.42542,-0.167449,0.117165
1.43854,-0.0276214,-0.0586185
1.44215,-0.169413,0.264748
1.44825,-0.0987315,-0.0337781
1.41941,-0.0324588,-0.0247824
1.44084,-0.174616,-0.0422395
1.47576,-0.178848,-0.297314
1.42832,-0.102634,0
1.4587,-0.249602,-0.0172288
1.45865,-0.104813,-0.227517
1.45355,-0.176156,-0.186372
1.4316,-0.0327376,0.00832266
1.45334,-0.176131,-0.00850864
1.4558,-0.104609,-0.157218
1.46819,-0.251225,-0.139044
1.4399,-0.103466,0.033592
1.44293,-0.246904,0.0170425
1.44872,-0.1041,-0.101565
1.46438,-0.177469,-0.120419
1.42303,-0.0325415,0.0414249
1.45712,-0.176588,0.0256201
1.42869,-0.0326711,-0.0915872
1.46027,-0.24987,-0.0862783
1.43387,-0.103032,0.0837202
1.43629,-0.174065,0.0589441
1.45068,-0.104241,-0.0677493
1.46327,-0.177334,-0.0772479
1.42955,-0.102722,0.175979
1.4248,-0.172672,0.117165
1.43044,-0.032711,-0.0582928
1.43761,-0.174224,0.264031
1.44787,-0.104039,-0.0337781
1.4233,-0.0372703,-0.0248522
1.43232,-0.178405,-0.0420067
1.45961,-0.109749,-0.409755
1.47905,-0.184226,-0.298098
1.42797,-0.10737,0
1.45786,-0.254438,-0.0172288
1.46223,-0.109946,-0.228132
1.45296,-0.180976,-0.186372
1.43149,-0.0374848,0.00832266
1.45275,-0.18095,-0.00850864
1.44752,-0.108839,-0.156362
1.46734,-0.256093,-0.139044
1.44752,-0.10884,0.0337781
1.44604,-0.252375,0.0170891
1.45234,-0.109202,-0.101844
1.47169,-0.183309,-0.12107
1.41891,-0.0371555,0.0413086
1.45255,-0.180925,0.0255503
1.42858,-0.0374086,-0.0915872
1.47123,-0.256771,-0.086976
1.44148,-0.108386,0.0841853
1.43571,-0.178827,0.0589441
1.43838,-0.108152,-0.0671909
1.45871,-0.181692,-0.0770385
1.4292,-0.107462,0.175979
1.42422,-0.177396,0.117165
1.43032,-0.0374543,-0.0582928
1.43702,-0.178991,0.264031
1.45948,-0.109739,-0.0340572
1.42316,-0.0422383,-0.0248522
1.43566,-0.183912,-0.0421231
1.46306,-0.115145,-0.410833
1.4784,-0.189388,-0.298098
1.43556,-0.112981,0
1.44515,-0.257421,-0.0170891
1.45002,-0.114119,-0.226287
1.45625,-0.18655,-0.186877
1.44334,-0.0428374,0.0083924
1.45608,-0.186528,-0.00853189
1.44316,-0.113579,-0.155933
1.47428,-0.26261,-0.139788
1.43916,-0.113264,0.033592
1.44515,-0.257421,0.0170891
1.45195,-0.114271,-0.101844
1.47105,-0.188445,-0.12107
1.43076,-0.0424641,0.0416576
1.45191,-0.185994,0.0255503
1.43642,-0.0426319,-0.0920989
1.46639,-0.261205,-0.0867434
1.44109,-0.113417,0.0841853
1.43507,-0.183837,0.0589441
1.44994,-0.114113,-0.0677493
1.45014,-0.185768,-0.0766198
1.4209,-0.111827,0.175004
1.42359,-0.182366,0.117165
1.43418,-0.0425654,-0.0584557
1.43639,-0.184006,0.264031
1.45112,-0.114206,-0.0338711
1.41501,-0.0469406,-0.0247126
1.43897,-0.189444,-0.0422395
1.46648,-0.120567,-0.411911
1.47384,-0.194035,-0.297314
1.43117,-0.117664,0
1.44818,-0.263179,-0.0171357
1.46143,-0.120151,-0.228132
1.45559,-0.191633,-0.186877
1.43519,-0.04761,0.00834591
1.45145,-0.191087,-0.00850864
1.44672,-0.118942,-0.156362
1.47336,-0.267754,-0.139788
1.44274,-0.118615,0.033685
1.44425,-0.262464,0.0170891
1.45552,-0.119666,-0.102123
1.47038,-0.193579,-0.12107
1.42661,-0.0473256,0.0415413
1.44332,-0.190017,0.0254107
1.42828,-0.047381,-0.0915872
1.4694,-0.267036,-0.086976
1.43273,-0.117792,0.0837202
1.43838,-0.189367,0.059107
1.44157,-0.118518,-0.0673771
1.45741,-0.191871,-0.0770385
1.43237,-0.117763,0.176467
1.41899,-0.186814,0.116839
1.43402,-0.0475714,-0.0584557
1.43574,-0.189019,0.264031
1.45071,-0.11927,-0.0338711
1.41883,-0.0520261,-0.0247824
1.4383,-0.194466,-0.0422395
1.46989,-0.126014,-0.412989
1.47316,-0.199179,-0.297314
1.42677,-0.122317,0
1.45512,-0.26969,-0.0172288
1.45706,-0.124914,-0.227517
1.45492,-0.196712,-0.186877
1.43101,-0.0524729,0.00832266
1.44681,-0.195617,-0.00848539
1.46611,-0.12569,-0.158504
1.47633,-0.273622,-0.14016
1.4463,-0.123992,0.0337781
1.44332,-0.267504,0.0170891
1.44715,-0.124064,-0.101565
1.46969,-0.19871,-0.12107
1.42644,-0.0523051,0.0415413
1.44265,-0.195054,0.0254107
1.42811,-0.0523663,-0.0915872
1.46846,-0.272163,-0.086976
1.42435,-0.12211,0.0832551
1.44168,-0.194922,0.0592698
1.44911,-0.124232,-0.0677493
1.46069,-0.197493,-0.0772479
1.428,-0.122423,0.175979
1.43019,-0.193369,0.117816
1.43784,-0.0527232,-0.0586185
1.42435,-0.122109,0.383052
1.43897,-0.194556,0.264748
1.45029,-0.124333,-0.0338711
1.41464,-0.056818,-0.0247126
1.44553,-0.200584,-0.0424722
1.46561,-0.130802,-0.411911
1.47634,-0.204859,-0.298098
1.43828,-0.128363,0
1.45417,-0.274768,-0.0172288
1.45662,-0.13,-0.227517
1.46208,-0.202881,-0.187887
1.43482,-0.0576283,0.00834591
1.45008,-0.201215,-0.00850864
1.44982,-0.129393,-0.15679
1.47145,-0.278034,-0.139788
1.44586,-0.12904,0.0337781
1.45024,-0.274025,0.0171822
1.45863,-0.130179,-0.102403
1.46899,-0.203839,-0.12107
1.43024,-0.0574444,0.0416576
1.45385,-0.201738,0.0256201
1.43988,-0.0578317,-0.0923547
1.47535,-0.27877,-0.0874411
1.43983,-0.128501,0.0841853
1.43703,-0.199404,0.059107
1.44867,-0.12929,-0.0677493
1.46395,-0.203139,-0.0774572
1.43152,-0.12776,0.176467
1.43345,-0.198908,0.118141
1.44164,-0.0579023,-0.0587813
1.42391,-0.127081,0.383052
1.43438,-0.199037,0.264031
1.45383,-0.129751,-0.0339642
1.42243,-0.0621045,-0.0248522
1.43691,-0.204502,-0.0422395
1.46131,-0.135561,-0.410833
1.47173,-0.209458,-0.297314
1.42986,-0.132644,0
1.46106,-0.281355,-0.0173219
1.46403,-0.135814,-0.228746
1.45744,-0.207424,-0.187382
1.43461,-0.0626364,0.00834591
1.45333,-0.20684,-0.00853189
1.47312,-0.136657,-0.15936
1.46656,-0.282415,-0.139416
1.44142,-0.133716,0.033685
1.44535,-0.27833,0.0171357
1.44624,-0.134164,-0.101565
1.48011,-0.210651,-0.122047
1.43003,-0.0624365,0.0416576
1.44521,-0.205684,0.0254805
1.43568,-0.0626833,-0.0920989
1.47045,-0.283163,-0.0872085
1.43539,-0.133158,0.0839528
1.44424,-0.205545,0.0594326
1.44423,-0.133977,-0.0675632
1.45927,-0.207685,-0.0772479
1.42711,-0.132389,0.175979
1.4288,-0.203349,0.117816
1.43744,-0.0627598,-0.0586185
1.43758,-0.204597,0.264748
1.45336,-0.134825,-0.0339642
1.42221,-0.0668211,-0.0248522
1.44413,-0.210419,-0.0424722
1.46852,-0.141143,-0.412989
1.46715,-0.213772,-0.296529
1.42941,-0.137385,0
1.45619,-0.285429,-0.0172754
1.4557,-0.139912,-0.227517
1.45674,-0.212256,-0.187382
1.43839,-0.0675811,0.00836916
1.45264,-0.211658,-0.00853189
1.46078,-0.1404,-0.158075
1.46953,-0.288043,-0.139788
1.43301,-0.13773,0.0334989
1.44049,-0.282352,0.0170891
1.44976,-0.139341,-0.101844
1.47151,-0.214409,-0.121396
1.42582,-0.0669907,0.0415413
1.44848,-0.211052,0.0255503
1.43148,-0.0672565,-0.091843
1.47342,-0.288806,-0.0874411
1.43892,-0.138299,0.0841853
1.44355,-0.210333,0.0594326
1.44775,-0.139148,-0.0677493
1.45858,-0.212523,-0.0772479
1.43061,-0.1375,0.176467
1.42023,-0.206936,0.117165
1.44121,-0.0677138,-0.0587813
1.44078,-0.209931,0.265466
1.45291,-0.139643,-0.0339642
1.42197,-0.0717852,-0.0248522
1.43548,-0.214278,-0.0422395
1.46418,-0.145887,-0.411911
1.47803,-0.220629,-0.298883
1.43291,-0.14277,0
1.45126,-0.289727,-0.0172288
1.4552,-0.144992,-0.227517
1.45991,-0.217925,-0.187887
1.43015,-0.0721983,0.00832266
1.45584,-0.217318,-0.00855514
1.45632,-0.145104,-0.157647
1.47242,-0.293951,-0.14016
1.44445,-0.143921,0.0337781
1.44734,-0.288944,0.0171822
1.45324,-0.144796,-0.102123
1.4747,-0.220132,-0.121721
1.42558,-0.0719673,0.0415413
1.45169,-0.216698,0.0256201
1.43124,-0.0722529,-0.091843
1.4724,-0.293948,-0.0874411
1.43843,-0.143321,0.0841853
1.4428,-0.215371,0.0594326
1.44726,-0.1442,-0.0677493
1.46178,-0.218203,-0.0774572
1.43408,-0.142887,0.176954
1.42344,-0.212481,0.11749
1.43698,-0.0725427,-0.0586185
1.42637,-0.142119,0.384087
1.43226,-0.213797,0.264031
1.45241,-0.144714,-0.0339642
1.42173,-0.0765002,-0.0248522
1.44662,-0.220847,-0.0425885
1.46752,-0.151136,-0.412989
1.47341,-0.224937,-0.298098
1.4364,-0.147931,0
1.45813,-0.29613,-0.0173219
1.45471,-0.149817,-0.227517
1.45526,-0.222166,-0.187382
1.4339,-0.0771553,0.00834591
1.44721,-0.220937,-0.00850864
1.44397,-0.14871,-0.156362
1.47924,-0.300417,-0.140903
1.44795,-0.14912,0.0338711
1.44637,-0.293742,0.0171822
1.44878,-0.149206,-0.101844
1.46214,-0.223216,-0.120745
1.42533,-0.0766943,0.0415413
1.45097,-0.221511,0.0256201
1.43498,-0.0772131,-0.0920989
1.47533,-0.299623,-0.0876736
1.43795,-0.14809,0.0841853
1.44603,-0.220758,0.0595955
1.44677,-0.148999,-0.0677493
1.47289,-0.224858,-0.0780853
1.42965,-0.147235,0.176467
1.43455,-0.219005,0.118467
1.43673,-0.0773074,-0.0586185
1.43543,-0.219139,0.264748
1.45193,-0.14953,-0.0339642
1.41744,-0.0814811,-0.0247824
1.4379,-0.224912,-0.0423558
1.46313,-0.156105,-0.411911
1.48033,-0.231548,-0.299667
1.43585,-0.153195,0
1.45704,-0.301473,-0.0173219
1.45808,-0.155567,-0.228132
1.46228,-0.228725,-0.188392
1.43361,-0.0824103,0.00834591
1.45034,-0.226858,-0.00853189
1.45923,-0.155689,-0.158075
1.47813,-0.305837,-0.140903
1.43944,-0.153578,0.033685
1.45312,-0.300662,0.0172754
1.46013,-0.155785,-0.102682
1.47707,-0.231038,-0.122047
1.42504,-0.0819179,0.0415413
1.45014,-0.226827,0.0256201
1.43867,-0.0827012,-0.0923547
1.4664,-0.303411,-0.0872085
1.43739,-0.153359,0.0841853
1.44127,-0.225438,0.0594326
1.45416,-0.155148,-0.0681216
1.46811,-0.229637,-0.0778759
1.44094,-0.153738,0.177929
1.43374,-0.224261,0.118467
1.43644,-0.0825728,-0.0586185
1.43851,-0.225007,0.265466
1.45534,-0.155275,-0.0340572
1.42513,-0.0869153,-0.024922
1.445,-0.231193,-0.0425885
1.47023,-0.162055,-0.414068
1.47564,-0.236095,-0.298883
1.43133,-0.157768,0
1.45989,-0.307381,-0.0173685
1.4536,-0.160223,-0.227517
1.45755,-0.233201,-0.187887
1.43731,-0.0876576,0.00836916
1.45744,-0.233183,-0.00857839
1.46263,-0.161217,-0.158504
1.46926,-0.309353,-0.14016
1.44684,-0.159477,0.0338711
1.44815,-0.304909,0.0172288
1.45164,-0.160006,-0.102123
1.47625,-0.236193,-0.122047
1.42874,-0.0871351,0.0416576
1.45329,-0.23252,0.0256899
1.43439,-0.0874796,-0.0920989
1.48487,-0.312641,-0.0883713
1.43685,-0.158376,0.0841853
1.44047,-0.230468,0.0594326
1.44964,-0.159786,-0.0679354
1.4673,-0.234761,-0.0778759
1.4325,-0.157897,0.176954
1.42507,-0.228005,0.117816
1.44013,-0.0878297,-0.0587813
1.41712,-0.156202,0.382017
1.4416,-0.230648,0.266183
1.45479,-0.160354,-0.0340572
1.42083,-0.091632,-0.0248522
1.43629,-0.234945,-0.0423558
1.46583,-0.166751,-0.412989
1.46319,-0.239345,-0.296529
1.43077,-0.162763,0
1.4549,-0.311637,-0.0173219
1.45696,-0.165742,-0.228132
1.46456,-0.239569,-0.188897
1.43699,-0.0926741,0.00836916
1.45267,-0.237623,-0.00855514
1.45811,-0.165872,-0.158075
1.47596,-0.316149,-0.140903
1.43833,-0.163623,0.033685
1.45099,-0.3108,0.0172754
1.45107,-0.165073,-0.102123
1.47148,-0.240701,-0.121721
1.42045,-0.0916072,0.0414249
1.46037,-0.238882,0.0258296
1.44204,-0.0929998,-0.0926105
1.47596,-0.31615,-0.0879062
1.43629,-0.16339,0.0841853
1.43966,-0.235495,0.0594326
1.44907,-0.164845,-0.0679354
1.46253,-0.239236,-0.0776666
1.42405,-0.161998,0.175979
1.4282,-0.233621,0.118141
1.43981,-0.0928561,-0.0587813
1.43193,-0.162894,0.386158
1.4369,-0.235044,0.265466
1.4582,-0.165883,-0.0341503
1.43247,-0.0974051,-0.0250617
1.4473,-0.241935,-0.0427049
1.46524,-0.171867,-0.412989
1.48556,-0.248331,-0.301236
1.43417,-0.168222,0
1.44989,-0.315863,-0.0172754
1.4603,-0.171288,-0.228746
1.45589,-0.243371,-0.187887
1.43267,-0.0974183,0.00834591
1.45183,-0.242693,-0.00855514
1.45357,-0.170498,-0.157647
1.47874,-0.322146,-0.141275
1.43775,-0.168643,0.033685
1.44598,-0.315011,0.0172288
1.46238,-0.171531,-0.102961
1.47063,-0.245836,-0.121721
1.4281,-0.0971074,0.0416576
1.45558,-0.243319,0.0257598
1.43374,-0.0974913,-0.0920989
1.49046,-0.3247,-0.0888364
1.43967,-0.168868,0.0844179
1.43883,-0.240519,0.0594326
1.45246,-0.170367,-0.0681216
1.46562,-0.244998,-0.0778759
1.42742,-0.167431,0.176467
1.41952,-0.237291,0.11749
1.4315,-0.0973392,-0.0584557
1.43135,-0.167892,0.386158
1.43995,-0.240707,0.266183
1.46158,-0.171438,-0.0342433
1.45433,-0.248331,-0.0429376
1.46845,-0.177442,-0.414068
1.48468,-0.253515,-0.301236
1.43754,-0.173707,0
1.45659,-0.322652,-0.0173685
1.45969,-0.176384,-0.228746
1.46285,-0.249787,-0.188897
1.43631,-0.102704,0.00836916
1.44703,-0.247086,-0.00853189
1.45691,-0.176048,-0.158075
1.48149,-0.328168,-0.141647
1.44906,-0.175099,0.0339642
1.45659,-0.322652,0.0173685
1.45781,-0.176156,-0.102682
1.46977,-0.250968,-0.121721
1.42775,-0.102092,0.0416576
1.45078,-0.247725,0.0256899
1.42941,-0.102211,-0.091843
1.47372,-0.326446,-0.0879062
1.447,-0.174851,0.084883
1.44192,-0.246212,0.0595955
1.44789,-0.174957,-0.0679354
1.46082,-0.249441,-0.0776666
1.43471,-0.173365,0.177442
1.43047,-0.244258,0.118467
1.43913,-0.102906,-0.0587813
1.4391,-0.245732,0.266183
1.44906,-0.175099,-0.0339642
1.41979,-0.106506,-0.0248522
1.44557,-0.252033,-0.0427049
1.464,-0.182092,-0.412989
1.48379,-0.258696,-0.301236
1.42899,-0.177737,0
1.47106,-0.331249,-0.0175548
1.46299,-0.181966,-0.229361
1.46588,-0.255574,-0.189402
1.43594,-0.107717,0.00836916
1.4501,-0.252822,-0.00855514
1.46024,-0.181623,-0.158504
1.47257,-0.331587,-0.140903
1.44844,-0.180157,0.0339642
1.45155,-0.326856,0.0173219
1.46511,-0.182229,-0.10324
1.47281,-0.256782,-0.122047
1.4234,-0.106776,0.0415413
1.45778,-0.254162,0.0258296
1.43303,-0.107498,-0.0920989
1.48036,-0.333343,-0.0883713
1.42657,-0.177436,0.0837202
1.44105,-0.251244,0.0595955
1.44727,-0.18001,-0.0679354
1.46781,-0.25591,-0.0780853
1.43804,-0.178862,0.177929
1.42568,-0.248565,0.118141
1.44275,-0.108227,-0.0589441
1.44211,-0.25143,0.266901
1.46035,-0.181637,-0.0342433
1.42342,-0.111526,-0.024922
1.44079,-0.256125,-0.0425885
1.46721,-0.187434,-0.414068
1.48292,-0.263615,-0.301236
1.43236,-0.182981,0
1.46216,-0.334342,-0.0174616
1.46238,-0.186816,-0.229361
1.46112,-0.259739,-0.188897
1.43956,-0.112791,0.0083924
1.45319,-0.25833,-0.00857839
1.45963,-0.186465,-0.158504
1.47534,-0.337356,-0.141275
1.44387,-0.184452,0.0338711
1.45436,-0.332559,0.0173685
1.45658,-0.186075,-0.102682
1.47195,-0.261664,-0.122047
1.43101,-0.11212,0.041774
1.46481,-0.260395,0.0259692
1.44062,-0.112873,-0.0926105
1.47925,-0.33825,-0.0883713
1.44182,-0.18419,0.0846504
1.44414,-0.256721,0.0597583
1.45855,-0.186327,-0.0684938
1.46696,-0.260777,-0.0780853
1.4335,-0.183127,0.177442
1.43662,-0.255384,0.119118
1.44636,-0.113323,-0.059107
1.44127,-0.256211,0.266901
1.46371,-0.186986,-0.0343364
1.423,-0.116742,-0.024922
1.45951,-0.264975,-0.0431704
1.46652,-0.19281,-0.414068
1.47423,-0.267647,-0.299667
1.43565,-0.188751,0
