2.91643,0.510573,-0.137918
2.84192,0.355491,-0.1501
2.83639,0.354799,0.233353
2.93062,0.513057,-0.0692311
2.91742,0.500257,0
2.76062,0.199337,-0.0322225
2.84303,0.345555,-0.0166453
2.74886,0.198488,-0.257269
2.75664,0.199049,0.032176
2.83761,0.344896,-0.233353
2.76012,0.199301,-0.161161
2.83279,0.34431,0.11626
2.82728,0.343641,-0.149262
2.82969,0.343934,0.232702
2.91663,0.500121,-0.0688589
2.90723,0.488591,0
2.75329,0.189633,-0.0321294
2.8175,0.332976,-0.361127
2.83621,0.335187,-0.0165988
2.74553,0.189098,-0.256897
2.91433,0.489784,0.0687658
2.75329,0.189633,0.0321294
2.82686,0.334081,-0.232377
2.7528,0.189599,-0.160696
2.82994,0.334446,0.116097
2.90408,0.488062,-0.137174
2.82841,0.334265,-0.149262
2.81894,0.333146,0.231726
2.92222,0.49111,-0.0689519
2.80846,0.321474,-0.082268
2.90505,0.477283,0
2.74199,0.178759,-0.0319897
2.98772,0.642148,0.0177612
2.73826,0.178515,-0.256154
2.74598,0.179019,0.0320363
2.90191,0.476767,-0.205642
2.81618,0.322357,-0.231401
2.98651,0.641887,0.0889007
2.83307,0.32429,0.0497743
2.74551,0.178988,-0.160231
2.82718,0.323616,0.115934
2.89796,0.476118,-0.136801
2.81771,0.322532,-0.148634
2.82014,0.322811,0.231726
2.90821,0.477802,-0.0685797
2.89872,0.466377,0
2.74257,0.169665,-0.0319897
2.80793,0.311983,-0.359612
2.82656,0.314053,-0.0165291
2.73883,0.169434,-0.256154
2.90978,0.468156,0.0685797
2.73858,0.169418,0.0319431
2.89954,0.466508,-0.205363
2.81327,0.312577,-0.231075
2.73015,0.168897,-0.159301
2.90565,0.467491,0.171394
2.82029,0.313357,0.115609
2.89164,0.465237,-0.136429
2.82273,0.313628,-0.148843
2.81723,0.313017,0.231401
2.89399,0.465615,-0.0682075
2.90033,0.456255,0
2.73915,0.159857,-0.0319431
2.97636,0.618541,0.0176682
2.72748,0.159176,-0.255039
2.8956,0.45551,0.0682075
2.73117,0.159391,0.03185
2.89327,0.455143,-0.204805
2.81435,0.302754,-0.231075
2.97906,0.619103,0.0885516
2.8193,0.303287,0.049495
2.73072,0.159365,-0.159301
2.89543,0.455483,0.170696
2.80945,0.302227,0.11512
2.88535,0.453898,-0.136057
2.81984,0.303345,-0.148634
2.80245,0.301475,0.230099
2.89165,0.454888,-0.0681145
2.89012,0.443801,0
2.72375,0.148944,-0.0317569
2.7943,0.290242,-0.357592
2.97076,0.60603,0.0176217
2.81282,0.292166,-0.0164361
2.72407,0.148961,-0.254667
2.89329,0.444287,0.0681145
2.73173,0.149381,0.03185
2.89097,0.443931,-0.204526
2.80751,0.291614,-0.230424
2.97347,0.606583,0.0883189
2.7273,0.149138,-0.159068
2.89708,0.444868,0.170696
2.80656,0.291516,0.114957
2.8791,0.442107,-0.135685
2.80901,0.29177,-0.148006
2.80354,0.291202,0.230099
2.88539,0.443074,-0.0679284
2.78483,0.279436,-0.0814535
2.87583,0.431335,0
2.71626,0.139026,-0.0316637
2.7874,0.279693,-0.356581
2.96894,0.594869,0.0175985
2.72855,0.139655,-0.255039
2.89087,0.433591,0.0680214
2.72425,0.139435,0.0317569
2.87672,0.431468,-0.20341
2.79661,0.280617,-0.229448
2.96381,0.593842,0.0879698
2.72381,0.139412,-0.158836
2.89466,0.43416,0.170464
2.80358,0.281317,0.114795
2.87667,0.431461,-0.135499
2.80206,0.281165,-0.147587
2.79264,0.280219,0.229122
2.88296,0.432405,-0.0678353
2.78972,0.270586,-0.0815699
2.87329,0.421217,0
2.70872,0.129636,-0.0315706
2.78436,0.270066,-0.356076
2.95912,0.582703,0.0175287
2.71706,0.130035,-0.253923
2.88438,0.422843,0.0678353
2.71271,0.129827,0.0316172
2.86629,0.420191,-0.202573
2.79355,0.270958,-0.229122
2.95792,0.582466,0.087737
2.72426,0.130379,-0.158836
2.88818,0.4234,0.169998
2.79655,0.271248,0.114469
2.87808,0.42192,-0.135499
2.79901,0.271486,-0.147378
2.79355,0.270958,0.229122
2.87647,0.421683,-0.0676492
2.77871,0.25973,-0.0812208
2.87474,0.411185,0
2.71315,0.120357,-0.0316172
2.77739,0.259607,-0.355066
2.95328,0.570852,0.0174822
2.7175,0.12055,-0.253923
2.87792,0.41164,0.0676492
2.70516,0.120003,0.0315241
2.85984,0.409054,-0.202015
2.78257,0.260092,-0.228146
2.95601,0.571379,0.0876207
2.71273,0.120339,-0.158138
2.87779,0.411621,0.169301
2.78554,0.260369,0.11398
2.85976,0.409043,-0.134568
2.79596,0.261343,-0.147169
2.7786,0.259721,0.227821
2.86605,0.409942,-0.0673701
2.77163,0.249312,-0.080988
2.86031,0.398937,0
2.70156,0.110395,-0.0314775
2.77432,0.249554,-0.354561
2.94347,0.558303,0.0174125
2.85174,0.397741,-0.310153
2.70995,0.110738,-0.25318
2.87142,0.400486,0.0674631
2.70556,0.110559,0.0315241
2.86125,0.399068,-0.202015
2.78347,0.250377,-0.228146
2.95406,0.560312,0.0875043
2.69718,0.110216,-0.157208
2.86339,0.399366,0.168371
2.78245,0.250285,0.113818
2.86513,0.399609,-0.134754
2.77949,0.25002,0.227821
2.94108,0.55785,-0.121959
2.85954,0.398829,-0.067184
2.76452,0.238947,-0.0807553
2.75887,0.238459,-0.553835
2.8498,0.387333,0
2.69793,0.100814,-0.0314309
2.77123,0.239526,-0.354056
2.93754,0.546561,0.017366
2.78557,0.240766,-0.0162501
2.84917,0.387248,-0.309725
2.70236,0.10098,-0.252436
2.86091,0.388844,0.067184
2.69793,0.100814,0.0314309
2.85076,0.387465,-0.201178
2.78035,0.240315,-0.227821
2.94813,0.548533,0.0872716
2.70153,0.100949,-0.15744
2.86081,0.388829,0.168138
2.77932,0.240226,0.113655
2.85463,0.38799,-0.134196
2.87183,0.390328,0.355859
2.77241,0.239628,0.22717
2.93515,0.546117,-0.121633
2.85299,0.387767,-0.0669978
2.92722,0.534078,-0.0519384
2.76534,0.229296,-0.0807553
2.8432,0.376334,0
2.68228,0.0908552,-0.0312447
2.76018,0.228868,-0.352541
2.85051,0.377301,-0.309725
2.69871,0.0914118,-0.252064
2.85829,0.378331,0.0670909
2.69027,0.091126,0.0313378
2.84023,0.375941,-0.200341
2.77323,0.22995,-0.22717
2.93036,0.534651,0.0866898
2.69389,0.0912484,-0.156975
2.85423,0.377794,0.167673
2.77218,0.229863,0.113329
2.84804,0.376975,-0.133824
2.77864,0.230399,-0.146122
2.8653,0.37926,0.354884
2.76528,0.229291,0.226519
2.85433,0.377807,-0.0669978
2.75815,0.219009,-0.0805226
2.8445,0.366408,0
2.75701,0.218919,-0.352036
2.83603,0.365317,-0.308011
2.69503,0.0818706,-0.251693
2.84769,0.36682,0.0668117
2.69058,0.0817352,0.0313378
2.84548,0.366535,-0.20062
2.76606,0.219638,-0.226519
2.92434,0.523012,0.0864571
2.69419,0.0818449,-0.156975
2.84761,0.366808,0.167208
2.76898,0.219869,0.113166
2.84142,0.366011,-0.133451
2.77146,0.220066,-0.145703
2.85873,0.368242,0.353909
2.75811,0.219007,0.225868
2.84769,0.36682,-0.0668117
2.91512,0.510869,-0.0516591
2.75491,0.209078,-0.0804062
2.7534,0.208963,-0.552266
2.82988,0.354488,0
2.67085,0.0718059,-0.031105
2.74588,0.208393,-0.350521
2.76799,0.210071,-0.0161339
2.82939,0.354427,-0.307154
2.69132,0.0723563,-0.251321
2.84499,0.356381,0.0667187
2.68285,0.0721284,0.0312447
2.83487,0.355113,-0.199783
2.75886,0.209378,-0.225868
2.92221,0.512111,0.0863407
2.76363,0.20974,0.0483781
2.67849,0.0720113,-0.156045
2.83698,0.355378,0.16651
2.76176,0.209598,0.112841
2.83475,0.355098,-0.133079
2.85212,0.357274,0.352934
2.75489,0.209077,0.225542
2.91315,0.510524,-0.120494
2.84102,0.355884,-0.0666256
2.74362,0.199073,-0.0800572
2.74625,0.199263,-0.550697
2.82707,0.344617,0
2.66708,0.0628537,-0.0310584
2.75052,0.199573,-0.351026
2.7607,0.200311,-0.0160874
2.81871,0.343598,-0.305869
2.6796,0.0631488,-0.250205
2.83028,0.345008,0.0663465
2.67508,0.0630421,0.0311515
2.75557,0.199939,-0.225542
2.91601,0.501063,0.086108
2.76431,0.200574,0.0483781
2.90734,0.499573,-0.189058
2.67073,0.0629398,-0.15558
2.82626,0.344518,0.165813
2.75447,0.199859,0.112515
2.82798,0.344728,-0.132707
2.74761,0.199362,0.224891
2.83425,0.345492,-0.0664395
2.74031,0.189218,-0.0799408
2.73519,0.188864,-0.548344
2.81634,0.333336,0
2.74724,0.189697,-0.350521
2.7534,0.190122,-0.0160409
2.67583,0.0537142,-0.249834
2.82352,0.334186,0.0661604
2.67128,0.053623,0.031105
2.81741,0.333462,-0.198387
2.75227,0.190044,-0.225217
2.90197,0.488227,0.0856425
2.66694,0.0535359,-0.155347
2.82744,0.334649,0.165813
2.74319,0.189417,0.112026
2.81726,0.333444,-0.132148
2.75366,0.19014,-0.144657
2.83872,0.335984,0.350984
2.74431,0.189495,0.224566
2.83147,0.335126,-0.0663465
2.73697,0.179391,-0.0798244
2.73583,0.179316,-0.548344
2.80954,0.322591,0
2.73601,0.179328,-0.349005
2.81314,0.323004,-0.305012
2.676,0.0443741,-0.249834
2.82467,0.324328,0.0661604
2.66745,0.0442324,0.0310584
2.81063,0.322716,-0.197829
2.74496,0.179914,-0.224566
2.89577,0.476796,0.0854098
2.75367,0.180486,0.0481686
2.66711,0.0442268,-0.155347
2.82066,0.323867,0.165347
2.74383,0.179841,0.112026
2.81444,0.323153,-0.131962
2.75032,0.180266,-0.144447
2.82804,0.324715,0.349521
2.82467,0.324328,-0.0661604
2.8903,0.46554,-0.0511006
2.72959,0.169341,-0.0795917
2.73253,0.169523,-0.547559
2.81065,0.312782,0
2.65159,0.0347122,-0.0308722
2.73266,0.169531,-0.3485
2.74667,0.170401,-0.0159944
2.80239,0.311863,-0.303727
2.82579,0.314467,0.0661604
2.66359,0.0348692,0.0310118
2.73761,0.169839,-0.223915
2.89347,0.466049,0.0852934
2.74231,0.17013,0.0479592
2.65927,0.0348126,-0.154882
2.8178,0.313578,0.165115
2.74045,0.170015,0.111864
2.81158,0.312886,-0.131776
2.82521,0.314403,0.349034
2.72965,0.169345,0.223264
2.88835,0.465225,-0.119191
2.82579,0.314467,-0.0661604
2.72618,0.159578,-0.0794753
2.72527,0.159525,-0.545991
2.79979,0.301683,0
2.6517,0.0254554,-0.0308722
2.72531,0.159527,-0.34749
2.73926,0.160344,-0.0159479
2.79555,0.301226,-0.30287
2.81892,0.303744,0.0659743
2.6677,0.025609,0.0310584
2.80488,0.302231,-0.197271
2.73421,0.160048,-0.22359
2.89113,0.455324,0.0851771
2.64739,0.0254141,-0.154185
2.81094,0.302884,0.16465
2.72906,0.159746,0.111375
2.80471,0.302213,-0.131404
2.73954,0.16036,-0.143819
2.8184,0.303688,0.348059
2.81096,0.302887,-0.0657882
2.71873,0.149622,-0.0792426
2.7219,0.149796,-0.545206
2.79287,0.29108,0
2.64377,0.0161508,-0.030779
2.72189,0.149795,-0.346985
2.72783,0.150122,-0.0158782
2.65242,0.0162037,-0.247603
2.80405,0.292244,0.0656021
2.65977,0.0162486,0.0309653
2.73077,0.150284,-0.223264
2.87689,0.442797,0.0847116
2.73145,0.150322,0.0477498
2.64347,0.016149,-0.153952
2.80006,0.291829,0.163952
2.72162,0.149781,0.111049
2.81549,0.293437,0.347571
2.87572,0.442617,-0.11854
2.812,0.293073,-0.0657882
2.87129,0.431679,-0.0506818
2.71525,0.139924,-0.0791263
2.70673,0.139485,-0.542068
2.78989,0.280927,0
2.64381,0.00692154,-0.030779
2.71843,0.140088,-0.34648
2.72833,0.140599,-0.0158782
2.78572,0.280507,-0.301585
2.64449,0.00692333,-0.246859
2.80107,0.282053,0.065509
2.65181,0.00694249,0.0308722
2.7273,0.140545,-0.222939
2.87051,0.431562,0.0844789
2.72796,0.14058,0.04768
2.80107,0.282052,0.163952
2.71414,0.139867,0.110724
2.72464,0.140408,-0.142982
2.8007,0.282016,0.345621
2.86935,0.431387,-0.118214
2.80505,0.282454,-0.0656021
2.71172,0.130253,-0.0790099
2.70329,0.129847,-0.541284
2.71494,0.130407,-0.345975
2.71682,0.130498,-0.0158084
2.6445,-0.00230843,-0.246859
2.80204,0.272273,0.065509
2.64382,-0.00230784,0.030779
2.78009,0.27014,-0.195318
2.72379,0.130832,-0.222613
2.72444,0.130864,0.0476102
2.63953,-0.00230409,-0.15372
2.79806,0.271886,0.16372
2.71062,0.1302,0.110561
2.77988,0.27012,-0.130101
2.71713,0.130513,-0.142563
2.78981,0.271085,0.344159
2.86293,0.420207,-0.117888
2.80204,0.272273,-0.065509
2.8584,0.409357,-0.0504026
2.70417,0.120432,-0.0787772
2.69589,0.120063,-0.539715
2.6318,-0.0114823,-0.0306393
2.69952,0.120225,-0.343955
2.71726,0.121015,-0.0158084
2.77573,0.259941,-0.3003
2.6405,-0.0115202,-0.246488
2.79899,0.26212,0.0654159
2.78101,0.260436,-0.195318
2.71228,0.120793,-0.221637
2.71689,0.120999,0.0474705
2.63551,-0.0114985,-0.153487
2.79899,0.26212,0.16372
2.71106,0.120739,0.110561
2.7808,0.260416,-0.130101
2.71757,0.121029,-0.142563
2.78679,0.260977,0.343672
2.79501,0.261747,-0.0653229
2.70458,0.110992,-0.0787772
2.70021,0.110812,-0.540499
2.77675,0.250261,0
2.62374,-0.0206068,-0.0305462
2.69993,0.110801,-0.343955
2.85227,0.398323,0.0167383
2.70967,0.111201,-0.0157619
2.63646,-0.0207067,-0.246116
2.63974,-0.0207324,0.0307325
2.77396,0.25001,-0.19476
2.70472,0.110997,-0.220986
2.7133,0.11135,0.0474007
2.63146,-0.0206674,-0.153254
2.78796,0.251272,0.163022
2.70348,0.110947,0.110235
2.71399,0.111378,-0.142354
2.78768,0.251247,0.343672
2.79192,0.251629,-0.0652298
2.68895,0.101419,-0.0783117
2.69664,0.101709,-0.539715
2.7656,0.240013,0
2.62766,-0.0293527,-0.0305928
2.69235,0.101547,-0.342945
2.70203,0.101912,-0.0157154
2.62443,-0.0293166,-0.245001
2.77477,0.240809,-0.19476
2.70507,0.102027,-0.220986
2.85242,0.388704,0.0837807
2.70167,0.101898,0.0471913
2.62339,-0.029305,-0.152789
2.77684,0.240988,0.162324
2.69984,0.10183,0.110073
2.7885,0.242,0.343672
2.71331,0.102338,0.495058
2.78478,0.241677,-0.0650437
2.68128,0.0922271,-0.536577
2.75841,0.230176,0
2.61555,-0.0378919,-0.0304531
2.69267,0.0926188,-0.342945
2.84296,0.377817,0.0166686
2.69836,0.0928145,-0.0156922
2.61635,-0.0379035,-0.244257
2.77361,0.231444,0.0647646
2.62755,-0.0380657,0.0305928
2.75965,0.230279,-0.193644
2.70141,0.0929194,-0.22066
2.8418,0.377663,0.0834316
2.62727,-0.0380617,-0.153022
2.7816,0.232111,0.162557
2.69217,0.0926017,0.109747
2.6987,0.0928261,-0.141516
2.77742,0.231762,0.342209
2.68547,0.0923712,0.219359
2.70577,0.0930693,0.493623
2.76564,0.230779,-0.0645785
2.67759,0.0827441,-0.0779626
2.68159,0.0828677,-0.536577
2.7592,0.220547,0
2.6074,-0.0468772,-0.0303599
2.68504,0.0829745,-0.341934
2.83632,0.366865,0.0166221
2.69467,0.0832719,-0.0156689
2.61222,-0.0469639,-0.243885
2.6274,-0.0472367,0.0305928
2.76043,0.220645,-0.193644
2.68976,0.0831203,-0.219684
2.83517,0.366716,0.0831989
2.6983,0.0833841,0.0471215
2.61515,-0.0470165,-0.152324
2.68849,0.0830808,0.109584
2.75223,0.21999,-0.128612
2.69501,0.0832825,-0.141307
2.77425,0.22175,0.341722
2.69821,0.0833813,0.492188
2.76643,0.221124,-0.0645785
2.67388,0.0728214,-0.0778463
2.67403,0.0728256,-0.535008
2.75201,0.209825,0
2.61121,-0.0565195,-0.0304065
2.66946,0.0727012,-0.339914
2.69096,0.0732866,-0.0156457
2.75205,0.209827,-0.297301
2.60805,-0.056451,-0.243513
2.61521,-0.0566061,0.0304531
2.75725,0.210224,-0.193365
2.69005,0.0732619,-0.219684
2.68659,0.0731678,0.0469121
2.61496,-0.0566006,-0.152324
2.68478,0.0731183,0.109421
2.75302,0.209901,-0.128612
2.69131,0.0732961,-0.141098
2.77109,0.211279,0.341234
2.69456,0.0733848,0.491471
2.76323,0.21068,-0.0644854
2.66611,0.0637622,-0.0776135
2.66642,0.0637695,-0.533439
2.75269,0.200697,0
2.60701,-0.0650792,-0.0303599
2.82691,0.345599,0.0165523
2.68319,0.0641706,-0.0155992
2.61581,-0.0652988,-0.244257
2.61501,-0.0652788,0.0304531
2.74997,0.200498,-0.192807
2.68231,0.0641496,-0.219033
2.82576,0.345458,0.0828498
2.67883,0.0640663,0.0467725
2.61076,-0.0651728,-0.152092
2.76397,0.201519,0.161394
2.68101,0.0641185,0.109258
2.74174,0.199898,-0.128054
2.67956,0.0640838,-0.14047
2.75989,0.201222,0.339772
2.68299,0.0641659,0.489318
2.75594,0.200933,-0.0642993
2.67054,0.054541,-0.534224
2.74939,0.190809,0
2.60277,-0.0740659,-0.0303134
2.82412,0.335256,0.0165291
2.6794,0.0547218,-0.0155759
2.59964,-0.0739769,-0.24277
2.74667,0.190621,-0.192528
2.67853,0.0547041,-0.218708
2.819,0.334649,0.0826171
2.67903,0.0547144,0.0467725
2.60253,-0.0740592,-0.151627
2.76067,0.191592,0.161161
2.67722,0.0546773,0.109096
2.67178,0.0545661,-0.140051
2.76058,0.191586,0.339772
2.66657,0.0544599,0.217731
2.67926,0.0547191,0.488601
2.75263,0.191034,-0.0642063
2.65896,0.044556,-0.53187
2.74208,0.180207,0
2.59848,-0.083476,-0.0302668
2.65421,0.0444764,-0.337894
2.81738,0.32399,0.0164826
2.67158,0.0447675,-0.0155294
2.73425,0.179692,-0.295159
2.59139,-0.0832482,-0.242026
2.75331,0.180945,0.0642063
2.60248,-0.0836044,0.0303134
2.74735,0.180553,-0.192528
2.66675,0.0446866,-0.217731
2.81624,0.323858,0.0825008
2.67922,0.0448954,0.0467725
2.59825,-0.0834687,-0.151394
2.75339,0.18095,0.160696
2.66541,0.0446642,0.108607
2.73513,0.17975,-0.127681
2.66397,0.04464,-0.139632
2.74938,0.180686,0.338309
2.66277,0.0446198,0.217406
2.67551,0.0448333,0.487883
2.74134,0.180158,-0.0639271
2.65064,0.0356252,-0.0771481
2.65517,0.0356862,-0.531086
2.73868,0.170864,0
2.59419,-0.0919502,-0.0302203
2.65434,0.035675,-0.337894
2.81049,0.313758,0.0164361
2.67171,0.0359085,-0.0155294
2.72689,0.170129,-0.294303
2.58712,-0.0916995,-0.241655
2.74592,0.171316,0.0640202
2.59819,-0.0920919,0.0302668
2.732,0.170448,-0.191412
2.65891,0.0357365,-0.21708
2.80935,0.313631,0.082268
2.66735,0.0358499,0.046563
2.58998,-0.0918009,-0.150929
2.746,0.171321,0.160231
2.66155,0.0357719,0.108444
2.72773,0.170182,-0.127309
2.66011,0.0357525,-0.139423
2.74204,0.171074,0.337334
2.66384,0.0358027,0.485731
2.74193,0.171067,-0.0639271
2.64744,0.0263389,-0.529517
2.72728,0.160597,0
2.58986,-0.10085,-0.0301737
2.79964,0.302656,0.0163664
2.66782,0.0265417,-0.0155062
2.73144,0.160843,-0.294731
2.58679,-0.10073,-0.241655
2.74251,0.161494,0.0639271
2.72462,0.160441,-0.190854
2.65105,0.0263749,-0.21643
2.80248,0.302962,0.0820353
2.65946,0.0264586,0.0464234
2.59364,-0.100997,-0.151161
2.65367,0.0264009,0.108119
2.72831,0.160658,-0.127309
2.65223,0.0263866,-0.139004
2.74262,0.161501,0.337334
2.65105,0.0263749,0.21643
2.66788,0.0265424,0.486448
2.73851,0.161259,-0.0638341
2.64359,0.0166113,-0.528732
2.72785,0.150601,0
2.58548,-0.110171,-0.0301271
2.79277,0.291562,0.0163199
2.6599,0.0167138,-0.0154597
2.71613,0.149954,-0.293018
2.5864,-0.11021,-0.241655
2.58947,-0.110341,0.0301737
2.72917,0.150674,-0.191133
2.65113,0.0166587,-0.21643
2.80357,0.292689,0.0820353
2.65954,0.0167116,0.0464234
2.58527,-0.110162,-0.150696
2.73121,0.150786,0.159301
2.65774,0.0167003,0.108281
2.72489,0.150438,-0.127123
2.6603,0.0167163,-0.139423
2.65113,0.0166587,0.21643
2.66009,0.016715,0.485013
2.72711,0.15056,-0.0635549
2.64755,0.00831775,-0.529517
2.72431,0.141822,0
2.58112,-0.118111,-0.0300806
2.7897,0.282384,0.0162966
2.65594,0.0083441,-0.0154364
2.72056,0.141626,-0.293446
2.5741,-0.11779,-0.240539
2.72757,0.141991,0.0635549
2.58911,-0.118476,0.0301737
2.71767,0.141476,-0.190296
2.63921,0.00829152,-0.215453
2.79652,0.283074,0.0818026
2.64758,0.00831784,0.046214
2.57693,-0.117919,-0.150231
2.72768,0.141997,0.159068
2.64579,0.00831221,0.107793
2.71338,0.141253,-0.126565
2.64835,0.00832026,-0.138795
2.65117,0.0083291,0.21643
2.65226,0.00833254,0.483578
2.71958,0.141575,-0.0633688
2.7128,0.13173,0
2.5767,-0.126923,-0.030034
2.63474,-0.000918966,-0.335368
2.78668,0.272256,0.0162734
2.65196,-0.00092497,-0.0154132
2.70912,0.131551,-0.292161
2.56572,-0.126382,-0.239796
2.72405,0.132276,0.0634618
2.57271,-0.126726,0.0299874
2.7062,0.131409,-0.189459
2.63523,-0.000919137,-0.215128
2.78953,0.272534,0.0815699
2.6516,-0.000924844,0.0462838
2.57651,-0.126913,-0.150231
2.72018,0.132088,0.158603
2.64581,-0.000922824,0.107793
2.70987,0.131587,-0.126379
2.63638,-0.000919538,-0.138167
2.72034,0.132096,0.33441
2.63922,-0.000920528,0.215453
2.78044,0.271646,-0.113818
2.64834,-0.000923709,0.482861
2.71606,0.131888,-0.0632757
2.62401,-0.0109914,-0.52481
2.70929,0.121133,0
2.56821,-0.136392,-0.0299409
2.63075,-0.0110196,-0.334863
2.78373,0.261179,0.0162501
2.64393,-0.0110748,-0.0153667
2.70563,0.120969,-0.291732
2.56124,-0.136022,-0.239424
2.71655,0.121458,0.0632757
2.5722,-0.136604,0.0299874
2.70668,0.121016,-0.189459
2.63521,-0.0110383,-0.215128
2.7826,0.261073,0.0813371
2.64757,-0.0110901,0.046214
2.7741,0.260276,-0.178569
2.72067,0.121642,0.158603
2.63779,-0.0110491,0.107467
2.71035,0.12118,-0.126379
2.63636,-0.0110431,-0.138167
2.71686,0.121472,0.333922
2.63122,-0.0110216,0.214802
2.64832,-0.0110932,0.482861
2.71655,0.121458,-0.0632757
2.62396,-0.0192344,-0.52481
2.70966,0.112622,0
2.55978,-0.14401,-0.0298477
2.6188,-0.0191966,-0.333348
2.77258,0.25135,0.0161804
2.69805,0.112139,-0.290876
2.5608,-0.144067,-0.239424
2.71692,0.112923,0.0632757
2.56777,-0.144459,0.0299409
2.69509,0.112016,-0.188622
2.6232,-0.0192288,-0.214151
2.77544,0.251609,0.0811044
2.63553,-0.0193192,0.0460045
2.57157,-0.144673,-0.149999
2.71306,0.112763,0.158138
2.63374,-0.0193061,0.107304
2.69874,0.112168,-0.12582
2.63631,-0.0193249,-0.138167
2.71723,0.112936,0.333922
2.70493,0.112425,-0.0629966
2.7651,0.240942,-0.0484479
2.62388,-0.0283943,-0.52481
2.70604,0.103009,0
2.55926,-0.152945,-0.0298477
2.61475,-0.0282955,-0.332843
2.76547,0.240975,0.0161339
2.69842,0.10272,-0.290876
2.56028,-0.153006,-0.239424
2.70531,0.102982,0.0629966
2.69945,0.102759,-0.188901
2.62711,-0.0284292,-0.214477
2.78028,0.242265,0.0812208
2.63145,-0.0284762,0.0459347
2.55909,-0.152935,-0.149301
2.69747,0.102683,0.157208
2.62966,-0.0284569,0.107142
2.69512,0.102594,-0.125634
2.62424,-0.0283983,-0.137539
2.70967,0.103148,0.332947
2.62312,-0.0283861,0.214151
2.76323,0.240779,-0.113003
2.63638,-0.0285296,0.480709
2.69732,0.102677,-0.0628105
2.61063,-0.0373646,-0.0759845
2.61592,-0.0374404,-0.523241
2.70239,0.0934254,0
2.55073,-0.161372,-0.0297546
2.61067,-0.0373652,-0.332338
2.76231,0.230987,0.0161106
2.63169,-0.037666,-0.015297
2.69082,0.0930255,-0.290019
2.55178,-0.161438,-0.23868
2.69766,0.0932619,0.0628105
2.55871,-0.161877,0.0298477
2.69979,0.0933357,-0.188901
2.61902,-0.0374847,-0.213826
2.77314,0.231893,0.080988
2.63133,-0.0376609,0.0459347
2.55456,-0.161614,-0.149068
2.68983,0.0929914,0.156743
2.62955,-0.0376354,0.107142
2.69147,0.0930481,-0.125448
2.62812,-0.037615,-0.137748
2.70605,0.093552,0.33246
2.61902,-0.0374847,0.213826
2.63627,-0.0377316,0.480709
2.69366,0.0931238,-0.0627174
2.62361,-0.0471697,-0.52481
2.69072,0.0831487,0
2.5581,-0.171254,-0.0298477
2.60654,-0.0468628,-0.331833
2.75517,0.220223,0.0160641
2.62753,-0.0472402,-0.0152737
2.67922,0.0827933,-0.288734
2.5472,-0.170525,-0.238309
2.69398,0.0832497,0.0627174
2.55411,-0.170987,0.0298012
2.69214,0.0831926,-0.188342
2.62285,-0.047156,-0.214151
2.766,0.22109,0.0807553
2.62718,-0.0472338,0.0458649
2.69415,0.0832547,0.156975
2.61741,-0.0470581,0.106653
2.68381,0.0829352,-0.125076
2.61599,-0.0470326,-0.13712
2.69844,0.0833873,0.331485
2.61089,-0.046941,0.213175
2.62824,-0.0472529,0.479274
2.68599,0.0830027,-0.0625313
2.74753,0.210448,-0.0480988
2.68298,0.0740067,0
2.54555,-0.178894,-0.029708
2.60241,-0.05542,-0.331328
2.75189,0.210782,0.0160409
2.67948,0.0739101,-0.288734
2.54265,-0.17869,-0.237937
2.68225,0.0739867,0.0624383
2.54555,-0.178894,0.029708
2.68043,0.0739365,-0.187505
2.61072,-0.055597,-0.213175
2.75077,0.210696,0.0802899
2.61901,-0.0557734,0.0457253
2.7463,0.210354,-0.176523
2.54938,-0.179163,-0.148836
2.68642,0.0741018,0.15651
2.61724,-0.0557357,0.106653
2.68007,0.0739266,-0.12489
2.61582,-0.0557055,-0.13712
2.69473,0.0743309,0.330997
2.60674,-0.0555121,0.212849
2.62414,-0.0558827,0.478556
2.68225,0.0739867,-0.0624383
2.74426,0.200563,-0.048029
2.6021,-0.0645028,-0.0757518
2.67922,0.064543,0
2.54092,-0.187485,-0.0296615
2.59823,-0.0644069,-0.330823
2.67972,0.0645549,-0.288734
2.53804,-0.187272,-0.237565
2.6825,0.0646219,0.0624383
2.54092,-0.187485,0.0296615
2.66871,0.0642897,-0.186668
2.59457,-0.0643161,-0.211873
2.6108,-0.0647185,0.0455857
2.54078,-0.187475,-0.148371
2.67868,0.06453,0.156045
2.61702,-0.0648728,0.106653
2.67632,0.0644731,-0.124703
2.60762,-0.0646396,-0.136702
2.68704,0.0647312,0.330022
2.60254,-0.0645137,0.212524
2.61999,-0.0649463,0.477839
2.6825,0.0646219,-0.0624383
2.66743,0.0549433,0
2.5243,-0.195121,-0.0294752
2.59402,-0.0733639,-0.330318
2.60292,-0.0736153,-0.0151342
2.66402,0.054873,-0.28702
2.54134,-0.196438,-0.237937
2.53227,-0.195737,0.0295684
2.66892,0.0549738,-0.186668
2.59831,-0.0734852,-0.212199
2.74021,0.190653,0.0799408
2.61056,-0.0738315,0.0455857
2.73576,0.190343,-0.175755
2.53612,-0.196035,-0.148138
2.6749,0.055097,0.155813
2.6048,-0.0736685,0.106165
2.67253,0.0550483,-0.124517
2.61137,-0.0738545,-0.136911
2.67931,0.0551878,0.329047
2.59433,-0.0733725,0.211873
2.60401,-0.0736464,0.474969
2.67471,0.0550931,-0.0622522
2.58958,-0.0827382,-0.0754027
2.67162,0.045234,0
2.53154,-0.205017,-0.0295684
2.58977,-0.0827442,-0.329813
2.60663,-0.0832827,-0.0151575
2.65625,0.0449738,-0.286163
2.53266,-0.205108,-0.237193
2.6669,0.0451541,0.0620661
2.53553,-0.20534,0.0296149
2.66511,0.0451238,-0.186389
2.59803,-0.083008,-0.212199
2.73291,0.180083,0.0797081
2.60627,-0.0832714,0.0455159
2.53539,-0.205329,-0.148138
2.6671,0.0451575,0.155347
2.60051,-0.0830875,0.106002
2.65674,0.0449821,-0.123773
2.60709,-0.0832976,-0.136702
2.67552,0.0453001,0.32856
2.59404,-0.0828807,0.211873
2.61159,-0.0834414,0.476404
2.6669,0.0451541,-0.0620661
2.72628,0.17009,-0.04768
2.58528,-0.0916353,-0.0752863
2.65576,0.035693,0
2.53081,-0.213852,-0.0295684
2.59343,-0.0919243,-0.330318
2.60232,-0.0922394,-0.0151342
2.65639,0.0357015,-0.286163
2.52399,-0.213277,-0.23645
2.65904,0.0357371,0.06188
2.52284,-0.213179,0.0294752
2.65328,0.0356597,-0.185552
2.59374,-0.0919351,-0.211873
2.73353,0.170542,0.0797081
2.60197,-0.0922269,0.0454461
2.5267,-0.213505,-0.147673
2.65526,0.0356863,0.15465
2.58423,-0.0915982,0.10535
2.65688,0.035708,-0.123773
2.66375,0.0358004,0.327097
2.58975,-0.0917939,0.211548
2.72444,0.169975,-0.111212
2.60342,-0.0922783,0.474969
2.66304,0.0357908,-0.061973
2.72683,0.161048,-0.04768
2.58097,-0.100053,-0.0751699
2.64786,0.026805,0
2.51415,-0.220844,-0.0293821
2.58915,-0.10037,-0.329813
2.72321,0.160834,0.0158549
2.59401,-0.100559,-0.0150877
2.64854,0.0268119,-0.285307
2.52724,-0.221994,-0.236822
2.65914,0.0269192,0.06188
2.51813,-0.221194,0.0294287
2.6454,0.0267801,-0.184994
2.58545,-0.100227,-0.211222
2.72609,0.161005,0.0794753
2.59765,-0.1007,0.0453763
2.52996,-0.222232,-0.147906
2.65536,0.0268809,0.15465
2.5919,-0.100477,0.105676
2.65299,0.0268569,-0.123587
2.59449,-0.100577,-0.136073
2.65989,0.0269267,0.32661
2.58147,-0.100072,0.210897
2.65914,0.0269192,-0.06188
2.71939,0.151085,-0.0475404
2.57661,-0.108893,-0.0750536
2.50938,-0.229255,-0.0293355
2.57689,-0.108905,-0.328297
2.59364,-0.109613,-0.0150877
2.64464,0.0175402,-0.284878
2.52248,-0.230452,-0.23645
2.65122,0.0175838,0.0616939
2.51336,-0.229618,0.0293821
2.64149,0.0175193,-0.184715
2.5811,-0.109083,-0.210897
2.5853,-0.10926,0.0451668
2.64746,0.0175589,0.154185
2.58754,-0.109355,0.105513
2.64507,0.0175431,-0.123214
2.59013,-0.109464,-0.135864
2.65203,0.0175892,0.325635
2.57314,-0.108746,0.210246
2.59487,-0.109665,0.473534
2.65922,0.0176369,-0.06188
2.5682,-0.117969,-0.0748209
2.64399,0.00784489,0
2.50454,-0.238072,-0.029289
2.57251,-0.118167,-0.327792
2.58123,-0.118568,-0.015018
2.65127,0.0078665,0.0616939
2.50852,-0.23845,0.0293355
2.58068,-0.118542,-0.210897
2.58488,-0.118735,0.0451668
2.64351,0.00784347,0.153952
2.58313,-0.118655,0.10535
2.64112,0.00783639,-0.123028
2.64413,0.00784532,0.32466
2.59052,-0.118994,0.472816
2.65127,0.0078665,-0.0616939
2.57181,-0.126233,-0.0749372
2.636,-0.000460066,0
2.4998,-0.245548,-0.0292424
2.62838,-0.000458736,-0.408915
2.57213,-0.126248,-0.327792
2.57685,-0.12648,-0.0149947
2.63277,-0.000459502,-0.283593
2.51293,-0.246838,-0.235706
2.63929,-0.000460639,0.0614147
2.50378,-0.245939,0.029289
2.63357,-0.000459641,-0.184157
2.57234,-0.126258,-0.210246
2.58449,-0.126855,0.0451668
2.50766,-0.24632,-0.146743
2.63953,-0.000460681,0.15372
2.57476,-0.126377,0.105025
2.63315,-0.000459567,-0.122656
2.64414,-0.000461487,0.32466
2.58227,-0.126746,0.471381
2.64728,-0.000462035,-0.0616008
2.70083,0.122171,-0.0471913
2.55938,-0.134579,-0.0745881
2.62798,-0.0096321,0
2.49495,-0.253867,-0.0291958
2.62836,-0.0096335,-0.408915
2.56771,-0.135017,-0.327287
2.70119,0.122188,0.0157154
2.5764,-0.135474,-0.0149947
2.62878,-0.00963501,-0.283165
2.63927,-0.00967347,0.0614147
2.49893,-0.254272,0.0292424
2.62956,-0.00963789,-0.183878
2.57188,-0.135237,-0.210246
2.50679,-0.255072,-0.146743
2.63552,-0.00965972,0.153487
2.57031,-0.135154,0.104862
2.62514,-0.00962167,-0.122284
2.63222,-0.00964761,0.323198
2.56392,-0.134818,0.209595
2.699,0.122089,-0.110073
2.58181,-0.135759,0.471381
2.64327,-0.00968812,-0.0615077
2.69326,0.111939,-0.0470517
2.55887,-0.143959,-0.0745881
2.494,-0.26301,-0.0291958
2.56719,-0.144427,-0.327287
2.69363,0.111955,0.0156689
2.57189,-0.144692,-0.0149715
2.62077,-0.0192116,-0.282308
2.50318,-0.263978,-0.234963
2.62722,-0.0192589,0.0611355
2.49002,-0.262591,0.0291493
2.56341,-0.144214,-0.209595
2.57154,-0.144672,0.0449574
2.50186,-0.26384,-0.14651
2.62748,-0.0192608,0.153022
2.56581,-0.14435,0.104699
2.62908,-0.0192725,-0.12247
2.5724,-0.14472,-0.135027
2.63216,-0.0192951,0.323198
2.55544,-0.143766,0.208944
2.63921,-0.0193468,-0.0614147
2.69364,0.102537,-0.0470517
2.55037,-0.152413,-0.0743554
2.61585,-0.0283073,0
2.49307,-0.271714,-0.0291958
2.55875,-0.152914,-0.326277
2.63113,-0.0284727,0.0612286
2.49307,-0.271714,0.0291958
2.56289,-0.153161,-0.209595
2.49696,-0.272138,-0.146278
2.62739,-0.0284323,0.153022
2.5613,-0.153067,0.104536
2.621,-0.0283631,-0.122098
2.56789,-0.15346,-0.134817
2.63208,-0.028483,0.323198
2.63113,-0.0284727,-0.0612286
2.55381,-0.161567,-0.0744718
2.61173,-0.0373809,0
2.48415,-0.279521,-0.0291027
2.60835,-0.0373325,-0.40584
2.55028,-0.161344,-0.325267
2.56283,-0.162138,-0.014925
2.61659,-0.0374505,-0.281879
2.49731,-0.281001,-0.234591
2.63102,-0.0376569,0.0612286
2.4921,-0.280415,0.0291958
2.62133,-0.0375182,-0.18332
2.55836,-0.161855,-0.209269
2.68526,0.0928328,0.0781954
2.49202,-0.280406,-0.146045
2.6153,-0.037432,0.152324
2.55676,-0.161754,0.104373
2.6129,-0.0373976,-0.121725
2.62799,-0.0376136,0.32271
2.54642,-0.1611,0.208293
2.56451,-0.162244,0.468511
2.62702,-0.0375997,-0.0611355
2.54525,-0.169948,-0.074239
2.60759,-0.0464261,0
2.60821,-0.0464371,-0.40584
2.5497,-0.170245,-0.325267
2.55826,-0.170816,-0.0149017
2.60849,-0.0464423,-0.281023
2.48841,-0.288799,-0.233847
2.61888,-0.0466271,0.0609494
2.48316,-0.28819,0.0291027
2.60921,-0.0464551,-0.182483
2.54982,-0.170253,-0.208619
2.55392,-0.170527,0.0446782
2.48706,-0.288643,-0.145813
2.61515,-0.0465608,0.152324
2.54821,-0.170145,0.104048
2.61991,-0.0466454,0.321735
2.56,-0.170933,0.467794
2.62287,-0.0466983,-0.0610425
2.53667,-0.178271,-0.0740063
2.60341,-0.0554428,0
2.4742,-0.295906,-0.0290096
2.60408,-0.055457,-0.405226
2.5491,-0.179144,-0.325267
2.55366,-0.179465,-0.0148785
2.60036,-0.055378,-0.280166
2.48343,-0.29701,-0.233476
2.6147,-0.0556833,0.0608564
2.47817,-0.296381,0.0290561
2.60505,-0.0554777,-0.182204
2.55319,-0.179432,-0.208944
2.67785,0.0738636,0.0779626
2.48604,-0.297323,-0.145813
2.61098,-0.0556041,0.152092
2.54361,-0.178759,0.103885
2.60059,-0.0553828,-0.121167
2.5502,-0.179222,-0.13398
2.60782,-0.0555368,0.320273
2.53728,-0.178314,0.207642
2.6147,-0.0556833,-0.0608564
2.53606,-0.186682,-0.0740063
2.59921,-0.0639773,0
2.46923,-0.303621,-0.028963
2.54453,-0.187305,-0.324762
2.66717,0.0647184,0.0155062
2.59619,-0.0639029,-0.279738
2.47848,-0.304758,-0.233104
2.6145,-0.0643536,0.0608564
2.46923,-0.303621,0.028963
2.59687,-0.0639197,-0.181646
2.54463,-0.187312,-0.208293
2.54872,-0.187613,0.0446084
2.66575,0.0646839,-0.170895
2.48108,-0.305078,-0.14558
2.61078,-0.0642621,0.152092
2.53902,-0.186899,0.103722
2.60039,-0.0640063,-0.121167
2.54959,-0.187678,-0.13398
2.60762,-0.0641843,0.320273
2.52742,-0.194918,-0.0737736
2.46022,-0.311235,-0.0288699
2.53199,-0.195271,-0.323247
2.5444,-0.196228,-0.014832
2.59198,-0.0728532,-0.279309
2.60627,-0.0732548,0.0606703
2.47213,-0.312741,0.0290096
2.59264,-0.0728719,-0.181367
2.53601,-0.19558,-0.207642
2.54406,-0.196201,0.0445385
2.60655,-0.0732629,0.151859
2.53038,-0.195146,0.103397
2.60341,-0.0731746,0.319785
2.52271,-0.203858,-0.0736572
2.58669,-0.082194,0
2.45907,-0.32025,-0.0288699
2.53126,-0.20455,-0.323247
2.53569,-0.204908,-0.0147855
2.60598,-0.0828068,0.0606703
2.46303,-0.320766,0.0289165
2.59236,-0.0823739,-0.181367
2.53925,-0.205195,-0.207968
2.65849,0.0454758,0.0773808
2.53933,-0.205202,0.0444687
2.47091,-0.321793,-0.145115
2.59828,-0.0825622,0.151394
2.52965,-0.204419,0.103397
2.59188,-0.0823587,-0.120795
2.60313,-0.0827161,0.319785
2.52335,-0.203911,0.206666
2.60198,-0.0826797,-0.0605772
2.52198,-0.212663,-0.0736572
2.58239,-0.0910817,0
2.45397,-0.328301,-0.0288233
2.5833,-0.0911136,-0.402151
2.52658,-0.213051,-0.322742
2.65571,0.0361559,0.0154364
2.52699,-0.213086,-0.014739
2.46586,-0.329892,0.028963
2.58807,-0.0912818,-0.181088
2.53454,-0.213723,-0.207642
2.53462,-0.213729,0.0443989
2.46186,-0.329357,-0.14465
2.59399,-0.0914907,0.151161
2.59886,-0.0916623,0.319298
2.59369,-0.09148,-0.0603911
2.52122,-0.221465,-0.0736572
2.57507,-0.0998242,-0.400921
2.52186,-0.221521,-0.322237
2.65182,0.0268451,0.0154132
2.53021,-0.222255,-0.0147623
2.57913,-0.0999819,-0.278024
2.59335,-0.100533,0.0603911
2.46073,-0.337954,0.0289165
2.57976,-0.100006,-0.18053
2.52981,-0.22222,-0.207317
2.64674,0.0267937,0.0770317
2.52987,-0.222225,0.0443291
2.46069,-0.337948,-0.14465
2.58966,-0.10039,0.150929
2.5202,-0.221375,0.103071
2.57926,-0.099987,-0.120236
2.58662,-0.100272,0.317835
2.59735,-0.100688,-0.0604842
2.51251,-0.229098,-0.0734245
2.44376,-0.343882,-0.0287302
2.51716,-0.229523,-0.321731
2.65189,0.0180511,0.0154132
2.51751,-0.229555,-0.0146925
2.57084,-0.1082,-0.277167
2.58901,-0.108964,0.0602981
2.4596,-0.346112,0.0289165
2.57941,-0.10856,-0.18053
2.52509,-0.230246,-0.206991
2.64282,0.0179894,0.0769154
2.45561,-0.34555,-0.144417
2.58932,-0.108977,0.150929
2.51149,-0.229005,0.102745
2.57093,-0.108204,-0.119864
2.52604,-0.230332,-0.132933
2.58627,-0.108849,0.317835
2.50771,-0.23749,-0.0733081
2.56933,-0.117122,0
2.43858,-0.35184,-0.0286836
2.5167,-0.238341,-0.0146925
2.57045,-0.117173,-0.277167
2.58861,-0.118001,0.0602981
2.45442,-0.354124,0.0288699
2.57503,-0.117382,-0.180251
2.51633,-0.238307,-0.20634
2.63887,0.00875085,0.076799
2.51636,-0.238309,0.0441197
2.45438,-0.354119,-0.144417
2.58094,-0.117651,0.150464
2.51067,-0.237771,0.102745
2.56655,-0.116995,-0.119678
2.58191,-0.117695,0.317348
2.58861,-0.118001,-0.0602981
2.50293,-0.245415,-0.0731918
2.56893,-0.125642,0
2.4374,-0.359924,-0.0286836
2.63596,-0,0.0153202
2.50793,-0.245905,-0.014646
2.58421,-0.126389,0.060205
2.44532,-0.361093,0.0287768
2.57463,-0.12592,-0.180251
2.51553,-0.24665,-0.20634
2.63888,-0,0.076799
2.51157,-0.246262,0.0440499
2.44134,-0.360506,-0.14372
2.57655,-0.126014,0.150231
2.50987,-0.246095,0.102745
2.57014,-0.125701,-0.119864
2.5815,-0.126257,0.317348
2.58022,-0.126194,-0.060112
2.49406,-0.253777,-0.0729591
2.56446,-0.134846,0
2.62794,-0.00963195,0.0152737
2.49905,-0.254285,-0.0145995
2.55765,-0.134488,-0.275882
2.44793,-0.370652,0.0288233
2.57016,-0.135146,-0.179972
2.51064,-0.255464,-0.206015
2.62687,-0.00962803,0.0764499
2.50667,-0.255061,0.0439801
2.44395,-0.37005,-0.143952
2.57607,-0.135457,0.150231
2.49305,-0.253674,0.102094
2.5731,-0.135301,0.316373
2.57574,-0.13544,-0.0600189
2.48918,-0.262063,-0.0728427
2.55598,-0.143349,0
2.42686,-0.376131,-0.0285905
2.63189,-0.0188337,0.015297
2.50611,-0.263845,-0.014646
2.55717,-0.143416,-0.275882
2.57126,-0.144206,0.0599259
2.43872,-0.377969,0.0287302
2.56171,-0.14367,-0.179414
2.50577,-0.263809,-0.205689
2.62682,-0.0187975,0.0764499
2.50577,-0.263809,0.0439801
2.43476,-0.377355,-0.143487
2.56761,-0.144001,0.149766
2.49215,-0.262375,0.102094
2.55322,-0.143194,-0.11912
2.49874,-0.263069,-0.131677
2.57261,-0.144281,0.316373
2.57126,-0.144206,-0.0599259
2.4883,-0.270316,-0.0728427
2.61981,-0.0274356,0.0152272
2.50124,-0.271722,-0.0146228
2.54874,-0.151423,-0.275025
2.42955,-0.384803,0.0286371
2.55325,-0.151691,-0.178856
2.50092,-0.271687,-0.205364
2.61875,-0.0274244,0.0762172
2.5009,-0.271685,0.0439103
2.43349,-0.385427,-0.143487
2.56313,-0.152278,0.149534
2.48729,-0.270206,0.101931
2.55273,-0.15166,-0.11912
2.50183,-0.271785,-0.131887
2.56023,-0.152105,0.31491
2.56678,-0.152495,-0.0598328
2.61135,-0.0364636,-0.0455857
2.48734,-0.279,-0.0728427
2.54696,-0.160241,0
2.42424,-0.392642,-0.0285905
2.6157,-0.0365244,0.015204
2.4963,-0.280005,-0.0145995
2.54819,-0.160319,-0.275025
2.43609,-0.39456,0.0287302
2.55669,-0.160853,-0.179135
2.49599,-0.27997,-0.205038
2.61464,-0.0365096,0.0761008
2.49199,-0.279521,0.0437706
2.42425,-0.392642,-0.143022
2.5586,-0.160973,0.149301
2.4903,-0.279332,0.102094
2.54819,-0.160319,-0.118934
2.55968,-0.161041,0.31491
2.55825,-0.160951,-0.0596467
2.6072,-0.045964,-0.0455159
2.4863,-0.288115,-0.0728427
2.54636,-0.169575,0
2.4149,-0.400216,-0.0284974
2.60755,-0.0459702,0.0151575
2.48731,-0.288232,-0.014553
2.54362,-0.169393,-0.274597
2.55764,-0.170327,0.0596467
2.42673,-0.402178,0.0286371
2.55608,-0.170223,-0.179135
2.61449,-0.0460925,0.0761008
2.48698,-0.288193,0.0437008
2.55401,-0.170085,0.149068
2.48132,-0.287538,0.101768
2.54759,-0.169657,-0.118934
2.55115,-0.169894,0.313935
2.55764,-0.170327,-0.0596467
2.46945,-0.294464,-0.0723772
2.5378,-0.17746,0
2.40961,-0.407555,-0.0284508
2.60338,-0.0545331,0.0151342
2.4784,-0.295531,-0.0145065
2.55307,-0.178528,0.0595536
2.42539,-0.410223,0.0286371
2.54754,-0.178142,-0.178577
2.4821,-0.295973,-0.204062
2.60233,-0.054511,0.0757518
2.48601,-0.296438,0.0437008
2.54546,-0.177996,0.148603
2.47242,-0.294818,0.101443
2.53505,-0.177268,-0.118375
2.54661,-0.178076,0.313448
2.60127,-0.0544889,-0.106002
2.54908,-0.178249,-0.0594606
2.59883,-0.063514,-0.0453763
2.46444,-0.302595,-0.0722609
2.53318,-0.186025,0
2.41606,-0.417325,-0.0285439
2.47338,-0.303693,-0.0144833
2.53051,-0.185829,-0.273312
2.54845,-0.187146,0.0594606
2.41606,-0.417325,0.0285439
2.54293,-0.186741,-0.178298
2.60212,-0.0635945,0.0757518
2.48099,-0.304627,0.043631
2.54482,-0.18688,0.148603
2.47137,-0.303447,0.101443
2.53044,-0.185824,-0.118189
2.48193,-0.304743,-0.131049
2.54201,-0.186674,0.312961
2.54047,-0.18656,-0.0592745
2.59859,-0.0725852,-0.0453763
2.53251,-0.194866,0
2.40671,-0.424367,-0.0284508
2.59894,-0.072595,0.015111
2.47231,-0.312325,-0.0144833
2.53381,-0.194966,-0.27374
2.5398,-0.195427,0.0592745
2.41459,-0.425756,0.0285439
2.5343,-0.195004,-0.17774
2.47602,-0.312794,-0.203737
2.59789,-0.0725655,0.0756354
2.47991,-0.313285,0.043631
2.54017,-0.195456,0.148371
2.46237,-0.31107,0.101117
2.52977,-0.194655,-0.118189
2.54135,-0.195546,0.312961
2.5398,-0.195427,-0.0592745
2.58633,-0.0812787,-0.0451668
2.46227,-0.319793,-0.0722609
2.52783,-0.203384,0
2.40127,-0.432057,-0.0284042
2.59068,-0.0814153,0.0150645
2.4712,-0.320953,-0.0144833
2.52122,-0.202853,-0.272455
2.53512,-0.203971,0.0591814
2.40915,-0.433474,0.0284974
2.52963,-0.203529,-0.17746
2.47491,-0.321435,-0.203737
2.58962,-0.0813822,0.0754027
2.46294,-0.31988,0.0433518
2.53948,-0.204321,0.148371
2.46523,-0.320178,0.10128
2.52509,-0.203164,-0.118003
2.53669,-0.204097,0.312473
2.53911,-0.204292,-0.0592745
2.58603,-0.0903061,-0.0451668
2.45321,-0.327328,-0.0720282
2.52312,-0.211872,0
2.40369,-0.441159,-0.0284508
2.58238,-0.0901788,0.015018
2.46214,-0.328519,-0.0144368
2.51653,-0.211319,-0.272027
2.53439,-0.212819,0.0591814
2.52493,-0.212024,-0.177181
2.46192,-0.32849,-0.20276
2.58533,-0.0902817,0.0752863
2.4618,-0.328475,0.0433518
2.53079,-0.212516,0.147906
2.45618,-0.327724,0.100954
2.52039,-0.211643,-0.117817
2.47068,-0.32966,-0.130631
2.53596,-0.212951,0.312473
2.58428,-0.090245,-0.10535
2.53041,-0.212484,-0.0590884
2.57771,-0.0990255,-0.0450272
2.45205,-0.33589,-0.0720282
2.52237,-0.220678,0
2.39427,-0.448075,-0.0283577
2.57805,-0.0990389,0.0149947
2.45701,-0.336569,-0.0144135
2.51578,-0.220102,-0.272027
2.40606,-0.450282,0.0284974
2.52815,-0.221184,-0.17746
2.46471,-0.337623,-0.203086
2.581,-0.0991521,0.0751699
2.46064,-0.337066,0.0433518
2.5181,-0.220305,0.147208
2.45502,-0.336296,0.100954
2.51963,-0.220439,-0.117817
2.52334,-0.220764,0.311011
2.52567,-0.220967,-0.0589953
2.57339,-0.106957,-0.0449574
2.51768,-0.22824,0
2.39285,-0.455595,-0.0283577
2.58173,-0.107304,0.015018
2.45594,-0.344286,-0.0144135
2.51508,-0.228005,-0.272027
2.52496,-0.228901,0.0589953
2.40071,-0.457091,0.0284508
2.51552,-0.228045,-0.176623
2.57668,-0.107094,0.0750536
2.45165,-0.343684,0.0432122
2.52137,-0.228575,0.147441
2.44603,-0.342897,0.100628
2.51097,-0.227632,-0.117445
2.46053,-0.344929,-0.130212
2.52263,-0.22869,0.311011
2.57165,-0.106885,-0.104862
2.52098,-0.22854,-0.0589023
2.573,-0.115939,-0.0449574
2.4379,-0.350438,-0.0716791
2.5089,-0.236277,0
2.38732,-0.463183,-0.0283111
2.57335,-0.115955,0.0149715
2.45077,-0.352288,-0.0143903
2.51031,-0.23641,-0.271598
2.52016,-0.237338,0.0589023
2.39517,-0.464706,0.0284042
2.51073,-0.23645,-0.176344
2.56831,-0.115728,0.0748209
2.45044,-0.35224,0.0432122
2.51261,-0.236626,0.146975
2.44482,-0.351433,0.100628
2.51414,-0.236771,-0.117631
2.51787,-0.237122,0.310523
2.52016,-0.237338,-0.0589023
2.56459,-0.124532,-0.0448178
2.43666,-0.358946,-0.0716791
2.50806,-0.245033,0
2.38961,-0.472289,-0.0283577
2.44557,-0.360258,-0.0143671
2.50551,-0.244784,-0.27117
2.51534,-0.245745,0.0588092
2.39353,-0.473064,0.0284042
2.50989,-0.245213,-0.176344
2.56789,-0.124692,0.0748209
2.44523,-0.360209,0.0431423
2.50779,-0.245007,0.146743
2.43963,-0.359383,0.100466
2.50534,-0.244768,-0.117258
2.50912,-0.245137,0.309548
2.56285,-0.124448,-0.104536
2.51534,-0.245745,-0.0588092
2.56014,-0.133275,-0.044748
2.49923,-0.252981,0
2.3801,-0.479049,-0.0282646
2.43638,-0.367598,-0.0143206
2.50068,-0.253128,-0.270741
2.51049,-0.254121,0.0587162
2.56344,-0.133447,0.0747045
2.44396,-0.368742,0.0431423
2.495,-0.252553,0.146045
2.43836,-0.367896,0.100466
2.50447,-0.253512,-0.117258
2.44888,-0.369485,-0.129793
2.50825,-0.253894,0.309548
2.55841,-0.133185,-0.104373
2.50651,-0.253718,-0.0586231
2.55567,-0.141989,-0.0446782
2.49833,-0.261703,0
2.3745,-0.486551,-0.028218
2.55602,-0.142008,0.0148785
2.43509,-0.376101,-0.0143206
2.49187,-0.261027,-0.269885
2.49765,-0.261633,0.058437
2.50415,-0.262313,-0.176065
2.55897,-0.142173,0.0745881
2.43476,-0.37605,0.0430027
2.4941,-0.261261,0.146045
2.42916,-0.375185,0.10014
2.49562,-0.26142,-0.116886
2.5034,-0.262234,0.309061
2.42705,-0.37486,0.200482
2.55793,-0.142115,-0.104373
2.49765,-0.261633,-0.058437
2.55117,-0.150674,-0.0446084
2.42092,-0.38257,-0.07133
2.48945,-0.269561,0
2.36887,-0.49402,-0.0281714
2.43376,-0.384599,-0.0143206
2.4949,-0.270152,-0.270313
2.49275,-0.269919,0.058344
2.37279,-0.494837,0.028218
2.49925,-0.270623,-0.175786
2.55447,-0.150868,0.0744718
2.43343,-0.384546,0.0430027
2.49318,-0.269965,0.146045
2.43178,-0.384286,0.100303
2.49072,-0.2697,-0.1167
2.43835,-0.385325,-0.129375
2.49458,-0.270117,0.308086
2.49275,-0.269919,-0.058344
2.55062,-0.159578,-0.0446084
2.48849,-0.27825,0
2.37496,-0.503946,-0.0282646
2.54698,-0.15935,0.014832
2.43635,-0.39373,-0.0143438
2.49577,-0.279063,0.058437
2.37104,-0.503116,0.028218
2.4864,-0.278015,-0.174949
2.42812,-0.3924,0.0429329
2.48428,-0.277779,0.14558
2.42648,-0.392135,0.10014
2.48977,-0.278392,-0.1167
2.42911,-0.392559,-0.128956
2.48573,-0.27794,0.307111
2.49577,-0.279063,-0.058437
2.54606,-0.168217,-0.0445385
2.47956,-0.286018,0
2.42707,-0.400928,-0.0142973
2.48683,-0.286857,0.0582509
2.36927,-0.51139,0.028218
2.48541,-0.286693,-0.174949
2.41885,-0.39957,0.0427933
2.4833,-0.286449,0.14558
2.42904,-0.401254,0.100303
2.48878,-0.287081,-0.1167
2.42772,-0.401036,-0.128956
2.49263,-0.287525,0.308086
2.48286,-0.286398,-0.0581579
2.53748,-0.176548,-0.0443989
2.4089,-0.406569,-0.0710973
2.47457,-0.294199,0
2.42171,-0.408732,-0.0142741
2.48582,-0.295536,0.0582509
2.42138,-0.408676,0.0428631
2.47435,-0.294173,0.145115
2.42762,-0.40973,0.100303
2.4838,-0.295295,-0.116514
2.42237,-0.408843,-0.128746
2.47978,-0.294818,0.306623
2.48185,-0.295063,-0.0581579
2.4775,-0.303321,0
2.5332,-0.185138,0.0147623
2.42027,-0.417183,-0.0142741
2.47286,-0.302753,0.0579717
2.36174,-0.527046,0.0281714
2.47939,-0.303552,-0.17467
2.53217,-0.185062,0.07389
2.41994,-0.417126,0.0428631
2.46935,-0.302323,0.144882
2.41436,-0.416165,0.0998143
2.48275,-0.303964,-0.116514
2.47874,-0.303473,0.306623
2.53513,-0.185279,-0.103559
2.47286,-0.302753,-0.0579717
2.52821,-0.193647,-0.0442593
2.46849,-0.310967,0
2.41486,-0.424935,-0.0142508
2.47972,-0.312383,0.0581579
2.34819,-0.532633,0.0280317
2.46644,-0.310709,-0.173833
2.53151,-0.1939,0.07389
2.41059,-0.424185,0.0427235
2.46828,-0.310941,0.144882
2.40896,-0.423898,0.0996514
2.46978,-0.31113,-0.115956
2.5265,-0.193516,-0.103234
2.46782,-0.310883,-0.0578787
2.52748,-0.202912,-0.0442593
2.39656,-0.430778,-0.0708645
2.4594,-0.318984,0
2.52384,-0.20262,0.0147158
2.41328,-0.433783,-0.0142508
2.4746,-0.320955,0.0580648
2.46132,-0.319233,-0.173554
2.40902,-0.433017,0.0427235
2.52269,-0.202528,-0.162196
2.46316,-0.319472,0.14465
2.40739,-0.432724,0.0996514
2.46466,-0.319666,-0.115769
2.52179,-0.202455,-0.103071
2.47063,-0.320441,-0.0579717
2.51886,-0.210187,-0.0441197
2.39126,-0.437585,-0.0707482
2.45839,-0.326709,0
2.40797,-0.440643,-0.0142276
2.46169,-0.327147,0.0577856
2.46031,-0.326964,-0.173554
2.40371,-0.439863,0.0426537
2.46214,-0.327208,0.14465
2.40602,-0.440285,0.0996514
2.46761,-0.327934,-0.115956
2.51716,-0.210044,-0.102908
2.46565,-0.327674,-0.0578787
2.51413,-0.218631,-0.0440499
2.45327,-0.334747,0
2.40249,-0.448312,-0.0142043
2.46449,-0.336279,0.0578787
2.46311,-0.33609,-0.173833
2.39823,-0.447517,0.0425839
2.51334,-0.218563,-0.161685
2.40054,-0.447948,0.0994886
2.46249,-0.336005,-0.115769
2.51243,-0.218483,-0.102745
2.45657,-0.335197,-0.0576926
2.45208,-0.343309,0
2.50971,-0.227076,0.014646
2.39698,-0.455948,-0.0141811
2.44746,-0.342661,0.0575065
2.45797,-0.344132,-0.173554
2.50869,-0.226984,0.0733081
2.39273,-0.455139,0.0425141
2.44398,-0.342174,0.14372
2.39111,-0.454831,0.0991629
2.45338,-0.343491,-0.115397
2.51563,-0.227612,-0.102908
2.45142,-0.343216,-0.0575995
2.44679,-0.352152,0
2.50483,-0.236335,0.0146228
2.39521,-0.465148,-0.0141811
2.44217,-0.351487,0.0574134
2.45268,-0.352999,-0.173275
2.5078,-0.236615,0.0733081
2.39096,-0.464323,0.0425141
2.44265,-0.351556,0.14372
2.38542,-0.463247,0.0990001
2.44414,-0.35177,-0.115025
2.50678,-0.236519,-0.102582
2.44613,-0.352056,-0.0575065
2.50374,-0.24417,-0.0439103
2.37315,-0.468606,-0.0703991
2.44171,-0.359255,0
2.5001,-0.243815,0.0145995
2.44501,-0.359739,0.0575065
2.43971,-0.35896,-0.172438
2.38557,-0.471057,0.0424443
2.50694,-0.244482,-0.161429
2.44153,-0.359228,0.14372
2.38787,-0.471512,0.0991629
2.44697,-0.360029,-0.115211
2.44105,-0.359157,-0.0574134
2.49491,-0.252104,-0.0437706
2.43253,-0.366583,0
2.43583,-0.36708,0.0573204
2.37999,-0.478593,0.0423744
2.49416,-0.252028,-0.160661
2.43632,-0.367153,0.143487
2.4378,-0.367377,-0.114839
2.49323,-0.251934,-0.102094
2.43978,-0.367676,-0.0574134
2.49402,-0.260812,-0.0437706
2.42729,-0.374462,0
2.43453,-0.37558,0.0573204
2.48937,-0.260325,0.0728427
2.3783,-0.486898,0.0423744
2.48929,-0.260317,-0.160406
2.4365,-0.375884,-0.114839
2.48836,-0.260219,-0.101931
2.43849,-0.37619,-0.0574134
2.42596,-0.382933,0
2.48548,-0.268692,0.0145298
2.42531,-0.382829,0.0571343
2.48447,-0.268583,0.0727263
2.37659,-0.495197,0.0423744
2.48837,-0.269005,-0.160406
2.42186,-0.382285,0.142789
2.43123,-0.383764,-0.114653
2.48743,-0.268904,-0.101931
2.43321,-0.384076,-0.0573204
2.48021,-0.276885,-0.0435612
2.42066,-0.390761,0
2.48452,-0.277367,0.0145298
2.42396,-0.391293,0.0571343
2.48351,-0.277254,0.0727263
2.37093,-0.50266,0.0423046
2.48345,-0.277246,-0.16015
2.42051,-0.390737,0.142789
2.42199,-0.390975,-0.11428
2.47853,-0.276698,-0.101605
2.4279,-0.39193,-0.0572273
2.47521,-0.285516,-0.0434914
2.41527,-0.398979,0
2.47952,-0.286013,0.0145065
2.36548,-0.510572,-0.0140648
2.41856,-0.399523,0.0570412
2.36126,-0.509659,0.042165
2.47845,-0.285889,-0.159894
2.41906,-0.399606,0.142789
2.42054,-0.399849,-0.11428
2.47353,-0.285323,-0.101443
2.4304,-0.401478,-0.0573204
2.47028,-0.293251,-0.0434216
2.40999,-0.406321,0
2.35987,-0.517556,-0.0140416
2.41328,-0.406876,0.0569482
2.35955,-0.517486,0.042165
2.46956,-0.293166,-0.159382
2.40985,-0.406298,0.142324
2.4192,-0.407874,-0.11428
2.42117,-0.408206,-0.0571343
2.46527,-0.301387,-0.0433518
2.4125,-0.41541,0
2.4656,-0.301427,0.0144368
2.41578,-0.415976,0.0570412
2.46456,-0.3013,-0.159126
2.40842,-0.414707,0.142324
2.40988,-0.41496,-0.113908
2.46757,-0.301668,-0.10128
2.41973,-0.416654,-0.0571343
2.40315,-0.422443,0
2.41038,-0.423714,0.0569482
2.46253,-0.30978,-0.101117
2.41432,-0.424406,-0.0570412
2.39773,-0.430123,0
2.45947,-0.31812,0.0144135
2.40889,-0.432125,0.0569482
2.46635,-0.31901,-0.159382
2.3976,-0.430101,0.141859
2.4654,-0.318887,-0.10128
2.45801,-0.326659,-0.043282
2.39228,-0.43777,0
2.45438,-0.326176,0.0143903
2.40343,-0.439811,0.0568551
2.45731,-0.326566,-0.158871
2.40736,-0.440531,-0.0569482
2.44926,-0.334201,0.0143671
2.39795,-0.447464,0.0567621
2.44824,-0.334062,-0.158359
2.44727,-0.33393,-0.100628
2.44385,-0.341721,-0.0430725
2.38531,-0.453297,0
2.44814,-0.342321,0.0143671
2.38859,-0.453921,0.056576
2.44615,-0.342043,-0.100628
2.40038,-0.45616,-0.0568551
2.43868,-0.349682,-0.0430027
2.37979,-0.46086,0
2.43901,-0.349729,0.0143206
2.38307,-0.461495,0.0564829
2.44591,-0.350719,-0.158359
2.39092,-0.463016,-0.056669
2.44569,-0.359404,0.0143671
