1.93109,0.486132,-0.185888
1.91596,0.687144,0.0473638
1.93936,0.488213,0.0232822
1.91842,0.583958,-0.163705
1.93621,0.48742,-0.116278
1.93085,0.587743,0.0822287
1.90312,0.682539,-0.094179
1.92216,0.585098,-0.1053
1.91453,0.575481,-0.0581811
1.91132,0.677962,0
1.94493,0.482403,-0.0233287
1.90381,0.572259,-0.253042
1.93278,0.479389,-0.185888
1.92211,0.681789,0.0474568
1.94493,0.482403,0.0233287
1.92427,0.578406,-0.164031
1.93803,0.582545,0.0353237
1.94055,0.583301,0.0825544
1.91302,0.678563,-0.0945512
1.92802,0.579535,-0.105509
1.88546,0.774437,-0.0830429
1.92026,0.570267,-0.0582974
1.91733,0.672944,0
1.94264,0.475001,-0.0232822
1.9095,0.567071,-0.253547
1.92871,0.572776,-0.0116936
1.92059,0.674086,0.0473638
1.94652,0.475951,0.0233287
1.93612,0.574975,0.0352539
1.93948,0.474229,-0.116278
1.93098,0.573449,0.0820659
1.90772,0.669569,-0.094179
1.92227,0.570863,-0.105091
1.93764,0.575426,0.165007
1.89172,0.769686,-0.0832057
1.9185,0.562101,-0.0581811
1.90463,0.558036,-0.396941
1.91223,0.663291,0
1.91157,0.560069,-0.253547
1.9072,0.767849,0.0119493
1.92446,0.463089,-0.184773
1.91549,0.664422,0.0471777
1.95214,0.469749,0.0233753
1.92443,0.563837,-0.163705
1.94121,0.467118,-0.116278
1.9369,0.567491,0.0822287
1.91016,0.662572,-0.094179
1.92819,0.564938,-0.1053
1.93208,0.566079,0.164356
1.92045,0.5554,-0.0581811
1.89903,0.549204,-0.395372
1.91075,0.655314,0
1.94209,0.460165,-0.0232356
1.91733,0.554495,-0.254052
1.90615,0.759706,0.011926
1.93276,0.55896,-0.0116936
1.93382,0.458204,-0.185516
1.92158,0.659028,0.0472707
1.94209,0.460165,0.0232356
1.94018,0.561106,0.0352539
1.94282,0.460338,-0.116278
1.93018,0.661978,0.118836
1.93119,0.558506,0.0819031
1.91246,0.6559,-0.094179
1.92247,0.555984,-0.104881
1.93405,0.559331,0.164356
1.88975,0.75317,-0.08288
1.90093,0.542572,-0.395372
1.91303,0.64864,0
1.94369,0.453384,-0.0232356
1.91162,0.545621,-0.253042
1.90507,0.75158,0.0119028
1.93855,0.553308,-0.0117168
1.9354,0.451452,-0.185516
1.92766,0.653601,0.0473638
1.95148,0.455201,0.0233287
1.92449,0.549294,-0.16338
1.94213,0.554331,0.0352539
1.93248,0.655237,0.118836
1.93697,0.552859,0.0820659
1.91095,0.647938,-0.0939929
1.9244,0.54927,-0.104881
1.89612,0.740791,-0.0355331
1.92034,0.541231,-0.0580647
1.89895,0.535202,-0.394588
1.94518,0.446936,-0.0232356
1.91342,0.53928,-0.253042
1.90383,0.743803,0.0118796
1.92223,0.644663,0.0471777
1.94908,0.447832,0.0232822
1.93086,0.647556,0.118604
1.94649,0.548601,0.0823915
1.91688,0.642868,-0.094179
1.9339,0.545053,-0.1053
1.90468,0.529287,-0.395372
1.91371,0.63401,0
1.95071,0.440683,-0.0232822
1.91538,0.532262,-0.253042
1.90654,0.736819,0.0118796
1.92458,0.637612,0.0471777
1.90147,0.629956,-0.140071
1.92059,0.53371,-0.162729
1.90576,0.736519,0.0594611
1.9421,0.539687,0.0351841
1.93975,0.438208,-0.115813
1.92943,0.639217,0.118371
1.94079,0.539322,0.0820659
1.91164,0.633323,-0.0938067
1.93204,0.53689,-0.105091
1.89381,0.731898,-0.0827172
1.92417,0.527476,-0.0580647
1.90273,0.5216,-0.394588
1.91211,0.626083,0
1.91723,0.525574,-0.253042
1.9091,0.730161,0.0118796
1.94038,0.53192,-0.0116936
1.94003,0.43116,-0.185516
1.92299,0.629647,0.0470846
1.95223,0.433873,0.0232822
1.93013,0.529112,-0.16338
1.94127,0.431436,-0.115813
1.93544,0.633722,0.118604
1.93495,0.530432,0.0817402
1.90624,0.624162,-0.0934345
1.93782,0.53122,0.164031
1.89262,0.723857,-0.0825544
1.90445,0.515286,-0.394588
1.91418,0.619738,0
1.94975,0.426541,-0.0232356
1.91896,0.519213,-0.253042
1.91151,0.723825,0.0118796
1.94145,0.424724,-0.185516
1.92888,0.624497,0.0471777
1.94585,0.425686,0.023189
1.90192,0.61577,-0.139792
1.93188,0.522708,-0.16338
1.94659,0.425849,-0.116045
1.93753,0.6273,0.118604
1.9367,0.524012,0.0817402
1.9121,0.619067,-0.0936206
1.93179,0.522685,-0.104881
1.93957,0.52479,0.164031
1.89875,0.718991,-0.0827172
1.92385,0.513335,-0.0579483
1.90245,0.507624,-0.393804
1.95514,0.420573,-0.0232822
1.91309,0.510465,-0.252031
1.91028,0.715744,0.0118563
1.94395,0.518699,-0.0116936
1.94292,0.417944,-0.185516
1.92724,0.616542,0.0470846
1.95514,0.420573,0.0232822
1.92984,0.514933,-0.163054
1.91325,0.716856,0.0594611
1.94756,0.51966,0.0351841
1.89145,0.708689,-0.12945
1.94806,0.419051,-0.116045
1.93465,0.516217,0.0815774
1.91425,0.612388,-0.0936206
1.9336,0.515938,-0.104881
1.8975,0.710956,-0.0825544
1.90126,0.704807,-0.0353935
1.9295,0.507635,-0.0580647
1.908,0.501979,-0.394588
1.91846,0.606361,0
1.94877,0.412092,-0.023189
1.91486,0.503785,-0.252031
1.91652,0.710464,0.0118796
1.94188,0.510894,-0.0116703
1.94436,0.41116,-0.185516
1.93319,0.611017,0.0471777
1.94877,0.412092,0.023189
1.92777,0.50718,-0.162729
1.94549,0.511843,0.0351142
1.94186,0.613759,0.118604
1.93644,0.509462,0.0815774
1.91257,0.6045,-0.0934345
1.93539,0.509186,-0.104881
1.89622,0.702941,-0.0823915
1.89995,0.696788,-0.0353237
1.92739,0.499892,-0.0579483
1.90974,0.495315,-0.394588
1.92056,0.59966,0
1.94628,0.404473,-0.0231425
1.91661,0.497097,-0.252031
1.91523,0.702392,0.0118563
1.93149,0.603073,0.0470846
1.95411,0.406101,0.0232356
1.90826,0.59582,-0.139792
1.90694,0.699353,0.059112
1.94726,0.505048,0.0351142
1.8926,0.694093,-0.129194
1.95094,0.405441,-0.116045
1.94018,0.605786,0.118371
1.94595,0.504706,0.0819031
1.91848,0.59901,-0.0936206
1.93716,0.502427,-0.104881
1.89867,0.696317,-0.0823915
1.92768,0.601881,-0.0469915
1.92516,0.492506,-0.057832
1.91137,0.488979,-0.394588
1.92254,0.593287,0
1.92209,0.491722,-0.252536
1.90627,0.691942,0.0117866
1.94532,0.497663,-0.0116703
1.93541,0.395523,-0.184401
1.92966,0.595485,0.0469915
1.95545,0.399618,0.0232356
1.93118,0.494045,-0.162729
1.90925,0.693025,0.059112
1.94836,0.398169,-0.115813
1.94218,0.599348,0.118371
1.93987,0.496269,0.0815774
1.91282,0.590288,-0.0932484
1.93881,0.496,-0.104881
1.94662,0.497998,0.164031
1.90096,0.690016,-0.0823915
1.90477,0.683507,-0.0353237
1.92695,0.485447,-0.057832
1.90554,0.480055,-0.393019
1.91705,0.583906,0
1.95298,0.391662,-0.023189
1.92003,0.483705,-0.252031
1.91256,0.686302,0.0118098
1.94325,0.489553,-0.0116471
1.94466,0.389993,-0.185145
1.93183,0.588409,0.0469915
1.95298,0.391662,0.023189
1.90856,0.581321,-0.139513
1.93684,0.487938,-0.163054
1.91178,0.686023,0.059112
1.95074,0.491441,0.0351142
1.94981,0.391026,-0.115813
1.94054,0.591063,0.118138
1.94555,0.490132,0.0817402
1.91497,0.583274,-0.0932484
1.94062,0.488891,-0.104881
1.90348,0.683045,-0.0823915
1.90326,0.675848,-0.0352539
1.92855,0.479054,-0.057832
1.90713,0.473732,-0.393019
1.91897,0.577545,0
1.94249,0.382863,-0.0230493
1.92933,0.479247,-0.253042
1.91105,0.678617,0.0117866
1.93812,0.382001,-0.184401
1.93377,0.581999,0.0469915
1.95034,0.38441,0.0231425
1.93458,0.480551,-0.162729
1.89589,0.673231,-0.128938
1.9394,0.48175,0.0814146
1.91307,0.575768,-0.0930622
1.93835,0.481489,-0.104672
1.90938,0.670526,-0.0353237
1.93409,0.47327,-0.0579483
1.90877,0.467073,-0.393019
1.95167,0.3776,-0.0231425
1.91943,0.469681,-0.251526
1.94336,0.375991,-0.184773
1.93579,0.575245,0.0469915
1.95953,0.379119,0.0232356
1.90865,0.56718,-0.139234
1.93624,0.473796,-0.162729
1.91641,0.672994,0.059112
1.94884,0.476878,0.0817402
1.91507,0.569087,-0.0930622
1.93614,0.473771,-0.104463
1.90054,0.667424,-0.0820659
1.93193,0.465242,-0.057832
1.91047,0.460073,-0.393019
1.92306,0.563798,0
1.95697,0.371189,-0.023189
1.92114,0.462642,-0.251526
1.91964,0.666236,0.0118098
1.94049,0.467304,-0.0116006
1.90436,0.558318,-0.213766
1.94472,0.368865,-0.184773
1.93789,0.568146,0.0469915
1.9609,0.371934,0.0232356
1.93409,0.465762,-0.162403
1.9113,0.663343,0.0588792
1.95189,0.470049,0.0350444
1.94595,0.369098,-0.115348
1.93896,0.568462,0.117673
1.9428,0.46786,0.0814146
1.91331,0.560939,-0.0928761
1.94175,0.467606,-0.104672
1.90298,0.660453,-0.0820659
1.90656,0.65425,-0.0351841
1.92965,0.457574,-0.0577156
1.91588,0.454308,-0.393804
1.92501,0.557084,0
1.95826,0.364357,-0.023189
1.90593,0.55156,-0.308685
1.92274,0.455935,-0.251526
1.91439,0.656935,0.0117633
1.9499,0.462374,-0.0116471
1.9063,0.551669,-0.213766
1.94208,0.361347,-0.184401
1.93986,0.561379,0.0469915
1.96219,0.365088,0.0232356
1.91266,0.553508,-0.139234
1.93958,0.459929,-0.162729
1.92117,0.659264,0.059112
1.95115,0.363035,-0.11558
1.94831,0.461999,0.0815774
1.91909,0.555369,-0.0930622
1.90905,0.655105,-0.0822287
1.93116,0.451172,-0.0577156
1.90973,0.446167,-0.392235
1.95552,0.357142,-0.0231425
1.92424,0.449556,-0.251526
1.92034,0.651869,0.0117866
1.95142,0.455905,-0.0116471
1.93935,0.354189,-0.184029
1.93786,0.553844,0.0468985
1.9411,0.453494,-0.162729
1.95505,0.456753,0.0350444
1.95234,0.356562,-0.11558
1.94594,0.454626,0.0814146
1.92092,0.549002,-0.0930622
1.94489,0.454379,-0.104672
1.90743,0.647485,-0.0820659
1.91097,0.641257,-0.0351841
1.93272,0.444428,-0.0577156
1.91128,0.439497,-0.392235
1.92491,0.542881,0
1.94888,0.348903,-0.0230493
1.92193,0.441946,-0.251021
1.92261,0.645161,0.0117866
1.9491,0.448194,-0.0116238
1.93666,0.346715,-0.183657
1.93978,0.547076,0.0468985
1.96069,0.351018,0.023189
1.9349,0.444928,-0.162078
1.91803,0.643627,0.0588792
1.95663,0.449926,0.0350444
1.94572,0.348337,-0.115115
1.94752,0.44783,0.0814146
1.94646,0.447587,-0.104672
1.90589,0.639551,-0.0819031
1.9094,0.633323,-0.0351142
1.93426,0.437678,-0.0577156
1.92045,0.434554,-0.393804
1.96191,0.344171,-0.023189
1.91959,0.434359,-0.250516
1.91725,0.635927,0.0117401
1.95455,0.44227,-0.0116471
1.91188,0.532008,-0.213766
1.94178,0.34064,-0.184029
1.94168,0.540301,0.0468985
1.95797,0.34348,0.0231425
1.93644,0.438171,-0.162078
1.91647,0.635669,0.0587629
1.95429,0.44221,0.0349746
1.95872,0.343612,-0.115813
1.94517,0.440146,0.0812517
1.92086,0.534506,-0.0928761
1.94412,0.439908,-0.104463
1.90432,0.631636,-0.0817402
1.93578,0.430925,-0.0577156
1.91047,0.425292,-0.39145
1.9248,0.528371,0
1.95915,0.336645,-0.0231425
1.92497,0.428519,-0.251021
1.91946,0.629232,0.0117401
1.95218,0.434577,-0.0116238
1.94295,0.333861,-0.184029
1.94356,0.533521,0.0468985
1.95521,0.335967,0.0230959
1.94185,0.432277,-0.162403
1.91868,0.628976,0.0587629
1.95582,0.435387,0.0349746
1.90418,0.624224,-0.128427
1.95597,0.336098,-0.11558
1.9545,0.435092,0.0815774
1.93042,0.529914,-0.0932484
1.94564,0.43312,-0.104463
1.91031,0.626231,-0.0819031
1.9397,0.532463,-0.0468054
1.90997,0.618745,-0.0350444
1.91578,0.419459,-0.392235
1.93049,0.522694,0
1.96032,0.329803,-0.0231425
1.93033,0.422645,-0.251526
1.92165,0.622527,0.0117401
1.94155,0.525688,0.0468054
1.96426,0.330467,0.023189
1.91808,0.519335,-0.138955
1.94335,0.425495,-0.162403
1.92086,0.622274,0.0587629
1.95319,0.328605,-0.115348
1.94429,0.425702,0.0810889
1.92454,0.521084,-0.0928761
1.95442,0.529174,0.248613
1.90868,0.618327,-0.0817402
1.94265,0.418242,-0.057832
1.9134,0.411944,-0.39145
1.9654,0.323609,-0.023189
1.92791,0.41507,-0.251021
1.92762,0.617036,0.0117633
1.95517,0.420937,-0.0116238
1.94131,0.319642,-0.183657
1.94337,0.518908,0.0468054
1.95751,0.322309,0.0230959
1.91989,0.512637,-0.138955
1.94482,0.418709,-0.162403
1.92303,0.615566,0.0587629
1.90469,0.609698,-0.128171
1.95039,0.321137,-0.115115
1.94576,0.418913,0.0810889
1.94471,0.418686,-0.104253
1.94859,0.520301,0.247639
1.91463,0.612879,-0.0819031
1.91424,0.605396,-0.0350444
1.94018,0.410629,-0.0577156
1.91866,0.406074,-0.392235
1.93022,0.508186,0
1.96257,0.31611,-0.0231425
1.92935,0.408337,-0.251021
1.92594,0.609097,0.0117401
1.95662,0.414109,-0.0116238
1.91528,0.50425,-0.213337
1.94241,0.312863,-0.183657
1.94904,0.513139,0.0468985
1.96652,0.316746,0.023189
1.9178,0.504916,-0.138676
1.93847,0.410267,-0.161753
1.96027,0.414881,0.0349746
1.90681,0.603045,-0.128171
1.95113,0.412945,0.0812517
1.92813,0.507635,-0.0928761
1.94616,0.411895,-0.104253
1.95039,0.513495,0.247639
1.91676,0.606192,-0.0819031
1.92006,0.600239,-0.0351142
1.94545,0.405009,-0.057832
1.92,0.39971,-0.392235
1.9319,0.501782,0
1.96361,0.3096,-0.0231425
1.92292,0.40032,-0.250011
1.92414,0.601513,0.0117168
1.91694,0.497897,-0.213337
1.94344,0.30642,-0.183657
1.94686,0.505668,0.0468054
1.95966,0.308977,0.0230959
1.91947,0.498554,-0.138676
1.93982,0.403837,-0.161753
1.92335,0.601269,0.0586465
1.96164,0.408379,0.0349746
1.96042,0.309098,-0.11558
1.94857,0.405659,0.0810889
1.92981,0.501239,-0.0928761
1.95143,0.406253,-0.104463
1.94824,0.506027,0.247151
1.91494,0.59864,-0.0817402
1.93895,0.396951,-0.0575993
1.91747,0.392554,-0.39145
1.96858,0.303696,-0.023189
1.92424,0.39394,-0.250011
1.92612,0.595129,0.0117168
1.95149,0.399519,-0.0115773
1.94838,0.300581,-0.184029
1.96462,0.303087,0.0231425
1.94505,0.398201,-0.162078
1.92534,0.594887,0.0586465
1.95514,0.400267,0.034835
1.95774,0.400798,0.0814146
1.93146,0.494836,-0.0928761
1.94885,0.398978,-0.104253
1.95375,0.500548,0.247639
1.91692,0.592286,-0.0817402
1.9777,0.404885,0.368065
1.94078,0.497224,-0.0466193
1.92274,0.386296,-0.392235
1.93148,0.487304,0
1.96572,0.295884,-0.0231425
1.92956,0.387667,-0.250516
1.92829,0.588066,0.0117168
1.96078,0.39394,-0.0116238
1.94553,0.292845,-0.183657
1.95034,0.492064,0.0468054
1.96572,0.295884,0.0231425
1.9465,0.39107,-0.162078
1.92368,0.586661,0.0585302
1.96444,0.394674,0.0349746
1.95858,0.294809,-0.115348
1.95531,0.493318,0.117441
1.95919,0.39362,0.0814146
1.92938,0.486777,-0.09269
1.95557,0.493384,0.247639
1.91908,0.585257,-0.0817402
1.98689,0.399184,0.3695
1.91848,0.578127,-0.0349746
1.94167,0.383405,-0.0575993
1.92401,0.379917,-0.392235
1.93308,0.480896,0
1.97065,0.289946,-0.023189
1.93084,0.381266,-0.250516
1.93023,0.581668,0.0117168
1.94255,0.285812,-0.183286
1.95196,0.485593,0.0468054
1.95878,0.288199,0.0230493
1.92944,0.581431,0.0586465
1.95265,0.385572,0.0810889
1.92711,0.479411,-0.0925039
1.95159,0.385363,-0.104253
1.95335,0.485938,0.247151
1.95561,0.386157,0.162729
1.91718,0.577736,-0.0815774
1.92059,0.571092,-0.0349746
1.91769,0.371372,-0.390666
1.96378,0.281586,-0.0230959
1.93222,0.374187,-0.250516
1.93235,0.574589,0.0117168
1.91598,0.469191,-0.212481
1.94358,0.27869,-0.183286
1.94984,0.477485,0.0467124
1.96378,0.281586,0.0230959
1.92237,0.470756,-0.138397
1.94527,0.376713,-0.161753
1.92773,0.573216,0.0585302
1.91312,0.568872,-0.127915
1.95797,0.379173,0.0812517
1.93662,0.474246,-0.0928761
1.95511,0.478776,0.247151
1.91929,0.570705,-0.0815774
1.98963,0.385303,0.3695
1.9264,0.56551,-0.0350444
1.94436,0.3695,-0.0575993
1.92668,0.36614,-0.392235
1.93647,0.467051,0
1.96475,0.274729,-0.0230959
1.93352,0.367439,-0.250516
1.92667,0.565587,0.0116703
1.96087,0.372638,-0.0116006
1.9176,0.4625,-0.212481
1.94849,0.272455,-0.183657
1.96475,0.274729,0.0230959
1.924,0.464042,-0.138397
1.95049,0.370664,-0.162078
1.92588,0.565357,0.0584138
1.96061,0.372587,0.034835
1.96552,0.274836,-0.11558
1.96321,0.373081,0.0814146
1.93438,0.466545,-0.09269
1.95429,0.371388,-0.104253
1.96063,0.472878,0.247639
1.91743,0.562876,-0.0814146
1.98709,0.37762,0.368782
1.94165,0.362318,-0.0574829
1.93174,0.360469,-0.393019
1.93412,0.459702,0
1.96565,0.268212,-0.0230959
1.93082,0.360298,-0.250011
1.92853,0.559195,0.0116703
1.9621,0.366134,-0.0116006
1.91913,0.456139,-0.212481
1.95333,0.266531,-0.184029
1.95305,0.464202,0.0467124
1.96961,0.268753,0.0231425
1.92941,0.458583,-0.138676
1.94779,0.363463,-0.161753
1.96576,0.366818,0.0349048
1.96246,0.267777,-0.115348
1.9605,0.365836,0.0812517
1.93591,0.460128,-0.09269
1.95552,0.364905,-0.104253
1.95833,0.465456,0.247151
1.92313,0.557628,-0.0815774
1.98447,0.370308,0.368065
1.91877,0.54875,-0.034835
1.92919,0.352681,-0.392235
1.93579,0.452611,0
1.97455,0.262059,-0.023189
1.93603,0.353932,-0.250516
1.93057,0.552123,0.0116703
1.95949,0.358221,-0.0115773
1.92079,0.449102,-0.212481
1.96219,0.260418,-0.184773
1.95084,0.45613,0.0466193
1.97059,0.261533,0.0231425
1.92719,0.4506,-0.138397
1.94911,0.356322,-0.161753
1.92978,0.551899,0.0584138
1.95923,0.358172,0.0347652
1.96343,0.260583,-0.115348
1.95397,0.357211,0.0809261
1.9298,0.451211,-0.0923178
1.95684,0.357736,-0.104253
1.96002,0.458276,0.247151
1.92131,0.549477,-0.0814146
1.98968,0.36374,0.368782
1.92452,0.543134,-0.0349048
1.94419,0.348414,-0.0574829
1.91883,0.343869,-0.389881
1.97149,0.254652,-0.0231425
1.93335,0.346472,-0.250011
1.92863,0.544294,0.0116471
1.95632,0.450214,0.0467124
1.96752,0.25414,0.0230959
1.92875,0.443869,-0.138397
1.95426,0.350219,-0.162078
1.9317,0.545159,0.0584138
1.9644,0.352036,0.034835
1.91319,0.539936,-0.127403
1.95914,0.351093,0.0810889
1.93916,0.446264,-0.09269
1.95414,0.350198,-0.104044
1.96161,0.451431,0.247151
1.92707,0.543852,-0.0815774
1.98706,0.356098,0.368065
1.92622,0.537086,-0.0349048
1.94528,0.342305,-0.0574829
1.92762,0.339199,-0.39145
1.97228,0.248458,-0.0231425
1.93834,0.341084,-0.250516
1.93419,0.539307,0.0116703
1.96576,0.34591,-0.0116006
1.95773,0.444066,0.0467124
1.96831,0.247958,0.0230959
1.92625,0.436926,-0.138118
1.9475,0.342696,-0.161427
1.92955,0.538014,0.0582974
1.91872,0.534996,-0.127659
1.9563,0.344244,0.0809261
1.93665,0.439286,-0.0925039
1.95917,0.34475,-0.104253
1.96689,0.446145,0.247639
1.92107,0.535649,-0.0812517
1.98817,0.349854,0.368065
1.9504,0.336191,-0.0575993
1.91356,0.427029,-0.548855
1.92493,0.331801,-0.390666
1.97313,0.241571,-0.0231425
1.9317,0.332968,-0.249506
1.92834,0.53043,0.0116238
1.92523,0.429635,-0.212481
1.95926,0.437229,0.0467124
1.9771,0.242057,0.023189
1.94083,0.334541,-0.160776
1.93527,0.532336,0.0584138
1.96275,0.338321,0.0347652
1.91673,0.527236,-0.127403
1.96536,0.338771,0.0812517
1.93817,0.432523,-0.0925039
1.96036,0.337908,-0.104253
1.96456,0.438411,0.247151
1.92292,0.528939,-0.0812517
1.99326,0.343579,0.368782
1.92238,0.52086,-0.0347652
1.94773,0.328036,-0.0574829
1.93006,0.325059,-0.39145
1.93801,0.424682,0
1.97802,0.234464,-0.023189
1.93296,0.325549,-0.249506
1.93037,0.523022,0.0116238
1.9643,0.330827,-0.0115773
1.95702,0.428847,0.0466193
1.97007,0.233523,0.0230959
1.9294,0.422794,-0.138118
1.94996,0.328411,-0.161427
1.93344,0.523856,0.0582974
1.97192,0.332111,0.0349048
1.96687,0.233143,-0.115348
1.96665,0.331222,0.0812517
1.94372,0.425933,-0.09269
1.96623,0.430865,0.247151
1.9288,0.522598,-0.0814146
1.99068,0.33527,0.368065
1.95311,0.427991,-0.0465263
1.92787,0.515851,-0.034835
1.93107,0.318994,-0.39145
1.93934,0.418591,0
1.9708,0.227332,-0.0230959
1.93789,0.320121,-0.250011
1.93586,0.517989,0.0116471
1.96533,0.324654,-0.0115773
1.9243,0.415345,-0.212052
1.96636,0.226819,-0.184773
1.95445,0.421853,0.0465263
1.97874,0.228248,0.023189
1.95492,0.322933,-0.161753
1.93508,0.517778,0.0582974
1.97296,0.325913,0.0349048
1.91651,0.51281,-0.127148
1.9676,0.226963,-0.115348
1.95979,0.323739,0.0809261
1.93724,0.418138,-0.0923178
1.96267,0.324214,-0.104253
1.96757,0.424685,0.247151
1.93043,0.516535,-0.0814146
1.99173,0.329014,0.368065
1.92966,0.509119,-0.034835
1.94987,0.315111,-0.0574829
1.92443,0.311,-0.389881
1.97158,0.220451,-0.0230959
1.94291,0.313988,-0.250516
1.93766,0.511229,0.0116471
1.96645,0.317792,-0.0115773
1.92574,0.408626,-0.212052
1.95591,0.415028,0.0465263
1.97158,0.220451,0.0230959
1.93216,0.409988,-0.138118
1.93687,0.511021,0.0582974
1.97408,0.319025,0.0349048
1.92215,0.507136,-0.127403
1.97235,0.220537,-0.11558
1.96486,0.317534,0.0810889
1.93869,0.411374,-0.0923178
1.95985,0.316724,-0.104044
1.96128,0.416167,0.246176
1.93222,0.509794,-0.0814146
1.99286,0.32206,0.368065
1.93152,0.502042,-0.034835
1.95496,0.308585,-0.0575993
1.90432,0.396792,-0.544542
1.92943,0.304556,-0.390666
1.97237,0.213223,-0.0230959
1.94405,0.306864,-0.250516
1.93952,0.504123,0.0116471
1.97156,0.311205,-0.0116006
1.98033,0.214083,0.023189
1.93365,0.402903,-0.138118
1.95324,0.308314,-0.161427
1.93486,0.502912,0.0581811
1.97524,0.311787,0.0349048
1.92399,0.500087,-0.127403
1.97314,0.213306,-0.11558
1.96206,0.309706,0.0809261
1.94409,0.40508,-0.0925039
1.96494,0.310161,-0.104253
1.96667,0.409785,0.246664
1.92247,0.499692,-0.0809261
1.99792,0.315367,0.368782
1.93704,0.496628,-0.0349048
1.90562,0.390475,-0.544542
1.93043,0.298156,-0.390666
1.97307,0.206682,-0.0230959
1.93721,0.299204,-0.249506
1.92956,0.494709,0.0115773
1.92854,0.395171,-0.212052
1.96268,0.402166,0.0466193
1.97307,0.206682,0.0230959
1.93497,0.396489,-0.138118
1.95425,0.301836,-0.161427
1.96836,0.304014,0.0347652
1.96703,0.303809,0.0810889
1.94151,0.397829,-0.0923178
1.97191,0.404058,0.247151
1.92799,0.494307,-0.0810889
1.99506,0.308139,0.368065
1.93101,0.487904,-0.0347652
1.95306,0.294676,-0.0574829
1.90698,0.383822,-0.544542
1.93533,0.292001,-0.39145
1.94499,0.391474,0
1.97378,0.199794,-0.0230959
1.93825,0.292441,-0.249506
1.93903,0.48993,0.0116238
1.96967,0.297182,-0.0115773
1.98174,0.200599,0.023189
1.93243,0.388946,-0.137839
1.95529,0.295013,-0.161427
1.93824,0.489731,0.0581811
1.97336,0.297739,0.034835
1.97057,0.199469,-0.115348
1.96911,0.396327,0.116976
1.96807,0.296941,0.0810889
1.94289,0.39105,-0.0923178
1.96306,0.296184,-0.104044
1.96942,0.39639,0.246664
1.9297,0.487574,-0.0810889
1.99224,0.300587,0.367347
1.93279,0.480824,-0.0347652
1.93639,0.284907,-0.39145
1.98246,0.193335,-0.023189
1.94323,0.285913,-0.250011
1.93693,0.481855,0.0116006
1.97075,0.289962,-0.0115773
1.93132,0.381362,-0.212052
1.95766,0.386563,0.0464332
1.9745,0.192559,0.0230959
1.93385,0.381861,-0.137839
1.95636,0.287845,-0.161427
1.93614,0.481659,0.0580647
1.97444,0.290505,0.034835
1.92138,0.477985,-0.126892
1.97129,0.192246,-0.115348
1.96663,0.388334,0.116743
1.94039,0.383153,-0.0921316
1.97475,0.389938,0.247151
1.93148,0.480499,-0.0810889
1.99722,0.293856,0.368065
1.93437,0.474412,-0.0347652
1.95507,0.281034,-0.0574829
1.92956,0.277367,-0.389881
1.97513,0.186009,-0.0230959
1.94024,0.278902,-0.249506
1.93852,0.475429,0.0116006
1.92867,0.374197,-0.211624
1.97464,0.185963,-0.185145
1.96286,0.38083,0.0465263
1.97114,0.185634,0.0230493
1.9351,0.375445,-0.137839
1.96125,0.281922,-0.161753
1.93773,0.475235,0.0580647
1.97539,0.283955,0.034835
1.92683,0.472562,-0.127148
1.97589,0.186082,-0.11558
1.96614,0.282625,0.0809261
1.94165,0.376715,-0.0921316
1.96508,0.282472,-0.104044
1.97214,0.382631,0.246664
1.93694,0.475042,-0.0812517
1.99039,0.286111,0.36663
1.93601,0.467656,-0.0347652
1.94217,0.272263,-0.392235
1.94506,0.370336,0
1.98373,0.179835,-0.023189
1.94906,0.273229,-0.250516
1.94017,0.468658,0.0116006
1.92996,0.367462,-0.211624
1.96338,0.17799,-0.184029
1.96417,0.373976,0.0465263
1.97576,0.179113,0.0230959
1.95038,0.273413,-0.160776
1.94326,0.469407,0.0581811
1.97637,0.277057,0.034835
1.92847,0.465832,-0.127148
1.98051,0.179543,-0.115813
1.96712,0.27576,0.0809261
1.94295,0.369935,-0.0921316
1.96956,0.375001,0.246176
1.93859,0.468278,-0.0812517
1.99917,0.280254,0.368065
1.93382,0.459633,-0.0346954
1.95703,0.267036,-0.0574829
1.91221,0.356825,-0.544542
1.93538,0.264082,-0.390666
1.9464,0.363205,0
1.97641,0.171871,-0.0230959
1.94612,0.265548,-0.250011
1.93798,0.46062,0.0115773
1.96798,0.171138,-0.184401
1.93774,0.361588,-0.137839
1.94497,0.462282,0.0581811
1.97737,0.269812,0.034835
1.92628,0.457838,-0.126892
1.98115,0.172284,-0.115813
1.96811,0.268549,0.0809261
1.94037,0.362079,-0.0919455
1.97483,0.368509,0.246664
1.9364,0.460246,-0.0810889
1.99629,0.272393,0.367347
1.93526,0.453555,-0.0346954
1.95786,0.260887,-0.0574829
1.90953,0.350121,-0.543464
1.94398,0.259038,-0.392235
1.94753,0.357089,0
1.98092,0.165995,-0.0231425
1.95088,0.259957,-0.250516
1.94331,0.455442,0.0116006
1.97248,0.165288,-0.184773
1.96667,0.360598,0.0465263
1.98092,0.165995,0.0231425
1.93886,0.355499,-0.137839
1.96405,0.261712,-0.161753
1.94252,0.455257,0.0580647
1.97425,0.263071,0.0347652
1.97771,0.165726,-0.11558
1.96895,0.262365,0.0809261
1.94542,0.356702,-0.0921316
1.97597,0.362303,0.246664
1.93784,0.45416,-0.0810889
1.98933,0.265081,0.365912
1.93293,0.445898,-0.0346256
1.94098,0.251745,-0.39145
1.98946,0.159719,-0.0232356
1.94784,0.252634,-0.250011
1.93709,0.446857,0.0115541
1.96511,0.157764,-0.184029
1.96792,0.35373,0.0465263
1.98946,0.159719,0.0232356
1.96495,0.254854,-0.161753
1.9441,0.448473,0.0580647
1.97515,0.256177,0.0347652
1.92927,0.445053,-0.126892
1.97429,0.158501,-0.115348
1.94273,0.349202,-0.0919455
1.98113,0.356105,0.247151
1.93552,0.446494,-0.0809261
2.00195,0.259653,0.368065
1.93838,0.440033,-0.0346954
1.93406,0.243986,-0.389881
1.99001,0.152773,-0.0232356
1.95264,0.24633,-0.250516
1.94644,0.441863,0.0116006
1.93876,0.341507,-0.212052
1.96565,0.150903,-0.184029
1.9652,0.346165,0.0464332
1.97805,0.151855,0.0230959
1.96187,0.247494,-0.161427
1.94565,0.441684,0.0580647
1.98,0.249781,0.034835
1.9347,0.439199,-0.127148
1.97881,0.151914,-0.11558
1.97866,0.249612,0.0812517
1.94787,0.343111,-0.0921316
1.96966,0.248477,-0.104044
1.97454,0.34781,0.246176
1.94096,0.44062,-0.0810889
2.00285,0.252663,0.368065
1.96445,0.240856,-0.0575993
1.9131,0.330105,-0.543464
1.9349,0.237234,-0.389881
1.98255,0.145242,-0.0231425
1.94955,0.23903,-0.250011
1.94797,0.435067,0.0116006
1.97716,0.242415,-0.0115773
1.97034,0.339983,0.0465263
1.98255,0.145242,0.0231425
1.94248,0.335176,-0.137839
1.96272,0.240645,-0.161427
1.94328,0.434018,0.0579483
1.98086,0.242869,0.034835
1.93233,0.431573,-0.126892
1.97556,0.242218,0.0810889
1.94905,0.33631,-0.0921316
1.97575,0.340916,0.246176
1.93859,0.432971,-0.0809261
2.00762,0.246149,0.368782
1.94148,0.426151,-0.0346954
1.96532,0.233654,-0.0575993
1.91049,0.32245,-0.542386
1.93966,0.230603,-0.390666
1.95239,0.32952,0
1.99105,0.138529,-0.0232356
1.93724,0.326963,-0.211624
1.96763,0.332093,0.0464332
1.98706,0.138251,0.023189
1.9437,0.328053,-0.137839
1.96755,0.233919,-0.161753
1.94486,0.426892,0.0579483
1.98174,0.235606,0.034835
1.93,0.423631,-0.126636
1.9804,0.235447,0.0812517
1.94633,0.328498,-0.0919455
1.97698,0.333671,0.246176
1.93626,0.425005,-0.0807633
1.99679,0.237395,0.36663
1.93897,0.418867,-0.0346256
1.96211,0.226678,-0.0574829
1.91155,0.316114,-0.542386
1.94431,0.224621,-0.39145
1.95347,0.323045,0
1.98751,0.131663,-0.023189
1.94723,0.224959,-0.249506
1.94314,0.419768,0.0115541
1.97483,0.228147,-0.0115541
1.98751,0.131663,0.023189
1.94871,0.322259,-0.138118
1.96832,0.227395,-0.161753
1.94626,0.420442,0.0579483
1.97854,0.228576,0.0347652
1.93139,0.41723,-0.126636
1.9803,0.131185,-0.11558
1.97774,0.32706,0.116743
1.9772,0.228421,0.0810889
1.94741,0.322044,-0.0919455
1.97808,0.327115,0.246176
1.94157,0.419428,-0.0809261
1.99756,0.230774,0.36663
1.94042,0.412096,-0.0346256
1.96687,0.220272,-0.0575993
1.94898,0.218269,-0.392235
1.95458,0.316224,0
1.95195,0.218602,-0.250011
1.94068,0.412152,0.0115308
1.98357,0.222142,-0.0116006
1.93942,0.31377,-0.211624
1.97949,0.124192,-0.185145
1.9659,0.318054,0.0463402
1.99195,0.124974,0.0232356
1.94588,0.314816,-0.137839
1.95554,0.415307,0.0581811
1.93674,0.411315,-0.126892
1.98473,0.124521,-0.115813
1.94852,0.315243,-0.0919455
1.97921,0.320208,0.246176
1.93911,0.411817,-0.0807633
2.00227,0.224237,0.367347
1.94192,0.404981,-0.0346256
1.96766,0.213062,-0.0575993
1.91377,0.302427,-0.542386
1.94196,0.21028,-0.390666
1.99239,0.117673,-0.0232356
1.95668,0.211874,-0.250516
1.95001,0.406669,0.0115773
1.94448,0.307281,-0.212052
1.968,0.116232,-0.184029
1.971,0.311472,0.0464332
1.98041,0.116965,0.0230959
1.95313,0.407321,0.0580647
1.93824,0.404214,-0.126892
1.98517,0.117246,-0.115813
1.97878,0.214267,0.0810889
1.95361,0.308724,-0.0921316
1.98037,0.312952,0.246176
1.94452,0.405523,-0.0809261
2.00308,0.216897,0.367347
1.96705,0.310847,-0.0463402
1.95109,0.400146,-0.0347652
1.96438,0.206118,-0.0574829
1.93875,0.203429,-0.389881
1.98079,0.110397,-0.0230959
1.94948,0.204555,-0.249506
1.95135,0.4002,0.0115773
1.97711,0.207454,-0.0115541
1.98428,0.110591,-0.185516
1.97202,0.304933,0.0464332
1.98878,0.110842,0.023189
1.97059,0.20677,-0.161753
1.95056,0.400038,0.0579483
1.98878,0.208678,0.0349048
1.93566,0.396982,-0.126636
1.98954,0.110884,-0.116045
1.98346,0.20812,0.0812517
1.95463,0.302243,-0.0921316
1.9814,0.306382,0.246176
1.94585,0.399072,-0.0809261
2.0077,0.210664,0.368065
1.94071,0.390963,-0.0345558
1.96907,0.199663,-0.0575993
1.91959,0.289968,-0.543464
1.94725,0.197451,-0.39145
1.98915,0.103899,-0.023189
1.95808,0.198549,-0.250516
1.94881,0.392596,0.0115541
1.95046,0.294631,-0.212481
1.98915,0.103899,0.023189
1.96733,0.199487,-0.161427
1.94802,0.392436,0.057832
1.98551,0.201331,0.034835
1.98991,0.103938,-0.116045
1.9802,0.200791,0.0810889
1.95172,0.294821,-0.0919455
1.98245,0.299464,0.246176
1.94331,0.391488,-0.0807633
2.01234,0.204051,0.368782
1.94605,0.384623,-0.0346256
1.9658,0.192056,-0.0574829
1.91683,0.282369,-0.542386
1.94796,0.190313,-0.39145
1.95886,0.288561,0
1.95485,0.190986,-0.250011
1.95416,0.386226,0.0115773
1.97855,0.193301,-0.0115541
1.97811,0.291397,0.0465263
1.98553,0.0964139,0.0231425
1.95014,0.287276,-0.137839
1.94945,0.385294,0.057832
1.98624,0.194053,0.034835
1.93845,0.38312,-0.126636
1.99028,0.0966447,-0.116045
1.9832,0.292147,0.116743
1.9849,0.193921,0.0812517
1.95674,0.288248,-0.0921316
1.98746,0.292775,0.246664
1.94866,0.385138,-0.0809261
2.00915,0.196291,0.368065
1.9702,0.290231,-0.0463402
1.94738,0.377827,-0.0346256
1.96646,0.185193,-0.0574829
1.9178,0.275676,-0.542386
1.94862,0.183512,-0.39145
1.98985,0.0896621,-0.023189
1.95945,0.184532,-0.250516
1.9555,0.379402,0.0115773
1.98319,0.186768,-0.0115773
1.94465,0.279535,-0.211624
1.98535,0.0894593,-0.185516
1.97912,0.28449,0.0465263
1.99384,0.0898421,0.0232356
1.96871,0.185404,-0.161427
1.95863,0.38001,0.0580647
1.9869,0.187118,0.034835
1.93977,0.376351,-0.126636
1.98661,0.0895165,-0.115813
1.95378,0.280847,-0.0919455
1.98847,0.285835,0.246664
1.94999,0.378333,-0.0809261
2.00591,0.188908,0.367347
1.9447,0.370619,-0.0345558
1.91871,0.269315,-0.542386
1.94531,0.176695,-0.390666
1.96005,0.178034,-0.250516
1.9495,0.273638,-0.212052
1.97609,0.27737,0.0464332
1.99013,0.0830634,0.023189
1.97726,0.179596,-0.162078
1.95203,0.372016,0.057832
1.9915,0.18089,0.0349048
1.94493,0.370664,-0.126892
1.9547,0.274367,-0.0919455
1.98548,0.278688,0.246176
1.94731,0.371117,-0.0807633
2.01436,0.182967,0.368782
1.96768,0.171804,-0.0574829
1.92345,0.263138,-0.543464
1.94591,0.169904,-0.390666
1.99441,0.0762693,-0.0232356
1.96461,0.171536,-0.251021
1.95804,0.366084,0.0115773
1.98043,0.172918,-0.0115541
1.94256,0.265753,-0.211195
1.98101,0.271012,0.0465263
1.99441,0.0762693,0.0232356
1.94904,0.26664,-0.13756
1.9739,0.172347,-0.161753
1.95331,0.3652,0.057832
1.94621,0.363873,-0.126892
1.98718,0.0759929,-0.115813
1.98281,0.173125,0.0810889
1.95564,0.267543,-0.0919455
1.98173,0.173031,-0.104253
1.98251,0.271218,0.245689
1.94466,0.363583,-0.0806004
1.95117,0.357755,-0.0346256
1.96827,0.164934,-0.0574829
1.92054,0.255913,-0.542386
1.94649,0.16311,-0.390666
1.98667,0.0690287,-0.0231425
1.989,0.166671,-0.0116006
1.95531,0.260546,-0.212481
1.99014,0.0691495,-0.185888
1.97798,0.263567,0.0464332
1.99466,0.0693065,0.0232356
1.95392,0.260361,-0.137839
1.97846,0.165788,-0.162078
1.98474,0.166314,0.0347652
1.98743,0.0690553,-0.115813
1.98704,0.264775,0.116743
1.9834,0.166202,0.0810889
1.96053,0.261242,-0.0921316
1.98232,0.166112,-0.104253
1.98738,0.26482,0.246176
1.94592,0.356792,-0.0806004
2.01559,0.1689,0.368782
1.94847,0.350235,-0.0345558
1.96883,0.158063,-0.0574829
1.92142,0.249208,-0.542386
1.94705,0.156314,-0.390666
1.96355,0.254673,0
1.9869,0.062094,-0.0231425
1.95785,0.157182,-0.250011
1.94874,0.350282,0.0115076
1.98957,0.159728,-0.0116006
1.94832,0.252697,-0.211624
1.99037,0.0622026,-0.185888
1.98285,0.257176,0.0465263
1.99489,0.0623438,0.0232356
1.95481,0.253539,-0.137839
1.97903,0.158882,-0.162078
1.95581,0.351555,0.057832
1.99328,0.160026,0.0349048
1.94085,0.348865,-0.12638
1.98766,0.0621179,-0.115813
1.98397,0.159278,0.0810889
1.95746,0.253883,-0.0919455
1.99223,0.258392,0.246664
1.95109,0.350705,-0.0807633
2.01617,0.161863,0.368782
1.94962,0.343772,-0.0345558
1.95538,0.150459,-0.392235
1.99908,0.0558403,-0.0232822
1.96628,0.151297,-0.251021
1.95383,0.344513,0.0115308
1.98211,0.152516,-0.0115541
1.9452,0.245736,-0.211195
1.9826,0.0553799,-0.185145
1.97179,0.249096,0.0462471
2.00308,0.055952,0.0233287
1.95564,0.247056,-0.137839
1.97557,0.152013,-0.161753
1.96091,0.345762,0.0579483
1.98981,0.153109,0.034835
1.942,0.342427,-0.12638
1.99584,0.0557496,-0.116278
1.9888,0.251244,0.116743
1.98448,0.152698,0.0810889
1.9583,0.247391,-0.0919455
1.99307,0.251784,0.246664
1.95224,0.344233,-0.0807633
2.02062,0.155479,0.3695
1.95087,0.336623,-0.0345558
1.9481,0.142718,-0.390666
1.99928,0.0485124,-0.0232822
1.96682,0.144089,-0.251021
1.95508,0.337349,0.0115308
1.99063,0.145834,-0.0116006
1.95003,0.239089,-0.211624
1.98063,0.24284,0.0464332
1.95654,0.239886,-0.137839
1.98009,0.145061,-0.162078
1.96216,0.338572,0.0579483
1.99435,0.146106,0.0349048
1.94324,0.335306,-0.12638
1.99204,0.0483367,-0.116045
1.98902,0.145715,0.0812517
1.96316,0.240698,-0.0921316
1.97997,0.145053,-0.104044
1.99004,0.243994,0.246176
1.95349,0.337075,-0.0807633
2.01332,0.147496,0.368065
1.95592,0.330819,-0.0346256
1.92388,0.229409,-0.542386
1.94856,0.136256,-0.390666
1.99543,0.041798,-0.0232356
1.96728,0.137566,-0.251021
1.95224,0.330196,0.0115076
1.98312,0.138673,-0.0115541
1.99091,0.0417033,-0.185888
1.98142,0.23627,0.0464332
2.00342,0.0419655,0.0233287
1.96128,0.233869,-0.138118
1.9726,0.137938,-0.161427
1.94828,0.329526,-0.126636
1.9855,0.138839,0.0810889
1.95997,0.233713,-0.0919455
1.98442,0.138764,-0.104253
1.99084,0.237393,0.246176
1.95065,0.329928,-0.0806004
2.01801,0.240633,0.544555
2.0138,0.140819,0.368065
1.95706,0.323989,-0.0346256
1.9285,0.223135,-0.543464
1.95294,0.129714,-0.39145
1.96688,0.227576,0
1.99956,0.0349026,-0.0232822
1.95338,0.32338,0.0115076
1.98759,0.132016,-0.0115773
1.95162,0.22581,-0.211624
1.99104,0.0347539,-0.185888
1.98621,0.229812,0.0465263
2.00356,0.0349724,0.0233287
1.96209,0.227021,-0.138118
1.97705,0.131316,-0.161753
1.96442,0.325208,0.0579483
1.99131,0.132263,0.034835
1.99631,0.0348459,-0.116278
1.99395,0.132438,0.0814146
1.96078,0.22687,-0.0919455
1.99166,0.230443,0.246176
1.95574,0.32377,-0.0807633
2.02268,0.234032,0.545591
2.01821,0.134049,0.368782
1.95824,0.316815,-0.0346256
1.97528,0.123928,-0.0575993
1.92931,0.216066,-0.543464
1.9534,0.122556,-0.39145
1.99967,0.0275741,-0.0232822
1.9603,0.122989,-0.250011
1.98007,0.124229,-0.0115308
1.99514,0.0275115,-0.18626
1.98704,0.222531,0.0465263
1.99967,0.0275741,0.0232822
1.96291,0.219829,-0.138118
1.9656,0.318006,0.0579483
1.99577,0.125214,0.0349048
1.94664,0.314939,-0.12638
2.00042,0.0275843,-0.116511
1.98421,0.222215,0.116278
1.99442,0.125129,0.0814146
1.96557,0.220127,-0.0921316
1.99249,0.223142,0.246176
1.95691,0.3166,-0.0807633
2.01584,0.225757,0.54352
2.01869,0.126652,0.368782
1.97909,0.221641,-0.0463402
1.95538,0.309352,-0.0345558
1.92622,0.208914,-0.542386
1.95381,0.115736,-0.39145
1.99976,0.0205932,-0.0232822
1.96864,0.116614,-0.251021
1.96355,0.310644,0.0115541
1.99247,0.118026,-0.0116006
1.95713,0.212267,-0.212052
1.99124,0.0205054,-0.185888
1.98383,0.215162,0.0464332
2.00376,0.0206344,0.0233287
1.95969,0.212545,-0.137839
1.9667,0.311142,0.0579483
1.94773,0.308142,-0.12638
2.0005,0.0206009,-0.116511
1.98895,0.215718,0.116511
1.99485,0.118166,0.0814146
1.96235,0.212833,-0.0919455
1.98978,0.117866,-0.104463
1.99325,0.216185,0.246176
1.96195,0.310392,-0.0809261
2.02046,0.219135,0.544555
2.02304,0.119837,0.3695
1.96035,0.303478,-0.0346256
1.97608,0.11048,-0.0575993
1.9269,0.202526,-0.542386
1.95027,0.109038,-0.390666
1.97298,0.110307,-0.251526
1.96852,0.304743,0.0115773
1.99285,0.111418,-0.0116006
1.95387,0.205361,-0.211624
1.99528,0.0139303,-0.18626
1.98453,0.208583,0.0464332
2.00382,0.01399,0.0233287
1.96039,0.206046,-0.137839
1.96377,0.304008,0.057832
2.00057,0.11185,0.0349746
1.95269,0.302292,-0.126636
2.00056,0.0139672,-0.116511
1.99124,0.111328,0.0812517
1.96702,0.206743,-0.0921316
1.98617,0.111045,-0.104253
1.99001,0.209159,0.245689
1.95902,0.303273,-0.0807633
2.02117,0.212435,0.544555
2.01557,0.112688,0.368065
1.98055,0.208165,-0.0463402
1.95744,0.296035,-0.0345558
1.97645,0.103581,-0.0575993
1.93143,0.196187,-0.543464
1.95847,0.102639,-0.392235
1.99985,0.00698077,-0.0232822
1.97335,0.103419,-0.251526
1.96561,0.297271,0.0115541
1.98924,0.104251,-0.0115773
1.95458,0.198539,-0.211624
1.99531,0.00696492,-0.18626
1.98524,0.201654,0.0464332
1.99985,0.00698077,0.0232822
1.96507,0.199604,-0.138118
1.98267,0.103907,-0.162078
1.96086,0.296553,0.0577156
1.95373,0.295474,-0.126636
1.98762,0.104167,0.0810889
1.96376,0.199471,-0.0919455
1.99053,0.104319,-0.104463
1.99863,0.203013,0.246664
1.95612,0.295835,-0.0806004
2.0219,0.205377,0.544555
2.02381,0.106063,0.3695
1.96637,0.290369,-0.0346954
1.9768,0.096682,-0.0575993
1.92827,0.189069,-0.542386
1.96274,0.0959942,-0.393019
1.97055,0.193215,0
2.00386,3.58319e-07,-0.0233287
1.96973,0.0963364,-0.251021
1.96268,0.289824,0.0115308
1.99358,0.0975029,-0.0116006
1.95526,0.191715,-0.211624
2.00786,3.59034e-07,0.0233753
1.95781,0.191965,-0.13756
1.9698,0.290875,0.0579483
1.99731,0.097685,0.0349048
1.9508,0.288069,-0.12638
1.99504,0.195615,0.116743
1.99596,0.0976189,0.0814146
1.97239,0.193395,-0.0923178
1.99537,0.195649,0.246176
1.95714,0.289005,-0.0806004
2.01492,0.197565,0.542485
2.01631,0.0986144,0.368065
1.95946,0.282362,-0.0345558
1.98511,0.0901433,-0.057832
1.94042,0.183424,-0.545621
1.96306,0.0891419,-0.393019
1.97121,0.186334,0
1.99985,-0.00698102,-0.0232822
1.96609,0.0892796,-0.250516
1.95972,0.2824,0.0115076
1.98992,0.0903614,-0.0115773
2.00385,-0.00699498,0.0233287
1.96244,0.185505,-0.137839
1.98733,0.0902441,-0.162403
1.99764,0.090712,0.0349048
1.94784,0.280688,-0.126124
2.0006,-0.00698362,-0.116511
1.99571,0.18865,0.116743
1.99629,0.0906506,0.0814146
1.97306,0.186508,-0.0923178
1.99605,0.188682,0.246176
1.95813,0.282171,-0.0806004
2.02329,0.191257,0.544555
2.02057,0.0917535,0.368782
1.95647,0.274964,-0.034486
1.98142,0.0830464,-0.0577156
1.92954,0.175602,-0.542386
1.96728,0.0824536,-0.393804
1.97583,0.179815,0
2.00782,-0.0140172,-0.0233753
1.97036,0.0825827,-0.251021
1.9607,0.275558,0.0115076
1.99926,-0.0139575,-0.186632
1.98725,0.180854,0.0464332
2.01181,-0.0140451,0.0234219
1.97102,0.179377,-0.138397
1.96782,0.276559,0.057832
2.00194,0.0839063,0.0349746
1.94881,0.273888,-0.126124
2.00455,-0.0139944,-0.116743
1.99635,0.181683,0.116743
1.9926,0.0835148,0.0812517
1.96972,0.179258,-0.0921316
2.00065,0.182073,0.246664
1.96306,0.275891,-0.0807633
2.02394,0.184194,0.544555
2.02088,0.0847003,0.368782
1.95742,0.268134,-0.034486
1.93014,0.168866,-0.542386
1.9558,0.0751347,-0.39145
1.9746,0.0758571,-0.251526
1.96561,0.269256,0.0115308
1.9905,0.0764679,-0.0115773
1.9992,-0.0209357,-0.186632
1.99185,0.174265,0.0465263
1.99975,-0.0209415,0.0232822
1.96369,0.171801,-0.137839
1.98792,0.0763687,-0.162403
1.97273,0.270232,0.0579483
2.00222,0.0769181,0.0349746
1.96162,0.268709,-0.126892
2.00449,-0.0209911,-0.116743
1.99698,0.174713,0.116743
2.00086,0.0768661,0.0815774
1.97431,0.17273,-0.0923178
2.00127,0.175089,0.246664
1.96797,0.26958,-0.0809261
2.02457,0.177128,0.544555
2.02903,0.0779481,0.370217
1.96618,0.263043,-0.0346256
1.9345,0.163125,-0.543464
1.95994,0.0691278,-0.392235
1.973,0.166371,0
2.00768,-0.0273333,-0.0233753
1.97879,0.0697927,-0.252031
1.97041,0.263609,0.0115541
1.99073,0.0702136,-0.0115773
1.96561,0.165748,-0.212481
1.99912,-0.0272168,-0.186632
1.9884,0.16767,0.0464332
2.01168,-0.0273877,0.0234219
1.96819,0.165966,-0.138118
1.98416,0.069982,-0.162078
2.00245,0.070627,0.0349746
1.9585,0.262015,-0.126636
1.99311,0.0702975,0.0812517
1.97086,0.166191,-0.0921316
1.99602,0.0704002,-0.104672
1.99785,0.168467,0.246176
1.96089,0.262335,-0.0806004
2.02926,0.0715728,0.370217
1.97105,0.256695,-0.0346954
1.99015,0.063239,-0.0579483
1.94274,0.156992,-0.545621
1.96409,0.0624109,-0.393019
1.97755,0.159805,0
2.01157,-0.0344092,-0.0234219
1.97109,0.0626333,-0.251021
1.96339,0.255697,0.0115076
1.96222,0.158566,-0.212052
2.003,-0.0342626,-0.187003
2.00357,-0.0342724,0.0233287
1.96876,0.159095,-0.138118
1.99236,0.0633092,-0.162729
1.97052,0.256626,0.057832
2.00268,0.0636372,0.0349746
1.95544,0.254662,-0.12638
2.00133,0.0635941,0.0815774
1.97939,0.159954,-0.0925039
2.00239,0.161812,0.246664
1.96179,0.255489,-0.0806004
2.018,0.163074,0.542485
2.0295,0.0644893,0.370217
1.98898,0.160729,-0.0464332
1.98636,0.056179,-0.057832
1.94327,0.15021,-0.545621
1.9643,0.0555549,-0.393019
1.97411,0.152594,0
2.00744,-0.0413479,-0.0233753
1.97527,0.0558651,-0.251526
1.9722,0.249848,0.0115541
1.99917,0.0565411,-0.0116238
1.96276,0.151716,-0.212052
2.01943,-0.041595,0.023515
1.97726,0.152837,-0.138676
1.96744,0.249244,0.0577156
1.9989,0.0565334,0.0349048
1.95632,0.247835,-0.12638
2.00418,-0.0412807,-0.116743
1.99864,0.15449,0.116743
1.99754,0.0564952,0.0814146
1.97596,0.152736,-0.0923178
2.0069,0.155128,0.247151
1.96267,0.24864,-0.0806004
2.02626,0.156625,0.544555
2.02185,0.0571825,0.368782
1.98953,0.153785,-0.0464332
1.96486,0.241951,-0.0345558
1.97232,0.0488918,-0.394588
1.97862,0.145996,0
2.01128,-0.0484518,-0.0234219
1.98338,0.049166,-0.252536
1.96909,0.242472,0.0115308
1.99935,0.0495618,-0.0116238
1.95931,0.144571,-0.211624
1.99873,-0.0481494,-0.186632
1.99404,0.147133,0.0465263
2.01128,-0.0484518,0.0234219
1.9738,0.14564,-0.138397
1.96829,0.242374,0.0577156
1.95717,0.241004,-0.12638
1.99373,0.0494225,0.0812517
1.97648,0.145838,-0.0923178
2.00347,0.147829,0.246664
1.96749,0.242276,-0.0807633
2.0345,0.150119,0.546626
2.02597,0.0502216,0.3695
1.98606,0.146545,-0.0463402
1.96966,0.235565,-0.0346256
1.93659,0.136099,-0.543464
1.96464,0.0418393,-0.393019
2.0151,-0.0555829,-0.0234684
1.97958,0.0421574,-0.252031
1.97787,0.236547,0.0115773
2.00351,0.0426671,-0.0116471
1.96774,0.138288,-0.212481
2.00651,-0.0553461,-0.187375
1.99454,0.140171,0.0465263
1.97032,0.138469,-0.138118
1.9731,0.235976,0.057832
2.00724,0.0427465,0.0350444
1.96196,0.234645,-0.126636
2.00783,-0.0553826,-0.116976
2.00365,0.140812,0.116976
1.97698,0.138937,-0.0923178
1.99681,0.0425243,-0.104672
2.00001,0.140556,0.246176
2.00089,0.0426113,0.16338
1.96833,0.235406,-0.0807633
2.02731,0.142474,0.544555
2.034,0.0433164,0.370935
1.9665,0.228228,-0.0345558
1.9409,0.129595,-0.544542
1.96477,0.0349815,-0.393019
1.97959,0.132179,0
2.01089,-0.062492,-0.0234219
1.98368,0.0353182,-0.252536
1.97074,0.22872,0.0115308
2.00365,0.0356737,-0.0116471
1.96424,0.131154,-0.212052
2.0063,-0.0623494,-0.187375
1.99502,0.133209,0.0465263
2.01489,-0.0626162,0.0234684
1.97079,0.131591,-0.138118
1.98907,0.0354141,-0.162403
2.01137,0.0358113,0.0351142
1.96277,0.227795,-0.126636
2.00602,0.0357159,0.0817402
1.98143,0.132302,-0.0925039
2.00445,0.133839,0.246664
1.96517,0.228073,-0.0806004
2.0355,0.135912,0.546626
2.02627,0.0360765,0.3695
1.99103,0.132942,-0.0464332
1.97523,0.222256,-0.0346954
1.99095,0.0284956,-0.0579483
1.94134,0.122819,-0.544542
1.96488,0.0281225,-0.393019
2.01866,-0.0697878,-0.023515
1.97982,0.0283363,-0.252031
1.97152,0.221839,0.0115308
2.00376,0.0286789,-0.0116471
1.96468,0.124296,-0.212052
2.00607,-0.0693528,-0.187375
1.99946,0.126496,0.0466193
2.01466,-0.0696496,0.0234684
1.97522,0.124962,-0.138397
1.99715,0.0285843,-0.163054
1.97072,0.221748,0.0577156
2.01149,0.0287895,0.0351142
1.96752,0.221388,-0.126892
2.00459,0.12682,0.116976
2.00213,0.0286556,0.0815774
1.9779,0.125132,-0.0923178
2.00491,0.12684,0.246664
1.96992,0.221658,-0.0807633
2.02825,0.128317,0.544555
2.03032,0.029059,0.370217
1.99148,0.125991,-0.0464332
1.96808,0.21415,-0.0345558
1.94562,0.115932,-0.545621
1.97282,0.0210046,-0.394588
1.98049,0.11801,0
2.01439,-0.0770328,-0.0234684
1.97991,0.0210801,-0.252031
1.97232,0.214612,0.0115308
1.99185,0.0212073,-0.0115773
2.00581,-0.0767046,-0.187375
1.99592,0.118929,0.0465263
2.0064,-0.0767271,0.0233753
1.97566,0.117722,-0.138397
1.99724,0.0212647,-0.163054
1.9755,0.214957,0.057832
2.01158,0.0214173,0.0351142
1.96435,0.213744,-0.126636
2.00622,0.0213603,0.0817402
1.98233,0.11812,-0.0925039
2.00536,0.119492,0.246664
1.97072,0.214437,-0.0807633
2.03257,0.121113,0.545591
2.03041,0.0216178,0.370217
1.98794,0.118453,-0.0463402
1.97276,0.208042,-0.0346256
1.9383,0.109047,-0.543464
1.9768,0.0144915,-0.395372
1.98486,0.111667,0
2.01812,-0.083878,-0.023515
1.98791,0.014573,-0.253042
1.977,0.20849,0.0115541
1.99591,0.0146317,-0.0116006
1.9655,0.110578,-0.212052
2.00029,0.112535,0.0466193
2.02611,-0.0842102,0.0236081
1.98003,0.111395,-0.138676
1.98813,0.209663,0.0581811
2.01164,0.0147469,0.0351142
1.96505,0.207229,-0.126636
2.01484,-0.0837418,-0.117441
2.00543,0.112824,0.116976
2.00229,0.0146784,0.0815774
1.97872,0.111321,-0.0923178
2.00574,0.112841,0.246664
1.97142,0.207901,-0.0807633
2.03296,0.114372,0.545591
2.02654,0.0148561,0.3695
1.99231,0.112086,-0.0464332
1.97347,0.201154,-0.0346256
1.94252,0.102483,-0.544542
1.97291,0.00757554,-0.394588
1.98124,0.104526,0
2.02181,-0.0911027,-0.0235616
1.98398,0.00761802,-0.252536
1.97772,0.201587,0.0115541
2.00795,0.00771007,-0.0116703
1.96588,0.103715,-0.212052
2.00922,-0.0905352,-0.187747
1.99668,0.105341,0.0465263
2.01382,-0.0907426,0.0234684
1.97642,0.104272,-0.138397
1.99335,0.00765402,-0.162729
1.97692,0.201505,0.057832
2.00768,0.00770903,0.0350444
1.96179,0.199963,-0.12638
2.01454,-0.090775,-0.117441
2.00232,0.00768847,0.0815774
1.9791,0.104413,-0.0923178
2.00124,0.0076843,-0.104881
2.00216,0.10563,0.246176
2.00531,0.00769995,0.163705
1.97611,0.201423,-0.0809261
2.03334,0.107275,0.545591
2.03051,0.0077967,0.370217
1.97413,0.194609,-0.0346256
1.94285,0.0960412,-0.544542
1.97293,0.00103347,-0.394588
1.98158,0.097956,0
2.0215,-0.0978063,-0.0235616
1.98796,0.00104135,-0.253042
1.98236,0.19542,0.0115773
2.00797,0.00105183,-0.0116703
1.97018,0.0973926,-0.212481
2.00493,-0.0970046,-0.187375
1.99702,0.0987192,0.0465263
2.0175,-0.097613,0.023515
1.97277,0.0975203,-0.138118
1.99736,0.00104627,-0.163054
1.97757,0.194949,0.057832
2.01169,0.00105378,0.0351142
1.97039,0.19424,-0.126892
2.00634,0.00105097,0.0817402
1.98742,0.0982444,-0.09269
2.00646,0.099186,0.246664
1.97279,0.194477,-0.0807633
2.03369,0.100532,0.545591
2.03446,0.0010657,0.370935
1.99702,0.0987192,-0.0465263
1.96683,0.186959,-0.034486
1.99115,-0.00590795,-0.0579483
1.94702,0.089435,-0.545621
1.97292,-0.00585386,-0.394588
1.98591,0.0912214,0
2.02514,-0.10507,-0.0236081
1.98002,-0.00587492,-0.252031
1.97108,0.187363,0.0115076
2.00796,-0.00595782,-0.0116703
2.00135,0.0919307,0.0466193
2.02514,-0.10507,0.0236081
1.98107,0.0909992,-0.138676
1.99735,-0.00592634,-0.163054
1.97426,0.187666,0.0577156
2.00769,-0.00595702,0.0350444
1.96311,0.186605,-0.12638
2.01432,-0.0059767,0.0820659
1.99174,0.0914893,-0.0928761
2.0068,0.092181,0.246664
1.97744,0.187968,-0.0809261
2.03789,0.0936091,0.546626
2.03839,-0.00604811,0.371652
1.97146,0.180458,-0.0345558
1.99112,-0.0128579,-0.0579483
1.94732,0.0826386,-0.545621
1.97681,-0.0127655,-0.395372
2.02476,-0.112138,-0.0236081
1.98792,-0.0128373,-0.253042
1.97969,0.181211,0.0115541
1.99592,-0.012889,-0.0116006
2.01216,-0.11144,-0.188119
2.00565,0.0851141,0.0467124
2.02476,-0.112138,0.0236081
1.98137,0.0840838,-0.138676
1.99731,-0.0128979,-0.163054
1.9749,0.180773,0.0577156
2.01565,-0.0130163,0.0351841
1.96374,0.179752,-0.12638
2.01748,-0.111735,-0.117673
2.01078,0.0853317,0.117208
2.0023,-0.0129301,0.0815774
1.98805,0.0843673,-0.09269
2.01107,0.0853442,0.247151
1.97012,0.180336,-0.0806004
2.02662,0.0860039,0.54352
2.03442,-0.0131375,0.370935
1.99766,0.084775,-0.0465263
1.97606,0.173926,-0.0346256
1.94759,0.0758411,-0.545621
1.98067,-0.0197044,-0.396157
2.02436,-0.119204,-0.0236081
1.98786,-0.0197759,-0.253042
1.98031,0.1743,0.0115541
1.99987,-0.0198953,-0.0116238
2.01175,-0.118462,-0.188119
2.00194,0.0779573,0.0466193
2.02436,-0.119204,0.0236081
1.98166,0.0771674,-0.138676
1.99726,-0.0198694,-0.163054
1.97951,0.17423,0.057832
2.01559,-0.0200518,0.0351841
1.96834,0.173246,-0.126636
2.01708,-0.118776,-0.117673
2.01107,0.0783127,0.117208
2.00624,-0.0199587,0.0817402
1.98434,0.0772721,-0.0925039
2.00739,0.0781696,0.246664
1.97472,0.173808,-0.0807633
2.03463,0.0792303,0.545591
2.0383,-0.0202776,0.371652
1.99794,0.0778017,-0.0465263
1.97665,0.167027,-0.0346256
1.944,0.0689052,-0.544542
1.97275,-0.0265132,-0.394588
2.02393,-0.126271,-0.0236081
1.99175,-0.0267686,-0.253547
1.98091,0.167386,0.0115541
2.00379,-0.0269303,-0.0116471
2.0153,-0.125733,-0.188491
2.0022,0.0709683,0.0466193
2.01994,-0.126022,0.0235616
1.97394,0.0699665,-0.138118
2.00116,-0.0268951,-0.16338
1.98409,0.167655,0.0579483
2.01951,-0.0271417,0.0352539
1.96495,0.166038,-0.12638
2.01666,-0.125817,-0.117673
2.00615,-0.0269622,0.0817402
1.9846,0.0703444,-0.0925039
2.01162,0.0713022,0.247151
2.01312,-0.0270558,0.164356
1.98328,0.167587,-0.0810889
