2.63201,0.476895,-0.0778463
2.74305,0.636815,0
2.58569,0.339037,-0.0303599
2.60815,0.472571,-0.337389
2.6567,0.481368,-0.0156922
2.71305,0.62985,-0.19476
2.63224,0.476937,-0.218382
2.67208,0.484155,0.0474007
2.67814,0.485252,0.110887
2.71673,0.630704,-0.129915
2.64131,0.47858,-0.140679
2.62964,0.467464,-0.0777299
2.73345,0.62504,0
2.60579,0.463224,-0.336884
2.70734,0.61907,-0.194202
2.62596,0.466809,-0.217731
2.66973,0.474591,0.0473309
2.55883,0.326887,-0.150231
2.67973,0.476368,0.110887
2.71491,0.6208,-0.129729
2.63502,0.468419,-0.14026
2.62338,0.456909,-0.0774972
2.72391,0.612859,0
2.57206,0.319455,-0.0301737
2.59958,0.452763,-0.335873
2.65203,0.461899,-0.0156457
2.7017,0.607863,-0.193644
2.61579,0.455587,-0.216755
2.66349,0.463896,0.0471913
2.55203,0.316968,-0.149766
2.6735,0.465639,0.110561
2.71316,0.610442,-0.129543
2.6327,0.458533,-0.140051
2.6747,0.465848,0.221637
2.72317,0.612694,-0.0649507
2.6211,0.44662,-0.0773808
2.72223,0.602009,0
2.56924,0.309548,-0.0301271
2.58948,0.441233,-0.334358
2.64582,0.450833,-0.0155992
2.69612,0.596234,-0.193086
2.60958,0.444658,-0.216104
2.65335,0.452115,0.0469819
2.54921,0.307135,-0.149534
2.66731,0.454495,0.110235
2.70758,0.598768,-0.12917
2.62649,0.447539,-0.139632
2.6646,0.454033,0.22066
2.72149,0.601846,-0.0648576
2.6146,0.437065,-0.0771481
2.7202,0.592603,0
2.59086,0.433097,-0.334358
2.63933,0.4412,-0.0155527
2.57418,0.301941,0.0301737
2.69018,0.586063,-0.192528
2.6031,0.435143,-0.215453
2.65081,0.443119,0.0469121
2.6569,0.444137,0.109747
2.70164,0.588559,-0.128798
2.66208,0.445003,0.220335
2.71555,0.591591,-0.0646715
2.60822,0.426645,-0.0769154
2.71443,0.581427,0
2.55534,0.290693,-0.0299409
2.58452,0.422768,-0.333348
2.67159,0.572253,-0.294303
2.72933,0.58462,0.0649507
2.60067,0.42541,-0.215128
2.53532,0.288416,-0.148603
2.65055,0.433569,0.109421
2.69195,0.576613,-0.12824
2.65969,0.435064,0.22001
2.70587,0.579595,-0.0643924
2.59785,0.415643,-0.0765663
2.7047,0.569477,0
2.55237,0.281334,-0.0298943
2.56032,0.28221,0.0299874
2.68249,0.564801,-0.191691
2.64199,0.422706,0.0467026
2.53632,0.279564,-0.148603
2.6481,0.423683,0.109258
2.69004,0.56639,-0.128054
2.61116,0.417774,-0.138586
2.64938,0.423888,0.219033
2.70397,0.569323,-0.0642993
2.59533,0.405954,-0.0764499
2.70275,0.559221,0
2.5414,0.271149,-0.0297546
2.67663,0.553816,-0.191133
2.59176,0.405395,-0.214151
2.64166,0.413201,0.108933
2.68809,0.556187,-0.127868
2.60471,0.407421,-0.138167
2.6469,0.414021,0.218708
2.59278,0.396288,-0.0763336
2.69685,0.54819,0
2.53836,0.261866,-0.029708
2.56527,0.392084,-0.330318
2.55427,0.263508,0.0298943
2.67073,0.542881,-0.190575
2.58922,0.395744,-0.213826
2.52232,0.260212,-0.147673
2.63651,0.402972,0.217731
2.74597,0.69943,-0.115446
2.6922,0.547245,-0.0639271
2.59026,0.386192,-0.0762172
2.69492,0.537519,0
2.53532,0.252164,-0.0296615
2.64822,0.528204,-0.290876
2.58276,0.385075,-0.213175
2.73355,0.685606,-0.180616
2.51133,0.249779,-0.146975
2.63797,0.393306,0.217731
2.6785,0.534245,-0.0635549
2.58764,0.376572,-0.0761008
2.5322,0.24293,-0.0296149
2.64224,0.517428,-0.290019
2.65888,0.520687,-0.189459
2.5762,0.374908,-0.212524
2.7243,0.673186,-0.179849
2.50821,0.240629,-0.146743
2.70005,0.52875,0.160231
2.62614,0.382175,0.108119
2.67033,0.522929,-0.126751
2.63538,0.38352,0.217406
2.73927,0.676885,-0.114957
2.66858,0.522586,-0.0632757
2.74724,0.669198,-0.0493554
2.58095,0.366865,-0.0758681
2.6828,0.516141,0
2.53299,0.234534,0.0296149
2.64492,0.508853,-0.188342
2.56954,0.365243,-0.211873
2.72652,0.66415,-0.179849
2.509,0.232312,-0.146743
2.62343,0.372903,0.107956
2.62874,0.373658,0.216755
2.73373,0.665907,-0.114632
2.66637,0.51298,-0.0631827
2.73801,0.656327,-0.049146
2.58228,0.357403,-0.0758681
2.67288,0.50408,0
2.5179,0.223831,-0.0294287
2.60227,0.490764,-0.41199
2.52587,0.224539,0.0295218
2.64285,0.498416,-0.188063
2.56691,0.355275,-0.211548
2.71729,0.651361,-0.179081
2.50586,0.22276,-0.14651
2.61686,0.362189,0.10763
2.65821,0.501313,-0.126006
2.61825,0.362381,0.215779
2.72838,0.654019,-0.114306
2.66823,0.503203,-0.0631827
2.73238,0.645404,-0.0490064
2.57949,0.348302,-0.0757518
2.67454,0.495213,0
2.51066,0.214797,-0.0293355
2.5442,0.343536,-0.326782
2.74832,0.649169,0.0164128
2.62396,0.485848,-0.287448
2.5266,0.216161,0.0295218
2.63664,0.488195,-0.187505
2.60397,0.351607,0.0458649
2.71166,0.64051,-0.178569
2.49862,0.213768,-0.146045
2.64807,0.490312,-0.125448
2.61153,0.352629,0.215128
2.72664,0.644048,-0.114143
2.65809,0.492167,-0.0629035
2.73072,0.634958,-0.0489365
2.57673,0.338776,-0.0756354
2.66838,0.484447,0
2.50741,0.205707,-0.029289
2.59777,0.471628,-0.41076
2.74278,0.637762,0.0163664
2.60999,0.473846,-0.285735
2.52335,0.207015,0.0294752
2.63832,0.47899,-0.187505
2.59725,0.341474,0.0457253
2.71,0.630138,-0.178314
2.69137,0.488621,0.159301
2.64583,0.480354,-0.125262
2.60089,0.341953,0.214151
2.72109,0.632718,-0.113818
2.64799,0.480744,-0.0626244
2.72513,0.623637,-0.0487969
2.56203,0.327749,-0.0751699
2.66218,0.473728,0
2.50412,0.196639,-0.0292424
2.59162,0.461172,-0.40953
2.73719,0.626399,0.0163199
2.61163,0.464732,-0.285735
2.67327,0.475701,0.0631827
2.51608,0.197579,0.0293821
2.62819,0.46768,-0.186668
2.7044,0.618893,-0.177802
2.48413,0.19507,-0.145115
2.68127,0.477124,0.158603
2.59667,0.332181,0.106653
2.60207,0.332872,0.214151
2.71939,0.622324,-0.113655
2.64177,0.470096,-0.0624383
2.72338,0.613243,-0.0487271
2.56712,0.319298,-0.0752863
2.64805,0.461684,0
2.5008,0.187599,-0.0291958
2.73936,0.616841,0.0163199
2.6631,0.464307,0.0629035
2.50878,0.188197,0.029289
2.61409,0.455762,-0.185552
2.58369,0.321359,0.0454461
2.69486,0.606819,-0.177034
2.4848,0.186398,-0.145115
2.67898,0.467076,0.158371
2.59384,0.322622,0.10649
2.63731,0.459812,-0.124703
2.59926,0.323295,0.213826
2.71374,0.611072,-0.113329
2.63946,0.460186,-0.0623452
2.7177,0.602002,-0.0485875
2.64176,0.451091,0
2.48947,0.178011,-0.0290561
2.58309,0.441072,-0.407685
2.72588,0.603814,0.0162269
2.59521,0.443141,-0.283593
2.66076,0.454334,0.0628105
2.6078,0.445291,-0.184994
2.541,0.307045,-0.208944
2.69306,0.596545,-0.176779
2.48145,0.177438,-0.144882
2.66879,0.455705,0.157673
2.58702,0.312606,0.106165
2.63103,0.449257,-0.124331
2.58454,0.312306,0.212524
2.70415,0.599002,-0.112841
2.63317,0.449623,-0.0621591
2.71187,0.591282,-0.0484479
2.55733,0.300416,-0.0749372
2.48606,0.169482,-0.0290096
2.57674,0.431198,-0.406455
2.71223,0.591362,0.0161339
2.59274,0.433876,-0.283165
2.65436,0.444188,0.0626244
2.50202,0.170571,0.0291958
2.60139,0.435323,-0.184436
2.56993,0.301898,0.0451668
2.68332,0.585059,-0.176011
2.47406,0.168664,-0.144417
2.58407,0.303558,0.106002
2.62462,0.43921,-0.123959
2.58952,0.304198,0.212849
2.69832,0.588328,-0.112515
2.70218,0.579298,-0.0482385
2.63688,0.431806,0
2.47865,0.160288,-0.0289165
2.56653,0.420286,-0.404611
2.71037,0.581053,0.0161106
2.57854,0.422253,-0.281451
2.648,0.433628,0.0624383
2.49861,0.161578,0.0291493
2.59895,0.425595,-0.184157
2.72882,0.585008,0.0812208
2.57097,0.292926,0.0451668
2.67754,0.574016,-0.1755
2.45869,0.158997,-0.143487
2.65212,0.434302,0.15651
2.57717,0.293632,0.105676
2.61431,0.428109,-0.123401
2.58264,0.294255,0.212199
2.69644,0.578068,-0.112352
2.69255,0.566917,-0.048029
2.54749,0.280795,-0.0745881
2.62659,0.420242,0
2.47923,0.151201,-0.0289165
2.70074,0.568642,0.0160409
2.57222,0.411542,-0.280594
2.64168,0.422655,0.0622522
2.58473,0.413544,-0.183041
2.7192,0.57253,0.0808717
2.67182,0.562553,-0.174988
2.46324,0.150226,-0.14372
2.64581,0.423316,0.156045
2.57029,0.283308,0.10535
2.60797,0.417261,-0.123028
2.57182,0.283477,0.211222
2.68681,0.56571,-0.111864
2.69441,0.557986,-0.048029
2.5325,0.270646,-0.0741227
2.61612,0.409673,0
2.47572,0.142749,-0.0288699
2.56159,0.401135,-0.403381
2.69869,0.558872,0.0160176
2.56571,0.40178,-0.279738
2.63121,0.412037,0.061973
2.48371,0.14321,0.028963
2.57821,0.403737,-0.182483
2.72109,0.56351,0.0808717
2.66976,0.552881,-0.174732
2.45575,0.141598,-0.143255
2.63536,0.412687,0.155347
2.56327,0.273934,0.105025
2.59749,0.406757,-0.12247
2.53407,0.270814,-0.133561
2.56878,0.274523,0.210897
2.68085,0.555177,-0.111538
2.69242,0.54778,-0.0479592
2.53741,0.262216,-0.074239
2.60962,0.399329,0
2.46822,0.133674,-0.0287768
2.54344,0.389202,-0.400306
2.69279,0.547855,0.0159711
2.56317,0.39222,-0.279309
2.48419,0.13454,0.028963
2.57566,0.394132,-0.182204
2.69953,0.549226,0.0801735
2.65994,0.541171,-0.173965
2.44826,0.132594,-0.142789
2.64468,0.404694,0.155813
2.56023,0.264575,0.104862
2.591,0.396479,-0.122098
2.66474,0.407763,0.330997
2.66319,0.541832,-0.110724
2.68255,0.536027,-0.0477498
2.60309,0.389034,0
2.46867,0.125057,-0.0287768
2.54088,0.379736,-0.399691
2.49142,0.248677,-0.318701
2.68292,0.5361,0.0159014
2.55665,0.382094,-0.278452
2.62216,0.391884,0.0616939
2.47266,0.12526,0.0288233
2.57307,0.384548,-0.181925
2.69359,0.538232,0.0799408
2.65007,0.529536,-0.173197
2.44871,0.124046,-0.142789
2.63028,0.393098,0.154882
2.59237,0.387432,-0.122098
2.66114,0.531749,-0.110561
2.60784,0.260297,0.477839
2.66488,0.522345,-0.0474007
2.52728,0.242905,-0.07389
2.60054,0.378915,0
2.46112,0.115633,-0.0286836
2.53834,0.369852,-0.399076
2.67309,0.523955,0.0158317
2.5541,0.372148,-0.278024
2.61962,0.381695,0.0616008
2.57446,0.375115,-0.181925
2.69162,0.527588,0.0798244
2.54389,0.244501,0.0446084
2.64024,0.517516,-0.17243
2.44515,0.114883,-0.142557
2.6238,0.382304,0.154417
2.5541,0.245483,0.104536
2.58586,0.376776,-0.121725
2.55568,0.245635,0.209595
2.66307,0.521992,-0.110561
2.60486,0.250361,0.477121
2.66276,0.512284,-0.0473309
2.51219,0.232606,-0.0734245
2.58997,0.368145,0
2.46151,0.107041,-0.0286836
2.5357,0.360432,-0.398462
2.48523,0.23011,-0.317691
2.67097,0.513865,0.0158084
2.54751,0.36211,-0.277167
2.61698,0.371985,0.0615077
2.4695,0.107389,0.0287768
2.56786,0.365003,-0.181367
2.68167,0.515922,0.0794753
2.54074,0.23525,0.0445385
2.63419,0.506788,-0.171918
2.43357,0.105826,-0.141859
2.61721,0.372018,0.153952
2.57529,0.36606,-0.121167
2.65321,0.377134,0.329047
2.64918,0.509672,-0.10991
2.6018,0.240903,0.476404
2.65658,0.501966,-0.0471913
2.51294,0.224275,-0.0734245
2.58721,0.359006,0
2.44986,0.0983968,-0.0285439
2.52905,0.350935,-0.397232
2.47808,0.221163,-0.316681
2.6648,0.50352,0.0157619
2.53688,0.352021,-0.275882
2.42748,0.097498,-0.226784
2.60632,0.361657,0.0612286
2.56115,0.355389,-0.180809
2.6755,0.505542,0.0792426
2.53354,0.226113,0.0443989
2.63193,0.497309,-0.171662
2.61843,0.363338,0.153952
2.53183,0.22596,0.103559
2.56462,0.355871,-0.120609
2.64658,0.367243,0.328072
2.54141,0.226815,0.208293
2.64693,0.500143,-0.109747
2.59866,0.231925,0.475686
2.64652,0.490504,-0.0469819
2.50973,0.21516,-0.0733081
2.57656,0.348365,0
2.44219,0.089552,-0.0284508
2.52243,0.341047,-0.396002
2.47488,0.212173,-0.316176
2.65868,0.492758,0.0157154
2.54203,0.343697,-0.27631
2.6036,0.352021,0.0611355
2.55842,0.345912,-0.18053
2.62973,0.487392,-0.171406
2.61968,0.354196,0.153952
2.5326,0.217121,0.103559
2.56585,0.346917,-0.120609
2.63997,0.356939,0.327097
2.59161,0.222181,0.474251
2.63641,0.479117,-0.0467725
2.50249,0.205743,-0.0730754
2.44321,0.200868,-0.490293
2.57379,0.338846,0
2.4345,0.0807608,-0.0283577
2.51185,0.330691,-0.394157
2.4677,0.202882,-0.315165
2.65251,0.482043,0.0156689
2.53927,0.334302,-0.275882
2.55565,0.336458,-0.180251
2.48731,0.204494,-0.203737
2.43054,0.0806296,-0.141627
2.61299,0.344007,0.153487
2.52538,0.207624,0.103234
2.56308,0.337436,-0.120423
2.62939,0.346167,0.325635
2.58061,0.212165,0.472099
2.49921,0.196692,-0.0729591
2.57099,0.329351,0
2.43876,0.0723803,-0.0284042
2.50907,0.321418,-0.393542
2.46443,0.193955,-0.31466
2.65024,0.472079,0.0156457
2.52859,0.323919,-0.274597
2.45075,0.0727363,0.0285439
2.55285,0.327028,-0.179972
2.51982,0.198314,0.0441197
2.42283,0.0719074,-0.141162
2.60229,0.33336,0.152789
2.52609,0.198807,0.103234
2.55632,0.327471,-0.12005
2.62665,0.336481,0.325147
2.52775,0.198938,0.206991
2.62448,0.46749,-0.108607
2.57349,0.202537,0.470664
2.63575,0.460012,-0.0467026
2.48393,0.186768,-0.0724936
2.56816,0.319881,0
2.435,0.0637628,-0.0283577
2.51017,0.312659,-0.393542
2.45718,0.184757,-0.31365
2.64005,0.460762,0.0155759
2.52576,0.3146,-0.274168
2.4087,0.063074,-0.224925
2.55002,0.317622,-0.179693
2.60716,0.455023,-0.169615
2.41907,0.0633456,-0.140929
2.60344,0.324275,0.152789
2.51481,0.18909,0.102745
2.55348,0.318053,-0.119864
2.61993,0.326329,0.324172
2.61822,0.456952,-0.108281
2.57025,0.193258,0.469946
2.62551,0.448788,-0.0464932
2.48058,0.177811,-0.0723772
2.56131,0.309954,0
2.43121,0.0551725,-0.0283111
2.51125,0.303895,-0.393542
2.64164,0.451545,0.0155759
2.49356,0.178741,-0.0145298
2.51895,0.304826,-0.273312
2.53527,0.306802,-0.178577
2.64451,0.452035,0.078079
2.60873,0.44592,-0.169615
2.59662,0.314227,0.152324
2.50748,0.179739,0.10242
2.54664,0.308178,-0.119492
2.48222,0.177928,-0.130421
2.61317,0.316229,0.323198
2.51317,0.180147,0.205689
2.61192,0.446464,-0.107956
2.57091,0.184286,0.469946
2.61515,0.438096,-0.0462838
2.47318,0.169038,-0.0721445
2.42618,0.165826,-0.486371
2.56233,0.301458,0
2.42738,0.0470318,-0.0282646
2.49654,0.293718,-0.391083
2.45047,0.167486,-0.31264
2.63129,0.440799,0.0155062
2.51994,0.296471,-0.273312
2.43538,0.0471868,0.0283577
2.54023,0.298858,-0.178856
2.46602,0.168549,-0.201784
2.63416,0.44128,0.0777299
2.50577,0.171266,0.0438404
2.59369,0.305147,0.152092
2.50806,0.171422,0.10242
2.54765,0.299731,-0.119492
2.47881,0.169423,-0.130212
2.60237,0.306169,0.321735
2.56366,0.175222,0.468511
2.46974,0.160576,-0.0720282
2.55537,0.29205,0
2.41153,0.0387245,-0.0280783
2.48965,0.284539,-0.389853
2.44309,0.158843,-0.31163
2.62879,0.431422,0.0154829
2.51301,0.287209,-0.272455
2.52932,0.289073,-0.178019
2.46259,0.160111,-0.201458
2.63167,0.431894,0.0776135
2.49834,0.162436,0.0437008
2.59194,0.425374,-0.168336
2.58675,0.295637,0.151627
2.50463,0.162844,0.102257
2.54466,0.290826,-0.119306
2.47537,0.160942,-0.130003
2.60732,0.297988,0.322223
2.55637,0.166208,0.467077
2.46233,0.151034,-0.0717954
2.55642,0.282683,0
2.41565,0.0299357,-0.0281249
2.48675,0.274978,-0.389238
2.43969,0.149645,-0.311125
2.62245,0.420518,0.0154364
2.51009,0.27756,-0.272027
2.62928,0.421613,0.0774972
2.49493,0.153033,0.043631
2.58954,0.41524,-0.16808
2.40374,0.0297881,-0.139999
2.57988,0.285277,0.151161
2.49723,0.153174,0.101931
2.54174,0.281059,-0.11912
2.6005,0.287557,0.321248
2.49897,0.153281,0.204388
2.59665,0.41638,-0.107142
2.54911,0.156356,0.465642
2.45486,0.141977,-0.0715627
2.54943,0.272908,0
2.48769,0.266298,-0.389238
2.61205,0.409505,0.0153667
2.50314,0.267952,-0.27117
2.52339,0.270119,-0.17746
2.62284,0.411196,0.0772645
2.49146,0.144094,0.0435612
2.58308,0.404964,-0.167569
2.39185,0.0212923,-0.139301
2.56895,0.274996,0.150464
2.49376,0.144228,0.101768
2.53475,0.271336,-0.118747
2.46449,0.142535,-0.129375
2.58965,0.277212,0.319785
2.49551,0.144329,0.204062
2.59414,0.406696,-0.106979
2.54178,0.147005,0.464207
2.45135,0.13319,-0.0714464
2.54241,0.263182,0
2.4038,0.0130067,-0.0279852
2.48467,0.257205,-0.388623
2.61346,0.400384,0.0153667
2.47631,0.134546,-0.0144135
2.50406,0.259212,-0.27117
2.50844,0.259665,-0.176344
2.61635,0.400827,0.0770317
2.58054,0.395339,-0.167313
2.38792,0.0129208,-0.139069
2.56989,0.266026,0.150464
2.48627,0.135087,0.101443
2.52376,0.261252,-0.118189
2.457,0.133497,-0.128956
2.58665,0.267761,0.319298
2.48804,0.135184,0.203411
2.59159,0.397033,-0.106816
2.54228,0.138131,0.464207
2.59069,0.388106,-0.0457253
2.44379,0.124652,-0.0712136
2.53531,0.253952,0
2.39583,0.00501796,-0.027892
2.47371,0.247782,-0.386778
2.60687,0.390529,0.0153202
2.50095,0.250509,-0.270741
2.41183,0.00505147,0.0280783
2.51326,0.251742,-0.176623
2.4407,0.124495,-0.199506
2.61371,0.391555,0.0769154
2.4804,0.12652,0.0433518
2.57789,0.386188,-0.167057
2.56678,0.257104,0.150231
2.4867,0.126841,0.101443
2.57962,0.25839,0.318323
2.58103,0.386659,-0.106327
2.53486,0.129298,0.462772
2.58814,0.378031,-0.0456555
2.44822,0.115884,-0.07133
2.53225,0.244274,0
2.39184,-0.00375645,-0.0278455
2.47067,0.238335,-0.386163
2.42173,0.11463,-0.3086
2.59641,0.379238,0.0152505
2.49789,0.24096,-0.270313
2.37368,-0.00372794,-0.221579
2.50622,0.241764,-0.176065
2.43716,0.11536,-0.19918
2.60722,0.380818,0.0766826
2.56743,0.375006,-0.16629
2.55976,0.246929,0.149766
2.47917,0.117349,0.101117
2.52155,0.243242,-0.118003
2.44989,0.115963,-0.128537
2.5766,0.248553,0.317835
2.57848,0.37662,-0.106165
2.53139,0.119821,0.462054
2.57756,0.367301,-0.0454461
2.43663,0.106812,-0.0709809
2.52512,0.234693,0
2.39181,-0.0121061,-0.0278455
2.47149,0.229708,-0.386163
2.41815,0.106001,-0.308094
2.59375,0.369608,0.0152272
2.4576,0.107731,-0.0142973
2.48683,0.231134,-0.269028
2.39981,-0.0121466,0.0279386
2.4991,0.232274,-0.175507
2.43356,0.106677,-0.198855
2.60457,0.37115,0.0765663
2.46925,0.108242,0.0431423
2.56478,0.365478,-0.166034
2.37994,-0.012046,-0.138603
2.54868,0.236882,0.149068
2.47557,0.108518,0.100954
2.57745,0.239557,0.317835
2.47339,0.108423,0.202109
2.57582,0.367052,-0.106002
2.52,0.110466,0.459902
2.57481,0.358201,-0.0453763
2.42898,0.0984076,-0.0707482
2.52588,0.226318,0
2.4683,0.221159,-0.385548
2.591,0.360454,0.015204
2.47967,0.222177,-0.268171
2.39975,-0.0201041,0.0279386
2.49588,0.22363,-0.175228
2.42992,0.0984456,-0.198529
2.60579,0.362511,0.0765663
2.56202,0.356422,-0.165778
2.3719,-0.0198708,-0.138138
2.54547,0.228074,0.148836
2.46793,0.0999855,0.100628
2.50723,0.224647,-0.117258
2.44264,0.0989611,-0.128118
2.57823,0.231009,0.317835
2.46975,0.100059,0.201784
2.57307,0.357958,-0.105839
2.51249,0.101791,0.458467
2.57214,0.348224,-0.0453064
2.42533,0.0893564,-0.0706318
2.51474,0.216031,0
2.37967,-0.0286593,-0.0277058
2.46122,0.211433,-0.384319
2.58042,0.349344,0.0151342
2.45429,0.0904237,-0.0142741
2.4765,0.212746,-0.267743
2.53398,0.217684,0.0591814
2.39166,-0.0288038,0.0278455
2.48476,0.213456,-0.174391
2.59522,0.351348,0.0762172
2.46195,0.0907059,0.0430027
2.55144,0.345422,-0.16501
2.54231,0.2184,0.148603
2.46828,0.0909388,0.100628
2.50405,0.215113,-0.117072
2.43101,0.0895659,-0.12749
2.55928,0.219858,0.315398
2.46612,0.0908593,0.201458
2.56644,0.347452,-0.105513
2.50891,0.0924359,0.457749
2.51007,0.21563,-0.0586231
2.56937,0.338721,-0.0452366
2.51149,0.206924,0
2.36755,-0.0367788,-0.0275661
2.458,0.202517,-0.383704
2.57765,0.339813,0.015111
2.38355,-0.0370273,0.0277523
2.42259,0.0807893,-0.197878
2.5885,0.341242,0.0759845
2.54867,0.335992,-0.164755
2.53908,0.209197,0.148371
2.46059,0.0820565,0.100303
2.43131,0.0810801,-0.12749
2.55608,0.210597,0.31491
2.55575,0.336925,-0.105025
2.50922,0.0836781,0.457749
2.49885,0.205883,-0.058344
2.56249,0.329626,-0.045097
2.42187,0.0731483,-0.0705155
2.50415,0.1984,0
2.37143,-0.0442919,-0.0276127
2.45075,0.194169,-0.382474
2.39954,0.0724738,-0.305569
2.56681,0.330181,0.0150412
2.46993,0.195689,-0.266886
2.38342,-0.044516,0.0277523
2.47419,0.196026,-0.173554
2.41088,0.0728163,-0.196902
2.58163,0.332088,0.0757518
2.45051,0.0740133,0.0427933
2.5418,0.326964,-0.164243
2.36358,-0.0441454,-0.137673
2.52778,0.200272,0.147673
2.46084,0.0743252,0.100303
2.42756,0.0733202,-0.127281
2.55277,0.202252,0.314423
2.45471,0.0741402,0.200482
2.55283,0.328384,-0.104862
2.50553,0.0756752,0.457032
2.55977,0.31929,-0.0450272
2.41414,0.0636383,-0.0702827
2.5049,0.188784,0
2.36724,-0.0533066,-0.0275661
2.44753,0.184461,-0.381859
2.39583,0.0631557,-0.305064
2.46669,0.185905,-0.266457
2.51618,0.189635,0.0587162
2.37524,-0.0534867,0.0276592
2.47492,0.186525,-0.173554
2.57892,0.321678,0.0756354
2.44278,0.0643933,0.0426537
2.53907,0.316709,-0.163987
2.52455,0.190265,0.147441
2.45311,0.0646657,0.0999771
2.55749,0.192748,0.31491
2.45498,0.0647149,0.200482
2.55011,0.318085,-0.104699
2.49226,0.187831,-0.0581579
2.54896,0.30891,-0.0448178
2.41035,0.0551201,-0.0701664
2.36304,-0.061465,-0.0275195
2.44422,0.175633,-0.381244
2.55725,0.309914,0.0149715
2.46336,0.177009,-0.266029
2.51284,0.180564,0.0586231
2.37104,-0.061673,0.0276127
2.4676,0.177313,-0.172996
2.57208,0.311713,0.0754027
2.5362,0.307364,-0.163731
2.35521,-0.0612613,-0.137208
2.51723,0.18088,0.146975
2.44134,0.0558287,0.0994886
2.4829,0.178413,-0.115956
2.55022,0.18325,0.313935
2.4512,0.0560544,0.200157
2.54327,0.30822,-0.104373
2.48635,0.0568581,0.453444
2.48891,0.178844,-0.0580648
2.55002,0.30001,-0.0448178
2.40653,0.046628,-0.07005
2.398,0.1639,-0.67286
2.49019,0.170201,0
2.36281,-0.0697138,-0.0275195
2.55434,0.300518,0.0149482
2.4275,0.0470344,-0.0141113
2.45603,0.167866,-0.265172
2.36281,-0.0697138,0.0275195
2.46422,0.168426,-0.172717
2.56521,0.301797,0.0751699
2.53329,0.298042,-0.163475
2.51785,0.172091,0.146975
2.44551,0.0473833,0.0996514
2.47952,0.169472,-0.115769
2.41224,0.0467386,-0.126444
2.54293,0.173805,0.312961
2.4474,0.0474199,0.199831
2.54036,0.298873,-0.104211
2.48653,0.0481781,0.453444
2.54703,0.291099,-0.044748
2.40267,0.0385837,-0.0699336
2.48276,0.161424,0
2.34658,-0.0770234,-0.0273333
2.43353,0.158223,-0.379399
2.35457,-0.0772858,0.0274264
2.46078,0.159995,-0.172438
2.39971,0.0385361,-0.195926
2.52634,0.288734,-0.162964
2.51044,0.163223,0.14651
2.43367,0.0390814,0.0991629
2.47608,0.16099,-0.115583
2.5316,0.164599,0.311498
2.43558,0.0391122,0.198855
2.52942,0.289086,-0.103722
2.48275,0.0398695,0.452727
2.48608,0.161639,-0.0579717
2.54008,0.281325,-0.0446084
2.40279,0.0301959,-0.0699336
2.48331,0.152756,0
2.3383,-0.0849243,-0.0272401
2.42617,0.149241,-0.37817
2.37664,0.0298672,-0.302539
2.44521,0.150412,-0.263887
2.35829,-0.0856502,0.027473
2.45336,0.150914,-0.17188
2.39584,0.0301086,-0.1956
2.55529,0.283009,0.0748209
2.42344,0.0304554,0.0423046
2.51939,0.279034,-0.162452
2.50701,0.154213,0.146278
2.43778,0.0306357,0.0993258
2.47264,0.152099,-0.115397
2.5282,0.155517,0.311011
2.43172,0.0305594,0.198529
2.52644,0.279815,-0.103559
2.47893,0.0311528,0.45201
2.52907,0.271619,-0.0443989
2.39888,0.0221913,-0.0698173
2.47581,0.144056,0
2.33801,-0.0926775,-0.0272401
2.42271,0.140966,-0.377555
2.41186,0.0223113,-0.0140183
2.43775,0.141841,-0.26303
2.44986,0.142546,-0.171601
2.54826,0.273681,0.0745881
2.41553,0.0223453,0.042165
2.5084,0.269399,-0.161685
2.33022,-0.0923688,-0.135813
2.49156,0.144972,0.145348
2.42189,0.0224041,0.0986745
2.46515,0.143435,-0.115025
2.4006,0.0222072,-0.125816
2.5287,0.147133,0.311011
2.42782,0.022459,0.198204
2.51941,0.270582,-0.103234
2.46328,0.0227871,0.44914
2.47115,0.143784,-0.0575995
2.538,0.263172,-0.0445385
2.38295,0.0133089,-0.0693518
2.47233,0.134762,0
2.34165,-0.10142,-0.0272867
2.43428,0.132688,-0.262602
2.47965,0.135161,0.0577856
2.35363,-0.101939,0.0274264
2.43842,0.132913,-0.170764
2.54129,0.263513,0.0743554
2.50937,0.260203,-0.161685
2.32986,-0.100909,-0.135813
2.4841,0.135403,0.144882
2.41796,0.0135044,0.0985116
2.44571,0.133311,-0.114094
2.52129,0.137431,0.310036
2.4239,0.0135376,0.197878
2.52038,0.261345,-0.103234
2.46335,0.0137579,0.44914
2.47166,0.134726,-0.0575995
2.52299,0.252718,-0.0442593
2.38698,0.00499962,-0.0694682
2.46879,0.125928,0
2.32929,-0.109031,-0.027147
2.42679,0.123785,-0.261745
2.47212,0.126098,0.0575995
2.34527,-0.109779,0.0273333
2.4309,0.123995,-0.170206
2.5422,0.254642,0.0743554
2.50232,0.250647,-0.161173
2.48455,0.126732,0.144882
2.41399,0.00505619,0.0983488
2.45414,0.125181,-0.114467
2.50986,0.128023,0.308573
2.42393,0.005077,0.197878
2.51333,0.25175,-0.102908
2.46338,0.00515964,0.44914
2.51983,0.243965,-0.0441895
2.39099,-0.00292035,-0.0695846
2.45321,0.116979,0
2.32492,-0.116554,-0.0271004
2.40826,0.114835,-0.375095
2.52017,0.243998,0.0147158
2.42321,0.115548,-0.261317
2.47652,0.11809,0.0576926
2.3409,-0.117355,0.0272867
2.43129,0.115934,-0.170206
2.37609,-0.00290216,-0.193973
2.41163,-0.00294556,0.0420952
2.49519,0.241579,-0.160661
2.47698,0.118112,0.144417
2.41,-0.00294357,0.098186
2.45056,0.116852,-0.11428
2.51027,0.1197,0.308573
2.45552,-0.00299917,0.447705
2.51673,0.234356,-0.0441197
2.39096,-0.0116843,-0.0695846
2.44963,0.10781,0
2.32049,-0.12486,-0.0270539
2.40866,0.106007,-0.375095
2.35299,-0.0114988,-0.299508
2.39993,-0.0117282,-0.0139486
2.4117,0.106141,-0.260032
2.47294,0.108836,0.0575995
2.33247,-0.125505,0.0271936
2.41974,0.106495,-0.169369
2.37208,-0.0115921,-0.193647
2.39961,-0.0117266,0.0418858
2.3207,-0.124872,-0.135348
2.4774,0.109032,0.144417
2.40997,-0.0117773,0.098186
2.435,0.107166,-0.113536
2.50673,0.110323,0.308086
2.45156,-0.0119805,0.446987
2.50956,0.224856,-0.0439801
2.37491,-0.0198958,-0.0691191
2.44999,0.0992591,0
2.31604,-0.13273,-0.0270073
2.40112,0.0972792,-0.373865
2.35293,-0.0197117,-0.299508
2.38788,-0.0200044,-0.0138789
2.40808,0.0975612,-0.259603
2.46531,0.0998797,0.0574134
2.33601,-0.133875,0.0272401
2.36405,-0.0198048,-0.192997
2.39955,-0.0201022,0.0418858
2.31627,-0.132743,-0.135115
2.4658,0.0998994,0.14372
2.40992,-0.020189,0.098186
2.43536,0.0986663,-0.113536
2.49917,0.101251,0.307111
2.40392,-0.0201388,0.196251
2.49592,0.223634,-0.102094
2.43969,-0.0204385,0.444835
2.45332,0.0993941,-0.0571343
2.51033,0.216094,-0.0439801
2.36683,-0.0280914,-0.0688864
2.44632,0.0905578,0
2.31157,-0.140572,-0.0269608
2.40145,0.0888965,-0.373865
2.45365,0.0908291,0.0571343
2.32754,-0.141543,0.027147
2.41644,0.0894515,-0.16909
2.51762,0.216721,0.0735409
2.39547,-0.0284313,0.041816
2.47774,0.213288,-0.159382
2.30782,-0.140344,-0.13465
2.45815,0.0909955,0.143255
2.39385,-0.028412,0.0975347
2.42371,0.0897207,-0.112978
2.39985,-0.0284832,0.195926
2.48872,0.214234,-0.101768
2.44354,-0.0290019,0.445552
2.49904,0.207216,-0.0437706
2.37073,-0.0355864,-0.0690027
2.31511,-0.148088,-0.0270073
2.39381,0.0810846,-0.372635
2.49938,0.207244,0.0145763
2.38369,-0.035781,-0.0138556
2.39675,0.0811841,-0.258318
2.45792,0.0832562,0.0572273
2.32709,-0.148854,0.027147
2.40873,0.0815899,-0.168532
2.39137,-0.0358962,0.0417462
2.46241,0.0834082,0.143487
2.38975,-0.0358719,0.0973718
2.42398,0.0821064,-0.112978
2.36848,-0.0355527,-0.124141
2.49185,0.0844052,0.306136
2.4854,0.206085,-0.101605
2.43163,-0.0365007,0.4434
2.49978,0.198055,-0.0437706
2.36259,-0.0441255,-0.06877
2.42689,0.0733014,0
2.30258,-0.155762,-0.0268676
2.38619,0.0720721,-0.371406
2.3407,-0.0437168,-0.297993
2.50012,0.198082,0.0145763
2.37955,-0.0444422,-0.0138324
2.39703,0.0723996,-0.258318
2.45022,0.074006,0.0570412
2.31854,-0.156842,0.0270539
2.413,0.0728819,-0.168811
2.35177,-0.0439234,-0.19202
2.38722,-0.0445855,0.0416763
2.45472,0.0741419,0.143022
2.3896,-0.04463,0.0973718
2.42027,0.0731014,-0.112791
2.48023,0.0749125,0.304673
2.43542,-0.0454857,0.444117
2.49248,0.188724,-0.043631
2.35442,-0.0521956,-0.0685373
2.42314,0.0647221,0
2.30202,-0.163799,-0.0268676
2.38248,0.0636362,-0.370791
2.33657,-0.0517997,-0.297488
2.38932,0.0638189,-0.257461
2.45046,0.065452,0.0570412
2.32197,-0.165219,0.0271004
2.40926,0.0643514,-0.168532
2.38305,-0.0528302,0.0416065
2.29829,-0.163533,-0.134185
2.45496,0.0655722,0.143022
2.38144,-0.0527945,0.0970462
2.41252,0.0644386,-0.112419
2.48445,0.0663598,0.305161
2.43131,-0.0539001,0.4434
2.35023,-0.0603116,-0.0684209
2.41935,0.0561701,0
2.29745,-0.171536,-0.0268211
2.38269,0.055319,-0.370791
2.32844,-0.0597524,-0.296478
2.48549,0.17947,0.0144833
2.36718,-0.0607465,-0.0137626
2.38555,0.0553855,-0.257033
2.44268,0.0567118,0.0568551
2.31739,-0.173025,0.0270539
2.40149,0.0557554,-0.167974
2.37086,-0.0608409,0.0413971
2.28974,-0.17096,-0.13372
2.44719,0.0568166,0.142557
2.37325,-0.0609023,0.0967205
2.40474,0.0558311,-0.112047
2.4807,0.0575945,0.304673
2.41931,-0.0620842,0.441247
2.47778,0.170222,-0.0433518
2.34601,-0.0683985,-0.0683046
2.41153,0.0475669,0
2.29285,-0.179243,-0.0267745
2.37496,0.0468456,-0.369561
2.32822,-0.0678798,-0.296478
2.4861,0.170793,0.0144833
2.36695,-0.0690092,-0.0137626
2.37778,0.0469012,-0.256176
2.27911,-0.178169,-0.2134
2.43487,0.0480272,0.056669
2.3088,-0.18049,0.0269608
2.39768,0.0472937,-0.167695
2.28913,-0.178952,-0.13372
2.44738,0.048274,0.142557
2.37302,-0.0691861,0.0967205
2.40492,0.0474366,-0.112047
2.47294,0.0487783,0.303698
2.41514,-0.0704141,0.44053
2.47038,0.161051,-0.0432122
2.34975,-0.0767177,-0.0684209
2.40768,0.0390839,0
2.2962,-0.187571,-0.0268211
2.37116,0.038491,-0.368946
2.32003,-0.0757474,-0.295468
2.48269,0.161854,0.01446
2.3587,-0.0770099,-0.0137161
2.37793,0.0386009,-0.256176
2.43502,0.0395277,0.056669
2.30018,-0.187897,0.0268676
2.38985,0.0387944,-0.167137
2.37038,-0.077391,0.0413971
2.44976,0.159707,-0.157336
2.44354,0.0396659,0.142324
2.36478,-0.0772082,0.0963948
2.40108,0.0389767,-0.111861
2.46119,0.0399525,0.302236
2.41881,-0.0789725,0.441247
2.46294,0.151934,-0.0430725
2.34547,-0.0847749,-0.0683046
2.4038,0.0306283,0
2.28357,-0.194567,-0.0266814
2.36338,0.0301132,-0.367716
2.31579,-0.0837021,-0.294963
2.48324,0.153186,0.01446
2.37407,0.0302495,-0.255748
2.43114,0.0309767,0.056576
2.39396,0.0305029,-0.167416
2.3347,-0.0843856,-0.190718
2.36609,-0.0855202,0.0413273
2.44632,0.150909,-0.15708
2.28384,-0.19459,-0.133487
2.44366,0.0311361,0.142324
2.36849,-0.0856067,0.0965577
2.39721,0.0305442,-0.111675
2.34325,-0.0846946,-0.122885
2.45338,0.0312599,0.301261
2.46346,0.143336,-0.0430725
2.34117,-0.0928033,-0.0681882
2.4039,0.0222373,0
2.27889,-0.202183,-0.0266348
2.35951,0.0218267,-0.367101
2.31152,-0.091628,-0.294457
2.47577,0.144053,0.0144135
2.37019,0.0219254,-0.255319
2.42324,0.0224162,0.0563898
2.39006,0.0221093,-0.167137
2.36179,-0.0936205,0.0412575
2.43886,0.141905,-0.156568
2.36019,-0.0935571,0.096232
2.3973,0.0221762,-0.111675
2.33895,-0.0927153,-0.122675
2.44553,0.0226224,0.300286
2.45194,0.134509,-0.0428631
2.32887,-0.100052,-0.0678391
2.39996,0.0142418,0
2.27423,-0.209372,-0.0265882
2.35562,0.0139787,-0.366486
2.30724,-0.0991224,-0.293952
2.47224,0.135623,0.0143903
2.34979,-0.100951,-0.0136696
2.36627,0.0140419,-0.254891
2.4233,0.0143803,0.0563898
2.29016,-0.210839,0.0267745
2.38613,0.0141598,-0.166857
2.34947,-0.100937,0.0410481
2.26656,-0.208666,-0.132557
2.43184,0.014431,0.141627
2.35587,-0.101212,0.0960692
2.38537,0.0141553,-0.111116
2.44559,0.0145126,0.300286
2.39599,0.00543635,0
2.27743,-0.218088,-0.0266348
2.34775,0.00532689,-0.365256
2.30686,-0.107578,-0.293952
2.46873,0.126356,0.0143671
2.34142,-0.10919,-0.0136231
2.36631,0.00536899,-0.254891
2.41534,0.00548025,0.0562037
2.29335,-0.219613,0.0268211
2.37819,0.00539595,-0.166299
2.46373,0.126101,0.0717954
2.34909,-0.109548,0.0410481
2.26578,-0.216972,-0.132557
2.42788,0.0055087,0.141394
2.35149,-0.10966,0.0959064
2.3894,0.0054214,-0.111302
2.33027,-0.10867,-0.122257
2.44166,0.00553996,0.299799
2.31611,-0.116113,-0.06749
2.388,-0.00291749,0
2.27267,-0.225641,-0.0265882
2.35171,-0.00287315,-0.365871
2.29854,-0.115233,-0.292942
2.46116,0.117357,0.0143206
2.34102,-0.117362,-0.0136231
2.36631,-0.00289099,-0.254891
2.41135,-0.00294601,0.0561107
2.28859,-0.227222,0.0267745
2.3742,-0.00290063,-0.16602
2.46815,0.11769,0.0719118
2.3447,-0.117546,0.0409782
2.42825,0.115788,-0.155801
2.26501,-0.22488,-0.132557
2.33912,-0.117267,0.0954179
2.38142,-0.00290944,-0.11093
2.32588,-0.116603,-0.122047
2.42975,-0.0029685,0.298336
2.43725,0.107691,-0.0425839
2.31968,-0.124411,-0.0676064
2.38797,-0.0112531,0
2.26391,-0.232755,-0.0264951
2.33587,-0.0110076,-0.363412
2.46156,0.108765,0.0143206
2.35833,-0.0111135,-0.254034
2.27983,-0.234391,0.0266814
2.37418,-0.0111881,-0.16602
2.30899,-0.123838,-0.188766
2.45656,0.108545,0.0715627
2.34028,-0.125516,0.0409084
2.42067,0.106959,-0.155289
2.3387,-0.125431,0.0954179
2.38539,-0.0112409,-0.111116
2.32147,-0.124507,-0.121838
2.42576,-0.0114312,0.297849
2.4336,0.0994451,-0.0425141
2.31527,-0.131876,-0.06749
2.38392,-0.0191398,0
2.26313,-0.240261,-0.0264951
2.33187,-0.0187219,-0.362797
2.28978,-0.130424,-0.291932
2.45391,0.100275,0.0142741
2.33218,-0.132839,-0.0135766
2.35828,-0.0189339,-0.254034
2.37014,-0.0190291,-0.165741
2.30857,-0.131494,-0.188766
2.45291,0.100234,0.0714464
2.41702,0.0987677,-0.155033
2.33827,-0.133186,0.0954179
2.38134,-0.019119,-0.11093
2.42173,-0.0194433,0.297361
2.31479,-0.139957,-0.06749
2.38384,-0.0274611,0
2.26228,-0.248159,-0.0264951
2.33574,-0.026907,-0.363412
2.28535,-0.138177,-0.291427
2.44225,0.0912607,0.0142043
2.32372,-0.140496,-0.0135301
2.35422,-0.0271199,-0.253606
2.2742,-0.249467,0.0266348
2.36607,-0.0272563,-0.165462
2.45325,0.0916716,0.0714464
2.33538,-0.141201,0.0408386
2.41336,0.0901811,-0.154777
2.25066,-0.246885,-0.131859
2.41175,-0.0277826,0.140464
2.33779,-0.141347,0.0954179
2.4203,0.0904404,-0.0986745
2.3832,-0.0274537,-0.0554593
2.42622,0.0826058,-0.0423744
2.29835,-0.146614,-0.0670246
2.37974,-0.0353067,0
2.26144,-0.25566,-0.0264951
2.32379,-0.0344766,-0.361567
2.28092,-0.145502,-0.290922
2.44254,0.0831614,0.0142043
2.32324,-0.148201,-0.0135301
2.35015,-0.0348677,-0.253177
2.44954,0.0833997,0.07133
2.32692,-0.148436,0.040699
2.41365,0.0821776,-0.154777
2.40766,-0.0357209,0.140231
2.32534,-0.148335,0.0949294
2.30813,-0.147238,-0.12121
2.42155,-0.035927,0.297361
2.41659,0.0822779,-0.0985116
2.37909,-0.0352972,-0.0553663
2.42251,0.0735913,-0.0423046
2.2978,-0.155037,-0.0670246
2.37159,-0.0438807,0
2.25254,-0.263019,-0.026402
2.32364,-0.0429935,-0.361567
2.43883,0.0740871,0.0141811
2.3147,-0.156177,-0.0134836
2.34603,-0.0434076,-0.252749
2.44584,0.0742998,0.0712136
2.32237,-0.156694,0.0406292
2.40994,0.0732094,-0.154521
2.32877,-0.157126,0.0950922
2.29961,-0.155159,-0.120791
2.40552,-0.0445084,0.295411
2.41688,0.0734201,-0.0985116
2.41876,0.0650272,-0.0422348
2.28927,-0.16249,-0.0667919
2.36743,-0.0520708,0
2.25161,-0.27088,-0.026402
2.31953,-0.0510173,-0.360952
2.43908,0.0655735,0.0141811
2.38678,-0.0524964,0.0555524
2.26352,-0.272313,0.0265417
2.35368,-0.0517685,-0.164625
2.2906,-0.162585,-0.187464
2.44208,0.0656543,0.0710973
2.31782,-0.164517,0.0405594
2.40619,0.0646894,-0.154266
2.32422,-0.164971,0.0949294
2.40138,-0.0528176,0.294924
2.40913,0.0647684,-0.098186
2.42297,0.0566773,-0.0423046
2.29666,-0.171075,-0.0670246
2.37123,-0.0604363,0
2.24668,-0.278246,-0.0263554
2.31143,-0.0589123,-0.359722
2.27133,-0.169188,-0.289912
2.4273,0.0567785,0.0141113
2.3495,-0.0598824,-0.164346
2.4343,0.0569424,0.0708645
2.30925,-0.172012,0.0404198
2.39842,0.0561031,-0.153754
2.32363,-0.173083,0.0949294
2.29847,-0.171209,-0.120791
2.40118,-0.0611997,0.294924
2.40535,0.0562651,-0.0980231
2.28808,-0.178469,-0.0667919
2.36701,-0.0685972,0
2.2457,-0.286087,-0.0263554
2.31121,-0.0669803,-0.359722
2.42348,0.0482257,0.0140881
2.30496,-0.179785,-0.0134371
2.33352,-0.0676266,-0.251464
2.34529,-0.0679677,-0.164067
2.43449,0.0484448,0.0708645
2.30864,-0.180072,0.0404198
2.39461,0.0476513,-0.153498
2.39094,-0.0692909,0.139301
2.31903,-0.180882,0.0947666
2.29388,-0.178921,-0.120582
2.40095,-0.069581,0.294924
2.40553,0.0478685,-0.0980231
2.40731,0.0394981,-0.0420254
2.36675,-0.0768592,0
2.24468,-0.293924,-0.0263554
2.30702,-0.0749193,-0.359107
2.26614,-0.184718,-0.289407
2.41963,0.0397003,0.0140648
2.30033,-0.187505,-0.0134139
2.43064,0.039881,0.0707482
2.30799,-0.188129,0.0404198
2.39476,0.0392923,-0.153498
2.3867,-0.0775068,0.139069
2.30643,-0.188002,0.0942781
2.28926,-0.186602,-0.120373
2.39276,-0.0777038,0.293949
2.31261,-0.188506,0.189416
2.40168,0.0394058,-0.0978603
2.35812,-0.0765788,-0.054901
2.40743,0.0310948,-0.0420254
2.27881,-0.19376,-0.0665591
2.35448,-0.0846889,0
2.30674,-0.0829718,-0.359107
2.41976,0.031254,0.0140648
2.32504,-0.08363,-0.250607
2.24761,-0.302291,0.026402
2.33678,-0.0840523,-0.163509
2.42277,0.0312929,0.0705155
2.29935,-0.195507,0.0402802
2.3909,0.0308812,-0.153242
2.30576,-0.196052,0.0942781
2.28461,-0.194254,-0.120163
2.38454,-0.0857702,0.292974
2.39381,0.0309189,-0.0975347
2.40353,0.0226534,-0.0419556
2.27015,-0.201008,-0.0663264
2.35417,-0.092907,0
2.23069,-0.307947,-0.0262157
2.29854,-0.0907116,-0.357877
2.41185,0.0227318,0.0140183
2.33248,-0.0920513,-0.16323
2.27153,-0.20113,-0.186162
2.41887,0.022798,0.0703991
2.29467,-0.203179,0.0402103
2.38301,0.02246,-0.152731
2.30108,-0.203747,0.0941152
2.27994,-0.201875,-0.119954
2.38422,-0.0940932,0.292974
2.38991,0.022525,-0.0973718
2.39159,0.0141922,-0.0417462
2.2774,-0.209665,-0.0665591
2.35383,-0.101124,0
2.23356,-0.316292,-0.0262623
2.29426,-0.0985648,-0.357263
2.25223,-0.207347,-0.287892
2.40792,0.014289,0.0139951
2.23752,-0.316853,0.0263088
2.26684,-0.208692,-0.185836
2.41094,0.014307,0.0701664
2.28997,-0.210821,0.0401405
2.37908,0.0141179,-0.152475
2.30434,-0.212144,0.0942781
2.37992,-0.102245,0.292486
2.38998,0.0141826,-0.0973718
2.39563,0.00627177,-0.041816
2.26475,-0.216076,-0.0662101
2.34549,-0.108559,0
2.29392,-0.106172,-0.357263
2.39995,0.00628309,0.0139486
2.41097,0.00631194,0.0701664
2.28925,-0.218414,0.0401405
2.37512,0.00621808,-0.152219
2.36944,-0.109668,0.138138
2.29168,-0.218646,0.0937896
2.37956,-0.110136,0.292486
2.38202,0.00623614,-0.0970462
2.34086,-0.108345,-0.0545288
2.38764,-0.0020836,-0.0416763
2.26001,-0.223587,-0.0660937
2.3411,-0.116547,0
2.28959,-0.113982,-0.356648
2.38796,-0.00208389,0.0138789
2.34846,-0.116913,0.0547149
2.40698,-0.00210049,0.07005
2.2845,-0.22601,0.0400707
2.37113,-0.00206921,-0.151963
2.36107,-0.117541,0.137673
2.29091,-0.226644,0.0937896
2.3752,-0.118244,0.291999
2.29314,-0.226865,0.188115
2.37803,-0.00207522,-0.0968833
2.38761,-0.010418,-0.0416763
2.33269,-0.124292,0
2.22228,-0.338072,-0.0261692
2.28523,-0.121764,-0.356033
2.39194,-0.0104369,0.0139021
2.34803,-0.12511,0.0547149
2.31107,-0.12314,-0.161835
2.25664,-0.231211,-0.185186
2.40296,-0.0104849,0.0699336
2.28369,-0.233983,0.0400707
2.36712,-0.0103286,-0.151707
2.35267,-0.125357,0.137208
2.28613,-0.234232,0.0936268
2.26104,-0.231662,-0.119117
2.36684,-0.126112,0.291024
2.28837,-0.234462,0.187789
2.37401,-0.0103586,-0.0967205
2.32807,-0.124046,-0.0542496
2.38756,-0.0187523,-0.0416763
2.25044,-0.238516,-0.065861
2.32825,-0.132208,0
2.21318,-0.344597,-0.026076
2.28084,-0.129516,-0.355418
2.39589,-0.0188176,0.0139253
2.22504,-0.346443,0.0262157
2.31063,-0.131207,-0.161835
2.24789,-0.238246,-0.184535
2.38692,-0.0187472,0.0694682
2.28286,-0.241953,0.0400707
2.36707,-0.0185913,-0.151707
2.35222,-0.133569,0.137208
2.28529,-0.242211,0.0936268
2.36242,-0.134148,0.290537
2.36996,-0.018614,-0.0965577
2.37948,-0.0269956,-0.0415367
2.32777,-0.140334,0
2.21197,-0.35232,-0.026076
2.28038,-0.137477,-0.355418
2.23253,-0.244502,-0.285871
2.37581,-0.0269538,0.0138091
2.39083,-0.0271243,0.0695846
2.27803,-0.249485,0.0400009
2.37098,-0.0268991,-0.151963
2.28443,-0.250186,0.0936268
2.3659,-0.142633,0.291024
2.27875,-0.249564,0.187138
2.36589,-0.0268413,-0.0963948
2.32315,-0.140055,-0.0541566
2.37538,-0.0348274,-0.0414669
2.24876,-0.253829,-0.065861
2.3273,-0.148052,0
2.3757,-0.0348321,0.0138091
2.26557,-0.255727,-0.0132512
2.2901,-0.145686,-0.24718
2.38673,-0.0349938,0.0694682
2.27322,-0.256589,0.0399311
2.3629,-0.0346444,-0.151451
2.3393,-0.148816,0.13651
2.27962,-0.257312,0.0934639
2.35353,-0.149721,0.289562
2.36179,-0.0346281,-0.096232
2.31469,-0.147251,-0.0539705
2.37126,-0.0426324,-0.0413971
2.3228,-0.155502,0
2.26759,-0.151805,-0.353573
2.36758,-0.0425663,0.0137626
2.26471,-0.263238,-0.0132512
2.2896,-0.153279,-0.24718
2.32616,-0.155727,0.0542496
2.21353,-0.367638,0.0261226
2.29724,-0.15379,-0.160998
2.38261,-0.0428365,0.0693518
2.26838,-0.263664,0.0398613
2.35878,-0.0424081,-0.151196
2.33879,-0.156573,0.13651
2.27082,-0.263947,0.0931383
2.35698,-0.15779,0.290049
2.27308,-0.264211,0.186813
2.36565,-0.0425317,-0.0963948
2.30621,-0.154391,-0.0537844
2.36308,-0.0515625,-0.0412575
2.23498,-0.268483,-0.0655119
2.3182,-0.164137,0
2.3714,-0.051744,0.0137859
2.32156,-0.164375,0.0541566
2.28867,-0.162046,-0.16044
2.37443,-0.0518102,0.0691191
2.26735,-0.272372,0.0398613
2.35062,-0.0512906,-0.150684
2.33419,-0.16527,0.136278
2.26979,-0.272665,0.0931383
2.24079,-0.269182,-0.118279
2.34844,-0.166278,0.289074
2.26809,-0.272461,0.186487
2.35748,-0.0514405,-0.0960692
2.3056,-0.163245,-0.0537844
2.30966,-0.171232,0
2.36321,-0.0594065,0.0137394
2.20296,-0.382101,0.0260295
2.28414,-0.16934,-0.160161
2.2585,-0.278909,0.0397217
2.32965,-0.172714,0.136045
2.2649,-0.2797,0.0929754
2.23592,-0.276121,-0.11807
2.34392,-0.173772,0.288587
2.3533,-0.0591574,-0.0959064
2.23315,-0.2833,-0.0655119
2.30509,-0.178581,0
2.18986,-0.387314,-0.0258898
2.26193,-0.175237,-0.352958
2.35501,-0.0670154,0.0136929
2.20168,-0.389404,0.0260295
2.28754,-0.177222,-0.16044
2.22669,-0.282481,-0.183233
2.25359,-0.285894,0.0396519
2.34224,-0.0666522,-0.150172
2.32508,-0.18013,0.135813
2.26396,-0.287209,0.0929754
2.34333,-0.181543,0.288587
2.3491,-0.0668472,-0.0957435
2.2965,-0.177915,-0.0535983
2.35044,-0.0750975,-0.0410481
2.22422,-0.29006,-0.0652792
2.30446,-0.186627,0
2.25737,-0.182813,-0.352343
2.27138,-0.183948,-0.245466
2.3118,-0.187222,0.0539705
2.28293,-0.184884,-0.160161
2.3578,-0.0753325,0.0686537
2.342,-0.0748277,-0.150172
2.31648,-0.1876,0.135348
2.23399,-0.291334,-0.11807
2.33872,-0.189402,0.288099
2.28789,-0.185285,-0.0534122
2.35015,-0.0837119,-0.0410481
2.35047,-0.0837232,0.0136696
2.22066,-0.297877,-0.182907
2.35351,-0.0838315,0.0685373
2.24752,-0.301481,0.0395821
2.33772,-0.083269,-0.149916
2.3118,-0.195752,0.135115
2.25393,-0.30234,0.0926498
2.32614,-0.196967,0.286637
2.25227,-0.302117,0.185511
2.34457,-0.0835129,-0.0955807
2.28719,-0.193669,-0.0534122
2.34586,-0.0913491,-0.0409782
2.21422,-0.304491,-0.0650464
2.29513,-0.202009,0
2.34219,-0.0912059,0.0136231
2.30247,-0.202655,0.0537844
2.18962,-0.410962,0.0259363
2.27364,-0.200117,-0.159603
2.35721,-0.0917911,0.0686537
2.24651,-0.308932,0.0395821
2.32945,-0.09071,-0.149405
2.31113,-0.203417,0.135115
2.24895,-0.309268,0.0924869
2.32548,-0.20468,0.286637
2.2473,-0.309041,0.185186
2.34428,-0.0912873,-0.0955807
2.28256,-0.200902,-0.0533191
2.34152,-0.0997763,-0.0409084
2.21704,-0.313164,-0.0651628
2.2864,-0.209689,0
2.34583,-0.0999601,0.0136464
2.21063,-0.312257,-0.182256
2.34488,-0.0999195,0.0683046
2.32113,-0.0989074,-0.148893
2.31037,-0.211887,0.135115
2.2478,-0.317509,0.0924869
2.31681,-0.212477,0.285662
2.32795,-0.0991983,-0.0949294
2.28579,-0.209632,-0.0534122
2.3372,-0.106949,-0.0408386
2.20813,-0.318984,-0.0649301
2.23278,-0.322545,-0.0131117
2.29706,-0.217945,0.0536913
2.18284,-0.425092,0.0258898
2.26428,-0.214835,-0.159045
2.34056,-0.107103,0.0681882
2.23644,-0.323073,0.0394424
2.30884,-0.105652,-0.148126
2.30175,-0.21839,0.13465
2.24679,-0.324569,0.0924869
2.31613,-0.219754,0.285662
2.32364,-0.106329,-0.0947666
2.27715,-0.216056,-0.0532261
2.33282,-0.11491,-0.0407688
2.20701,-0.32669,-0.0649301
2.28496,-0.224848,0
2.2342,-0.219853,-0.349269
2.32914,-0.114729,0.0135534
2.2923,-0.22557,0.0535983
2.17742,-0.431931,0.0258432
2.26351,-0.222737,-0.159045
2.20457,-0.326328,-0.181931
2.23134,-0.330292,0.0393726
2.31643,-0.114103,-0.148637
2.29302,-0.225641,0.134185
2.33124,-0.114832,-0.0950922
2.27241,-0.223612,-0.053133
2.32841,-0.122842,-0.040699
2.2019,-0.333792,-0.0648137
2.28019,-0.232417,0
2.24729,-0.229064,-0.243325
2.27957,-0.232354,0.0533191
2.25478,-0.229828,-0.158487
2.33177,-0.123019,0.0679555
2.23018,-0.338079,0.0393726
2.31204,-0.121978,-0.148382
2.28825,-0.233239,0.133952
2.23657,-0.339048,0.0921613
2.26579,-0.23095,-0.106091
2.32284,-0.122548,-0.0947666
2.27559,-0.231949,-0.0532261
2.31195,-0.130877,-0.0404198
2.19665,-0.34163,-0.0646974
2.2753,-0.24075,0
2.32424,-0.131573,0.0135301
2.27866,-0.241105,0.0533191
2.24992,-0.238064,-0.158208
2.22491,-0.346025,0.0393028
2.30358,-0.130403,-0.14787
2.28733,-0.242023,0.133952
2.22735,-0.346405,0.0918356
2.20641,-0.343148,-0.117023
2.31437,-0.131014,-0.0944409
2.27071,-0.240264,-0.053133
2.31951,-0.138617,-0.0405594
2.19952,-0.349156,-0.0648137
2.27055,-0.247463,0
2.31583,-0.138397,0.0134836
2.26994,-0.247396,0.053133
2.16104,-0.452251,0.0257035
2.24122,-0.244266,-0.15765
2.21986,-0.352386,0.039233
2.29917,-0.137401,-0.147614
2.28259,-0.248775,0.13372
2.22625,-0.353401,0.0918356
2.30597,-0.137808,-0.0941152
2.26596,-0.246963,-0.05304
2.31502,-0.14646,-0.0404896
2.19434,-0.356191,-0.0646974
2.26968,-0.255387,0
2.21913,-0.2497,-0.347424
2.26509,-0.254871,0.05304
2.15553,-0.458959,0.0256569
2.24432,-0.252534,-0.157929
2.21467,-0.359492,0.0391632
2.29071,-0.144922,-0.147102
2.25531,-0.25377,-0.105719
2.2975,-0.145351,-0.0937896
2.18507,-0.363303,-0.0644646
2.26471,-0.263638,0
2.23193,-0.259822,-0.242039
2.27204,-0.264491,0.0532261
2.14984,-0.466384,0.0256104
2.23937,-0.260689,-0.15765
2.21327,-0.367993,0.0391632
2.29014,-0.153717,-0.147102
2.26484,-0.263654,0.13279
2.21966,-0.369055,0.0916728
2.30091,-0.15444,-0.0939524
2.25615,-0.262642,-0.0528539
2.29399,-0.161216,-0.0401405
2.17997,-0.369497,-0.0643483
2.30228,-0.161799,0.0134139
2.2232,-0.265888,-0.241183
2.25134,-0.269253,0.0527608
2.23458,-0.267249,-0.157371
2.21211,-0.374944,0.0391632
2.28168,-0.160351,-0.146591
2.264,-0.270768,0.13279
2.21849,-0.376026,0.0916728
2.29643,-0.161387,-0.0937896
2.25134,-0.269253,-0.0527608
2.30139,-0.169811,-0.0402802
2.18655,-0.378468,-0.064581
2.24306,-0.276208,0
2.29771,-0.16954,0.0133907
2.25833,-0.278088,0.0529469
2.22571,-0.274072,-0.156813
2.30476,-0.17006,0.0672573
2.28111,-0.168315,-0.146591
2.25908,-0.278181,0.132557
2.29585,-0.169402,-0.0937896
2.25039,-0.27711,-0.0527608
2.30075,-0.178245,-0.0402802
2.17727,-0.385087,-0.0643483
2.24203,-0.284427,0
2.14103,-0.487609,-0.0255638
2.29708,-0.17796,0.0133907
2.25729,-0.286363,0.0529469
2.22074,-0.281726,-0.156534
2.27649,-0.176366,-0.146335
2.25805,-0.286459,0.132557
2.20394,-0.389804,0.0911843
2.2396,-0.284119,-0.10516
2.27927,-0.176581,-0.0931383
2.28819,-0.184907,-0.0400707
2.17992,-0.393015,-0.0644646
2.24108,-0.29186,0
2.29249,-0.185255,0.0133674
2.2484,-0.292814,0.0527608
2.21583,-0.288573,-0.156255
2.19625,-0.39596,0.0389538
2.27192,-0.183592,-0.146079
2.1987,-0.396401,0.0910215
2.27868,-0.184138,-0.0931383
2.27956,-0.192221,-0.0399311
2.16674,-0.398452,-0.0641155
2.23608,-0.299151,0
2.12987,-0.500341,-0.0254707
2.28386,-0.192584,0.0133209
2.24736,-0.300661,0.0527608
2.21481,-0.296306,-0.156255
2.18699,-0.402177,0.0388142
2.24417,-0.300233,0.131859
2.27404,-0.191756,-0.0929754
2.23151,-0.29854,-0.0523886
2.27888,-0.200177,-0.0399311
2.16533,-0.406013,-0.0641155
2.12033,-0.505916,-0.0253776
2.20641,-0.303025,-0.239897
2.23442,-0.306871,0.0524816
2.21376,-0.304035,-0.156255
2.29021,-0.201173,0.0669082
2.26263,-0.19875,-0.145567
2.22072,-0.304991,-0.104416
2.27335,-0.199692,-0.0929754
2.27016,-0.2078,-0.0397915
2.16776,-0.414698,-0.0642319
2.222,-0.313468,0
2.28242,-0.208921,0.0133209
2.22932,-0.3145,0.0523886
2.20078,-0.310475,-0.155417
2.18798,-0.418568,0.038884
2.25393,-0.206314,-0.145056
2.24592,-0.316842,0.132092
2.26863,-0.207659,-0.0928126
2.26942,-0.215723,-0.0397915
2.1663,-0.422262,-0.0642319
2.22485,-0.321795,0
2.27769,-0.216509,0.0132977
2.19631,-0.317667,-0.239041
2.23216,-0.322853,0.0524816
2.19968,-0.318155,-0.155417
2.2532,-0.21418,-0.145056
2.23294,-0.322965,0.131394
2.21848,-0.320874,-0.104416
2.25993,-0.21482,-0.0924869
2.26475,-0.22246,-0.0397217
2.16496,-0.429066,-0.0642319
2.21591,-0.327613,0
2.23114,-0.329863,0.0524816
2.19078,-0.323897,-0.154859
2.17731,-0.431515,0.0387443
2.23192,-0.329979,0.131394
2.20956,-0.326673,-0.104044
2.25527,-0.221528,-0.0923241
2.15953,-0.435829,-0.0641155
2.22267,-0.336543,0
2.26825,-0.2308,0.0132512
2.18629,-0.331035,-0.238184
2.22602,-0.337051,0.0523886
2.19753,-0.332737,-0.155417
2.27131,-0.231111,0.0664428
2.17187,-0.438321,0.0386745
2.20841,-0.334384,-0.104044
2.25846,-0.229804,-0.0924869
2.25515,-0.237822,-0.0395821
2.14617,-0.441325,-0.0637664
2.20956,-0.342848,0
2.26739,-0.239112,0.0132512
2.18899,-0.339656,-0.238612
2.21291,-0.343368,0.0521094
2.18446,-0.338953,-0.15458
2.15458,-0.443056,0.0383953
2.23897,-0.236115,-0.144288
2.19532,-0.340638,-0.103485
2.25362,-0.237661,-0.0923241
2.25435,-0.245299,-0.0395821
2.14469,-0.44844,-0.0637664
2.20446,-0.349546,0
2.27056,-0.247063,0.0132744
2.21571,-0.351331,0.0522025
2.18333,-0.346195,-0.15458
2.23817,-0.243538,-0.144288
2.22045,-0.352082,0.130929
2.20207,-0.349168,-0.103857
2.24885,-0.2447,-0.0921613
2.25343,-0.25356,-0.0395821
2.14694,-0.45713,-0.0638828
2.19922,-0.356983,0
2.25771,-0.254041,0.0132047
2.21441,-0.359449,0.0522025
2.18598,-0.354835,-0.154859
2.24123,-0.252186,-0.144544
2.21915,-0.360218,0.130929
2.19683,-0.356596,-0.103671
2.23999,-0.252047,-0.0918356
2.24459,-0.260502,-0.0394424
2.14143,-0.463775,-0.0637664
2.2019,-0.365312,0
2.25681,-0.261921,0.0132047
2.2092,-0.366522,0.0521094
2.17686,-0.361157,-0.154301
2.19557,-0.364263,-0.103671
