2.70182,0.649648,-0.0808717
2.70772,0.512609,0.0320828
2.70702,0.6509,-0.145913
2.70796,0.641133,-0.080988
2.70949,0.503153,-0.0320828
2.71736,0.504614,0.032176
2.71294,0.503794,-0.160696
2.70228,0.630332,-0.0807553
2.71115,0.494165,-0.0320828
2.71115,0.494165,0.0320828
2.70068,0.61953,-0.080639
2.71688,0.484928,-0.0321294
2.70957,0.621571,-0.0161571
2.71294,0.484225,0.0320828
2.71246,0.48414,-0.160464
2.70389,0.761048,-0.130846
2.69892,0.609218,-0.0805226
2.70947,0.752419,0
2.71067,0.474062,0.0320363
2.7102,0.47398,-0.160231
2.71732,0.613371,0.113492
2.69113,0.747328,-0.130101
2.70483,0.601133,-0.080639
2.70423,0.741316,0
2.71223,0.465071,-0.0320363
2.70852,0.464436,-0.256526
2.70829,0.464395,0.0319897
2.71544,0.60349,0.113329
2.68974,0.737344,-0.129915
2.70691,0.591688,-0.080639
2.69908,0.729784,0
2.71778,0.456264,-0.0320828
2.71384,0.455602,0.0320363
2.71753,0.594008,0.113329
2.70001,0.730037,-0.130287
2.70896,0.582235,-0.080639
2.70548,0.721388,0
2.71146,0.445477,-0.0319897
2.70752,0.444828,0.0319431
2.71752,0.584074,0.0485177
2.71959,0.584518,0.113329
2.69868,0.719577,-0.130101
2.71098,0.572776,-0.080639
2.70798,0.711941,0
2.713,0.43601,-0.0319897
2.70425,0.571355,-0.0160641
2.70905,0.435375,0.0319431
2.69752,0.709192,-0.195039
2.70504,0.711169,-0.130287
2.70513,0.561684,-0.0804062
2.7027,0.700477,0
2.71056,0.425917,-0.0319431
2.70016,0.560651,-0.351026
2.71015,0.562726,-0.0160874
2.71451,0.426538,0.0319897
2.69998,0.699772,-0.195039
2.71969,0.564706,0.113166
2.69924,0.550639,-0.0801735
2.69738,0.689058,0
2.71993,0.417666,-0.0320363
2.7021,0.551222,-0.351026
2.71203,0.416452,0.0319431
2.69468,0.688367,-0.194481
2.71552,0.416988,-0.159999
2.71773,0.55441,0.113003
2.7022,0.690289,-0.129915
2.70706,0.552233,0.225542
2.70106,0.822705,-0.0492856
2.70497,0.542472,-0.0802899
2.70353,0.681087,0
2.70548,0.406269,-0.03185
2.70002,0.541479,-0.350521
2.70944,0.406863,0.0318966
2.70081,0.680403,-0.19476
2.70887,0.543254,-0.225542
2.70447,0.681325,-0.129915
2.70022,0.811647,-0.0492158
2.70302,0.531781,-0.0801735
2.70601,0.671173,0
2.71882,0.398088,-0.0319897
2.6942,0.530046,-0.34951
2.71589,0.534314,-0.0160874
2.71882,0.398088,0.0319897
2.69941,0.669538,-0.194481
2.71553,0.534242,0.0483083
2.69537,0.799941,-0.0490762
2.70486,0.522343,-0.0801735
2.71222,0.662673,0
2.71228,0.387464,-0.0318966
2.69993,0.521391,-0.350016
2.71381,0.524073,-0.0160641
2.71624,0.38803,0.0319431
2.70174,0.660112,-0.194481
2.71345,0.524002,0.0482385
2.71578,0.387964,-0.159766
2.71946,0.525163,0.112841
2.69738,0.800537,-0.114632
2.69417,0.789874,-0.0490064
2.69872,0.511881,-0.0799408
2.71051,0.652739,0
2.71751,0.379021,-0.0319431
2.69775,0.511696,-0.34951
2.71161,0.514326,-0.0160409
2.71355,0.378468,0.0318966
2.70003,0.650215,-0.194202
2.7191,0.515746,0.0483083
2.71705,0.378957,-0.159766
2.71726,0.515397,0.112678
2.70758,0.652032,-0.129729
2.69235,0.78934,-0.114306
2.70075,0.781576,-0.0490762
2.70442,0.503188,-0.0800572
2.70888,0.64235,0
2.71485,0.368993,-0.0318966
2.69952,0.502276,-0.34951
2.71339,0.504856,-0.0160409
2.71089,0.368454,0.03185
2.70228,0.640785,-0.194202
2.71836,0.369469,-0.159766
2.72297,0.50664,0.112841
2.71227,0.50465,0.225217
2.69509,0.779936,-0.114306
2.69962,0.771046,-0.0490064
2.70616,0.493746,-0.0800572
2.70721,0.631982,0
2.70819,0.358465,-0.0318034
2.70125,0.49285,-0.34951
2.70768,0.773348,0.0163664
2.71907,0.4961,-0.0160641
2.71216,0.35899,0.03185
2.7045,0.631349,-0.194202
2.71567,0.359455,-0.159533
2.72079,0.496415,0.112678
2.69395,0.769427,-0.114143
2.70216,0.76209,-0.0490064
2.69991,0.48336,-0.0798244
2.70539,0.622105,0
2.71333,0.349995,-0.03185
2.69897,0.483191,-0.349005
2.69868,0.761108,0.0162966
2.71282,0.485672,-0.0160176
2.72127,0.351018,0.0319431
2.70269,0.621484,-0.193923
2.71172,0.485475,-0.224891
2.70636,0.622327,-0.129357
2.70033,0.761574,-0.114306
2.69325,0.749436,-0.0487969
2.70946,0.475314,-0.0800572
2.71145,0.61354,0
2.72248,0.341516,-0.0319431
2.69673,0.473081,-0.3485
2.70903,0.753827,0.0163431
2.71056,0.475507,-0.0159944
2.71851,0.341018,0.0318966
2.70095,0.611165,-0.193644
2.72201,0.477516,0.0482385
2.71409,0.340465,-0.159301
2.71855,0.615146,0.162324
2.72017,0.477193,0.112515
2.70851,0.612875,-0.129357
2.69913,0.751072,-0.114143
2.70682,0.612491,-0.0645785
2.69983,0.740617,-0.0488667
2.69936,0.46335,-0.0797081
2.71368,0.603597,0
2.71577,0.330568,-0.03185
2.70235,0.463864,-0.349005
2.71623,0.466245,-0.0160176
2.69419,0.599262,-0.297301
2.7121,0.330122,-0.255039
2.71295,0.603434,0.0646715
2.71577,0.330568,0.03185
2.70318,0.60126,-0.193644
2.7198,0.466859,0.0481686
2.68702,0.737101,-0.178569
2.71532,0.330514,-0.159301
2.71689,0.60431,0.162092
2.7219,0.467219,0.112515
2.70186,0.741173,-0.114143
2.69854,0.730144,-0.0487969
2.70796,0.592412,0
2.71293,0.320618,-0.0318034
2.70004,0.453771,-0.3485
2.70663,0.732333,0.0162966
2.71389,0.456099,-0.0159944
2.70015,0.590704,-0.29773
2.70896,0.320148,0.0317569
2.70136,0.590968,-0.193365
2.69343,0.728761,-0.178825
2.72043,0.321503,-0.159533
2.71898,0.594823,0.162092
2.71563,0.456391,0.112189
2.70893,0.592624,-0.12917
2.70443,0.731738,-0.114143
2.70095,0.721191,-0.0487969
2.71034,0.446265,-0.0799408
2.70991,0.583428,0
2.71796,0.312075,-0.03185
2.70545,0.445459,-0.349005
2.70904,0.723352,0.0162966
2.71934,0.447746,-0.0160176
2.7021,0.581746,-0.29773
2.71398,0.311619,0.0318034
2.70331,0.582006,-0.193365
2.71037,0.446269,-0.22424
2.69197,0.718794,-0.178569
2.71713,0.447382,0.112189
2.69526,0.719672,-0.113655
2.70357,0.711287,-0.0487969
2.70801,0.435693,-0.0798244
2.70811,0.572664,0
2.71511,0.30167,-0.0318034
2.69923,0.43428,-0.347995
2.70394,0.711384,0.0162501
2.71701,0.437141,-0.0159944
2.70421,0.571839,-0.29773
2.71511,0.30167,0.0318034
2.70152,0.571269,-0.193086
2.70671,0.712112,0.0814535
2.72059,0.437717,0.0480988
2.68687,0.706892,-0.178058
2.71864,0.302062,-0.159301
2.71916,0.575,0.161859
2.7227,0.438056,0.112352
2.70174,0.710806,-0.113818
2.70604,0.701845,-0.0487969
2.70952,0.426237,-0.0798244
2.72012,0.292618,-0.03185
2.69681,0.424238,-0.34749
2.70253,0.700936,0.0162269
2.71062,0.42641,-0.0159479
2.6984,0.560777,-0.296873
2.71614,0.29219,0.0318034
2.7074,0.562647,-0.193365
2.69318,0.69851,-0.178314
2.71967,0.29257,-0.159301
2.72026,0.427927,0.112189
2.70034,0.700367,-0.113655
2.71328,0.563868,-0.0644854
2.70448,0.691877,-0.0487271
2.71195,0.554218,0
2.72108,0.283596,-0.03185
2.69428,0.414689,-0.346985
2.69709,0.689988,0.0161804
2.71202,0.41742,-0.0159479
2.69635,0.55103,-0.296445
2.7174,0.283214,-0.255039
2.71905,0.555669,0.0645785
2.7171,0.283182,0.0318034
2.70534,0.552868,-0.193086
2.71956,0.41858,0.048029
2.70322,0.691555,-0.178825
2.72063,0.28355,-0.159301
2.72301,0.556478,0.161859
2.72167,0.418905,0.112189
2.70901,0.553617,-0.128798
2.70265,0.691409,-0.113655
2.71122,0.554068,-0.0643924
2.69912,0.680477,-0.0485875
2.70445,0.406597,-0.0795917
2.70602,0.543174,0
2.72205,0.274097,-0.03185
2.70356,0.406463,-0.347995
2.71112,0.683503,0.0162501
2.71346,0.407951,-0.0159479
2.69826,0.541615,-0.296445
2.71838,0.273727,-0.255039
2.71409,0.273295,0.0317569
2.70334,0.542636,-0.192807
2.7139,0.684203,0.0814535
2.721,0.409085,0.048029
2.70175,0.681139,-0.178569
2.7216,0.274052,-0.159301
2.71916,0.408808,0.112026
2.71093,0.544158,-0.128798
2.70117,0.680994,-0.113492
2.70148,0.671051,-0.0485875
2.70981,0.397734,-0.0797081
2.71183,0.534498,0
2.72299,0.264593,-0.03185
2.70496,0.397022,-0.347995
2.70961,0.67307,0.0162269
2.71487,0.398476,-0.0159479
2.70403,0.532962,-0.296873
2.71503,0.263819,0.0317569
2.70522,0.533196,-0.192807
2.70463,0.671833,0.0811044
2.72241,0.399584,0.048029
2.70411,0.671704,-0.178569
2.71662,0.398733,0.111864
2.71281,0.534691,-0.128798
2.70353,0.67156,-0.113492
2.7038,0.661617,-0.0485875
2.71514,0.38884,-0.0798244
2.70975,0.524269,0
2.71593,0.254341,-0.0317569
2.69455,0.385891,-0.34648
2.70417,0.661707,0.0161804
2.71624,0.388998,-0.0159479
2.70588,0.52352,-0.296873
2.71593,0.254341,0.0317569
2.71098,0.524508,-0.193086
2.70696,0.662389,0.0811044
2.71983,0.389512,0.0479592
2.6948,0.659415,-0.177802
2.72345,0.255045,-0.159301
2.72195,0.389815,0.112026
2.70586,0.66212,-0.113492
2.70221,0.651238,-0.0485177
2.71156,0.514806,0
2.72079,0.245217,-0.0318034
2.69981,0.377031,-0.346985
2.70646,0.652263,0.0161804
2.71362,0.37896,-0.0159246
2.69988,0.512587,-0.296016
2.7168,0.244858,0.0317569
2.71314,0.653872,0.0812208
2.72118,0.380015,0.0479592
2.69709,0.650003,-0.177802
2.72035,0.245177,-0.159068
2.72329,0.380311,0.112026
2.70427,0.651733,-0.113329
2.70447,0.641801,-0.0485177
2.71334,0.505337,0
2.71764,0.235373,-0.0317569
2.69717,0.367069,-0.34648
2.70094,0.640964,0.0161339
2.71889,0.370024,-0.0159479
2.70165,0.503159,-0.296016
2.71796,0.235401,-0.254667
2.72047,0.506665,0.0643924
2.72163,0.235718,0.0318034
2.71066,0.504837,-0.192807
2.71151,0.643473,0.0811044
2.72645,0.371053,0.048029
2.70322,0.641506,-0.178058
2.72446,0.507407,0.161394
2.72064,0.370263,0.111864
2.71433,0.505522,-0.128612
2.71782,0.369879,0.223915
2.70653,0.642289,-0.113329
2.71654,0.505933,-0.0642993
2.70658,0.632831,-0.0485177
2.715,0.496339,0
2.71841,0.226361,-0.0317569
2.70231,0.358646,-0.346985
2.71474,0.634738,0.0162036
2.72407,0.361534,-0.0159711
2.7033,0.494199,-0.296016
2.71873,0.226388,-0.254667
2.72214,0.497643,0.0643924
2.71442,0.226029,0.0317103
2.70447,0.494412,-0.192249
2.71363,0.63448,0.0811044
2.7237,0.361485,0.0479592
2.70534,0.63254,-0.178058
2.72186,0.36124,0.111864
2.71508,0.360341,0.22359
2.70864,0.633312,-0.113329
2.70098,0.621584,-0.0483781
2.70834,0.34983,-0.0794753
2.71278,0.486152,0
2.71519,0.216552,-0.0317103
2.71142,0.350227,-0.347995
2.70524,0.622566,0.0161339
2.71341,0.350485,-0.0159014
2.7011,0.484058,-0.295588
2.70617,0.484968,-0.192249
2.70414,0.622313,0.0807553
2.70364,0.622197,-0.177802
2.72273,0.217153,-0.159068
2.7231,0.351736,0.111864
2.69915,0.621164,-0.112841
2.70703,0.613035,-0.0484479
2.70955,0.340374,-0.0794753
2.7184,0.477371,0
2.71593,0.207072,-0.0317103
2.70475,0.339771,-0.346985
2.7035,0.612235,0.0161106
2.71462,0.34101,-0.0159014
2.70669,0.475313,-0.296016
2.71593,0.207072,0.0317103
2.70392,0.474828,-0.19197
2.71753,0.341376,-0.22359
2.7102,0.613752,0.0808717
2.71822,0.341463,0.0478196
2.7019,0.611873,-0.177546
2.72347,0.207647,-0.159068
2.7256,0.478635,0.161161
2.72431,0.342228,0.111864
2.71887,0.341545,-0.14361
2.7052,0.61262,-0.113003
2.71767,0.477242,-0.0642063
2.70515,0.603185,-0.0483781
2.70815,0.466318,0
2.7166,0.198065,-0.0317103
2.70192,0.330318,-0.34648
2.70161,0.602396,0.0160874
2.71176,0.331522,-0.0158782
2.69649,0.464311,-0.294731
2.72318,0.468906,0.0642993
2.72059,0.198356,0.0317569
2.70941,0.466536,-0.192249
2.70831,0.603892,0.0807553
2.72331,0.332933,0.0478894
2.70391,0.60291,-0.177546
2.72414,0.198615,-0.159068
2.72324,0.468917,0.160929
2.7294,0.333678,0.112026
2.70722,0.603646,-0.113003
2.71529,0.467549,-0.0641132
2.71135,0.593648,-0.0484479
2.71781,0.457243,0
2.72134,0.187908,-0.0317569
2.70711,0.320407,-0.346985
2.70781,0.592873,0.0161106
2.71699,0.321576,-0.0159014
2.7061,0.455273,-0.295588
2.71769,0.187656,-0.254295
2.72101,0.457782,0.0642063
2.72134,0.187908,0.0317569
2.71452,0.594343,0.0808717
2.72854,0.322943,0.0479592
2.70621,0.592523,-0.177546
2.71875,0.321785,0.111538
2.71595,0.321453,0.223264
2.70951,0.593246,-0.113003
2.71707,0.457119,-0.0641132
2.70548,0.582971,-0.0483083
2.70427,0.310983,-0.544422
2.71141,0.446928,0
2.72194,0.178884,-0.0317569
2.70816,0.31143,-0.346985
2.71367,0.584735,0.0161339
2.71804,0.312567,-0.0159014
2.69974,0.445005,-0.294731
2.72227,0.178905,-0.254667
2.71857,0.448108,0.0641132
2.71795,0.178622,0.0317103
2.70875,0.446489,-0.19197
2.71257,0.584497,0.0807553
2.72562,0.313438,0.0478894
2.70426,0.582707,-0.17729
2.72377,0.313226,0.111701
2.71636,0.447744,-0.12824
2.72646,0.449408,0.339284
2.70365,0.582576,-0.112678
2.72874,0.313796,0.500798
2.71857,0.448108,-0.0641132
2.7074,0.573995,-0.0483083
2.71288,0.437934,0
2.71853,0.169607,-0.0317103
2.70129,0.301567,-0.345975
2.70777,0.574073,0.0160874
2.72304,0.303995,-0.0159246
2.70906,0.437316,-0.295588
2.71887,0.169628,-0.254295
2.71609,0.438453,0.0640202
2.72252,0.169856,0.0317569
2.71021,0.437503,-0.19197
2.71058,0.574669,0.080639
2.72267,0.303953,0.0478196
2.72607,0.170078,-0.159068
2.7248,0.304191,0.111701
2.71935,0.303583,-0.143401
2.72793,0.440364,0.339284
2.70557,0.573607,-0.112678
2.7454,0.306492,0.503668
2.71215,0.437815,-0.0639271
2.7133,0.565356,-0.0483781
2.70632,0.292567,-0.544422
2.71439,0.428461,0
2.7231,0.160351,-0.0317569
2.70232,0.292135,-0.345975
2.70192,0.562985,0.0160409
2.72011,0.294057,-0.0159014
2.71057,0.427857,-0.295588
2.71511,0.159881,0.0316637
2.71172,0.428039,-0.19197
2.71906,0.293944,-0.223264
2.70865,0.564387,0.0805226
2.72371,0.294447,0.0478196
2.70035,0.562656,-0.176779
2.72187,0.294248,0.111538
2.72945,0.430838,0.339284
2.70364,0.563343,-0.112515
2.74255,0.296483,0.50295
2.70752,0.553805,-0.0482385
2.70813,0.282725,-0.0792426
2.71594,0.41851,0
2.72367,0.15037,-0.0317569
2.69943,0.281817,-0.34547
2.70397,0.553079,0.0160409
2.72116,0.284086,-0.0159014
2.70818,0.417314,-0.295159
2.72399,0.150388,-0.254667
2.71568,0.149929,0.0316637
2.71327,0.418098,-0.19197
2.7107,0.554456,0.0805226
2.7208,0.284047,0.0477498
2.70239,0.552756,-0.176779
2.71924,0.150126,-0.158603
2.72714,0.420234,0.160696
2.73088,0.2851,0.111864
2.73102,0.420832,0.339284
2.7096,0.554231,-0.112678
2.73579,0.285612,0.501515
2.71916,0.419005,-0.0640202
2.70934,0.544824,-0.0482385
2.72127,0.410098,0
2.71616,0.140923,-0.0316637
2.70035,0.272864,-0.34547
2.70187,0.543321,0.0160176
2.72209,0.275061,-0.0159014
2.70169,0.407146,-0.294303
2.71652,0.140942,-0.253923
2.72016,0.14113,0.0317103
2.7107,0.408504,-0.191691
2.70861,0.544677,0.0804062
2.7257,0.275426,0.0478196
2.70812,0.544578,-0.177034
2.71973,0.141108,-0.158603
2.72457,0.410594,0.160464
2.71988,0.274838,0.111375
2.71833,0.409653,-0.128054
2.72847,0.411182,0.338797
2.70751,0.544456,-0.112515
2.73672,0.276539,0.501515
2.72054,0.409987,-0.0640202
2.7073,0.534588,-0.0481686
2.71477,0.399431,0
2.72463,0.131827,-0.0317569
2.70129,0.263436,-0.34547
2.70375,0.533886,0.0160176
2.72304,0.265557,-0.0159014
2.71096,0.39887,-0.295159
2.72495,0.131843,-0.254667
2.72591,0.401069,0.0641132
2.70816,0.398458,-0.191412
2.71834,0.536767,0.080639
2.72665,0.265909,0.0478196
2.70609,0.534348,-0.176779
2.71621,0.13142,-0.158371
2.72598,0.40108,0.160464
2.7248,0.265729,0.111538
2.71537,0.26481,-0.142982
2.72203,0.400499,0.337822
2.71331,0.535775,-0.112678
2.7455,0.267748,0.50295
2.70233,0.254019,-0.542853
2.71615,0.389953,0
2.71708,0.121957,-0.0316637
2.71009,0.254748,-0.34648
2.71345,0.525967,0.0160641
2.71996,0.255676,-0.0158782
2.7084,0.38884,-0.294731
2.70953,0.389003,-0.191412
2.71893,0.255579,-0.222939
2.70449,0.524232,0.0801735
2.72756,0.25639,0.0478196
2.70402,0.52414,-0.176523
2.72065,0.122117,-0.158603
2.72737,0.391563,0.160464
2.71776,0.255469,0.111212
2.71628,0.25533,-0.142982
2.72734,0.39156,0.338309
2.7034,0.524019,-0.112189
2.7425,0.257795,0.502233
2.71499,0.515948,-0.0482385
2.70783,0.244526,-0.0791263
2.70715,0.244465,-0.543637
2.71756,0.379994,0
2.71751,0.111997,-0.0316637
2.69915,0.243742,-0.344965
2.70357,0.513778,0.0159944
2.72088,0.245705,-0.0158782
2.72151,0.112162,0.0317103
2.71489,0.379621,-0.191691
2.7064,0.514315,0.0801735
2.7245,0.246031,0.0477498
2.702,0.51348,-0.176267
2.72507,0.112309,-0.158836
2.72878,0.381563,0.160464
2.72663,0.246224,0.111538
2.73269,0.38211,0.338797
2.70923,0.514853,-0.112352
2.73951,0.247387,0.501515
2.71683,0.379891,-0.0638341
2.71284,0.505735,-0.0481686
2.70867,0.235073,-0.0791263
2.70799,0.235014,-0.543637
2.71887,0.370506,0
2.72188,0.102662,-0.0317103
2.70789,0.235006,-0.345975
2.70928,0.505071,0.0160176
2.72571,0.236552,-0.0159014
2.70717,0.368912,-0.294303
2.72188,0.102662,0.0317103
2.70425,0.504133,0.0800572
2.72534,0.23652,0.0477498
2.7077,0.504777,-0.176523
2.72145,0.102646,-0.158603
2.72614,0.371497,0.160231
2.72748,0.236706,0.111538
2.72202,0.236232,-0.143191
2.73401,0.372569,0.338797
2.70708,0.504661,-0.112189
2.73643,0.237483,0.500798
2.71814,0.370406,-0.0638341
2.71442,0.49721,-0.0481686
2.71606,0.361434,0
2.72219,0.0941096,-0.0317103
2.70862,0.226497,-0.345975
2.70692,0.495835,0.0159944
2.72245,0.227654,-0.0158782
2.71226,0.36093,-0.294731
2.72651,0.094259,-0.254667
2.72721,0.362919,0.0640202
2.72219,0.0941096,0.0317103
2.7134,0.36108,-0.191412
2.72142,0.227567,-0.222939
2.71368,0.497075,0.0802899
2.72607,0.227956,0.0477498
2.70927,0.496267,-0.176523
2.72176,0.0940947,-0.158603
2.7273,0.36293,0.160231
2.72024,0.227469,0.111212
2.71708,0.36157,-0.127681
2.72275,0.227678,-0.143191
2.73517,0.363977,0.338797
2.72142,0.227567,0.222939
2.70472,0.495433,-0.112026
2.74109,0.229212,0.501515
2.7122,0.487025,-0.0480988
2.7173,0.351952,0
2.7265,0.0847316,-0.0317569
2.71335,0.217358,-0.34648
2.70863,0.486384,0.0159944
2.71526,0.217511,-0.0158317
2.70956,0.350949,-0.294303
2.72284,0.0846179,-0.254295
2.71068,0.351095,-0.191133
2.7154,0.4876,0.0802899
2.71099,0.486808,-0.176523
2.72606,0.084718,-0.158836
2.725,0.218292,0.111375
2.71832,0.352084,-0.127681
2.71954,0.217854,-0.142982
2.73248,0.353918,0.338309
2.70643,0.485989,-0.112026
2.74187,0.219643,0.501515
2.72053,0.35237,-0.0638341
2.71011,0.475915,-0.048029
2.7103,0.206643,-0.543637
2.7226,0.342014,0
2.71416,0.206937,-0.34648
2.70654,0.475288,0.0159711
2.72006,0.207387,-0.0158549
2.70694,0.340047,-0.293874
2.72713,0.0742702,-0.254667
2.72187,0.341921,0.0638341
2.72281,0.0741524,0.0317103
2.71201,0.340683,-0.191133
2.72301,0.207612,-0.222939
2.70938,0.475786,0.0800572
2.72767,0.207967,0.0477498
2.70497,0.475013,-0.176011
2.72637,0.0742494,-0.158836
2.72184,0.207522,0.111212
2.71965,0.341643,-0.127681
2.72036,0.20741,-0.142982
2.72594,0.342433,0.337334
2.70434,0.474902,-0.111864
2.74269,0.209113,0.501515
2.72187,0.341921,-0.0638341
2.71553,0.468079,-0.0480988
2.70703,0.197842,-0.542853
2.72366,0.333459,0
2.72303,0.0655987,-0.0317103
2.70292,0.197542,-0.344965
2.70408,0.466104,0.0159479
2.72469,0.199133,-0.0158782
2.72735,0.0657028,-0.254667
2.71903,0.0655023,0.0316637
2.71307,0.332162,-0.191133
2.71968,0.198766,-0.222613
2.70692,0.466593,0.0799408
2.72033,0.198814,0.0476102
2.69859,0.465157,-0.1755
2.7226,0.0655883,-0.158603
2.73095,0.334351,0.160231
2.72247,0.198971,0.111212
2.721,0.198863,-0.142982
2.72701,0.333868,0.337334
2.70582,0.466404,-0.111864
2.73941,0.200209,0.500798
2.70532,0.456599,-0.0478894
2.72084,0.323477,0
2.72324,0.0560924,-0.0317103
2.71151,0.188656,-0.345975
2.70569,0.456661,0.0159479
2.72138,0.189342,-0.0158549
2.70914,0.322086,-0.293874
2.72756,0.0561814,-0.254667
2.71924,0.05601,0.0316637
2.71421,0.322689,-0.191133
2.71247,0.457806,0.0800572
2.725,0.189594,0.04768
2.70019,0.455734,-0.1755
2.72281,0.0560835,-0.158603
2.72813,0.324344,0.159999
2.72714,0.189743,0.111375
2.72186,0.323598,-0.127681
2.72168,0.189363,-0.142982
2.73604,0.325284,0.338309
2.70743,0.456955,-0.111864
2.73224,0.190098,0.499363
2.71613,0.322917,-0.0636479
2.71495,0.44751,-0.048029
2.71809,0.312571,0
2.72343,0.0456362,-0.0317103
2.70826,0.177984,-0.34547
2.72208,0.178892,-0.0158549
2.71036,0.311682,-0.293874
2.72377,0.0456419,-0.254295
2.72927,0.313857,0.0639271
2.71939,0.312721,-0.191412
2.71027,0.446738,0.0799408
2.7257,0.17913,0.04768
2.70192,0.445363,-0.1755
2.727,0.0456958,-0.158836
2.73332,0.314323,0.160231
2.72386,0.179009,0.111212
2.71514,0.312232,-0.127309
2.72637,0.179174,-0.143191
2.72938,0.31387,0.337334
2.71705,0.447857,-0.112189
2.74081,0.180123,0.500798
2.71634,0.438979,-0.048029
2.71906,0.304031,0
2.72356,0.0370805,-0.0317103
2.70484,0.169227,-0.344965
2.72662,0.17059,-0.0158782
2.71527,0.303608,-0.294303
2.72789,0.0371394,-0.254667
2.72627,0.304837,0.0638341
2.7164,0.303734,-0.191133
2.7156,0.43886,0.0800572
2.73025,0.170816,0.0477498
2.71119,0.438147,-0.176011
2.72713,0.037129,-0.158836
2.73033,0.305291,0.159999
2.7284,0.170701,0.111375
2.71496,0.16986,-0.142563
2.7343,0.305735,0.337822
2.72559,0.170525,0.222939
2.71056,0.438044,-0.111864
2.73743,0.171266,0.50008
2.70995,0.428245,-0.0478894
2.7201,0.294537,0
2.71968,0.0275321,-0.0316637
2.71334,0.160252,-0.345975
2.71032,0.428303,0.0159479
2.7272,0.16107,-0.0158782
2.71236,0.293699,-0.293874
2.728,0.0276163,-0.254667
2.72368,0.0275726,0.0317103
2.70951,0.29339,-0.190575
2.71821,0.160539,-0.222288
2.73082,0.161284,0.0477498
2.70482,0.427433,-0.1755
2.73123,0.0276491,-0.159068
2.72344,0.294898,0.159533
2.72499,0.16094,0.111212
2.72351,0.160852,-0.142982
2.72745,0.295333,0.336847
2.70417,0.427331,-0.111538
2.74587,0.162173,0.501515
2.71934,0.420004,-0.048029
2.71007,0.150568,-0.542853
2.72111,0.285041,0
2.72776,0.0180921,-0.0317569
2.70596,0.15034,-0.344965
2.72775,0.15155,-0.0158782
2.7241,0.0180678,-0.254295
2.71448,0.284346,-0.190854
2.72273,0.151272,-0.222613
2.70675,0.41806,0.0797081
2.72338,0.151308,0.0476102
2.6984,0.416771,-0.174988
2.73239,0.286223,0.159999
2.72553,0.151427,0.111212
2.72214,0.285148,-0.127495
2.71608,0.150902,-0.142563
2.72847,0.285811,0.336847
2.7096,0.4185,-0.111701
2.74249,0.152369,0.500798
2.7169,0.409438,-0.0479592
2.70668,0.14043,-0.542068
2.72214,0.275065,0
2.7238,0.0080817,-0.0317103
2.70649,0.14042,-0.344965
2.7203,0.141136,-0.0158317
2.71044,0.273883,-0.293446
2.72936,0.275794,0.0638341
2.7238,0.0080817,0.0317103
2.71551,0.274395,-0.190854
2.72792,0.141532,0.04768
2.70386,0.407472,-0.175244
2.72337,0.00808043,-0.158603
2.72548,0.275402,0.159533
2.72607,0.141436,0.111212
2.72317,0.275169,-0.127495
2.7206,0.141152,-0.142773
2.73345,0.276208,0.337334
2.70716,0.40797,-0.111538
2.73517,0.141908,0.499363
2.72538,0.275392,-0.063741
2.71429,0.399844,-0.0478894
2.71105,0.131645,-0.542853
2.72702,0.266426,0
2.72782,-0.000951642,-0.0317569
2.71487,0.13183,-0.345975
2.72075,0.132115,-0.0158317
2.71133,0.264894,-0.293446
2.72814,-0.000951755,-0.254667
2.7223,0.265965,0.0636479
2.70846,0.264613,-0.190296
2.72372,0.13226,-0.222613
2.73236,0.132679,0.0477498
2.71309,0.399668,-0.175755
2.72738,-0.00095149,-0.158836
2.7224,0.265975,0.159301
2.72253,0.132202,0.111049
2.72009,0.265749,-0.127309
2.72903,0.132518,-0.143191
2.7383,0.267528,0.337822
2.72372,0.13226,0.222613
2.71641,0.400156,-0.111864
2.73563,0.132838,0.499363
2.7223,0.265965,-0.0636479
2.71178,0.389324,-0.0478196
2.71152,0.121706,-0.542853
2.71603,0.255305,0
2.72379,-0.0109342,-0.0317103
2.71137,0.1217,-0.34547
2.70819,0.388808,0.0159014
2.72921,0.1225,-0.0158782
2.71624,0.255326,-0.293874
2.72812,-0.0109516,-0.254667
2.73122,0.256733,0.0638341
2.71338,0.255057,-0.190575
2.715,0.389787,0.0798244
2.73283,0.122663,0.0477498
2.70664,0.388586,-0.175244
2.73131,0.256742,0.159766
2.72699,0.122401,0.111212
2.72104,0.255777,-0.127309
2.72152,0.122156,-0.142773
2.73531,0.257118,0.337334
2.72419,0.122275,0.222613
2.7139,0.389628,-0.111701
2.74396,0.123163,0.500798
2.71708,0.380411,-0.0478894
2.71193,0.112241,-0.542853
2.72089,0.246184,0
2.72374,-0.0204414,-0.0317103
2.71574,0.112399,-0.345975
2.70557,0.378798,0.0158782
2.73361,0.113139,-0.0159014
2.71316,0.245485,-0.293446
2.72408,-0.020444,-0.254295
2.72811,0.246838,0.063741
2.72374,-0.0204414,0.0317103
2.71028,0.245225,-0.190296
2.7246,0.112766,-0.222613
2.73324,0.113124,0.0477498
2.71193,0.37969,-0.1755
2.7273,-0.0204681,-0.158836
2.72424,0.246487,0.159301
2.73139,0.113047,0.111375
2.72192,0.246277,-0.127309
2.72193,0.112655,-0.142773
2.72828,0.246853,0.336359
2.70733,0.379045,-0.111375
2.74044,0.113421,0.50008
2.72413,0.246478,-0.0636479
2.72223,0.372414,-0.0479592
2.71766,0.237286,0
2.70815,0.103563,-0.344965
2.72996,0.104397,-0.0158782
2.71788,0.237305,-0.293874
2.73286,0.238613,0.0638341
2.71899,0.237402,-0.190854
2.72494,0.104205,-0.222613
2.72959,0.104383,0.04768
2.70125,0.369544,-0.174732
2.72898,0.238274,0.159533
2.73174,0.104465,0.111375
2.72268,0.237724,-0.127309
2.72626,0.104256,-0.142982
2.73696,0.238971,0.337334
2.7085,0.370537,-0.111375
2.74865,0.105111,0.501515
2.71162,0.361325,-0.0477498
2.72246,0.228133,0
2.72354,-0.0385056,-0.0317103
2.72231,0.0945897,-0.0158317
2.7068,0.226821,-0.292589
2.73185,-0.038623,-0.255039
2.72354,-0.0385056,0.0317103
2.71583,0.227577,-0.190575
2.72528,0.094693,-0.222613
2.72594,0.0947158,0.0476102
2.70648,0.36064,-0.174988
2.73509,-0.0386688,-0.159301
2.72183,0.22808,0.159068
2.72809,0.0947905,0.111212
2.71951,0.227886,-0.127123
2.72661,0.0947391,-0.142982
2.73777,0.229416,0.337334
2.70582,0.360553,-0.111212
2.7372,0.0951069,0.499363
2.71774,0.227737,-0.0634618
2.70902,0.350398,-0.04768
2.7273,0.217997,0
2.72737,-0.0490342,-0.0317569
2.71281,0.0838324,-0.34547
2.70938,0.350446,0.0158782
2.72665,0.0842603,-0.0158549
2.71954,0.217377,-0.293874
2.7277,-0.04904,-0.254667
2.72258,0.217619,0.0635549
2.71668,0.217148,-0.190575
2.72164,0.0841055,-0.222288
2.73428,0.0844959,0.0477498
2.70784,0.350246,-0.174988
2.73093,-0.0490981,-0.159068
2.72667,0.217947,0.159301
2.72444,0.0841919,0.111049
2.72435,0.217761,-0.127309
2.72695,0.0842696,-0.142982
2.73468,0.218587,0.336847
2.71511,0.351187,-0.111538
2.73754,0.0845968,0.499363
2.72258,0.217619,-0.0635549
2.71407,0.342387,-0.0477498
2.7132,0.075314,-0.542853
2.71202,0.208204,0
2.72321,-0.0575172,-0.0317103
2.69555,0.206939,-0.420598
2.71702,0.0754201,-0.345975
2.71047,0.341933,0.0158782
2.7309,0.0758054,-0.0158782
2.71228,0.208224,-0.293018
2.73151,-0.0576926,-0.255039
2.73122,0.209678,0.063741
2.70939,0.208002,-0.190017
2.72588,0.0756659,-0.222613
2.73453,0.0759061,0.0477498
2.71289,0.342238,-0.175244
2.73076,-0.0576768,-0.159068
2.72734,0.20938,0.159301
2.72868,0.0757438,0.111212
2.72103,0.208896,-0.127123
2.72321,0.0755919,-0.142773
2.72743,0.209387,0.335872
2.71224,0.342155,-0.111375
2.74173,0.0761059,0.50008
2.71926,0.20876,-0.0634618
2.71922,0.333397,-0.0478196
2.71345,0.065842,-0.542853
2.7247,0.199612,0
2.7133,0.0658385,-0.34547
2.70768,0.331982,0.0158549
2.73115,0.0662715,-0.0158782
2.73194,0.200142,0.063741
2.71408,0.198834,-0.190296
2.72214,0.0660529,-0.222288
2.7101,0.332279,-0.174988
2.73204,0.200149,0.159533
2.72494,0.0661208,0.111049
2.72175,0.199396,-0.127123
2.72745,0.0661818,-0.142982
2.73607,0.200445,0.336847
2.72613,0.0661496,0.222613
2.71341,0.332685,-0.111375
2.74198,0.0665343,0.50008
2.72795,0.19985,-0.0636479
2.71645,0.322957,-0.0477498
2.71367,0.0558969,-0.542853
2.72142,0.189347,0
2.72273,-0.0770026,-0.0317103
2.71353,0.0558939,-0.34547
2.73137,0.0562615,-0.0158782
2.71767,0.189086,-0.293446
2.73265,0.190128,0.063741
2.71877,0.189163,-0.190575
2.72635,0.056158,-0.222613
2.71175,0.322397,0.0794753
2.72301,0.0560892,0.0475404
2.70338,0.321402,-0.174476
2.73427,-0.0773291,-0.159301
2.73275,0.190135,0.159533
2.72916,0.0562158,0.111212
2.72246,0.189419,-0.127123
2.72768,0.0561854,-0.142982
2.73282,0.19014,0.336359
2.71065,0.322267,-0.111212
2.74614,0.0565656,0.500798
2.72467,0.189573,-0.0635549
2.70956,0.313028,-0.0476102
2.71384,0.0468969,-0.542853
2.71804,0.180056,0
2.73045,-0.0862845,-0.0318034
2.7137,0.0468944,-0.34547
2.72755,0.0471338,-0.0158549
2.71035,0.179546,-0.292589
2.7154,0.179881,-0.190296
2.72718,0.0471274,0.0476102
2.70839,0.312893,-0.174732
2.72602,-0.0861443,-0.158836
2.72141,0.18028,0.158836
2.72706,0.180654,-0.127309
2.72785,0.047139,-0.142982
2.7374,0.181338,0.336847
2.71567,0.313734,-0.111375
2.73844,0.047322,0.499363
2.71332,0.179743,-0.0632757
2.71461,0.304013,-0.04768
2.72265,0.170817,0
2.73013,-0.0958157,-0.0318034
2.71384,0.0374209,-0.34547
2.7237,0.0375567,-0.0158317
2.7189,0.170582,-0.293446
2.72646,-0.0956868,-0.254667
2.72989,0.171272,0.0636479
2.72614,-0.0956754,0.0317569
2.71601,0.170401,-0.190296
2.73132,0.0376619,0.04768
2.70947,0.303436,-0.174732
2.7257,-0.0956601,-0.158836
2.72203,0.170778,0.158836
2.7197,0.170632,-0.126937
2.73199,0.0376711,-0.143191
2.73405,0.171533,0.336359
2.71675,0.304252,-0.111375
2.74646,0.0378706,0.500798
2.7259,0.171021,-0.0635549
2.71571,0.294062,-0.04768
2.71411,0.027476,-0.542853
2.71926,0.160602,0
2.72976,-0.105821,-0.0318034
2.71793,0.0275147,-0.345975
2.72381,0.0275742,-0.0158317
2.71156,0.160147,-0.292589
2.73007,-0.105833,-0.255039
2.7305,0.161266,0.0636479
2.71264,0.160211,-0.190017
2.73544,0.0276919,0.0477498
2.71056,0.293504,-0.174732
2.72932,-0.105804,-0.159068
2.73061,0.161272,0.159301
2.72828,0.161134,-0.127309
2.73211,0.0276582,-0.143191
2.72674,0.161043,0.335384
2.71785,0.294293,-0.111375
2.74264,0.0277648,0.50008
2.72651,0.16103,-0.0635549
2.70871,0.28422,-0.0475404
2.71418,0.018476,-0.542853
2.71978,0.151584,0
2.71801,0.0185021,-0.345975
2.73189,0.0185966,-0.0158782
2.72002,0.151597,-0.293446
2.73102,0.152211,0.0636479
2.71714,0.151437,-0.190296
2.73152,0.018594,0.04768
2.71152,0.284515,-0.174732
2.73694,-0.115189,-0.159533
2.73113,0.152216,0.159301
2.72568,0.0185543,0.111049
2.7288,0.152087,-0.127309
2.7242,0.0185442,-0.142773
2.74311,0.152884,0.337334
2.70688,0.284028,-0.110887
2.75059,0.0187239,0.501515
2.72703,0.151988,-0.0635549
2.71765,0.27557,-0.04768
2.71883,0.00901619,-0.0791263
2.71423,0.00900093,-0.542853
2.7163,0.14188,0
2.72898,-0.124399,-0.0318034
2.73194,0.00905965,-0.0158782
2.72053,0.142101,-0.293446
2.73327,-0.124595,-0.25541
2.73154,0.142676,0.0636479
2.72898,-0.124399,0.0318034
2.71367,0.141742,-0.190017
2.72691,0.00904298,-0.222613
2.71293,0.275092,0.079359
2.72757,0.00904516,0.0476102
2.70455,0.274242,-0.17422
2.73652,-0.124743,-0.159533
2.72765,0.142473,0.159068
2.72932,0.14256,-0.127309
2.73173,0.142686,0.335872
2.71183,0.27498,-0.111049
2.74277,0.00909556,0.50008
2.73154,0.142676,-0.0636479
2.71461,0.265693,-0.0476102
2.70469,0.131809,-0.758046
2.72477,0.132787,0
2.72853,-0.133924,-0.0318034
2.7141,-0.000472964,-0.34547
2.71995,-0.000473984,-0.0158084
2.71307,0.132217,-0.292589
2.73601,0.133335,0.063741
2.71016,0.132075,-0.189738
2.73092,-0.000475894,-0.222939
2.73158,-0.00047601,0.04768
2.71344,0.265578,-0.174732
2.73208,-0.134098,-0.159301
2.73212,0.133146,0.159301
2.72574,-0.000474992,0.111049
2.7298,0.133033,-0.127309
2.73618,0.133344,0.336359
2.71675,0.265902,-0.111212
2.72403,0.132751,-0.0634618
2.7115,0.256312,-0.0475404
2.70126,0.122664,-0.756968
2.71815,-0.0094882,-0.543637
2.7212,0.123569,0
2.71408,-0.009474,-0.34547
2.72394,-0.00950839,-0.0158317
2.71746,0.123399,-0.293018
2.72838,-0.142988,-0.255039
2.72845,0.123898,0.0635549
2.71457,0.123268,-0.190017
2.71474,0.256619,0.079359
2.73157,-0.00953503,0.04768
2.71033,0.256202,-0.174476
2.7356,-0.143367,-0.159533
2.73255,0.124084,0.159301
2.72572,-0.00951462,0.111049
2.72623,0.123797,-0.127123
2.73661,0.124269,0.336359
2.71364,0.256515,-0.111049
2.7467,-0.00958786,0.500798
2.73244,0.12408,-0.0636479
2.71238,0.246846,-0.0475404
2.69783,0.113073,-0.755889
2.7296,0.114405,0
2.72756,-0.152493,-0.0318034
2.718,-0.018975,-0.345975
2.71274,0.24688,0.0158317
2.72789,-0.019044,-0.0158549
2.7139,0.113747,-0.292589
2.73184,-0.152733,-0.25541
2.72887,0.114374,0.0635549
2.73152,-0.0190693,0.04768
2.71519,0.247102,-0.174732
2.73509,-0.152915,-0.159533
2.72499,0.114211,0.158836
2.72567,-0.0190285,0.111049
2.73218,-0.019074,-0.143191
2.72909,0.114383,0.335384
2.71452,0.247041,-0.111049
2.75059,-0.0192025,0.501515
2.73286,0.114541,-0.0636479
2.70928,0.236555,-0.0474705
2.70592,0.103478,-0.758046
2.72601,0.104246,0
2.73097,-0.162728,-0.03185
2.72188,-0.0289798,-0.34648
2.7358,-0.0291279,-0.0159014
2.71828,0.10395,-0.293018
2.73524,-0.162982,-0.255782
2.73326,0.104523,0.0636479
2.73076,-0.0290743,-0.222939
2.73543,-0.029124,0.0477498
2.70812,0.236453,-0.17422
2.73849,-0.163176,-0.159766
2.74135,0.104833,0.159766
2.73743,0.104683,0.336359
2.71143,0.236742,-0.110887
2.72927,0.104371,-0.0635549
2.72204,0.228098,-0.04768
2.70626,0.0940324,-0.758046
2.72635,0.0947304,0
2.72639,-0.172007,-0.0318034
2.71383,-0.038368,-0.34547
2.73168,-0.0386204,-0.0158782
2.71862,0.0944618,-0.293018
2.73761,0.0951214,0.063741
2.73039,-0.172259,0.03185
2.71573,0.0943611,-0.190017
2.73531,-0.0386717,0.0477498
2.70495,0.226666,-0.173965
2.73791,-0.172734,-0.159766
2.73372,0.0949862,0.159301
2.72946,-0.038589,0.111212
2.73139,0.0949053,-0.127309
2.73597,-0.038681,-0.143401
2.73381,0.0949894,0.335872
2.71224,0.227277,-0.110887
2.72562,0.0947048,-0.0634618
2.71481,0.218428,-0.0475404
2.70271,0.0849358,-0.756968
2.72266,0.0855626,0
2.73379,-0.181578,-0.0318966
2.71766,-0.0474372,-0.345975
2.72754,-0.0476097,-0.0158549
2.71892,0.0854452,-0.293018
2.7298,-0.181313,0.03185
2.71602,0.0853542,-0.190017
2.71806,0.21869,0.079359
2.73517,-0.0477428,0.0477498
2.70967,0.218014,-0.17422
2.72537,-0.181019,-0.159068
2.73002,0.0857942,0.159068
2.72769,0.0857209,-0.127123
2.73583,-0.0477544,-0.143401
2.73411,0.0859225,0.335872
2.71298,0.21828,-0.110887
2.72991,0.0857907,-0.0635549
2.71157,0.208644,-0.0474705
2.69914,0.0753941,-0.755889
2.72294,0.0760588,0
2.73713,-0.191399,-0.0319431
2.70954,-0.0567565,-0.344965
2.72318,0.0760655,-0.293446
2.73341,-0.191139,-0.255782
2.7302,0.0762615,0.0635549
2.72915,-0.190841,0.03185
2.71631,0.0758735,-0.190017
2.73498,-0.0572895,0.0477498
2.71439,0.208861,-0.174476
2.73667,-0.191366,-0.159766
2.73031,0.0762646,0.159068
2.72798,0.0761996,-0.127123
2.73836,0.0764896,0.336359
2.70974,0.208503,-0.110724
2.7222,0.0760382,-0.0633688
2.71228,0.199178,-0.0474705
2.71736,-0.0664108,-0.543637
2.72123,-0.0665053,-0.34648
2.73114,-0.0667476,-0.0158782
2.71945,0.066462,-0.293018
2.73045,0.0667306,0.0635549
2.71256,0.0662936,-0.189738
2.73409,-0.0668196,-0.223264
2.71554,0.199416,0.0792426
2.73877,-0.066934,0.0478196
2.7151,0.199385,-0.174476
2.73598,-0.200918,-0.159766
2.73455,0.0668309,0.159301
2.72823,0.0666764,-0.127123
2.73143,-0.0667548,-0.143191
2.73067,0.0667362,0.335384
2.71842,0.199628,-0.111049
2.72245,0.0665352,-0.0633688
2.72094,0.190267,-0.0476102
2.72103,-0.0760053,-0.544422
2.7234,0.0570472,0
2.72775,-0.209889,-0.03185
2.72494,-0.0761145,-0.346985
2.71333,0.189734,0.0158084
2.73489,-0.0763923,-0.0159014
2.71967,0.0569689,-0.293018
2.72666,0.0571155,0.0634618
2.71677,0.0569082,-0.190017
2.73851,-0.0764937,0.0478196
2.7118,0.189628,-0.17422
2.73925,-0.210774,-0.159999
2.73477,0.0572852,0.159301
2.72445,0.057069,-0.126937
2.73518,-0.0764005,-0.143401
2.73089,0.0572039,0.335384
2.71113,0.18958,-0.110724
2.72666,0.0571155,-0.0634618
2.71364,0.179764,-0.0474705
2.72759,0.0471341,0
2.71671,-0.0858508,-0.345975
2.73459,-0.0864157,-0.0159014
2.71986,0.0470005,-0.293018
2.73485,0.0472595,0.0636479
2.71696,0.0469504,-0.190017
2.73022,-0.0862776,0.04768
2.70849,0.179423,-0.173965
2.73846,-0.220812,-0.159999
2.73895,0.0473304,0.159533
2.72863,0.0471521,-0.127123
2.73902,0.0473316,0.336359
2.7118,0.179642,-0.110724
2.73085,0.0471905,-0.0635549
2.72043,-0.0949996,-0.544422
2.72373,0.038033,0
2.72038,-0.0949977,-0.34648
2.73029,-0.0953438,-0.0158782
2.71205,0.0378698,-0.292161
2.73842,-0.229951,-0.256526
2.73499,0.0381902,0.0636479
2.73419,-0.229596,0.0319431
2.72109,0.0379961,-0.190296
2.73392,-0.0954705,0.0477498
2.70907,0.170441,-0.173965
2.73771,-0.229892,-0.159999
2.73111,0.0381359,0.159068
2.73207,-0.0954059,0.111375
2.7471,0.0383593,0.337334
2.71238,0.170649,-0.110724
2.723,0.0380227,-0.0633688
2.72385,0.0285251,0
2.73337,-0.239139,-0.0319431
2.71607,-0.104341,-0.345975
2.72994,-0.104874,-0.0158782
2.72409,0.0285277,-0.293446
2.73363,-0.239161,-0.256154
2.73111,0.0286012,0.0635549
2.71722,0.0284557,-0.190017
2.72957,-0.10486,0.04768
2.70965,0.160983,-0.173965
2.72893,-0.238751,-0.159533
2.72723,0.0285605,0.158836
2.73289,0.0286198,-0.127309
2.73822,-0.105192,-0.14361
2.73928,0.0286867,0.336359
2.71296,0.16118,-0.110724
2.73511,0.0286431,-0.0636479
2.72362,-0.114154,-0.545206
2.72393,0.019017,0
2.71569,-0.113821,-0.345975
2.72956,-0.114402,-0.0158782
2.7202,0.0189909,-0.293018
2.73119,0.0190676,0.0635549
2.7325,-0.114526,-0.223264
2.73318,-0.114554,0.0477498
2.73604,-0.248999,-0.159999
2.72731,0.0190405,0.158836
2.73297,0.01908,-0.127309
2.73784,-0.114749,-0.14361
2.72149,0.152155,-0.111049
2.73119,0.0190676,-0.0635549
2.71586,0.142332,-0.0474705
2.71537,-0.123304,-0.543637
2.71998,0.00949458,0
2.7232,-0.12366,-0.346985
2.72022,0.142561,0.0158317
2.73314,-0.124111,-0.0159014
2.72422,0.00950938,-0.293446
2.73586,-0.258615,-0.256526
2.72325,0.00950597,0.0633688
2.72533,0.00951323,-0.190575
2.73209,-0.124063,-0.223264
2.73676,-0.124276,0.0478196
2.7147,0.142271,-0.17422
2.7431,-0.2593,-0.160464
2.73934,0.00956215,0.159533
2.73092,-0.12401,0.111375
2.72902,0.00952614,-0.127123
2.73742,-0.124305,-0.14361
2.73544,0.00954853,0.335872
2.71402,0.142236,-0.110724
2.72725,0.00951993,-0.0634618
2.71634,0.132851,-0.0474705
2.72359,-0.133206,-0.079359
2.724,-0,0
2.73072,-0.267749,-0.0319431
2.71671,0.132869,0.0158084
2.73269,-0.133651,-0.0159014
2.72822,-0,-0.293874
2.73526,-0,0.0636479
2.7347,-0.26814,0.0319897
2.71736,-0,-0.190017
2.73821,-0.268484,-0.160231
2.73537,-0,0.159301
2.73446,-0.133737,0.111538
2.73943,-0,0.336359
2.7145,0.132761,-0.110724
2.73526,-0,-0.0636479
2.72311,-0.142712,-0.079359
2.72398,-0.00950853,0
2.73375,-0.277684,-0.0319897
2.72227,-0.142668,-0.346985
2.71627,-0.00948161,-0.292589
2.73924,-0.00956179,0.063741
2.73375,-0.277684,0.0319897
2.72932,-0.00952715,-0.190854
2.73583,-0.143379,0.0478196
2.71164,0.123135,-0.173965
2.74123,-0.278444,-0.160464
2.72736,-0.00952032,0.158836
2.73398,-0.143282,0.111538
2.73941,-0.00956238,0.336359
2.72293,0.123648,-0.111049
2.72725,-0.00951992,-0.0634618
2.73193,-0.0190728,0
2.73276,-0.287225,-0.0319897
2.72572,-0.152391,-0.34749
2.72769,-0.152502,-0.0158782
2.72417,-0.0190186,-0.293446
2.74092,-0.288082,-0.257269
2.73119,-0.0190676,0.0635549
2.72528,-0.0190263,-0.190575
2.73531,-0.152928,0.0478196
2.72003,0.114003,-0.174476
2.7353,-0.0190963,0.159301
2.72498,-0.0190242,-0.126937
2.73936,-0.0191247,0.336359
2.71935,0.113975,-0.110887
2.7272,-0.0190397,-0.0634618
2.72385,-0.0285251,0
2.73174,-0.296762,-0.0319897
2.72913,-0.16214,-0.347995
2.71795,0.104413,0.0158084
2.73114,-0.16226,-0.0159014
2.72807,-0.0285693,-0.293874
2.73111,-0.0286012,0.0635549
2.72121,-0.0284974,-0.190296
2.73077,-0.162238,0.0477498
2.71243,0.104201,-0.173965
2.73522,-0.0286442,0.159301
2.72889,-0.0285779,-0.127123
2.7394,-0.162751,-0.143819
2.73531,-0.0286451,0.335872
2.71574,0.104328,-0.110724
2.72711,-0.0285593,-0.0634618
2.71793,0.0949122,-0.0474705
2.73173,-0.0381447,0
2.72459,-0.171416,-0.34749
2.73056,-0.171792,-0.0159014
2.72795,-0.0380919,-0.293874
2.73499,-0.0381902,0.0636479
2.72109,-0.037996,-0.190296
2.73746,-0.172227,-0.223915
2.73817,-0.172271,0.0478894
2.71278,0.0947323,-0.173965
2.74213,-0.307579,-0.160696
2.73909,-0.0382474,0.159533
2.73277,-0.0381591,-0.127309
2.73882,-0.172312,-0.143819
2.73519,-0.0381929,0.335872
2.7121,0.0947085,-0.110561
2.73499,-0.0381902,-0.0636479
2.73158,-0.04768,0
2.73358,-0.316286,-0.0320363
2.72397,-0.180926,-0.34749
2.73792,-0.181853,-0.0159479
2.72383,-0.0475446,-0.293446
2.73884,-0.0478066,0.063741
2.72892,-0.0476335,-0.190854
2.73755,-0.181828,0.0478894
2.74293,-0.0478781,0.159766
2.73662,-0.0477678,-0.127495
2.7164,0.0853665,-0.110724
2.73884,-0.0478066,-0.063741
2.72742,-0.0561789,0
2.73654,-0.325344,-0.0320828
2.71943,-0.189207,-0.346985
2.71887,0.0768946,0.0158084
2.72936,-0.189898,-0.0159014
2.72366,-0.0561015,-0.293446
2.73654,-0.325344,0.0320828
2.73275,-0.0562886,-0.191133
2.73697,-0.190427,0.0478894
2.71335,0.0767385,-0.173965
2.74399,-0.32623,-0.160929
2.73479,-0.0563306,0.159301
2.73511,-0.190298,0.111701
2.73645,-0.0563649,-0.127495
2.73885,-0.0564142,0.336359
2.72065,0.0769452,-0.110887
2.72668,-0.0561637,-0.0634618
2.73121,-0.0657953,0
2.73936,-0.33538,-0.0321294
2.72667,-0.199277,-0.347995
2.73267,-0.199715,-0.0159246
2.72345,-0.0656085,-0.293446
2.7435,-0.335887,-0.258013
2.73047,-0.0657775,0.0635549
2.72455,-0.0656351,-0.190575
2.73956,-0.200219,-0.22424
2.7323,-0.199688,0.0478196
2.7136,0.0672667,-0.173965
2.73887,-0.335321,-0.160696
2.73457,-0.0658764,0.159301
2.73224,-0.0658203,-0.127309
2.7426,-0.0660698,0.336847
2.7249,0.0675469,-0.111049
2.73846,-0.0659702,-0.063741
2.72696,-0.0752183,0
2.74611,-0.34594,-0.0322225
2.72596,-0.208794,-0.347995
2.73195,-0.209253,-0.0159246
2.72321,-0.0751147,-0.293446
2.73422,-0.0754185,0.0636479
2.72431,-0.0751451,-0.190575
2.73956,-0.209836,0.0479592
2.71781,0.0578791,-0.17422
2.74561,-0.345878,-0.161161
2.73832,-0.0755315,0.159533
2.73372,-0.209388,0.111701
2.73599,-0.0754674,-0.127495
2.73839,-0.0755334,0.336359
2.72113,0.0579497,-0.110887
2.71915,0.0484125,-0.0474705
2.72668,-0.0847368,0
2.74885,-0.356038,-0.0322691
2.72917,-0.218625,-0.3485
2.71952,0.048419,0.0158084
2.7312,-0.218788,-0.0159246
2.72293,-0.08462,-0.293446
2.73394,-0.0849623,0.0636479
2.72403,-0.0846543,-0.190575
2.73809,-0.21934,-0.22424
2.73881,-0.219397,0.0479592
2.714,0.0483207,-0.173965
2.74835,-0.355972,-0.161394
2.73804,-0.0850896,0.159533
2.73172,-0.0848932,-0.127309
2.74343,-0.219768,-0.144238
2.73811,-0.0850917,0.336359
2.72994,-0.084838,-0.0635549
2.72731,0.0390351,-0.0476102
2.72637,-0.0942541,0
2.7357,-0.364048,-0.0321294
2.72048,-0.227489,-0.34749
2.73441,-0.228654,-0.0159479
2.72659,-0.0942617,-0.293874
2.73762,-0.0946431,0.063741
2.72771,-0.0943003,-0.190854
2.73772,-0.0946466,0.159533
2.74016,-0.229134,0.112026
2.7354,-0.0945662,-0.127495
2.74176,-0.0947861,0.336847
2.72146,0.0389514,-0.110887
2.73363,-0.094505,-0.0636479
2.73402,-0.104075,0
2.73441,-0.373595,-0.0321294
2.71967,-0.236984,-0.34749
2.72961,-0.23785,-0.0159246
2.72624,-0.103779,-0.293874
2.73728,-0.104199,0.063741
2.73135,-0.103973,-0.191133
2.73323,-0.238165,0.0478894
2.71427,0.0293724,-0.173965
2.74579,-0.375151,-0.161394
2.73738,-0.104202,0.159533
2.73904,-0.104266,-0.127681
2.74538,-0.104507,0.337334
2.72558,0.0294948,-0.111049
2.73328,-0.104047,-0.0636479
2.72751,0.0199941,-0.0476102
2.72766,-0.247276,-0.0797081
2.73364,-0.113618,0
2.74497,-0.384804,-0.0322691
2.72673,-0.247192,-0.3485
2.73275,-0.247738,-0.0159479
2.72189,-0.113129,-0.293446
2.74511,-0.384823,-0.258756
2.7329,-0.113587,0.0636479
2.73705,-0.383693,0.032176
2.73495,-0.113672,-0.191412
2.74034,-0.248426,0.048029
2.71835,0.0199269,-0.17422
2.74447,-0.384733,-0.161394
2.737,-0.113757,0.159533
2.73849,-0.248258,0.112026
2.73467,-0.11366,-0.127495
2.74103,-0.113925,0.336847
2.72567,0.0199805,-0.111049
2.7329,-0.113587,-0.0636479
2.71957,0.0104424,-0.0474705
2.73076,-0.257171,-0.0798244
2.72923,-0.122979,0
2.73569,-0.393245,-0.032176
2.72585,-0.256709,-0.3485
2.72393,0.0104592,0.0158317
2.73585,-0.25765,-0.0159711
2.72943,-0.122988,-0.294303
2.73249,-0.123126,0.0636479
2.73056,-0.123039,-0.191133
2.72283,0.010455,0.0792426
2.73946,-0.25799,0.048029
2.72239,0.0104533,-0.174476
2.74706,-0.394879,-0.161626
2.73658,-0.12331,0.159533
2.73426,-0.123206,-0.127495
2.72172,0.0104507,-0.110887
2.73648,-0.123306,-0.063741
2.72758,0.00095211,-0.0476102
2.72984,-0.266701,-0.0798244
2.73826,-0.403375,-0.0322225
2.72494,-0.266222,-0.3485
2.74289,-0.267976,-0.0160176
2.72501,-0.132322,-0.293874
2.73603,-0.132857,0.063741
2.73011,-0.132569,-0.191133
2.74178,-0.267868,-0.224891
2.74252,-0.26794,0.0480988
2.71842,0.000948912,-0.17422
2.74012,-0.133056,0.159766
2.73669,-0.26737,0.112026
2.7378,-0.132943,-0.127681
2.71775,0.000948676,-0.110724
2.72357,-0.00855639,-0.0475404
2.74079,-0.413527,-0.0322691
2.72004,-0.275333,-0.347995
2.73796,-0.277147,-0.0159944
2.72453,-0.141833,-0.293874
2.73955,-0.142615,0.0638341
2.72963,-0.142098,-0.191133
2.74083,-0.277437,-0.224891
2.74157,-0.277512,0.0480988
2.71841,-0.00854017,-0.17422
2.74363,-0.142827,0.159999
2.73972,-0.277324,0.112189
2.73732,-0.142499,-0.127681
2.73969,-0.142622,0.336847
2.72173,-0.0085506,-0.110887
2.73555,-0.142407,-0.063741
2.73179,-0.151774,0
2.74328,-0.423702,-0.0323156
2.7309,-0.286066,-0.34951
2.73698,-0.286702,-0.0159944
2.72402,-0.151342,-0.293874
2.73903,-0.152177,0.0638341
2.73933,-0.423092,0.0322691
2.73709,-0.152068,-0.191691
2.74456,-0.287497,0.0481686
2.72236,-0.0180556,-0.174476
2.74672,-0.424233,-0.161859
2.73514,-0.15196,0.159533
2.74271,-0.287302,0.112352
2.7471,-0.152625,0.337822
2.72568,-0.0180777,-0.111049
2.73504,-0.151955,-0.063741
2.73144,-0.0276511,-0.04768
2.73124,-0.161309,0
2.73784,-0.432651,-0.0322691
2.73383,-0.296024,-0.350016
2.73596,-0.296254,-0.0159944
2.73141,-0.161319,-0.294731
2.73449,-0.161501,0.063741
2.74179,-0.433276,0.0323156
2.73255,-0.161386,-0.191412
2.73559,-0.296214,0.048029
2.71828,-0.0275179,-0.17422
2.74917,-0.434442,-0.162092
2.73858,-0.161742,0.159766
2.73771,-0.296444,0.112189
2.7256,-0.0275919,-0.111049
2.7305,-0.161265,-0.0636479
2.72333,-0.0370766,-0.0475404
2.73066,-0.170842,0
2.74026,-0.442844,-0.0323156
2.73278,-0.305565,-0.350016
2.74286,-0.306692,-0.0160409
2.73083,-0.170852,-0.294731
2.74589,-0.171794,0.0640202
2.72401,-0.170426,-0.190854
2.74249,-0.30665,0.0481686
2.72615,-0.037115,-0.174732
2.75158,-0.444673,-0.162324
2.74198,-0.17155,0.159999
2.74063,-0.306443,0.112352
2.72549,-0.0371059,-0.111049
2.7419,-0.171545,-0.0639271
2.7232,-0.0461073,-0.0475404
2.73277,-0.314742,-0.0800572
2.73008,-0.179896,0
2.74667,-0.453231,-0.0324088
2.74183,-0.315786,-0.0160409
2.73025,-0.179907,-0.294731
2.73333,-0.18011,0.063741
2.73139,-0.179982,-0.191412
2.74146,-0.315743,0.0481686
2.72602,-0.046155,-0.174732
2.74937,-0.181167,0.160464
2.7396,-0.315529,0.112352
2.74605,-0.316272,-0.144866
2.74142,-0.180643,0.337334
2.72135,-0.0460761,-0.110887
2.74131,-0.180636,-0.0639271
2.72302,-0.0556127,-0.0475404
2.73343,-0.189702,0
2.74113,-0.462151,-0.0323622
2.74071,-0.325354,-0.0160409
2.72961,-0.189437,-0.294731
2.74465,-0.190481,0.0640202
2.73871,-0.190068,-0.19197
2.74431,-0.325782,0.0482385
2.71786,-0.0555073,-0.17422
2.74075,-0.19021,0.159999
2.74245,-0.325561,0.112515
2.73844,-0.190049,-0.127868
2.72517,-0.0556567,-0.111049
2.73668,-0.189927,-0.0638341
2.72281,-0.0651175,-0.0475404
2.73448,-0.334298,-0.0801735
2.73674,-0.199533,0
2.75132,-0.473752,-0.0325019
2.73956,-0.334919,-0.0160409
2.72893,-0.198963,-0.294731
2.74397,-0.20006,0.0640202
2.74344,-0.472395,0.0324088
2.73803,-0.199627,-0.19197
2.74316,-0.335359,0.0482385
2.72164,-0.0650895,-0.174476
2.74685,-0.472983,-0.162324
2.74405,-0.200066,0.160231
2.7413,-0.335132,0.112515
2.74174,-0.199898,-0.128054
2.74405,-0.200066,0.337822
2.73695,-0.0654556,-0.111538
2.73201,-0.199188,-0.063741
2.72656,-0.074731,-0.0476102
2.74001,-0.209389,0
2.74965,-0.483353,-0.0325019
2.73837,-0.34448,-0.0160409
2.73218,-0.208791,-0.295159
2.73528,-0.209028,0.0638341
2.73334,-0.208879,-0.191691
2.74197,-0.344933,0.0482385
2.72139,-0.0745894,-0.174476
2.75305,-0.483951,-0.162789
2.73936,-0.209339,0.159999
2.73704,-0.209162,-0.127868
2.7367,-0.075009,-0.111538
2.74326,-0.209637,-0.0640202
2.72229,-0.0841245,-0.0475404
2.73207,-0.35338,-0.0801735
2.73926,-0.218952,0
2.75188,-0.493655,-0.0325485
2.74509,-0.355063,-0.0160874
2.7354,-0.218644,-0.295588
2.74251,-0.219212,0.0640202
2.73259,-0.218419,-0.191691
2.74471,-0.355015,0.0483083
2.75055,-0.219855,0.160696
2.73889,-0.354262,0.112515
2.74251,-0.219212,-0.0640202
2.72997,-0.0939015,-0.04768
2.73479,-0.363441,-0.0802899
2.7345,-0.22818,0
2.74621,-0.502537,-0.0325019
2.72634,-0.0937767,0.0158549
2.73986,-0.364116,-0.0160641
2.73066,-0.22786,-0.295159
2.7497,-0.229449,0.0642063
2.73181,-0.227956,-0.191691
2.74742,-0.36512,0.0483781
2.72878,-0.0938608,-0.174988
2.74977,-0.229455,0.160696
2.74556,-0.364873,0.112841
2.74348,-0.22893,-0.12824
2.72013,-0.0935632,-0.110887
2.74571,-0.229116,-0.0641132
2.73362,-0.103582,-0.0477498
2.73746,-0.373526,-0.0804062
2.73767,-0.238071,0
2.7523,-0.513588,-0.032595
2.7465,-0.374759,-0.0161106
2.72985,-0.23739,-0.295159
2.74888,-0.239046,0.0642063
2.74444,-0.51212,0.0325019
2.73497,-0.237836,-0.19197
2.74139,-0.374062,-0.225868
2.74217,-0.374168,0.0483083
2.72046,-0.103083,-0.174476
2.74497,-0.238706,0.160464
2.74823,-0.374995,0.113003
2.72778,-0.10336,-0.111212
2.73693,-0.238006,-0.0639271
2.73614,-0.383079,-0.0804062
2.7408,-0.247986,0
2.75049,-0.523192,-0.032595
2.73726,-0.383235,-0.0160641
2.729,-0.246918,-0.295159
2.74405,-0.248279,0.0641132
2.74263,-0.521697,0.0325019
2.73413,-0.247382,-0.19197
2.74481,-0.384292,0.0483781
2.72009,-0.112579,-0.174476
2.74412,-0.248286,0.160464
2.74181,-0.248077,-0.12824
2.7274,-0.112881,-0.111212
2.7321,-0.247198,-0.0638341
2.72484,-0.122305,-0.0476102
2.73594,-0.257177,0
2.75258,-0.533551,-0.0326416
