3.37883,0.39888,-0.107754
3.37327,0.377251,-0.1075
3.36657,0.355601,-0.107215
3.35079,0.333158,-0.106646
3.3468,0.312035,-0.106456
3.33471,0.29028,-0.106013
3.32547,0.268927,-0.105664
3.33015,0.265678,-0.349887
3.31378,0.250258,0.136146
3.42522,0.507736,-0.0492576
3.32008,0.247996,-0.105443
3.33171,0.245239,-0.349887
3.30538,0.231439,0.378342
3.30314,0.227459,0.0158916
3.41837,0.485304,-0.0491153
3.31157,0.226936,-0.105126
3.35779,0.351747,-0.138493
3.32522,0.224256,-0.349053
3.29285,0.210267,0.376754
3.41138,0.462976,-0.0489731
3.29694,0.205617,-0.10462
3.35292,0.330452,-0.138206
3.41355,0.461451,-0.174134
3.35085,0.328181,-0.261254
3.31065,0.202876,-0.347387
3.28912,0.189772,0.376187
3.3426,0.313504,0.227993
3.40152,0.442271,0.0761041
3.41019,0.441522,-0.0489162
3.3975,0.43807,-0.173175
3.29035,0.182354,-0.223907
3.34188,0.306612,-0.260403
3.29991,0.181901,-0.346137
3.29413,0.178642,-0.467986
3.27435,0.168768,0.374372
3.33154,0.291856,0.227112
3.3823,0.419463,0.198784
3.38334,0.418812,0.0756383
3.27925,0.164144,-0.103987
3.38625,0.415513,-0.172468
3.28443,0.161817,-0.223432
3.33873,0.285676,-0.260017
3.29302,0.161261,-0.345303
3.28033,0.157713,-0.465879
3.26948,0.148924,0.494391
3.31984,0.27084,0.348031
3.32332,0.270599,0.226434
3.38481,0.398702,0.198784
3.37591,0.396878,0.0754165
3.43124,0.52867,0.0432051
3.38754,0.396386,-0.0485179
3.43767,0.528309,-0.0823893
3.2742,0.143756,-0.103797
3.38278,0.394034,-0.172165
3.27041,0.141017,-0.222415
3.28401,0.140627,-0.344262
3.33184,0.263158,-0.382216
3.27629,0.137375,-0.465177
3.25452,0.128237,0.492001
3.2583,0.127873,0.37233
3.31549,0.250016,0.347408
3.31995,0.249828,0.226095
3.38223,0.377372,0.198493
3.37034,0.375271,0.075239
3.42255,0.505852,0.0430558
3.376,0.374052,-0.0483188
3.42502,0.504873,-0.0820104
3.27203,0.12355,-0.103702
3.3762,0.372285,-0.171711
3.27885,0.120255,-0.343637
3.3215,0.241843,-0.380852
3.27509,0.117198,-0.464896
3.24537,0.107936,0.490507
3.25009,0.107582,0.371309
3.311,0.229256,0.346784
3.31445,0.228971,0.225621
3.36959,0.355043,0.19762
3.36661,0.353956,0.0751059
3.4147,0.483301,0.0429189
3.37226,0.352706,-0.0482334
3.42409,0.483289,-0.0819157
3.26074,0.103092,-0.103322
3.36749,0.350425,-0.171156
3.30462,0.221571,-0.257
3.26461,0.0996788,-0.342074
3.314,0.220864,-0.37983
3.25992,0.0966311,-0.462649
3.24201,0.0879139,0.48991
3.23678,0.0872633,0.36972
3.29746,0.207997,0.345225
3.29787,0.207502,0.224402
3.35382,0.332587,0.196571
3.41658,0.463598,0.168509
3.34584,0.331029,0.0745958
3.40769,0.460999,0.0427945
3.3674,0.331322,-0.0481339
3.42006,0.461335,-0.0817499
3.25032,0.0828028,-0.102974
3.29998,0.202952,-0.135624
3.35765,0.328588,-0.17055
3.29995,0.200927,-0.256535
3.35334,0.326985,-0.293467
3.24627,0.0791849,-0.340095
3.29943,0.199565,-0.378012
3.25154,0.0764174,-0.461385
3.29749,0.197369,-0.499886
3.23557,0.0678745,0.488864
3.23329,0.0673184,0.369267
3.28577,0.187025,0.343874
3.33938,0.312004,0.318397
3.28115,0.186245,0.223182
3.35083,0.31154,0.19628
3.40846,0.441215,0.167972
3.39261,0.437778,0.0425705
3.34945,0.308818,-0.0478494
3.41291,0.439065,-0.0815131
3.24377,0.0627224,-0.102752
3.28521,0.181817,-0.134968
3.34071,0.306248,-0.16959
3.28718,0.179912,-0.255452
3.3533,0.306222,-0.293294
3.24173,0.0591738,-0.339574
3.28868,0.17867,-0.376648
3.24205,0.056293,-0.45998
3.28975,0.176655,-0.498539
3.25168,0.0536218,-0.583215
3.22604,0.0478734,0.487371
3.27309,0.167651,0.463523
3.22072,0.0472884,0.367792
3.27493,0.166255,0.342627
3.34222,0.291595,0.318492
3.34572,0.29037,0.195873
3.38729,0.415978,0.042471
3.34132,0.287403,-0.0477071
3.40462,0.41678,-0.0812526
3.2271,0.0425936,-0.102214
3.27927,0.161312,-0.134681
3.27727,0.159207,-0.254601
3.33824,0.284204,-0.291818
3.23308,0.0391734,-0.338637
3.28277,0.158153,-0.375853
3.22946,0.0362546,-0.458154
3.27991,0.15595,-0.496893
3.24309,0.0335771,-0.581626
3.26615,0.147208,0.462403
3.22195,0.027534,0.367905
3.27688,0.146202,0.342731
3.33402,0.270277,0.317547
3.26724,0.145258,0.222098
3.38283,0.394376,0.0423838
3.33106,0.265941,-0.0475365
3.2223,0.0227564,-0.102056
3.27321,0.140887,-0.134394
3.32132,0.263413,-0.168429
3.26922,0.138714,-0.253905
3.32999,0.262931,-0.290951
3.22729,0.0192992,-0.338012
3.27772,0.137757,-0.375171
3.22665,0.0164232,-0.457733
3.2729,0.135494,-0.495696
3.23142,0.0136275,-0.579508
3.21609,0.00774966,0.367225
3.25685,0.12529,0.340549
3.36431,0.371308,0.0421225
3.20896,0.004036,0.015402
3.31169,0.243954,-0.0472378
3.22338,0.00298522,-0.102087
3.32486,0.243174,-0.16853
3.26204,0.118363,-0.253286
3.31664,0.241409,-0.289649
3.22436,-0.000502965,-0.3377
3.26361,0.117108,-0.373467
3.3149,0.239829,-0.411969
3.21679,-0.00336511,-0.456328
3.26774,0.115201,-0.494799
3.19474,-0.0114027,0.482591
3.20118,-0.0119285,0.365523
3.31364,0.226221,0.193718
3.30953,0.225186,0.0735976
3.35658,0.349622,0.0419981
3.30714,0.223226,-0.0471524
3.37194,0.349914,-0.0803053
3.21934,-0.0167723,-0.101961
3.31035,0.221701,-0.167722
3.20356,-0.0192062,-0.21767
3.30513,0.220193,-0.288521
3.22032,-0.0202623,-0.337283
3.25931,0.0969332,-0.372899
3.30641,0.218829,-0.410739
3.25949,0.0948891,-0.493452
3.18867,-0.0309474,0.481695
3.34751,0.3307,0.286724
3.23744,0.084263,0.21993
3.29604,0.204709,0.192612
3.19714,-0.0336525,0.130989
3.30387,0.204443,0.0734423
3.36165,0.329313,0.0420354
3.30545,0.202746,-0.0471097
3.36308,0.328149,-0.0800448
3.20519,-0.0363667,-0.101518
3.30068,0.200718,-0.167167
3.35496,0.327179,-0.203337
3.2463,0.0779171,-0.251971
3.25785,0.0768858,-0.372672
3.19572,-0.042563,-0.453379
3.25112,0.074683,-0.492106
3.1815,-0.0504025,0.480649
3.34352,0.309602,0.286214
3.23291,0.0642977,0.219591
3.28826,0.183979,0.192088
3.19088,-0.0531693,0.130743
3.29208,0.183444,0.073154
3.33672,0.306212,0.0416994
3.29465,0.181799,-0.046939
3.19391,-0.0558405,-0.101169
3.29786,0.180244,-0.166965
3.23376,0.0577652,-0.250965
3.2867,0.178483,-0.286699
3.20591,-0.0595206,-0.335825
3.24535,0.056669,-0.371195
3.19045,-0.0620744,-0.452677
3.24361,0.0546,-0.490909
3.19142,-0.0648794,-0.572447
3.17116,-0.070036,0.599
3.22065,0.0472662,0.575487
3.17619,-0.0698143,0.479903
3.22811,0.0448963,0.337327
3.28805,0.165231,0.312538
3.22327,0.0443225,0.218913
3.28035,0.163352,0.191564
3.28915,0.163042,0.0730653
3.32758,0.284795,0.0415625
3.28872,0.161237,-0.0468395
3.34892,0.285327,-0.0796186
3.23303,0.0398854,-0.132632
3.29491,0.159812,-0.166763
3.27877,0.157881,-0.285918
3.19256,-0.0788712,-0.33447
3.28113,0.15656,-0.407172
3.18407,-0.0814975,-0.451834
3.23696,0.0346225,-0.489861
3.2829,0.155611,-0.529721
3.18604,-0.0843301,-0.571565
3.15987,-0.0891876,0.596959
3.21202,0.0274282,0.573904
3.16088,-0.0888848,0.477662
3.16218,-0.0894186,0.361212
3.21838,0.0250108,0.336288
3.28005,0.144658,0.311687
3.2773,0.143047,0.191331
3.27311,0.14212,0.0726882
3.31929,0.26358,0.0414381
3.28065,0.140669,-0.0467115
3.22223,0.019979,-0.132181
3.27769,0.137677,-0.285744
3.32328,0.259754,-0.322675
3.18406,-0.0982136,-0.333637
3.22593,0.0167362,-0.368922
3.2731,0.136053,-0.406065
3.18054,-0.100939,-0.451413
3.2292,0.0147242,-0.488664
3.27294,0.135017,-0.52797
3.18546,-0.103878,-0.571565
3.2013,0.00769305,0.571969
3.15138,-0.107973,0.476318
3.27032,0.126073,0.430924
3.16058,-0.108785,0.361099
3.20554,0.00524157,0.334937
3.27192,0.12419,0.310837
3.27313,0.122748,0.19104
3.32284,0.243355,0.041463
3.26047,0.119766,-0.0464128
3.32824,0.242465,-0.0790502
3.15838,-0.113401,-0.100093
3.22429,0.000207512,-0.132263
3.27667,0.118643,-0.165753
3.15958,-0.115929,-0.214823
3.2715,0.117313,-0.285137
3.31787,0.238857,-0.322
3.17744,-0.117528,-0.333012
3.21306,-0.00304576,-0.367445
3.26991,0.115827,-0.405573
3.17887,-0.120415,-0.451272
3.22132,-0.00507761,-0.487467
3.16608,-0.122697,-0.568211
3.15362,-0.127427,0.476766
3.19419,-0.0129269,0.45176
3.26013,0.105651,0.429488
3.29978,0.226353,0.403009
3.14794,-0.127693,0.359737
3.26068,0.103731,0.309703
3.26684,0.102443,0.190632
3.3155,0.22371,0.162407
3.31729,0.222493,0.0413759
3.25915,0.0996969,-0.0463843
3.32069,0.221441,-0.0788371
3.15962,-0.132862,-0.100156
3.21624,-0.0195278,-0.131935
3.26635,0.0982055,-0.165198
3.15383,-0.1351,-0.214484
3.2043,-0.0214128,-0.248644
3.31728,0.218364,-0.321808
3.16771,-0.136637,-0.332075
3.20304,-0.0226903,-0.366309
3.27254,0.0958191,-0.405819
3.2064,-0.0247288,-0.485223
3.26054,0.0944424,-0.525743
3.1574,-0.141768,-0.566799
3.14488,-0.146407,0.475571
3.18811,-0.0324653,0.45092
3.24685,0.0852804,0.427661
3.30507,0.206349,0.403493
3.14114,-0.146728,0.359057
3.24633,0.0833391,0.308285
3.25144,0.0819939,0.189701
3.29687,0.20214,0.161431
3.24019,0.0809746,0.0719118
3.30063,0.20104,0.0411519
3.2597,0.0796973,-0.0463843
3.15276,-0.151958,-0.0999664
3.20007,-0.0390668,-0.131279
3.2599,0.0779945,-0.164844
3.14796,-0.154205,-0.214145
3.20211,-0.041048,-0.24849
3.25377,0.0767114,-0.283488
3.30366,0.197116,-0.320362
3.19986,-0.0423039,-0.365968
3.25719,0.07537,-0.40385
3.16529,-0.15882,-0.449587
3.19729,-0.0442792,-0.483876
3.25612,0.0743217,-0.524947
3.14664,-0.160637,-0.565034
3.13108,-0.165025,0.473629
3.23541,0.0651171,0.426094
3.14217,-0.166104,0.359283
3.23882,0.0632629,0.307529
3.2439,0.0618895,0.189235
3.29007,0.181467,0.16104
3.23263,0.0609409,0.0717344
3.2978,0.180565,0.0411021
3.24613,0.0594384,-0.0461852
3.14278,-0.170812,-0.0996815
3.18578,-0.0584447,-0.130705
3.24934,0.0577952,-0.164289
3.29116,0.178761,-0.198821
3.13998,-0.173133,-0.213671
3.23924,0.0564846,-0.282187
3.29785,0.176469,-0.319688
3.15686,-0.175004,-0.331137
3.1916,-0.0617833,-0.365059
3.24271,0.0551298,-0.402005
3.1397,-0.179604,-0.563975
3.21709,0.045789,0.543493
3.12409,-0.183885,0.472733
3.22584,0.0451251,0.424789
3.28852,0.164831,0.401195
3.12621,-0.184503,0.357582
3.27909,0.162063,0.279844
3.23523,0.0418679,0.188711
3.28214,0.160836,0.160601
3.22595,0.0410157,0.0715791
3.29386,0.160084,0.0410399
3.29225,0.158739,-0.0780792
3.1307,-0.189429,-0.0993333
3.17937,-0.0778445,-0.130459
3.23665,0.0377054,-0.163633
3.28023,0.157987,-0.198099
3.13388,-0.192091,-0.213332
3.17645,-0.0797145,-0.246556
3.1384,-0.196107,-0.446075
3.18464,-0.0832017,-0.482081
3.1405,-0.19899,-0.564328
3.21041,0.0259925,0.542327
3.11698,-0.202666,0.471837
3.16024,-0.0903782,0.447139
3.22011,0.0252842,0.424005
3.27459,0.143995,0.399381
3.11808,-0.203229,0.356788
3.22641,0.0234189,0.3063
3.27107,0.141552,0.27908
3.17034,-0.0926052,0.21539
3.22544,0.0219482,0.188129
3.27508,0.140352,0.160211
3.21914,0.0211749,0.0714238
3.2758,0.139065,0.0408035
3.23061,0.0195023,-0.0459576
3.28417,0.138157,-0.0778661
3.11951,-0.20797,-0.0990168
3.23083,0.0178119,-0.16333
3.26817,0.137313,-0.197316
3.12766,-0.210981,-0.212993
3.16992,-0.0990165,-0.246091
3.28087,0.135207,-0.317857
3.17173,-0.100348,-0.3629
3.22032,0.0152247,-0.399176
3.12726,-0.214682,-0.444671
3.17222,-0.102358,-0.480285
3.23916,0.0142961,-0.522083
3.13529,-0.217983,-0.563622
3.20755,0.00628753,0.541827
3.15369,-0.109561,0.446299
3.21326,0.00551357,0.423092
3.11281,-0.222074,0.356334
3.15784,-0.11114,0.330157
3.21753,0.00361157,0.30545
3.26689,0.121294,0.278655
3.15476,-0.111528,0.214374
3.21853,0.00215216,0.187721
3.27388,0.12018,0.160113
3.22021,0.00142264,0.071446
3.26859,0.118672,0.0407039
3.11678,-0.225967,0.0149989
3.22667,-0.000320298,-0.0459007
3.27697,0.117716,-0.0776766
3.12116,-0.227325,-0.0991118
3.22788,-0.00201053,-0.163178
3.26795,0.117221,-0.197256
3.12333,-0.229948,-0.212789
3.16328,-0.118241,-0.245627
3.21184,-0.00312168,-0.279757
3.27865,0.114969,-0.317568
3.17602,-0.119995,-0.363468
3.21638,-0.00452951,-0.398684
3.26391,0.113597,-0.437039
3.12983,-0.234162,-0.445233
3.16659,-0.121631,-0.479537
3.23031,-0.00556395,-0.520651
3.2645,0.113047,-0.559343
3.14458,-0.127577,0.562295
3.19668,-0.0133485,0.539995
3.10046,-0.239833,0.469746
3.25528,0.10314,0.396841
3.10347,-0.240556,0.355426
3.20555,-0.016071,0.304316
3.25762,0.100938,0.277806
3.19552,-0.0174709,0.186382
3.10193,-0.242506,0.127468
3.20816,-0.0182679,0.0711798
3.26626,0.0985237,0.0406666
3.11135,-0.244773,0.0149797
3.11772,-0.246314,-0.0990485
3.15943,-0.135582,-0.129722
3.25564,0.0967816,-0.196473
3.10594,-0.247839,-0.211705
3.16847,-0.137909,-0.246091
3.20678,-0.0227937,-0.279323
3.26139,0.0943317,-0.315834
3.17224,-0.139349,-0.363128
3.20439,-0.0241749,-0.397208
3.25959,0.0934258,-0.436376
3.16084,-0.140838,-0.478789
3.20948,-0.0252217,-0.517309
3.25626,0.0927615,-0.557824
3.18435,-0.0308916,0.659131
3.18668,-0.032861,0.538329
3.24803,0.0841556,0.517051
3.09105,-0.258194,0.468551
3.20416,-0.0338243,0.421917
3.2499,0.0830121,0.396115
3.09302,-0.258848,0.354405
3.14233,-0.149223,0.328702
3.24722,0.0806753,0.276872
3.25514,0.0795078,0.159137
3.19599,-0.0378105,0.0709137
3.25381,0.0781683,0.0405048
3.10282,-0.263267,0.0149461
3.20043,-0.0395949,-0.0455309
3.10818,-0.264761,-0.0987952
3.14956,-0.154525,-0.129353
3.21063,-0.0414025,-0.16232
3.2442,0.0765211,-0.19575
3.0984,-0.266379,-0.211298
3.15262,-0.156606,-0.244931
3.2006,-0.0423905,-0.278802
3.25195,0.0740917,-0.31487
3.1624,-0.158364,-0.362105
3.20418,-0.0438362,-0.397208
3.25119,0.0732227,-0.435182
3.15004,-0.159729,-0.477293
3.19939,-0.0447761,-0.515718
3.17823,-0.0503368,0.657915
3.12705,-0.165325,0.559481
3.24354,0.0641269,0.516265
3.19398,-0.0533186,0.420611
3.23645,0.0627999,0.394422
3.08643,-0.277377,0.353838
3.13838,-0.168341,0.32839
3.24168,0.0606374,0.276362
3.1791,-0.0564002,0.18545
3.24458,0.0593322,0.1586
3.1927,-0.0573662,0.0708471
3.24023,0.0579515,0.0403306
3.09716,-0.281938,0.0149269
3.19713,-0.0591761,-0.0454882
3.10052,-0.283282,-0.0986053
3.14456,-0.173627,-0.129189
3.23263,0.0564046,-0.195028
3.09373,-0.285111,-0.211095
3.13866,-0.175224,-0.243925
3.18932,-0.0618159,-0.277848
3.2414,0.0539545,-0.313811
3.18599,-0.0631419,-0.394993
3.24266,0.0531263,-0.433988
3.14802,-0.178999,-0.477143
3.19412,-0.064307,-0.514922
3.16905,-0.0696434,0.656091
3.12499,-0.184451,0.559305
3.22709,0.0439948,0.513594
3.1204,-0.185164,0.442098
3.22685,0.0428086,0.393212
3.07675,-0.29555,0.35293
3.18381,-0.0745823,0.302331
3.17869,-0.0759057,0.18545
3.08301,-0.298215,0.126895
3.1743,-0.0765214,0.0704479
3.23453,0.0379982,0.0402559
3.1292,-0.190071,-0.0149374
3.09773,-0.302204,-0.0985736
3.14244,-0.192857,-0.129148
3.19491,-0.0804218,-0.161563
3.08596,-0.303502,-0.210688
3.13255,-0.194171,-0.243538
3.17793,-0.0811044,-0.276893
3.23072,0.0339496,-0.312751
3.18455,-0.0826638,-0.39487
3.23004,0.0330967,-0.432264
3.1439,-0.198124,-0.476695
3.17788,-0.0834897,-0.512376
3.23968,0.03263,-0.554786
3.15779,-0.0887843,0.653861
3.16188,-0.0908323,0.534332
3.20854,0.0240522,0.510608
3.1802,-0.0921364,0.418914
3.22705,0.0230082,0.393212
3.07093,-0.314018,0.352477
3.11623,-0.205532,0.326312
3.17135,-0.0937634,0.301197
3.11401,-0.205877,0.211935
3.08013,-0.317024,0.126854
3.16977,-0.0958762,0.0703591
3.11799,-0.2086,-0.0148898
3.17817,-0.0978515,-0.0452322
3.08886,-0.320483,-0.098352
3.07511,-0.321498,-0.210078
3.13031,-0.213321,-0.243461
3.17339,-0.100476,-0.276546
3.23286,0.0141343,-0.312943
3.09303,-0.3243,-0.325721
3.18795,-0.10233,-0.395362
3.22522,0.0132565,-0.431601
3.09361,-0.327144,-0.4413
3.13868,-0.217138,-0.476096
3.23095,0.0127162,-0.553267
3.1524,-0.109922,0.532833
3.20566,0.00436055,0.510136
3.10308,-0.222381,0.439997
3.06203,-0.332106,0.351683
3.11491,-0.224649,0.326312
3.16375,-0.112972,0.300535
3.17253,-0.114727,0.185159
3.21616,-0.000396437,0.157184
3.06422,-0.3344,0.126281
3.15913,-0.11496,0.0701373
3.17052,-0.117092,-0.0451326
3.07889,-0.338556,-0.0980988
3.16873,-0.118688,-0.160301
3.0711,-0.340141,-0.209942
3.16276,-0.11957,-0.275679
3.21696,-0.00567431,-0.311402
3.08011,-0.342065,-0.324575
3.17536,-0.121433,-0.393886
3.17069,-0.122253,-0.511422
3.14772,-0.129101,0.532166
3.20365,-0.0152997,0.509822
3.16299,-0.130502,0.416825
3.055,-0.350322,0.351115
3.11248,-0.24368,0.326208
3.15703,-0.132132,0.299968
3.2123,-0.018761,0.273814
3.1033,-0.243451,0.211393
3.1608,-0.133727,0.184519
3.21011,-0.0200929,0.156891
3.05814,-0.352737,0.126118
3.20768,-0.0213654,0.03992
3.07378,-0.357096,-0.0980038
3.11844,-0.249075,-0.128328
3.16894,-0.138172,-0.160351
3.06202,-0.358167,-0.209468
3.12149,-0.251238,-0.242997
3.155,-0.138667,-0.275071
3.20791,-0.0253423,-0.310535
3.07796,-0.360957,-0.324575
3.16563,-0.140519,-0.392779
3.15903,-0.14122,-0.509671
3.20622,-0.0267281,-0.549047
3.19856,-0.0349027,0.509036
3.15222,-0.149437,0.41552
3.0449,-0.368106,0.350208
3.09903,-0.261769,0.324961
3.15019,-0.151215,0.299401
3.20216,-0.0383516,0.272965
3.09876,-0.262236,0.21119
3.15393,-0.152829,0.184169
3.20493,-0.0397275,0.156647
3.0579,-0.371736,0.126199
3.14151,-0.152941,0.0697824
3.20149,-0.0409702,0.0398453
3.06557,-0.375221,-0.0978139
3.10889,-0.26752,-0.128
3.15905,-0.157167,-0.159897
3.05085,-0.37585,-0.208858
3.10897,-0.26944,-0.242146
3.14613,-0.157625,-0.274377
3.19674,-0.0448715,-0.309475
3.15282,-0.159339,-0.391303
3.11741,-0.273406,-0.473552
3.15022,-0.1602,-0.508398
3.19713,-0.0462722,-0.547528
3.17467,-0.0520193,0.624885
3.18742,-0.0543429,0.507307
3.13342,-0.167822,0.41317
3.08647,-0.279791,0.323818
3.13231,-0.169626,0.297795
3.19389,-0.0578546,0.272286
3.08815,-0.280432,0.21058
3.14995,-0.172015,0.183995
3.19364,-0.0591882,0.15611
3.04268,-0.388845,0.125667
3.13252,-0.171776,0.069605
3.19218,-0.0604431,0.0397333
3.04104,-0.390146,0.0147157
3.19751,-0.0617721,-0.0757584
3.04934,-0.392238,-0.0973707
3.10619,-0.286499,-0.127959
3.15005,-0.176102,-0.159493
3.04552,-0.394179,-0.208654
3.09931,-0.287774,-0.241527
3.15405,-0.17743,-0.275158
3.19243,-0.0644052,-0.309089
3.10817,-0.289854,-0.356992
3.14031,-0.179021,-0.506966
3.19382,-0.0658276,-0.547022
3.17036,-0.0714093,0.624113
3.17123,-0.0735332,0.504793
3.12145,-0.186395,0.411734
3.18059,-0.0749165,0.387648
3.07381,-0.29767,0.322675
3.12425,-0.188423,0.297133
3.18152,-0.077161,0.271266
3.07744,-0.298509,0.20997
3.13986,-0.190794,0.183471
3.19022,-0.078709,0.155964
3.07883,-0.300488,0.0976482
3.18875,-0.0799536,0.039696
3.03661,-0.408532,0.0147061
3.14174,-0.19333,-0.044777
3.04984,-0.411342,-0.0974657
3.09642,-0.30477,-0.127631
3.17519,-0.081,-0.191596
3.05293,-0.4142,-0.209332
3.09352,-0.306392,-0.241217
3.13898,-0.19591,-0.273943
3.18202,-0.0837305,-0.308126
3.1004,-0.30833,-0.35631
3.17655,-0.0844188,-0.425234
3.10004,-0.310262,-0.471458
3.13816,-0.198224,-0.506807
3.18154,-0.085107,-0.544997
3.16579,-0.0928454,0.504007
3.1153,-0.205218,0.411081
3.17213,-0.0941951,0.386681
3.06995,-0.316321,0.322467
3.13198,-0.208183,0.297984
3.17601,-0.0965296,0.270842
3.06761,-0.316567,0.209428
3.12369,-0.209057,0.182597
3.06898,-0.318549,0.0973958
3.11721,-0.209333,0.0693166
3.1822,-0.0993307,0.0396213
3.02909,-0.426459,0.0146821
3.06941,-0.31919,-0.014704
3.18452,-0.100627,-0.0754742
3.04429,-0.429629,-0.0973707
3.08654,-0.322931,-0.127303
3.08464,-0.324637,-0.240676
3.12878,-0.214554,-0.273162
3.18244,-0.103286,-0.308222
3.09153,-0.326618,-0.355515
3.17895,-0.104005,-0.425632
3.13098,-0.217066,-0.505852
3.17603,-0.104465,-0.544153
3.1622,-0.112164,0.503536
3.10904,-0.223973,0.410429
3.16554,-0.113444,0.385955
3.06498,-0.334828,0.322155
3.17138,-0.11587,0.270502
3.06263,-0.335058,0.209225
3.11638,-0.227783,0.182248
3.11188,-0.228164,0.0692279
3.16455,-0.11822,0.0394098
3.02874,-0.446405,-0.0969592
3.07854,-0.341204,-0.127058
3.03478,-0.449731,-0.208451
3.07764,-0.343006,-0.240289
3.12144,-0.233302,-0.272641
3.16981,-0.12235,-0.307066
3.031,-0.45009,-0.320929
3.0796,-0.344476,-0.354379
3.16339,-0.122932,-0.423643
3.12565,-0.235976,-0.505216
3.17336,-0.123874,-0.543815
3.10168,-0.242582,0.409646
3.05694,-0.352943,0.321531
3.15468,-0.134647,0.269143
3.11392,-0.246821,0.18219
3.10743,-0.247016,0.0691613
3.15577,-0.137287,0.0393102
3.0088,-0.461325,0.0146101
3.11771,-0.249531,-0.0444925
3.02397,-0.464677,-0.0968959
3.06845,-0.359158,-0.12673
3.15322,-0.138555,-0.190391
3.02211,-0.466821,-0.207773
3.07151,-0.361418,-0.23998
3.11697,-0.252209,-0.272381
3.15409,-0.14113,-0.305621
3.07348,-0.3629,-0.353924
3.15268,-0.141894,-0.422316
3.1558,-0.142587,-0.540946
3.14776,-0.150348,0.501493
3.10112,-0.261692,0.409776
3.04781,-0.370853,0.320804
3.10777,-0.264112,0.296093
3.14583,-0.153613,0.268464
3.10738,-0.265498,0.181898
3.04573,-0.372919,0.0968595
3.0959,-0.265225,0.0689395
3.14688,-0.156251,0.0392107
3.11114,-0.268227,-0.0444214
3.02008,-0.483066,-0.0968643
3.06123,-0.377367,-0.126525
3.14832,-0.1577,-0.190151
3.01131,-0.484089,-0.207231
3.05736,-0.378786,-0.239051
3.10643,-0.270552,-0.2716
3.14919,-0.160278,-0.305235
3.15274,-0.161287,-0.422449
3.13987,-0.169287,0.500392
3.09649,-0.280447,0.409384
3.04646,-0.389673,0.320908
3.14184,-0.172748,0.268209
3.10171,-0.284195,0.181666
3.03743,-0.390835,0.0966702
3.09321,-0.284124,0.0689173
3.14087,-0.175279,0.0391484
3.10446,-0.286851,-0.0443503
3.05192,-0.395245,-0.126238
3.14331,-0.176791,-0.18991
3.00139,-0.501406,-0.206756
3.05993,-0.398182,-0.239438
3.14615,-0.179485,-0.305043
3.05402,-0.39866,-0.35222
3.1507,-0.180572,-0.422316
3.13708,-0.180341,-0.538077
3.12005,-0.187424,0.497406
3.08188,-0.2982,0.407687
3.13604,-0.189539,0.38281
3.08944,-0.300782,0.294676
3.13675,-0.19178,0.267869
3.09539,-0.303489,0.0690061
3.14173,-0.194671,0.0391733
2.98995,-0.514932,0.0145621
3.03142,-0.409578,-0.0145753
3.0907,-0.304717,-0.0441796
3.14301,-0.195962,-0.074598
3.04746,-0.413695,-0.126156
3.13918,-0.195888,-0.189729
3.00219,-0.520494,-0.207027
3.09693,-0.308061,-0.27108
3.13903,-0.198409,-0.304465
3.04659,-0.416718,-0.351652
3.14459,-0.199587,-0.421653
3.131,-0.199273,-0.537233
3.11292,-0.206174,0.496464
3.07506,-0.316597,0.407035
3.11897,-0.207722,0.380875
3.08159,-0.319117,0.294109
3.07615,-0.319965,0.180385
3.08552,-0.321647,0.0688286
3.1325,-0.213401,0.0390738
2.98476,-0.532917,0.0145525
3.02687,-0.427891,-0.0145658
3.07585,-0.322321,-0.0439947
3.13377,-0.214697,-0.0744085
3.12995,-0.2146,-0.189247
2.99599,-0.538376,-0.206824
3.13081,-0.217184,-0.30379
3.02922,-0.433294,-0.349948
3.09185,-0.32809,-0.385398
3.12847,-0.217845,-0.419663
3.12677,-0.218275,-0.536726
3.10274,-0.224628,0.495049
3.1117,-0.226424,0.38015
3.06917,-0.338287,0.180093
3.07852,-0.340024,0.0687177
3.11916,-0.231729,0.0389244
2.97652,-0.550312,0.0145285
3.06884,-0.340636,-0.0439236
2.98667,-0.553214,-0.0961995
3.11961,-0.233131,-0.188705
2.97792,-0.554012,-0.205807
3.07708,-0.344269,-0.269691
3.12842,-0.236315,-0.303694
3.11818,-0.236362,-0.41847
3.10926,-0.245434,0.380029
3.05612,-0.355842,0.179453
3.05552,-0.356475,0.0682519
3.11668,-0.250783,0.038912
2.97014,-0.568002,0.0145141
3.00854,-0.463026,-0.0145038
3.06769,-0.359576,-0.0439378
2.98126,-0.571153,-0.0961362
3.06389,-0.360758,-0.155959
3.10221,-0.25098,-0.187742
3.02854,-0.469946,-0.237814
3.11402,-0.254453,-0.302441
3.11667,-0.255491,-0.41847
3.12189,-0.256467,-0.536389
3.10671,-0.264424,0.379908
3.05741,-0.373612,0.292408
3.04497,-0.373494,0.178929
3.04732,-0.374484,0.0681188
2.96268,-0.58544,0.0144949
3.00268,-0.481002,-0.0144895
3.06046,-0.37778,-0.0438667
2.97476,-0.588853,-0.0960412
3.0137,-0.48471,-0.125213
3.04973,-0.378077,-0.155353
3.01871,-0.487408,-0.237272
3.1005,-0.272509,-0.301285
3.11406,-0.274522,-0.418337
3.09811,-0.282849,0.379061
3.05012,-0.391731,0.291935
3.03965,-0.391787,0.178754
3.04298,-0.392919,0.0680745
2.95315,-0.602409,0.0144661
3.05213,-0.39578,-0.0437813
2.96717,-0.606294,-0.0959146
3.00969,-0.503028,-0.125172
3.05131,-0.397298,-0.155555
3.09392,-0.288567,-0.187441
2.99797,-0.502952,-0.235879
3.05837,-0.399302,-0.26865
3.10372,-0.291995,-0.301767
3.06122,-0.401033,-0.382692
3.10146,-0.292601,-0.416878
3.04075,-0.409508,0.291274
3.02927,-0.409361,0.178288
2.94255,-0.619076,0.0144325
3.04271,-0.413558,-0.0436818
2.95459,-0.622634,-0.0956297
3.00359,-0.520973,-0.125049
3.04882,-0.416013,-0.155555
3.08316,-0.306656,-0.186899
2.99089,-0.520653,-0.23557
3.045,-0.416575,-0.267695
3.09395,-0.310239,-0.300996
3.0858,-0.310237,-0.415021
3.0786,-0.319209,0.377126
3.02374,-0.427522,0.178114
3.08175,-0.324265,0.0385636
3.08796,-0.326117,-0.073556
2.93802,-0.637994,-0.0952182
2.99149,-0.537802,-0.12468
3.03039,-0.432455,-0.154747
3.07824,-0.325254,-0.186718
2.99451,-0.540234,-0.236112
3.04042,-0.434969,-0.267522
3.08308,-0.328269,-0.300129
3.08285,-0.32906,-0.414889
3.0608,-0.336358,0.375191
3.01513,-0.445192,0.177764
3.02139,-0.446817,0.0677639
3.05982,-0.340953,0.0383147
3.08093,-0.344503,-0.0734376
2.9321,-0.655573,-0.0951549
2.98224,-0.55505,-0.124434
3.03064,-0.451483,-0.154898
3.07023,-0.34347,-0.186357
3.03375,-0.453028,-0.267175
3.06716,-0.345619,-0.29878
3.07585,-0.347414,-0.414225
3.05507,-0.356875,0.262179
3.00642,-0.462773,0.177415
3.01167,-0.464281,0.0676087
3.06463,-0.36054,0.0384018
2.9251,-0.67288,-0.0950599
2.97387,-0.572394,-0.124229
3.02782,-0.47007,-0.154898
3.05716,-0.361014,-0.185695
3.06498,-0.364433,-0.29878
3.06283,-0.36499,-0.412766
3.04788,-0.375006,0.261754
3.05243,-0.378108,0.0382774
3.01881,-0.486039,-0.0434969
2.96148,-0.588877,-0.123861
3.06466,-0.383479,-0.298973
3.03861,-0.392806,0.26116
3.03617,-0.395024,0.0381031
3.0069,-0.503068,-0.0433688
3.05226,-0.398308,-0.0729166
2.96075,-0.60764,-0.123984
3.04062,-0.396952,-0.184972
3.01311,-0.50681,-0.266133
3.05535,-0.401369,-0.298298
3.03515,-0.411309,0.261075
3.04631,-0.414121,0.150252
3.03567,-0.413916,0.038128
2.94318,-0.620945,-0.0143323
3.0008,-0.520995,-0.0433262
3.04778,-0.416758,-0.0728692
3.03615,-0.415331,-0.184852
3.04592,-0.419159,-0.297624
3.02468,-0.428806,0.260395
3.03679,-0.431821,0.149911
2.97674,-0.533991,0.0670985
3.03011,-0.432111,0.0380907
2.99558,-0.539044,-0.0432977
3.04231,-0.437699,-0.297527
3.02816,-0.449566,0.149618
3.01355,-0.448634,0.0379165
2.98927,-0.556865,-0.043255
3.02096,-0.451084,-0.18425
3.02775,-0.454584,-0.296371
3.01646,-0.466763,0.149178
3.02161,-0.468803,0.0380534
2.97794,-0.573683,-0.0431413
3.01813,-0.469612,-0.18425
3.01999,-0.472385,-0.295889
3.00861,-0.484469,0.148934
3.01078,-0.48606,0.0379538
2.97252,-0.593196,-0.153232
3.01125,-0.487484,-0.184009
3.01605,-0.490746,-0.295793
3.00656,-0.503085,0.148983
2.99887,-0.503036,0.0378418
2.96491,-0.610618,-0.15303
3.0082,-0.505951,-0.184009
2.99358,-0.519815,0.148495
2.98587,-0.519712,0.0377174
2.9522,-0.625292,-0.0429279
2.95036,-0.626517,-0.152475
2.98931,-0.521654,-0.183045
2.97854,-0.536051,0.147909
2.98656,-0.538733,0.0377672
2.93561,-0.640623,-0.042743
2.98016,-0.538921,-0.182684
2.97927,-0.556314,0.0377174
2.92772,-0.657747,-0.0426861
2.97189,-0.556278,-0.182383
2.97678,-0.574774,0.0377298
2.92266,-0.675474,-0.0426719
2.96536,-0.591463,0.0376303
2.91456,-0.692469,-0.042615
2.95897,-0.591532,-0.182022
2.95677,-0.608639,0.0375681
2.94711,-0.625525,0.0374934
2.95019,-0.646307,-0.071543
2.93717,-0.681332,-0.0714246
2.91834,-0.695863,-0.0710694
