3.03098,-0.0703699,-0.0352958
3.03839,-0.0922988,-0.0353889
3.03009,-0.101578,-0.0352958
3.03368,-0.113361,-0.0353423
3.03326,-0.123949,-0.0353423
3.02487,-0.133125,-0.0352492
3.02438,-0.143684,-0.0352492
3.02381,-0.155295,-0.0352492
3.10265,-0.159344,-0.180929
3.01931,-0.164577,-0.0352026
3.10612,-0.169308,-0.181161
3.09355,-0.179457,-0.180464
3.01806,-0.186178,-0.0352026
3.08888,-0.190547,-0.180231
3.02138,-0.196973,-0.0352492
2.98147,-0.194371,0.0347836
3.09219,-0.201589,-0.180464
3.01672,-0.206717,-0.0352026
3.0915,-0.211841,-0.180464
3.01199,-0.216958,-0.0351561
3.09074,-0.222631,-0.180464
3.00723,-0.22717,-0.0351095
3.078,-0.232517,-0.179766
3.08111,-0.244112,-0.179998
3.08033,-0.25379,-0.179998
3.09802,-0.103313,-0.162451
3.00473,-0.258124,-0.0351095
3.13874,-0.269637,-0.294075
2.96886,-0.255043,0.0346904
3.0834,-0.264883,-0.180231
3.00372,-0.26966,-0.0351095
3.02545,-0.123101,-0.0175985
3.13769,-0.281687,-0.294075
3.07441,-0.276006,-0.179766
3.09319,-0.125858,-0.162241
3.021,-0.133485,-0.0175752
3.13272,-0.292268,-0.293703
3.0774,-0.287107,-0.179998
3.09672,-0.13683,-0.162451
3.12386,-0.301343,-0.29296
3.07251,-0.29639,-0.179766
3.09628,-0.146558,-0.162451
3.12675,-0.312642,-0.293332
3.06351,-0.306319,-0.179301
3.08378,-0.156757,-0.161823
2.99573,-0.310636,-0.0350629
3.12558,-0.3241,-0.293332
3.06634,-0.317957,-0.179533
3.0792,-0.167841,-0.161613
2.99469,-0.320568,-0.0350629
3.12053,-0.334039,-0.29296
3.06526,-0.328123,-0.179533
3.08261,-0.178282,-0.161823
3.11934,-0.34493,-0.29296
3.06013,-0.338382,-0.179301
3.08197,-0.189041,-0.161823
3.11812,-0.355816,-0.29296
3.05893,-0.349062,-0.179301
3.08528,-0.200057,-0.162032
3.1129,-0.366233,-0.292588
3.13424,-0.21422,-0.256461
3.05373,-0.359271,-0.179068
3.07659,-0.21028,-0.161613
3.0546,-0.0591846,-0.0710922
2.98198,-0.361387,-0.0349698
3.11161,-0.377097,-0.292588
3.12949,-0.224874,-0.256135
3.05246,-0.369928,-0.179068
3.07584,-0.221018,-0.161613
3.06237,-0.0700297,-0.0712783
2.9807,-0.371794,-0.0349698
3.11027,-0.387956,-0.292588
3.12869,-0.235797,-0.256135
3.05511,-0.381075,-0.179301
3.07505,-0.231754,-0.161613
3.05411,-0.0805081,-0.0710922
3.1168,-0.399824,-0.293332
2.94368,-0.377616,0.0345507
3.12785,-0.246716,-0.256135
3.04584,-0.390721,-0.178836
3.07024,-0.242172,-0.161404
3.05381,-0.0911685,-0.0710922
3.11151,-0.409638,-0.29296
3.12304,-0.256761,-0.25581
3.04848,-0.401341,-0.179068
3.07738,-0.253007,-0.161823
3.05349,-0.101295,-0.0710922
3.09814,-0.419436,-0.291844
3.12605,-0.268547,-0.256135
3.05095,-0.413047,-0.179301
3.08256,-0.113571,-0.143688
3.06847,-0.2636,-0.161404
3.04911,-0.112339,-0.0709991
3.10061,-0.430796,-0.292216
3.11715,-0.278747,-0.255484
3.04553,-0.423145,-0.179068
3.08215,-0.124331,-0.143688
3.06355,-0.273954,-0.161195
3.05269,-0.123142,-0.0710922
3.10303,-0.442179,-0.292588
2.93416,-0.418115,0.0345042
3.11616,-0.289626,-0.255484
3.04404,-0.433773,-0.179068
3.0817,-0.135089,-0.143688
3.0586,-0.284276,-0.160985
3.05224,-0.133797,-0.0710922
3.0088,-0.289715,-0.0879698
2.99267,-0.141131,0
3.10548,-0.453041,-0.29296
3.03073,-0.442136,-0.178371
3.07724,-0.145119,-0.143502
3.06957,-0.295566,-0.161613
3.0398,-0.143353,-0.070813
3.00013,-0.152505,0
2.98904,-0.298873,-0.017459
3.09199,-0.462652,-0.291844
3.11406,-0.311374,-0.255484
3.03304,-0.453832,-0.178603
3.0727,-0.156194,-0.143316
3.06449,-0.306417,-0.161404
2.98762,-0.161804,0
3.09437,-0.473505,-0.292216
2.92179,-0.447097,0.034411
3.11301,-0.321698,-0.255484
3.03546,-0.464491,-0.178836
2.9061,-0.300316,0.119028
3.06817,-0.166166,-0.14313
3.05551,-0.315757,-0.160985
3.04272,-0.164788,-0.0709061
2.98704,-0.172232,0
3.0927,-0.484304,-0.292216
2.92021,-0.457293,0.034411
3.10394,-0.331716,-0.254834
3.03777,-0.475702,-0.179068
2.90503,-0.310459,0.119028
3.07555,-0.177335,-0.143502
3.05042,-0.325996,-0.160776
2.98642,-0.182657,0
3.09099,-0.495097,-0.292216
2.9186,-0.467484,0.034411
3.10659,-0.190007,-0.21764
3.10276,-0.342548,-0.254834
3.03609,-0.486303,-0.179068
2.90393,-0.320597,0.119028
3.07491,-0.18807,-0.143502
3.05323,-0.33708,-0.160985
3.04149,-0.186026,-0.0709061
2.99932,-0.341729,-0.0878534
2.98976,-0.193339,0
3.09317,-0.506527,-0.292588
2.9209,-0.478315,0.0344576
3.10989,-0.201108,-0.217919
3.10947,-0.35428,-0.255484
3.02255,-0.494962,-0.178371
2.9028,-0.330732,0.119028
3.07025,-0.198544,-0.143316
3.04807,-0.347284,-0.160776
3.03284,-0.196125,-0.0707199
2.98108,-0.20323,0
3.08746,-0.516663,-0.292216
2.95634,-0.201543,0.0689519
3.10519,-0.211691,-0.21764
3.02868,-0.506828,-0.178836
2.89369,-0.33993,0.118702
3.06555,-0.208988,-0.14313
3.04684,-0.357921,-0.160776
3.10086,-0.0595395,-0.126355
2.98035,-0.213634,0
3.08171,-0.526767,-0.291844
3.10443,-0.222529,-0.21764
3.0269,-0.517397,-0.178836
2.89645,-0.350509,0.118865
3.06879,-0.219974,-0.143316
3.04557,-0.368555,-0.160776
3.03539,-0.217579,-0.070813
2.97959,-0.224036,0
2.95119,-0.515065,-0.0348767
3.16186,-0.39383,-0.405574
3.08378,-0.538205,-0.292216
2.91179,-0.508188,0.034411
3.09568,-0.232765,-0.217082
3.10164,-0.386329,-0.255159
3.02114,-0.527273,-0.178603
2.89521,-0.360617,0.118865
3.06402,-0.230385,-0.14313
3.04427,-0.379183,-0.160776
2.82866,-0.352328,0.232702
2.9748,-0.234122,0
3.08188,-0.548966,-0.292216
2.91393,-0.51905,0.0344576
3.09883,-0.243883,-0.217361
3.09631,-0.396647,-0.254834
3.02321,-0.538516,-0.178836
2.89393,-0.370721,0.118865
3.06718,-0.241392,-0.143316
3.03896,-0.3893,-0.160567
3.02981,-0.238451,-0.0707199
3.07994,-0.559721,-0.292216
2.9121,-0.529219,0.0344576
3.09796,-0.254698,-0.217361
3.01738,-0.548351,-0.178603
2.89262,-0.380821,0.118865
3.06234,-0.25177,-0.14313
3.04154,-0.400427,-0.160776
2.82613,-0.372067,0.232702
3.02896,-0.249026,-0.0707199
2.98111,-0.255047,0
3.07416,-0.569206,-0.291844
2.9064,-0.538144,0.034411
3.08914,-0.26429,-0.216803
3.01162,-0.557627,-0.178371
2.88342,-0.389341,0.11854
3.0575,-0.261583,-0.142944
3.04416,-0.411045,-0.160985
2.81303,-0.379837,0.231726
3.06741,-0.111941,-0.125053
2.97223,-0.264742,0
3.1522,-0.436843,-0.405068
3.06432,-0.578456,-0.291101
3.08423,-0.274717,-0.216524
3.0175,-0.569618,-0.178836
2.886,-0.399952,0.118702
3.05657,-0.272254,-0.142944
3.03084,-0.420024,-0.160357
3.067,-0.122647,-0.125053
2.97134,-0.274597,0
2.94195,-0.565465,-0.0348767
3.15073,-0.447294,-0.405068
2.99314,-0.129637,0.0174125
3.0663,-0.589366,-0.291473
3.08727,-0.285311,-0.216803
3.09063,-0.438761,-0.254834
3.01168,-0.578867,-0.178603
2.8807,-0.408959,0.11854
3.05565,-0.282388,-0.142944
3.02547,-0.429511,-0.160148
3.0242,-0.142089,-0.0528459
2.97927,-0.434097,-0.0876207
2.97828,-0.286251,0
3.07193,-0.602133,-0.292216
3.09018,-0.297006,-0.217082
3.089,-0.450085,-0.254834
2.88314,-0.420091,0.118702
3.05857,-0.293968,-0.14313
3.02783,-0.441173,-0.160357
2.81284,-0.409848,0.232052
2.97773,-0.444494,-0.0876207
2.99613,-0.151253,0.0174357
2.95521,-0.441131,-0.017366
3.06981,-0.612852,-0.292216
3.08912,-0.307791,-0.217082
3.10168,-0.156582,-0.199036
2.99963,-0.59884,-0.178138
2.88561,-0.430742,0.118865
3.05355,-0.304247,-0.142944
3.03022,-0.452329,-0.160567
3.05757,-0.154355,-0.124727
3.01515,-0.162767,-0.0527063
2.97223,-0.306625,0
2.99559,-0.161711,0.0174357
3.14106,-0.324043,-0.34014
3.05985,-0.621978,-0.291473
3.07612,-0.317344,-0.216245
3.09713,-0.167192,-0.19878
2.99752,-0.609307,-0.178138
2.87619,-0.439604,0.11854
3.0485,-0.314494,-0.142757
3.02862,-0.462904,-0.160567
2.80203,-0.42827,0.231401
3.05701,-0.165027,-0.124727
2.95921,-0.315725,0
3.14017,-0.491177,-0.404563
2.99101,-0.171937,0.0174125
3.05766,-0.632655,-0.291473
2.89057,-0.598083,0.0343645
3.08293,-0.328926,-0.216803
3.00319,-0.621385,-0.178603
2.87463,-0.449642,0.11854
3.04738,-0.325133,-0.142757
3.02304,-0.472855,-0.160357
3.0604,-0.175926,-0.12489
2.96604,-0.32693,0
3.13844,-0.502135,-0.404563
2.99439,-0.18262,0.0174357
3.05154,-0.642503,-0.291101
2.88847,-0.608169,0.0343645
3.07383,-0.338811,-0.216245
3.07454,-0.491911,-0.254183
3.09987,-0.189053,-0.199036
3.00101,-0.631864,-0.178603
2.87305,-0.459673,0.11854
3.04226,-0.335331,-0.142571
3.02137,-0.483405,-0.160357
2.80291,-0.448451,0.231726
3.01727,-0.194589,-0.0527761
2.96885,-0.337733,0
2.92544,-0.626626,-0.0348301
2.98176,-0.192299,0.017366
3.13355,-0.356468,-0.339712
3.04538,-0.652317,-0.290729
3.08056,-0.350441,-0.216803
3.09521,-0.199616,-0.19878
2.99878,-0.642336,-0.178603
2.86748,-0.469054,0.118377
3.04504,-0.3464,-0.142757
3.01967,-0.493948,-0.160357
2.96765,-0.348094,0
2.92714,-0.637685,-0.0348767
3.13486,-0.524033,-0.404563
2.98506,-0.202977,0.0173892
3.04698,-0.663791,-0.291101
2.88806,-0.629171,0.034411
3.07536,-0.360727,-0.216524
3.07496,-0.514021,-0.254508
3.09051,-0.210148,-0.198524
2.98872,-0.651099,-0.178138
2.87371,-0.480378,0.118702
3.01793,-0.504486,-0.160357
2.79578,-0.467351,0.231401
3.05042,-0.207422,-0.124564
3.00657,-0.352659,-0.0704408
2.96245,-0.357971,0
2.9249,-0.647899,-0.0348767
3.13301,-0.534972,-0.404563
2.98433,-0.213396,0.0173892
2.94138,-0.502251,-0.0173428
3.04853,-0.675285,-0.291473
2.88585,-0.639249,0.034411
3.07408,-0.37146,-0.216524
3.07315,-0.524751,-0.254508
3.08577,-0.22065,-0.198268
2.99033,-0.662392,-0.178371
2.8602,-0.488388,0.118214
3.02668,-0.365732,-0.142013
3.01615,-0.515018,-0.160357
2.79806,-0.477778,0.231726
3.04569,-0.217784,-0.124401
2.95721,-0.367816,0
2.98357,-0.223812,0.0173892
3.04615,-0.685922,-0.291473
2.87579,-0.647561,0.0343179
3.0688,-0.381696,-0.216245
3.08499,-0.23142,-0.198268
2.9841,-0.671949,-0.178138
2.86241,-0.499056,0.118377
3.03728,-0.377775,-0.142571
3.0104,-0.524857,-0.160148
3.05288,-0.229012,-0.124727
3.00238,-0.234711,-0.0525666
2.95604,-0.377105,0
2.91664,-0.666392,-0.0348301
3.12446,-0.39859,-0.339283
3.05175,-0.697262,-0.292216
2.88154,-0.658374,0.034411
3.06363,-0.39083,-0.215966
3.0922,-0.241733,-0.19878
2.98587,-0.682209,-0.178371
2.87182,-0.36636,0.168603
2.86476,-0.508745,0.11854
3.03211,-0.386809,-0.142385
3.01266,-0.53501,-0.160357
3.04019,-0.237667,-0.124239
3.00544,-0.246564,-0.0526365
2.95457,-0.388452,0
2.91406,-0.677586,-0.0348301
3.12724,-0.567751,-0.404563
2.97396,-0.243981,0.0173428
3.1229,-0.410584,-0.339283
3.04905,-0.708975,-0.292216
2.87899,-0.669433,0.034411
3.06606,-0.40311,-0.216245
2.9329,-0.240613,0.0856425
2.98711,-0.694574,-0.178603
2.85886,-0.519027,0.118377
3.03061,-0.398449,-0.142385
3.00666,-0.54586,-0.160148
3.03926,-0.249339,-0.124239
2.9966,-0.256372,-0.0524968
2.94924,-0.398228,0
2.91167,-0.687754,-0.0348301
2.97309,-0.254361,0.0173428
3.12145,-0.421482,-0.339283
3.05043,-0.720529,-0.292588
2.87275,-0.678559,0.0343645
3.05673,-0.412743,-0.215687
2.93204,-0.250849,0.0856425
3.07444,-0.263032,-0.197757
2.98079,-0.704078,-0.178371
2.8651,-0.386868,0.168371
2.86096,-0.529731,0.11854
3.0292,-0.409025,-0.142385
3.00866,-0.557079,-0.160357
3.03837,-0.259946,-0.124239
2.99577,-0.265785,-0.0524968
2.94797,-0.407491,0
2.91339,-0.697829,-0.0348767
2.97626,-0.264053,0.017366
3.03266,-0.726398,-0.291101
2.87449,-0.688513,0.034411
3.05146,-0.421797,-0.215408
3.05981,-0.576497,-0.254183
2.93522,-0.260413,0.0857589
3.07757,-0.273042,-0.198013
2.97468,-0.712509,-0.178138
2.85142,-0.537236,0.118214
3.01998,-0.417445,-0.142013
3.01082,-0.567268,-0.160567
3.03754,-0.26949,-0.124239
2.93854,-0.417169,0
2.97129,-0.274592,0.0173428
2.86806,-0.698098,0.0343645
3.0499,-0.432979,-0.215408
3.05767,-0.587708,-0.254183
2.93027,-0.270801,0.0856425
3.08053,-0.284687,-0.198268
2.9798,-0.725296,-0.178603
2.84551,-0.546929,0.118051
3.01843,-0.428511,-0.142013
2.99695,-0.576038,-0.159939
3.03653,-0.280621,-0.124239
2.99778,-0.287597,-0.0525666
2.94498,-0.428576,0
2.90444,-0.7177,-0.0348301
2.97031,-0.284962,0.0173428
3.05232,-0.444197,-0.215687
3.05169,-0.597612,-0.253857
2.9293,-0.281028,0.0856425
3.07554,-0.295057,-0.198013
2.97725,-0.735693,-0.178603
2.85143,-0.558395,0.118377
3.02482,-0.440196,-0.142385
2.99493,-0.586495,-0.159939
2.9888,-0.297268,-0.052427
2.94473,-0.587345,-0.087388
2.94346,-0.438853,0
2.89804,-0.726861,-0.0347836
2.9693,-0.295329,0.0173428
3.11534,-0.46448,-0.339283
3.05469,-0.455437,-0.215966
3.04959,-0.608261,-0.253857
2.92433,-0.290856,0.0855262
3.07449,-0.305791,-0.198013
2.97079,-0.74511,-0.178371
2.84946,-0.568345,0.118377
3.01536,-0.449573,-0.142013
2.99286,-0.596946,-0.159939
3.03052,-0.301418,-0.124076
2.98779,-0.307177,-0.052427
2.93804,-0.448009,0
2.90336,-0.738439,-0.0348767
2.95637,-0.303946,0.017273
3.10986,-0.474208,-0.338855
3.05317,-0.465564,-0.215966
3.04755,-0.61837,-0.253857
2.91539,-0.299734,0.0852934
3.06552,-0.315168,-0.197501
2.96831,-0.754957,-0.178371
2.85806,-0.435814,0.168371
2.84756,-0.57779,0.118377
3.01781,-0.460172,-0.142199
2.99086,-0.606867,-0.159939
2.78578,-0.565254,0.232052
3.0295,-0.311466,-0.124076
2.99062,-0.31855,-0.0524968
2.93638,-0.458774,0
3.05144,-0.476751,-0.215966
2.91825,-0.310841,0.0854098
3.06434,-0.326402,-0.197501
2.96939,-0.76683,-0.178603
2.84151,-0.587414,0.118214
3.01215,-0.470613,-0.142013
2.99644,-0.619443,-0.160357
3.02834,-0.322567,-0.124076
2.98949,-0.328987,-0.0524968
2.93081,-0.46839,0
2.898,-0.759196,-0.0348767
2.96207,-0.325969,0.0173195
3.03794,-0.485511,-0.215129
2.91715,-0.321025,0.0854098
3.06715,-0.337533,-0.197757
2.95897,-0.775166,-0.178138
2.84335,-0.598152,0.118377
3.00655,-0.480494,-0.141827
2.98644,-0.628254,-0.159939
3.02323,-0.332699,-0.123913
2.9774,-0.475836,-0.0701616
2.98845,-0.338377,-0.0524968
2.92932,-0.477595,0
2.96103,-0.335273,0.0173195
3.10088,-0.505566,-0.338427
3.0364,-0.495052,-0.215129
3.03712,-0.648886,-0.253532
2.90818,-0.329289,0.0851771
3.06608,-0.347167,-0.197757
2.96038,-0.785482,-0.178371
3.00502,-0.489937,-0.141827
2.98446,-0.637633,-0.159939
2.98712,-0.349849,-0.0524968
2.93403,-0.638648,-0.087388
2.92747,-0.48884,0
2.9478,-0.345244,0.0172498
3.09892,-0.517469,-0.338427
3.03841,-0.507365,-0.215408
3.03851,-0.661391,-0.253857
2.90292,-0.339988,0.0850607
3.05679,-0.358009,-0.197245
2.95734,-0.796844,-0.178371
3.00312,-0.501472,-0.141827
2.98589,-0.649937,-0.160148
2.97397,-0.358837,-0.0522874
2.93178,-0.648886,-0.087388
2.92969,-0.499728,0
2.95452,-0.35649,0.0172963
3.03662,-0.517968,-0.215408
3.03618,-0.671993,-0.253857
2.90966,-0.351077,0.0852934
3.05949,-0.369155,-0.197501
2.95069,-0.80611,-0.178138
2.84207,-0.484782,0.167906
3.00135,-0.511952,-0.141827
2.9875,-0.661219,-0.160357
3.01561,-0.363861,-0.12375
2.98064,-0.370202,-0.052427
2.92004,-0.508579,0
3.09523,-0.539091,-0.338427
3.04265,-0.529934,-0.215966
3.03382,-0.682587,-0.253857
2.90841,-0.361231,0.0852934
3.05422,-0.37934,-0.197245
2.95555,-0.818536,-0.178603
3.00348,-0.523111,-0.142013
2.98518,-0.671644,-0.160357
3.01829,-0.374877,-0.123913
2.97946,-0.379564,-0.052427
2.91843,-0.51775,0
2.95209,-0.376077,0.0172963
3.03312,-0.538096,-0.215408
2.9033,-0.369861,0.0851771
3.05301,-0.388934,-0.197245
2.94912,-0.826739,-0.178371
2.84272,-0.504318,0.168138
2.99789,-0.531846,-0.141827
2.97137,-0.678351,-0.159729
3.01313,-0.383853,-0.12375
2.97812,-0.389962,-0.052427
2.92054,-0.528646,0
2.95076,-0.386379,0.0172963
3.0955,-0.560315,-0.338855
3.02729,-0.547969,-0.215129
3.02534,-0.701792,-0.253532
2.90199,-0.379993,0.0851771
3.05164,-0.399588,-0.197245
2.94622,-0.837028,-0.178371
2.99994,-0.543019,-0.142013
2.97287,-0.689622,-0.159939
2.97271,-0.400341,-0.0523572
2.91858,-0.539347,0
2.9414,-0.396124,0.0172498
3.02919,-0.559786,-0.215408
3.02663,-0.713791,-0.253857
2.89661,-0.390093,0.0850607
3.04619,-0.410238,-0.196989
2.9508,-0.850032,-0.178836
2.83904,-0.524647,0.168138
2.99793,-0.554011,-0.142013
2.97421,-0.70143,-0.160148
3.00634,-0.404871,-0.123587
2.96733,-0.410167,-0.0522874
2.91668,-0.549531,0
2.94,-0.406389,0.0172498
3.03114,-0.571096,-0.215687
2.89127,-0.399654,0.0849444
3.04474,-0.420868,-0.196989
2.83327,-0.533815,0.167906
2.99598,-0.564472,-0.142013
2.97563,-0.712738,-0.160357
3.00095,-0.414815,-0.123424
2.96588,-0.420523,-0.0522874
2.91475,-0.559709,0
2.94252,-0.417211,0.017273
3.02913,-0.581673,-0.215687
3.02544,-0.735845,-0.254183
2.89778,-0.410867,0.0851771
3.04721,-0.432054,-0.197245
2.83531,-0.544455,0.168138
2.99007,-0.574173,-0.141827
2.97313,-0.723121,-0.160357
2.99949,-0.425288,-0.123424
2.96843,-0.43093,-0.0523572
2.90502,-0.567837,0
3.01935,-0.590184,-0.215129
2.90036,-0.421049,0.0852934
3.04576,-0.442157,-0.197245
2.98815,-0.584085,-0.141827
2.96683,-0.732019,-0.160148
3.00202,-0.435806,-0.123587
2.96683,-0.441807,-0.0523572
2.91077,-0.580044,0
3.02108,-0.602026,-0.215408
3.0125,-0.75501,-0.253532
2.88693,-0.429909,0.0849444
3.04807,-0.453905,-0.197501
2.98991,-0.595815,-0.142013
2.96026,-0.741917,-0.159939
2.96535,-0.451643,-0.0523572
2.90883,-0.589693,0
2.93807,-0.447489,0.017273
3.07529,-0.62344,-0.337998
3.01124,-0.610455,-0.21485
3.01384,-0.765978,-0.253857
2.88944,-0.440082,0.0850607
3.03471,-0.462207,-0.196733
2.99183,-0.60652,-0.142199
2.96165,-0.752714,-0.160148
2.9519,-0.460144,-0.0521478
2.90284,-0.599035,0
2.92463,-0.455893,0.0172033
3.013,-0.621769,-0.215129
2.99957,-0.773507,-0.252881
2.89579,-0.451397,0.0852934
3.03307,-0.472798,-0.196733
2.98578,-0.616152,-0.142013
2.96287,-0.764045,-0.160357
2.99729,-0.467219,-0.123587
2.95027,-0.470445,-0.0521478
2.90073,-0.609164,0
2.93487,-0.467989,0.017273
3.01081,-0.632283,-0.215129
2.8942,-0.461503,0.0852934
3.03535,-0.484011,-0.196989
2.97188,-0.624107,-0.141455
2.95632,-0.773371,-0.160148
2.98774,-0.47642,-0.123262
2.95651,-0.482027,-0.0522874
2.89467,-0.61845,0
2.92927,-0.477587,0.0172498
3.07637,-0.657271,-0.338855
3.00859,-0.642789,-0.215129
2.88073,-0.469673,0.0849444
3.03364,-0.494603,-0.196989
2.9775,-0.636147,-0.141827
2.94975,-0.782662,-0.159939
2.9979,-0.488776,-0.12375
2.95086,-0.491687,-0.0522176
2.8964,-0.6294,0
2.92364,-0.487152,0.0172265
3.01022,-0.654134,-0.215408
2.87907,-0.479725,0.0849444
3.03583,-0.505845,-0.197245
2.97136,-0.645688,-0.141641
2.947,-0.792954,-0.159939
2.98829,-0.497923,-0.123424
2.95307,-0.502656,-0.0522874
2.89809,-0.64037,0
2.92587,-0.498026,0.0172498
3.00792,-0.664638,-0.215408
2.87344,-0.489101,0.084828
3.02224,-0.51443,-0.196478
2.97689,-0.65778,-0.142013
2.94806,-0.804287,-0.160148
2.98653,-0.508351,-0.123424
2.94342,-0.511591,-0.0521478
2.89584,-0.650482,0
2.92017,-0.507551,0.0172265
2.86775,-0.644171,0.0683936
3.00558,-0.675133,-0.215408
2.87565,-0.499813,0.0849444
3.02436,-0.52566,-0.196733
2.97457,-0.668167,-0.142013
2.94139,-0.813508,-0.159939
2.98474,-0.518773,-0.123424
2.94188,-0.660823,-0.0701616
2.94949,-0.52326,-0.0522874
2.88965,-0.659696,0
2.92232,-0.51844,0.0172498
2.86548,-0.654177,0.0683936
3.00321,-0.685621,-0.215408
2.87783,-0.510546,0.0850607
3.02644,-0.536911,-0.196989
2.96443,-0.676768,-0.141641
2.94238,-0.824849,-0.160148
2.98291,-0.529189,-0.123424
2.94371,-0.53284,-0.0522176
2.88344,-0.668875,0
2.92049,-0.528637,0.0172498
3.0008,-0.6961,-0.215408
2.87209,-0.519877,0.0849444
3.02454,-0.547472,-0.196989
2.96594,-0.688015,-0.141827
2.93564,-0.834023,-0.159939
2.98104,-0.539598,-0.123424
2.94183,-0.543112,-0.0522176
2.88498,-0.679853,0
2.91076,-0.537376,0.0172033
2.99835,-0.70657,-0.215408
2.87026,-0.529899,0.0849444
3.01476,-0.556577,-0.196478
2.9713,-0.700196,-0.142199
2.93271,-0.844265,-0.159939
2.97521,-0.549275,-0.123262
2.94787,-0.554343,-0.0523572
2.8866,-0.690347,0
2.90896,-0.547026,0.0172033
2.99211,-0.715581,-0.215129
2.86849,-0.539414,0.0849444
2.96508,-0.709116,-0.142013
2.93373,-0.855103,-0.160148
2.9773,-0.559877,-0.123424
2.93807,-0.563124,-0.0522176
2.88806,-0.701363,0
2.90704,-0.557176,0.0172033
2.98959,-0.726021,-0.215129
2.86266,-0.548671,0.084828
3.01875,-0.578587,-0.196989
2.96259,-0.719462,-0.142013
2.93072,-0.865339,-0.160148
2.97533,-0.570266,-0.123424
2.93608,-0.573376,-0.0522176
2.88171,-0.710482,0
2.91293,-0.568854,0.0172498
2.99479,-0.738363,-0.215687
2.86858,-0.560193,0.0850607
3.00887,-0.587591,-0.196478
2.95618,-0.728842,-0.141827
2.97332,-0.580648,-0.123424
2.92752,-0.721777,-0.0701616
2.93406,-0.583621,-0.0522176
2.87533,-0.719566,0
2.91092,-0.579018,0.0172498
2.98832,-0.747843,-0.215408
2.87052,-0.570983,0.0851771
3.01463,-0.599648,-0.196989
2.95749,-0.740127,-0.142013
2.96736,-0.590244,-0.123262
2.92498,-0.731992,-0.0701616
2.93593,-0.594653,-0.0522874
2.90888,-0.589176,0.0172498
2.98956,-0.759252,-0.215687
2.86068,-0.579412,0.0849444
3.01252,-0.610167,-0.196989
2.95876,-0.75143,-0.142199
2.96528,-0.600598,-0.123262
2.93383,-0.604898,-0.0522874
2.89506,-0.596903,0.01718
2.97917,-0.767691,-0.215129
2.85472,-0.588587,0.084828
3.00256,-0.619067,-0.196478
2.94838,-0.759759,-0.141827
2.97099,-0.612559,-0.123587
2.9317,-0.615135,-0.0522874
2.89687,-0.607826,0.0172033
2.98419,-0.780104,-0.215687
2.85656,-0.599369,0.0849444
3.00428,-0.630364,-0.196733
2.95344,-0.772067,-0.142199
2.96492,-0.622106,-0.123424
2.92563,-0.62453,-0.0522176
2.89864,-0.61877,0.0172265
2.97759,-0.789494,-0.215408
2.86227,-0.611006,0.0851771
3.00206,-0.640847,-0.196733
2.93528,-0.778276,-0.141455
2.96664,-0.633286,-0.123587
2.92365,-0.633718,-0.0522176
2.88887,-0.626178,0.01718
2.85252,-0.618301,0.0849444
2.99613,-0.649429,-0.196478
2.93668,-0.78853,-0.141641
2.96464,-0.642603,-0.123587
2.9159,-0.782949,-0.0702547
2.92142,-0.64392,-0.0522176
2.89838,-0.638841,0.0172498
2.97229,-0.809224,-0.215408
2.85035,-0.628254,0.0849444
3.00554,-0.662462,-0.197245
2.93391,-0.798776,-0.141641
2.95457,-0.651227,-0.123262
2.91904,-0.654623,-0.0522176
2.88821,-0.64771,0.0172033
2.98084,-0.8233,-0.216245
2.99531,-0.671726,-0.196733
2.93867,-0.811651,-0.142013
2.95217,-0.662051,-0.123262
2.91284,-0.66392,-0.0521478
2.88593,-0.657787,0.0172033
2.99683,-0.683065,-0.196989
2.92812,-0.81975,-0.141641
2.95373,-0.67324,-0.123424
2.91452,-0.674477,-0.0522176
2.89153,-0.669158,0.0172498
2.99455,-0.692999,-0.196989
2.95148,-0.683032,-0.123424
2.91215,-0.684647,-0.0522176
2.88528,-0.678331,0.0172265
2.98823,-0.702534,-0.196733
2.95297,-0.694245,-0.123587
2.91752,-0.696666,-0.0523572
2.8829,-0.688399,0.0172265
2.98964,-0.713888,-0.196989
2.91952,-0.849858,-0.141641
2.94276,-0.702692,-0.123262
2.90717,-0.705468,-0.0522176
2.87258,-0.697074,0.01718
2.98701,-0.72484,-0.196989
2.94405,-0.714415,-0.123424
2.90494,-0.714598,-0.0522176
2.98471,-0.734221,-0.196989
2.94179,-0.723661,-0.123424
2.90218,-0.725746,-0.0522176
2.98574,-0.746644,-0.197245
2.93899,-0.734951,-0.123424
2.89988,-0.73486,-0.0522176
2.98338,-0.756021,-0.197245
2.94054,-0.745162,-0.123587
2.8973,-0.744978,-0.0522176
2.97686,-0.765436,-0.196989
2.93018,-0.753432,-0.123262
2.89442,-0.756097,-0.0522176
2.9739,-0.77686,-0.196989
2.93113,-0.765687,-0.123424
2.89976,-0.767233,-0.0523572
2.97145,-0.7862,-0.196989
2.93257,-0.775914,-0.123587
2.97254,-0.797601,-0.197245
2.92985,-0.786146,-0.123587
2.96588,-0.806925,-0.196989
2.92708,-0.796368,-0.123587
2.96675,-0.818852,-0.197245
2.92029,-0.806028,-0.123424
2.96003,-0.828127,-0.196989
2.91746,-0.816217,-0.123424
2.95343,-0.83685,-0.196733
2.92243,-0.828066,-0.12375
