2.38606,0.56756,-0.128537
2.37462,0.556525,-0.0709809
2.29754,0.421263,-0.0271936
2.38727,0.55949,-0.0142508
2.30148,0.421984,0.0272401
2.37552,0.556734,-0.19918
2.29774,0.421299,-0.136045
2.37626,0.556909,-0.127909
2.29112,0.411826,-0.0271004
2.38142,0.549357,-0.0142043
2.3088,0.415004,-0.218976
2.29506,0.412534,0.027147
2.36968,0.546648,-0.198529
2.38889,0.55108,0.0427933
2.37041,0.546817,-0.12749
2.28868,0.402731,-0.0270539
2.37951,0.539738,-0.0141811
2.29854,0.404466,-0.217861
2.28868,0.402731,0.0270539
2.36,0.535312,-0.197553
2.37919,0.539665,0.0425839
2.2889,0.402769,-0.135348
2.36461,0.536357,-0.127072
2.28212,0.393781,-0.0269608
2.37739,0.530974,-0.0141578
2.29594,0.396166,-0.217489
2.29,0.395141,0.0270539
2.37706,0.530902,0.0425141
2.28628,0.3945,-0.135115
2.36247,0.527643,-0.126862
2.35092,0.516454,-0.07005
2.27559,0.384479,-0.0268676
2.37141,0.520955,-0.0141113
2.29338,0.387485,-0.217117
2.28742,0.386478,0.0270073
2.35191,0.51667,-0.196577
2.36328,0.519168,0.0422348
2.27583,0.38452,-0.134417
2.3565,0.517678,-0.126444
2.34498,0.506147,-0.0698173
2.26909,0.374833,-0.0267745
2.35376,0.508041,-0.0139951
2.29086,0.378429,-0.216746
2.28488,0.377441,0.0269608
2.34599,0.506365,-0.195926
2.36126,0.50966,0.042165
2.27329,0.375526,-0.134185
2.35838,0.509039,-0.126444
2.26644,0.366271,-0.0267279
2.3516,0.498991,-0.0139718
2.27644,0.367888,-0.215258
2.27828,0.368186,0.0268676
2.34774,0.498172,-0.195926
2.3552,0.499753,0.0420254
2.2667,0.366314,-0.13372
2.34578,0.497756,0.0976975
2.35623,0.499973,-0.126234
2.26369,0.358129,-0.0266814
2.33445,0.487267,-0.303549
2.34933,0.490373,-0.0139486
2.27371,0.359715,-0.214887
2.27159,0.359379,0.0267745
2.34158,0.488755,-0.195275
2.34901,0.490306,0.0418858
2.26396,0.358171,-0.133487
2.34742,0.489975,0.0976975
2.34615,0.489709,-0.125606
2.33049,0.477957,-0.0692355
2.25307,0.348392,-0.0265417
2.34319,0.480562,-0.0139021
2.26493,0.350226,0.0266814
2.33546,0.478977,-0.194624
2.35071,0.482104,0.0418858
2.26125,0.349657,-0.133255
2.32954,0.477763,0.0968833
2.3361,0.479109,-0.124978
2.32422,0.468645,-0.0690027
2.33693,0.471208,-0.0138556
2.2643,0.342443,-0.213771
2.26608,0.342712,0.0266814
2.32531,0.468865,-0.193647
2.34837,0.473515,0.041816
2.25055,0.340364,-0.132557
2.33111,0.470035,0.0968833
2.33768,0.471359,-0.124978
2.40357,0.608198,-0.0576926
2.322,0.459347,-0.0688864
2.25149,0.332069,-0.0264951
2.31607,0.458173,-0.300518
2.33079,0.461086,-0.0138091
2.2616,0.33356,-0.2134
2.26732,0.334404,0.0266814
2.3967,0.597121,-0.172717
2.33092,0.461112,-0.193973
2.3344,0.4618,0.0415367
2.24783,0.33153,-0.132324
2.3289,0.460712,0.0967205
2.40383,0.598897,-0.115397
2.32764,0.460462,-0.12435
2.39803,0.59745,-0.0575065
2.39686,0.588283,0
2.24472,0.323069,-0.026402
2.30986,0.448574,-0.299508
2.32061,0.45066,-0.0137394
2.24698,0.323394,-0.211912
2.26055,0.325348,0.0265882
2.39102,0.58685,-0.172159
2.32469,0.451454,-0.193322
2.32029,0.450599,0.0412575
2.23712,0.321976,-0.131627
2.31872,0.450294,0.096232
2.32923,0.452335,-0.12435
2.39621,0.588123,-0.0574134
2.23785,0.314511,-0.0263088
2.30744,0.440168,-0.299003
2.31423,0.441464,-0.0136929
2.25198,0.316496,-0.212284
2.24974,0.316181,0.0264485
2.31443,0.441502,-0.192346
2.32177,0.442903,0.0412575
2.24213,0.315111,-0.131859
2.31235,0.441105,0.0959064
2.30717,0.440118,-0.123094
2.38649,0.577354,-0.0571343
2.23101,0.305611,-0.0262157
2.30506,0.431381,-0.298498
2.30789,0.431911,-0.0136464
2.24518,0.307552,-0.211541
2.24686,0.307782,0.026402
2.30028,0.430486,-0.191044
2.31151,0.432588,0.0410481
2.2353,0.306199,-0.131394
2.30995,0.432295,0.0957435
2.3087,0.432061,-0.123094
2.3846,0.568092,-0.0570412
2.37563,0.556762,0
2.23212,0.297432,-0.0262157
2.30553,0.422728,-0.0136231
2.24235,0.298795,-0.211169
2.30184,0.422053,-0.191044
2.29735,0.421228,0.0407688
2.22849,0.296949,-0.130929
2.30365,0.422385,0.0954179
2.29848,0.421435,-0.122466
2.38277,0.558437,-0.0569482
2.29031,0.411679,-0.0677228
2.22521,0.288609,-0.0261226
2.28856,0.411365,-0.295973
2.30699,0.414677,-0.0136231
2.23153,0.289429,-0.210054
2.24108,0.290667,0.0263088
2.29545,0.412604,-0.190393
2.2988,0.413206,0.0407688
2.2216,0.288141,-0.130464
2.29725,0.412926,0.0950922
2.296,0.412702,-0.122257
2.37302,0.547418,-0.056669
2.22219,0.280727,-0.026076
2.28601,0.403084,-0.295468
2.28865,0.403551,-0.0135069
2.22457,0.281028,-0.20931
2.37872,0.540431,0.0567621
2.28896,0.403604,-0.189742
2.29622,0.404885,0.040699
2.22254,0.280771,-0.130464
2.29073,0.403917,0.0947666
2.29342,0.404392,-0.122047
2.37092,0.53866,-0.056576
2.21918,0.272482,-0.0260295
2.28349,0.394428,-0.294963
2.28611,0.39488,-0.0134836
2.21763,0.272292,-0.208567
2.37669,0.531254,0.056669
2.22712,0.273457,0.0261226
2.28642,0.394935,-0.189416
2.28974,0.395508,0.0405594
2.22351,0.273013,-0.130464
2.28819,0.39524,0.0946037
2.27908,0.393666,-0.12121
2.28642,0.394935,0.189416
2.36888,0.529509,-0.0564829
2.20821,0.263313,-0.0258898
2.27311,0.384469,-0.293447
2.27564,0.384896,-0.0134139
2.35384,0.517525,-0.259603
2.21857,0.264549,-0.208567
2.36681,0.520378,0.0563898
2.22409,0.265207,0.026076
2.276,0.384956,-0.18844
2.27928,0.385511,0.04035
2.22048,0.264777,-0.130231
2.28167,0.385917,0.0942781
2.28044,0.385708,-0.12121
2.36291,0.519519,-0.0562968
2.34971,0.508026,0
2.20514,0.255144,-0.0258432
2.28092,0.377604,-0.0134371
2.34397,0.506785,-0.258318
2.21552,0.256346,-0.208195
2.36861,0.512114,0.0563898
2.21308,0.256063,0.0259363
2.34398,0.506788,-0.167695
2.26946,0.375707,-0.187789
2.27272,0.376247,0.0402103
2.21346,0.256107,-0.129766
2.27906,0.377297,0.0941152
2.27389,0.376441,-0.120791
2.35689,0.509578,-0.0561107
2.34364,0.498157,0
2.20204,0.246999,-0.0257966
2.27038,0.367721,-0.0133674
2.21245,0.248166,-0.207823
2.21794,0.248782,0.0259829
2.27076,0.367783,-0.187789
2.27402,0.36831,0.0402103
2.2064,0.247488,-0.129301
2.28431,0.369978,0.0942781
2.3411,0.497617,-0.111489
2.27519,0.3685,-0.120791
2.35083,0.499685,-0.0559246
2.26243,0.358334,-0.45813
2.34145,0.489154,0
2.19494,0.238446,-0.0257035
2.25742,0.35754,-0.290922
2.26769,0.359167,-0.0133442
2.20142,0.239151,-0.206708
2.34865,0.490657,0.0558315
2.21084,0.240174,0.0258898
2.33575,0.487963,-0.166857
2.26021,0.357982,-0.186813
2.26739,0.359118,0.0400707
2.20328,0.239353,-0.129069
2.2698,0.359501,0.0936268
2.26462,0.358681,-0.120163
2.26415,0.358606,0.187138
2.34865,0.490657,-0.0558315
2.2558,0.350022,-0.456561
2.33122,0.479379,0
2.19567,0.23155,-0.0257035
2.25461,0.349838,-0.290417
2.26486,0.351428,-0.0133209
2.3295,0.479025,-0.256176
2.1982,0.231816,-0.206336
2.35018,0.483277,0.0558315
2.20363,0.232389,0.0257966
2.26133,0.35088,-0.186813
2.27246,0.352607,0.0401405
2.20799,0.232849,-0.129301
2.35466,0.484199,0.139999
2.27487,0.352981,0.0937896
2.33261,0.479665,-0.11093
2.25785,0.35034,-0.119745
2.25739,0.350269,0.186487
2.34234,0.481666,-0.0556454
2.32504,0.469655,0
2.18453,0.222668,-0.0255638
2.2519,0.341372,-0.289912
2.26212,0.342921,-0.0132977
2.32336,0.469317,-0.255319
2.19503,0.223738,-0.205964
2.34401,0.473487,0.0556454
2.19647,0.223884,0.0257035
2.32329,0.469301,-0.165741
2.25786,0.342275,0.0398613
2.19688,0.223926,-0.128604
2.34068,0.472814,0.139069
2.26818,0.343841,0.0934639
2.32644,0.469938,-0.110558
2.25511,0.341858,-0.119535
2.33617,0.471904,-0.0554593
2.31882,0.459979,0
2.18132,0.214649,-0.0255173
2.24522,0.332346,-0.288902
2.2633,0.335022,-0.0132977
2.31718,0.459655,-0.254463
2.1958,0.216074,-0.205964
2.3378,0.463745,0.0554593
2.19326,0.215824,0.0256569
2.321,0.460412,-0.165462
2.24795,0.33275,-0.185511
2.25508,0.333806,0.0397915
2.19367,0.215864,-0.128371
2.3384,0.463863,0.138836
2.26542,0.335336,0.0933011
2.32414,0.461036,-0.110372
2.24838,0.332814,-0.119117
2.24795,0.33275,0.185511
2.33388,0.462967,-0.0553663
2.23993,0.323576,-0.452639
2.32826,0.453411,0
2.17807,0.206655,-0.0254707
2.23852,0.323372,-0.287892
2.25258,0.325404,-0.0132279
2.31487,0.450803,-0.254034
2.19258,0.208031,-0.205592
2.33156,0.454053,0.0552732
2.194,0.208166,0.0256569
2.31867,0.451544,-0.165183
2.2412,0.32376,-0.18486
2.24832,0.324788,0.0396519
2.19043,0.207828,-0.128138
2.32824,0.453407,0.138138
2.25471,0.325711,0.0928126
2.32182,0.452156,-0.110186
2.24162,0.323821,-0.118698
2.2412,0.32376,0.18486
2.31978,0.45176,-0.0549941
2.23328,0.314662,-0.45107
2.32197,0.443781,0
2.17878,0.199052,-0.0254707
2.23963,0.315558,-0.287892
2.24974,0.316982,-0.0132047
2.30862,0.441229,-0.253177
2.18139,0.199291,-0.204477
2.31349,0.44216,0.054808
2.3124,0.441951,-0.164625
2.24232,0.315937,-0.18486
2.24944,0.316939,0.0396519
2.18319,0.199455,-0.127673
2.32197,0.44378,0.137673
2.25187,0.317282,0.0926498
2.30768,0.44105,-0.109441
2.23878,0.315439,-0.118489
2.23442,0.314824,0.184209
2.31742,0.44291,-0.054901
2.23048,0.306331,-0.450285
2.30778,0.432724,0
2.18344,0.191795,-0.0255173
2.23286,0.306658,-0.286881
2.38112,0.568141,0.0142276
2.25083,0.309127,-0.0132047
2.31014,0.433167,-0.253177
2.17811,0.191326,-0.204105
2.32288,0.435555,0.0549941
2.17149,0.190745,0.0253776
2.30216,0.43167,-0.163788
2.23551,0.307022,-0.184209
2.24657,0.308541,0.0395821
2.1799,0.191483,-0.127441
2.31958,0.434935,0.137441
2.25297,0.309419,0.0926498
2.30921,0.432991,-0.109441
2.23196,0.306534,-0.11807
2.23156,0.306479,0.183884
2.31502,0.434081,-0.054808
2.22324,0.297435,-0.0652792
2.22376,0.297503,-0.448716
2.30534,0.423942,0
2.17613,0.1835,-0.0254241
2.22998,0.298336,-0.286376
2.3753,0.557997,0.0141811
2.24,0.299677,-0.0131349
2.30773,0.424381,-0.252749
2.17479,0.183388,-0.203733
2.31259,0.425274,0.0547149
2.17214,0.183164,0.0253776
2.30758,0.424353,-0.164067
2.2397,0.299636,0.0394424
2.31715,0.426114,0.137208
2.30678,0.424206,-0.109255
2.22905,0.298212,-0.117861
2.22471,0.297631,0.183233
2.30865,0.424551,-0.0546219
2.2203,0.289155,-0.0651628
2.22089,0.289232,-0.447932
2.30681,0.415892,0
2.16878,0.175258,-0.025331
2.22707,0.290037,-0.285871
2.37333,0.5488,0.0141578
2.24104,0.291856,-0.0131349
2.29746,0.414206,-0.251464
2.31406,0.417199,0.0547149
2.1648,0.174936,0.0252844
2.29726,0.414171,-0.16323
2.22178,0.289348,-0.182907
2.22884,0.290267,0.039233
2.30684,0.415897,0.13651
2.30431,0.415442,-0.109069
2.22612,0.289913,-0.117651
2.29831,0.414361,-0.0543427
2.21733,0.2809,-0.0650464
2.29643,0.405749,0
2.15742,0.166761,-0.0251913
2.2202,0.281263,-0.284861
2.23014,0.282522,-0.0130652
2.29497,0.405491,-0.251036
2.30368,0.407031,0.0544357
2.16539,0.167378,0.0252844
2.2987,0.406149,-0.16323
2.21883,0.281089,-0.182582
2.36647,0.538518,0.0706318
2.22587,0.281982,0.0391632
2.16188,0.167106,-0.126278
2.29255,0.405062,0.13558
2.23229,0.282795,0.0916728
2.29394,0.405309,-0.108511
2.22316,0.281638,-0.117442
2.21883,0.281089,0.182582
2.29581,0.405639,-0.0542496
2.20728,0.271803,-0.444794
2.28995,0.396366,0
2.154,0.158936,-0.0251447
2.21723,0.273027,-0.284356
2.35759,0.527848,0.0140416
2.22317,0.273759,-0.0130187
2.29245,0.3968,-0.250607
2.16468,0.159724,-0.202618
2.28933,0.396259,0.0540635
2.154,0.158936,0.0251447
2.2883,0.396081,-0.162393
2.21584,0.272856,-0.182256
2.36444,0.529381,0.0705155
2.22684,0.274211,0.0391632
2.29395,0.397058,0.13558
2.2293,0.274513,0.09151
2.28353,0.395256,-0.107952
2.22016,0.273388,-0.117233
2.28539,0.395577,-0.0539705
2.20336,0.263515,-0.064581
2.27949,0.386366,0
2.15055,0.151136,-0.0250982
2.21423,0.264815,-0.283851
2.35551,0.518756,0.0140183
2.29383,0.388796,-0.250607
2.28676,0.387598,0.0539705
2.15454,0.151416,0.0251447
2.27787,0.386091,-0.161556
2.21282,0.264646,-0.181931
2.35456,0.518545,0.0701664
2.22381,0.265961,0.0390934
2.28744,0.387714,0.135115
2.22231,0.265781,0.0911843
2.29278,0.388618,-0.108324
2.21714,0.265163,-0.117023
2.20886,0.264173,0.181606
2.28676,0.387598,-0.0539705
2.34526,0.507922,-0.0418858
2.20426,0.255823,-0.064581
2.20134,0.255483,-0.443225
2.27688,0.377752,0
2.14308,0.143096,-0.025005
2.2112,0.256627,-0.283346
2.34949,0.508837,0.0139718
2.28732,0.379485,-0.24975
2.15382,0.143813,-0.201503
2.28021,0.378304,0.0537844
2.14308,0.143096,0.025005
2.27527,0.377485,-0.161277
2.20581,0.256002,-0.18128
2.35244,0.509477,0.07005
2.22075,0.257737,0.0390236
2.34472,0.507804,-0.153754
2.15554,0.143927,-0.125813
2.2809,0.37842,0.13465
2.21925,0.257562,0.0910215
2.27835,0.377997,-0.10758
2.21011,0.256502,-0.116605
2.27232,0.376995,-0.0535983
2.34311,0.498899,-0.041816
2.1972,0.247232,-0.0643483
2.27423,0.369161,0
2.14756,0.135866,-0.0250516
2.20419,0.248019,-0.282336
2.21797,0.249569,-0.0129722
2.27686,0.369586,-0.248465
2.27362,0.369061,0.0535983
2.14357,0.135614,0.025005
2.27263,0.368901,-0.160998
2.1948,0.246963,-0.180304
2.20972,0.248641,0.0388142
2.14407,0.135645,-0.125115
2.27827,0.369816,0.134417
2.27966,0.370041,-0.10758
2.21099,0.248785,-0.116605
2.19876,0.247408,0.180629
2.27362,0.369061,-0.0535983
2.19403,0.23951,-0.0642319
2.18743,0.238789,-0.440087
2.26359,0.359733,0
2.14001,0.128265,-0.0249585
2.19317,0.239416,-0.280821
2.20288,0.240476,-0.0128792
2.26236,0.359536,-0.246752
2.27088,0.360891,0.0535052
2.14401,0.128504,0.025005
2.26596,0.360109,-0.16044
2.19957,0.240115,-0.180629
2.34412,0.490992,0.0697009
2.20655,0.240877,0.0387443
2.3364,0.489376,-0.152986
2.13654,0.128056,-0.12465
2.25976,0.359124,0.133255
2.21301,0.241582,0.0906958
2.27693,0.361852,-0.107394
2.20386,0.240584,-0.116186
2.21022,0.241277,0.405374
2.26693,0.360263,-0.0534122
2.18825,0.231152,-0.440087
2.26879,0.352443,0
2.12847,0.120117,-0.0248188
2.19399,0.231759,-0.280821
2.2636,0.351637,-0.246752
2.25632,0.350506,0.053133
2.13646,0.120568,0.0249119
2.25932,0.350972,-0.159882
2.19643,0.232016,-0.180304
2.33407,0.480388,0.0693518
2.2034,0.232753,0.0386745
2.33028,0.479608,-0.152475
2.13697,0.120597,-0.12465
2.20191,0.232595,0.0902073
2.26238,0.351448,-0.106649
2.20469,0.232889,-0.116186
2.1885,0.231179,0.179653
2.32921,0.479388,-0.0968833
2.20713,0.233147,0.404656
2.26027,0.35112,-0.0532261
2.32852,0.470782,-0.0414669
2.18769,0.223376,-0.0639992
2.25419,0.342122,0
2.13287,0.112899,-0.0248654
2.25084,0.341613,-0.354188
2.18689,0.223294,-0.27981
2.19654,0.224279,-0.0128327
2.25302,0.341944,-0.245466
2.25753,0.342629,0.053133
2.12888,0.112688,0.0248188
2.25659,0.342486,-0.159603
2.19326,0.223945,-0.179978
2.32789,0.470655,0.0691191
2.20022,0.224655,0.0386047
2.13738,0.113138,-0.12465
2.25432,0.342142,0.13279
2.19873,0.224503,0.0900445
2.25569,0.342351,-0.106277
2.19754,0.224382,-0.115767
2.26486,0.343742,0.281274
2.18136,0.22273,0.179002
2.32695,0.470464,-0.0967205
2.2001,0.224643,0.403221
2.25753,0.342629,-0.053133
2.18846,0.215738,-0.0639992
2.182,0.215101,-0.438518
2.25141,0.333664,0
2.12526,0.105058,-0.0247722
2.19161,0.216048,-0.280315
2.32262,0.461155,0.0137626
2.19731,0.21661,-0.0128327
2.2542,0.334077,-0.245466
2.25476,0.33416,0.05304
2.12127,0.104861,0.0247257
2.24987,0.333436,-0.159045
2.1861,0.215504,-0.179327
2.19701,0.216581,0.0385349
2.31791,0.460219,-0.151451
2.12979,0.105282,-0.124185
2.2476,0.3331,0.132324
2.19553,0.216434,0.0898817
2.25292,0.333888,-0.106091
2.19434,0.216317,-0.115558
2.26605,0.335833,0.281274
2.25871,0.334746,-0.053133
2.31605,0.451454,-0.0411877
2.18124,0.207341,-0.0637664
2.17493,0.206741,-0.436949
2.25256,0.325804,0
2.12162,0.0974559,-0.0247257
2.24534,0.32476,-0.352958
2.17655,0.206895,-0.278295
2.19407,0.208561,-0.0128095
2.25141,0.325638,-0.245038
2.24799,0.325143,0.0528539
2.12561,0.0976394,0.0247722
2.24707,0.32501,-0.158766
2.18287,0.207495,-0.179002
2.18183,0.207397,0.0382557
2.31166,0.450598,-0.15094
2.12216,0.0974809,-0.12372
2.24875,0.325252,0.132324
2.24617,0.324879,-0.105719
2.1911,0.208278,-0.115348
2.25542,0.326217,0.279812
2.19378,0.208533,0.401786
2.24799,0.325143,-0.0528539
2.17797,0.199361,-0.0636501
2.17564,0.199147,-0.436949
2.2418,0.316262,0
2.11395,0.0897098,-0.0246325
2.23472,0.315263,-0.351113
2.16935,0.198572,-0.277285
2.2412,0.316176,0.0526678
2.11795,0.0898793,0.0246791
2.23634,0.315491,-0.157929
2.18358,0.199874,-0.179002
2.30913,0.441743,0.0684209
2.18652,0.200144,0.0383255
2.1185,0.0899027,-0.123487
2.23801,0.315727,0.131627
2.17708,0.19928,0.0890675
2.23937,0.315919,-0.105346
2.18784,0.200264,-0.115139
2.24082,0.316123,0.277862
2.1677,0.19842,0.1777
2.18666,0.200156,0.400351
2.24515,0.316735,-0.0527608
2.17069,0.191055,-0.0634174
2.16851,0.190863,-0.43538
2.231,0.306799,0
2.11026,0.0821739,-0.024586
2.23189,0.306921,-0.350499
2.17399,0.191346,-0.27779
2.23436,0.307261,0.0524816
2.11425,0.0823296,0.0246325
2.18029,0.1919,-0.178676
2.17924,0.191808,0.0381859
2.11481,0.0823513,-0.123255
2.17379,0.191328,0.0889047
2.18057,0.191925,-0.11472
2.23797,0.307757,0.277375
2.30186,0.432029,-0.0954179
2.17559,0.191486,0.398199
2.24625,0.308895,-0.0527608
2.15939,0.182468,-0.0630683
2.16525,0.182964,-0.434596
2.22413,0.297949,0
2.11053,0.0748087,-0.024586
2.22512,0.298081,-0.349269
2.16278,0.182755,-0.276275
2.17621,0.18389,-0.0126932
2.22711,0.298347,-0.242039
2.23146,0.29893,0.0523886
2.11053,0.0748087,0.024586
2.22267,0.297753,-0.156813
2.173,0.183619,-0.178025
2.1799,0.184202,0.0381859
2.29662,0.422754,-0.149661
2.1111,0.0748287,-0.123022
2.22829,0.298505,0.130929
2.17046,0.183404,0.0887419
2.22568,0.298157,-0.104602
2.17326,0.183641,-0.114302
2.2955,0.422546,-0.0950922
2.17624,0.183892,0.398199
2.23938,0.299992,-0.0525747
2.16001,0.174929,-0.0630683
2.16197,0.175087,-0.433811
2.09479,0.0669296,-0.0243997
2.16736,0.175524,-0.27678
2.29095,0.413446,0.0135301
2.22419,0.290057,-0.241611
2.22852,0.290621,0.0522955
2.10678,0.0673128,0.0245394
2.2237,0.289992,-0.156813
2.16966,0.17571,-0.1777
2.29023,0.413316,-0.149149
2.10735,0.067331,-0.12279
2.23327,0.291241,0.131162
2.1671,0.175503,0.0885791
2.22671,0.290385,-0.104602
2.16991,0.175731,-0.114092
2.22432,0.290073,0.275425
2.23645,0.291656,-0.0524816
2.15264,0.166771,-0.0628356
2.15865,0.167237,-0.433027
2.09901,0.0597313,-0.0244463
2.2173,0.281291,-0.240754
2.22952,0.282841,0.0522955
2.10301,0.0598451,0.0244928
2.16231,0.16752,-0.177049
2.16518,0.167743,0.0379066
2.10358,0.0598615,-0.122557
2.22239,0.281937,0.130464
2.16372,0.167629,0.0884162
2.21582,0.281103,-0.104044
2.17051,0.168156,-0.114092
2.17355,0.168391,0.397481
2.23349,0.283344,-0.0523886
2.14922,0.15896,-0.0627192
2.15531,0.159411,-0.432243
2.21125,0.272683,0
2.09121,0.0522038,-0.0243531
2.14875,0.158925,-0.274255
2.16206,0.15991,-0.0126002
2.22256,0.274077,0.0521094
2.1032,0.0525033,0.0244928
2.20982,0.272507,-0.155696
2.1589,0.159677,-0.176724
2.16177,0.159888,0.0378368
2.0918,0.0522187,-0.121859
2.2194,0.273688,0.130231
2.1603,0.15978,0.0882534
2.21282,0.272877,-0.103857
2.21447,0.27308,0.273962
2.15842,0.159641,0.394611
2.22653,0.274567,-0.0522025
2.15194,0.15161,-0.431458
2.20822,0.264486,0
2.07938,0.0446457,-0.0242135
2.14929,0.151423,-0.274255
2.15462,0.151799,-0.0125537
2.20736,0.264384,-0.239469
2.09441,0.0449684,-0.195554
2.21953,0.265841,0.0520164
2.08738,0.0448174,0.0243066
2.15945,0.152139,-0.176724
2.16231,0.152341,0.0378368
2.08798,0.0448304,-0.121627
2.21241,0.264989,0.129766
2.14889,0.151395,0.0877649
2.21541,0.265348,0.273962
2.15504,0.151829,0.393894
2.2235,0.266317,-0.0521094
2.13831,0.143151,-0.0623701
2.13289,0.142788,-0.427536
2.08752,0.0375313,-0.0243066
2.14189,0.14339,-0.273244
2.14716,0.143743,-0.0125072
2.09455,0.0376577,-0.195554
2.2125,0.257169,0.0518303
2.08752,0.0375313,0.0243066
2.15201,0.144068,-0.176073
2.14687,0.143724,0.0375576
2.08413,0.0374703,-0.121394
2.21332,0.257265,0.129766
2.1494,0.143894,0.0877649
2.1988,0.255576,-0.103113
2.14824,0.143816,-0.112836
2.20055,0.25578,0.272012
2.14007,0.143269,0.175096
2.14771,0.14378,0.392459
2.22045,0.258093,-0.0520164
2.13483,0.135061,-0.0622537
2.13731,0.135218,-0.42832
2.19415,0.24689,0
2.13844,0.135289,-0.272739
2.2663,0.367873,0.0133442
2.19734,0.247249,-0.238184
2.21343,0.249059,0.0518303
2.08365,0.0298231,0.02426
2.14456,0.135677,-0.175422
2.08825,0.029889,-0.121627
2.21028,0.248705,0.129534
2.14194,0.13551,0.0874392
2.20147,0.247713,0.272012
2.15215,0.136156,0.393177
2.2174,0.249506,-0.0519233
2.13125,0.128113,-0.0621374
2.13773,0.128502,-0.42832
2.19094,0.23956,0
2.07173,0.0231424,-0.0241203
2.13093,0.128093,-0.271729
2.25954,0.359494,0.0132977
2.1401,0.128645,-0.0124607
2.20625,0.241234,0.0516442
2.19354,0.239844,-0.154301
2.141,0.128699,-0.175096
2.13981,0.128627,0.037418
2.08434,0.0232832,-0.121394
2.20708,0.241325,0.129301
2.14235,0.12878,0.0874392
2.14518,0.12895,-0.112627
2.19434,0.239932,0.271037
2.14864,0.129158,0.392459
2.1237,0.120221,-0.0619047
2.13033,0.120596,-0.426751
2.0718,0.015911,-0.0241203
2.13136,0.120655,-0.271729
2.13255,0.120722,-0.0124142
2.2031,0.233111,0.0515511
2.0758,0.0159417,0.0241669
2.18643,0.231346,-0.153743
2.14144,0.121225,-0.175096
2.14025,0.121158,0.037418
2.07243,0.0159158,-0.120697
2.19203,0.231939,0.128371
2.13481,0.12085,0.0871136
2.18542,0.23124,-0.102368
2.13764,0.12101,-0.112208
2.19517,0.232271,0.271037
2.12153,0.120098,0.173469
2.13729,0.12099,0.390307
2.2031,0.233111,-0.0515511
2.12413,0.112437,-0.0619047
2.12684,0.112581,-0.425967
2.18066,0.222658,0
2.06784,0.00830173,-0.0240738
2.12387,0.112423,-0.270719
2.25019,0.341516,0.0132279
2.12499,0.112483,-0.0123678
2.19599,0.224223,0.051365
2.07184,0.00831779,0.0241203
2.18329,0.222926,-0.153464
2.1339,0.112954,-0.174445
2.13269,0.11289,0.0372783
2.06848,0.00830428,-0.120464
2.20081,0.224715,0.128836
2.12725,0.112602,0.0867879
2.13408,0.112964,-0.111999
2.18811,0.223418,0.270062
2.13772,0.113156,0.390307
2.20394,0.225035,-0.0515511
2.1165,0.104996,-0.0616719
2.17346,0.214642,-0.611397
2.11545,0.104944,-0.423613
2.17741,0.215032,0
2.05986,0.00143834,-0.0239806
2.1163,0.104986,-0.269709
2.24736,0.333464,0.0132047
2.13334,0.105831,-0.0124142
2.18876,0.216153,0.0511789
2.05986,0.00143834,0.0239806
2.17607,0.2149,-0.152906
2.13029,0.105679,-0.17412
2.12506,0.10542,0.0371387
2.18962,0.216238,0.128138
2.11564,0.104953,0.0862994
2.17505,0.214799,-0.10181
2.13045,0.105688,-0.11179
2.18488,0.21577,0.269575
2.13022,0.105676,0.388872
2.10887,0.0972391,-0.0614392
2.11581,0.0975591,-0.423613
2.17416,0.207051,0
2.05185,-0.00572918,-0.0238875
2.11269,0.0974155,-0.269204
2.24455,0.325045,0.0131814
2.12171,0.0978313,-0.0123445
2.16958,0.206614,-0.234757
2.06701,-0.00577149,-0.192952
2.1895,0.208512,0.0511789
2.06385,-0.00576268,0.0240272
2.17681,0.207303,-0.152906
2.11869,0.0976922,-0.173144
2.12941,0.0981865,0.0372085
2.06449,-0.00576448,-0.120232
2.18639,0.208215,0.127906
2.11599,0.0975678,0.0862994
2.17976,0.207585,-0.101996
2.12283,0.0978829,-0.111371
2.18167,0.207766,0.269088
2.12664,0.0980589,0.388154
2.19348,0.208891,-0.051272
2.1052,0.0897064,-0.0613228
2.1083,0.0898384,-0.422044
2.17089,0.199095,0
2.04782,-0.0128668,-0.0238409
2.10509,0.0897018,-0.268194
2.23379,0.315529,0.0131117
2.11804,0.0902537,-0.0123213
2.16632,0.198676,-0.234328
2.19021,0.200867,0.0511789
2.05982,-0.0129422,0.0239806
2.16957,0.198974,-0.152348
2.11902,0.0902955,-0.173144
2.11376,0.0900713,0.0369293
2.18312,0.200217,0.127673
2.10834,0.0898402,0.0859738
2.16854,0.198879,-0.101438
2.12316,0.0904717,-0.111371
2.18238,0.200149,0.269088
2.11911,0.0902993,0.386719
2.18623,0.200502,-0.0510859
2.10949,0.0825141,-0.0614392
2.11644,0.0827856,-0.423613
2.17157,0.191516,0
2.04776,-0.0200146,-0.0238409
2.10142,0.0821985,-0.267689
2.23487,0.30773,0.0131117
2.11035,0.0825476,-0.0122748
2.167,0.191114,-0.234328
2.18293,0.192518,0.0509928
2.17026,0.1914,-0.152348
2.11136,0.082587,-0.172493
2.11406,0.0826927,0.0369293
2.05242,-0.0200601,-0.119534
2.17585,0.191894,0.127208
2.11263,0.0826368,0.0861366
2.16524,0.190958,-0.101252
2.11947,0.0829043,-0.111162
2.17516,0.191833,0.268113
2.09941,0.0821195,0.171516
2.11548,0.0827483,0.386002
2.17895,0.192167,-0.0508998
2.10178,0.0748648,-0.0612065
2.10887,0.0751176,-0.422044
2.16426,0.183259,0
2.05168,-0.0272161,-0.0238875
2.09773,0.0747208,-0.267184
2.23197,0.299395,0.0130884
2.10663,0.0750377,-0.0122515
2.15577,0.182541,-0.233043
2.17164,0.183885,0.0507136
2.04768,-0.027163,0.0238409
2.17489,0.18416,-0.152627
2.10765,0.075074,-0.172167
2.11034,0.0751699,0.0368595
2.05633,-0.0272778,-0.119766
2.17651,0.184297,0.127208
2.09693,0.0746922,0.0854853
2.15793,0.182724,-0.100879
2.11176,0.0752205,-0.110743
2.17582,0.184238,0.268113
2.0957,0.0746482,0.171191
2.11576,0.0753628,0.386002
2.17961,0.184559,-0.0508998
2.09403,0.0672715,-0.0609738
2.15768,0.17512,-0.606005
2.09344,0.0672525,-0.418907
2.16089,0.17538,0
2.03558,-0.0341091,-0.0237012
2.09798,0.0673984,-0.267184
2.2211,0.290048,0.0130187
2.10688,0.0676841,-0.0122515
2.16036,0.175337,-0.233472
2.16828,0.17598,0.0506206
2.03958,-0.0341761,0.0237478
2.15961,0.175276,-0.151511
2.10391,0.0675889,-0.171842
2.22417,0.290448,0.0652792
2.10259,0.0675466,0.0367199
2.05223,-0.0343883,-0.119534
2.17316,0.176376,0.126976
2.09718,0.0673725,0.0854853
2.15457,0.174867,-0.100693
2.10003,0.0674643,-0.110115
2.16457,0.175679,0.26665
2.09993,0.0674609,0.171516
2.08627,0.059368,-0.060741
2.14679,0.166317,-0.602771
2.09367,0.0595786,-0.418907
2.15753,0.16715,0
2.03544,-0.0415702,-0.0237012
2.09821,0.0597079,-0.267184
2.21422,0.280898,0.0129722
2.10711,0.0599611,-0.0122515
2.15306,0.166803,-0.232615
2.16094,0.167413,0.0504345
2.03944,-0.0416519,0.0237478
2.16024,0.167359,-0.151511
2.09618,0.0596499,-0.171191
2.09883,0.0597254,0.0366501
2.16185,0.167484,0.126278
2.09741,0.059685,0.0854853
2.1552,0.166969,-0.100693
2.10027,0.0597663,-0.110115
2.15729,0.16713,0.265675
2.16891,0.168031,-0.0506206
2.14349,0.158913,-0.601692
2.08994,0.0525373,-0.418122
2.15409,0.159699,0
2.03929,-0.0484142,-0.0237478
2.1033,0.0528732,-0.0122283
2.1536,0.159662,-0.232615
2.16148,0.160247,0.0504345
2.03129,-0.0482244,0.0236547
2.15282,0.159605,-0.150953
2.09238,0.0525986,-0.170865
2.21424,0.273444,0.0649301
2.09502,0.052665,0.0365802
2.16637,0.16061,0.126511
2.08961,0.0525289,0.0851596
2.15574,0.159821,-0.100693
2.10045,0.0528016,-0.110115
2.15783,0.159976,0.265675
2.10463,0.0529066,0.383849
2.16547,0.160543,-0.0505275
2.13634,0.150887,-0.599536
2.08619,0.0451573,-0.417338
2.15064,0.151897,0
2.03511,-0.0554231,-0.0237012
2.20813,0.264868,0.0129257
2.09147,0.0452717,-0.0121585
2.14621,0.151584,-0.231758
2.16203,0.152701,0.0504345
2.03511,-0.0554231,0.0237012
2.1454,0.151527,-0.150395
2.08856,0.0452087,-0.17054
2.21121,0.265237,0.0648137
2.08719,0.0451791,0.0364406
2.03979,-0.0555505,-0.118836
2.147,0.15164,0.125348
2.08978,0.045235,0.0851596
2.1523,0.152014,-0.100507
2.09264,0.0452969,-0.109696
2.15045,0.151884,0.2647
2.09693,0.0453899,0.382414
2.15804,0.15242,-0.0503414
2.07478,0.0376646,-0.060392
2.07849,0.0377319,-0.415769
2.15116,0.144389,0
2.0309,-0.0624043,-0.0236547
2.07491,0.037667,-0.264153
2.2011,0.256233,0.0128792
2.09162,0.0379703,-0.0121585
2.14276,0.143825,-0.23133
2.03419,-0.0625053,-0.189978
2.15457,0.144617,0.0502484
2.02691,-0.0622814,0.0236081
2.1499,0.144304,-0.150674
2.08073,0.0377727,-0.169889
2.20418,0.256592,0.064581
2.09134,0.0379652,0.0365104
2.03559,-0.0625482,-0.118604
2.14354,0.143877,0.125115
2.08593,0.0378669,0.0849968
2.14484,0.143965,-0.100135
2.09278,0.0379914,-0.109696
2.15097,0.144376,0.2647
2.19931,0.256025,-0.0902073
2.09314,0.0379979,0.381697
2.14659,0.144082,-0.0500623
2.13348,0.136096,-0.598457
2.07468,0.0307804,-0.414984
2.13566,0.136235,0
2.01869,-0.0687309,-0.023515
2.07503,0.0307856,-0.264153
2.08773,0.0309741,-0.0121353
2.14322,0.136717,-0.23133
2.02999,-0.0691156,-0.189606
2.14306,0.136707,0.0499692
2.01869,-0.0687309,0.023515
2.13842,0.136411,-0.149837
2.08085,0.0308719,-0.169889
2.20104,0.248831,0.0644646
2.08345,0.0309106,0.0363708
2.144,0.136767,0.125115
2.08204,0.0308897,0.084834
2.14132,0.136596,-0.0999489
2.08491,0.0309322,-0.109277
2.13955,0.136483,0.263238
2.08932,0.0309977,0.380979
2.15104,0.137217,-0.0501553
2.12625,0.128186,-0.596301
2.06301,0.0234062,-0.412631
2.13612,0.128781,0
2.01844,-0.0757757,-0.023515
2.07512,0.0235436,-0.264153
2.19086,0.23994,0.0128095
2.07983,0.0235971,-0.0120888
2.13971,0.128998,-0.230901
2.13954,0.128987,0.0498762
2.01844,-0.0757757,0.023515
2.13888,0.128947,-0.149837
2.07297,0.0235192,-0.169238
2.19395,0.240278,0.0642319
2.07555,0.0235485,0.0362312
2.13649,0.128803,0.12465
2.07814,0.0235779,0.0846712
2.13381,0.128641,-0.0995766
2.07302,0.0235198,-0.108649
2.13605,0.128777,0.26275
2.08548,0.0236612,0.380262
2.14353,0.129227,-0.0499692
2.07092,0.0159034,-0.4142
2.13259,0.120723,0
2.01815,-0.0831746,-0.023515
2.05932,0.0158144,-0.262133
2.0719,0.015911,-0.0120423
2.1362,0.120928,-0.230473
2.136,0.120917,0.0497831
2.01415,-0.0830099,0.0234684
2.12739,0.120429,-0.149
2.07304,0.0159197,-0.169238
2.07562,0.0159395,0.0362312
2.13695,0.12097,0.12465
2.07422,0.0159287,0.0845083
2.13427,0.120818,-0.0995766
2.07709,0.0159508,-0.108859
2.13651,0.120945,0.26275
2.06507,0.0158585,0.168587
2.136,0.120917,-0.0497831
2.05911,0.0089846,-0.0599265
2.11555,0.112723,-0.593066
2.0592,0.008985,-0.411846
2.12898,0.113438,0
2.00588,-0.0893323,-0.0233753
2.06333,0.00900303,-0.262638
2.07195,0.00904061,-0.0120423
2.12071,0.112997,-0.228759
2.13639,0.113833,0.0497831
2.01387,-0.0896882,0.0234684
2.13176,0.113586,-0.149279
2.06511,0.00901079,-0.168587
2.18762,0.224139,0.0639992
2.07167,0.00903939,0.0361614
2.12538,0.113246,0.123952
2.07426,0.00905071,0.0845083
2.13066,0.113528,-0.0993905
2.07314,0.00904581,-0.108649
2.13293,0.113649,0.262263
2.07773,0.00906584,0.378827
2.12441,0.113195,-0.049504
2.05922,0.00179743,-0.411846
2.12537,0.105808,0
2.01354,-0.0967169,-0.0234684
2.11195,0.105139,-0.328977
2.05542,0.00179411,-0.261628
2.17733,0.215408,0.0127165
2.06796,0.00180507,-0.012019
2.11314,0.105199,-0.227903
2.0169,-0.0968781,-0.188491
2.12479,0.105779,0.049504
2.00555,-0.0963331,0.0233753
2.12418,0.105748,-0.148721
2.06114,0.00179911,-0.168262
2.06768,0.00180482,0.0360916
2.12576,0.105827,0.123952
2.06629,0.0018036,0.0841827
2.11908,0.105494,-0.0988321
2.07315,0.0018096,-0.108649
2.05716,0.00179563,0.167936
2.18352,0.21602,-0.0893932
2.13784,0.106429,0.573543
2.06988,0.00180674,0.377392
2.1208,0.10558,-0.0494109
2.05137,-0.0053706,-0.410277
2.10974,0.0976476,0
2.00121,-0.103128,-0.0233287
2.05938,-0.00539157,-0.262133
2.17807,0.207806,0.0127165
2.05996,-0.00539309,-0.0119725
2.11747,0.0980054,-0.228331
2.00461,-0.103303,-0.187375
2.12115,0.0981759,0.0494109
1.99721,-0.102922,0.0232822
2.11656,0.0979632,-0.148163
2.06512,-0.00540661,-0.168587
2.18117,0.208101,0.0637664
2.17365,0.207384,-0.139939
2.11814,0.0980363,0.123487
2.06228,-0.00539918,0.0840198
2.11145,0.0977266,-0.0984599
2.06116,-0.00539625,-0.108021
2.11781,0.0980212,0.260313
2.04918,-0.00536486,0.167285
2.17232,0.207258,-0.0889047
2.13048,0.0986077,0.571472
2.11716,0.097991,-0.0493179
2.16654,0.199078,-0.0379764
2.0471,-0.0125048,-0.0595774
2.04741,-0.0125068,-0.409493
2.11007,0.0902831,0
1.98886,-0.109453,-0.023189
2.05538,-0.0125554,-0.261628
2.06393,-0.0126077,-0.0119958
2.11383,0.0904439,-0.227903
2.11349,0.0904296,0.0492248
1.99285,-0.109673,0.0232356
2.11689,0.0905749,-0.148163
2.05313,-0.0125417,-0.167611
2.17039,0.199431,-0.139683
2.11448,0.0904718,0.123255
2.05825,-0.012573,0.083857
2.11976,0.0906978,-0.0988321
2.05714,-0.0125662,-0.107812
2.11417,0.0904588,0.259825
2.11923,0.0906752,0.568367
2.0659,-0.0126197,0.376675
2.11749,0.0906006,-0.0493179
2.09768,0.0824177,-0.587674
2.04344,-0.0196164,-0.408708
2.11037,0.0829165,0
1.99245,-0.116629,-0.0232356
2.04739,-0.0196543,-0.260618
2.05987,-0.0197742,-0.0119725
2.11016,0.082908,-0.227474
2.1138,0.0830511,0.0492248
1.99645,-0.116863,0.0232822
2.10922,0.0828712,-0.147605
2.04909,-0.0196707,-0.167285
2.16664,0.191461,0.063301
2.05559,-0.0197331,0.0358821
2.00516,-0.117373,-0.116976
2.11478,0.0830898,0.123255
2.0582,-0.0197581,0.083857
2.11208,0.0829836,-0.0984599
2.05708,-0.0197474,-0.107812
2.10258,0.0826102,0.258363
2.16576,0.191383,-0.0885791
2.11954,0.0832766,0.568367
2.1098,0.0828941,-0.0491318
2.04296,-0.0267436,-0.0594611
2.04335,-0.0267488,-0.408708
2.10265,0.0752637,0
1.98804,-0.123335,-0.023189
2.04334,-0.0267486,-0.260113
2.05179,-0.0268592,-0.011926
2.09851,0.0751153,-0.226189
2.10608,0.0753864,0.0490387
1.98804,-0.123335,0.023189
2.10949,0.0755086,-0.147605
2.04901,-0.0268228,-0.167285
2.15932,0.183221,0.0630683
2.15979,0.183261,-0.138916
2.00076,-0.124124,-0.116743
2.0991,0.0751364,0.122325
2.05412,-0.0268897,0.0836942
2.10437,0.0753251,-0.0980876
2.057,-0.0269274,-0.107812
2.11079,0.0755548,0.259338
2.16243,0.183485,-0.0884162
2.11982,0.075878,0.568367
2.05396,-0.0268876,0.374522
2.09809,0.0751003,-0.0488526
2.15256,0.175082,-0.0376972
2.03541,-0.0337508,-0.40714
2.1029,0.067924,0
1.98361,-0.130012,-0.0231425
2.09371,0.067627,-0.325902
2.04323,-0.0338805,-0.260113
2.04768,-0.0339544,-0.0119028
2.09876,0.0677902,-0.226189
1.99503,-0.13076,-0.186632
2.10233,0.0679057,0.0489456
1.98361,-0.130012,0.0231425
2.10177,0.0678874,-0.147047
2.03694,-0.0337763,-0.166309
2.15596,0.175359,0.0629519
2.05141,-0.0340161,0.0358123
2.15644,0.175398,-0.13866
2.09536,0.0676802,0.122092
2.03803,-0.0337943,0.0830429
2.09264,0.0675925,-0.0975292
2.04891,-0.0339746,-0.107393
2.1031,0.0679304,0.258363
2.03296,-0.0337102,0.165984
2.15509,0.175288,-0.0880906
2.11234,0.068229,0.566296
2.05385,-0.0340567,0.374522
2.09434,0.0676475,-0.0487595
2.03073,-0.0407648,-0.059112
2.02743,-0.0406986,-0.405571
2.09113,0.060237,0
1.98713,-0.137211,-0.023189
2.08998,0.0602039,-0.325287
2.03913,-0.0409334,-0.259607
2.14946,0.167279,0.0125305
2.04755,-0.0411025,-0.0119028
2.09501,0.0603486,-0.225761
1.99059,-0.13745,-0.18626
2.09057,0.0602207,0.0486665
1.97516,-0.136385,0.0230493
2.098,0.060435,-0.146768
2.0408,-0.0409669,-0.166634
2.14859,0.167211,0.0627192
2.04728,-0.0410969,0.0357425
2.14908,0.167249,-0.138148
2.09159,0.0602501,0.121859
2.04189,-0.0409889,0.0832057
2.10085,0.0605169,-0.0979015
2.04478,-0.0410468,-0.107184
2.09539,0.0603596,0.257388
2.15967,0.168074,-0.0882534
2.09856,0.060451,-0.0488526
2.0312,-0.0478673,-0.406355
2.08733,0.0528365,0
1.97467,-0.143278,-0.0230493
2.03898,-0.0480507,-0.259607
2.14605,0.159479,0.0125072
2.0434,-0.0481548,-0.0118796
2.09123,0.0529351,-0.225332
2.09076,0.0529234,0.0486665
1.97467,-0.143278,0.0230493
2.08624,0.0528087,-0.145931
2.03666,-0.047996,-0.166309
2.04312,-0.0481483,0.0356727
2.14567,0.159451,-0.137892
2.09578,0.0530502,0.122092
2.03774,-0.0480216,0.0830429
2.09705,0.0530826,-0.0977154
2.04063,-0.0480897,-0.106975
2.09162,0.052945,0.256901
2.14829,0.159646,-0.0877649
2.10504,0.0532848,0.564226
2.09076,0.0529234,-0.0486665
2.0264,-0.0548328,-0.0589956
2.0271,-0.0548517,-0.405571
2.0875,0.0455495,0
1.97416,-0.150171,-0.0230493
2.03086,-0.0549536,-0.258597
2.03922,-0.0551797,-0.0118563
2.08743,0.0455478,-0.224904
1.98163,-0.150739,-0.185516
2.08294,0.0454499,0.0484804
1.97017,-0.149867,0.0230028
2.0904,0.0456126,-0.14621
2.02851,-0.0548898,-0.165658
2.03095,-0.0549558,0.0354633
2.13825,0.151396,-0.137381
2.08397,0.0454724,0.121394
2.03357,-0.0550267,0.08288
2.08924,0.0455873,-0.0973431
2.04045,-0.055213,-0.106975
2.08782,0.0455564,0.256413
2.14485,0.151863,-0.0876021
2.10135,0.0458517,0.56319
2.08694,0.0455372,-0.0485734
2.0182,-0.0616617,-0.0587629
2.02297,-0.0618074,-0.404786
2.08365,0.0381892,0
1.96964,-0.156744,-0.0230028
2.07469,0.0380249,-0.322828
2.03066,-0.0620423,-0.258597
2.03502,-0.0621754,-0.0118331
2.07962,0.0381153,-0.224047
2.08309,0.0381788,0.0484804
1.97363,-0.157061,0.0230493
2.08655,0.0382424,-0.145931
2.02432,-0.0618485,-0.165333
2.03074,-0.0620448,0.0354633
2.03736,-0.0622469,0.0830429
2.09338,0.0383675,-0.0975292
2.03625,-0.0622132,-0.106765
2.084,0.0381955,0.255926
2.09764,0.0384455,0.562155
2.03745,-0.0622496,0.371652
2.08708,0.0382521,-0.0485734
2.02275,-0.0688686,-0.404786
2.07977,0.0308563,0
1.97307,-0.163949,-0.0230493
2.07481,0.0307827,-0.322828
2.02647,-0.0689952,-0.258092
2.07576,0.0307968,-0.223619
1.97657,-0.16424,-0.185145
2.07921,0.0308479,0.0483873
1.96509,-0.163287,0.0229562
2.07072,0.0307219,-0.144814
2.02011,-0.0687787,-0.165007
2.13077,0.135923,0.0621374
2.03051,-0.0691331,0.0354633
2.07625,0.0308041,0.120929
2.02115,-0.0688143,0.0823915
2.08151,0.0308821,-0.0969709
2.03203,-0.0691848,-0.106556
2.08015,0.0308619,0.255438
2.1299,0.135868,-0.0869508
2.02935,-0.0690934,0.370217
2.07921,0.0308479,-0.0483873
2.00973,-0.0754498,-0.0585302
2.01465,-0.0756346,-0.403217
2.06787,0.0234602,0
2.0749,0.0235401,-0.322828
2.02225,-0.0759196,-0.257587
2.02254,-0.0759307,-0.0117633
2.07188,0.0235058,-0.22319
2.06731,0.0234539,0.0481082
1.96053,-0.1698,0.0229097
2.06682,0.0234483,-0.144535
2.02384,-0.0759793,-0.165333
2.13123,0.128485,0.0621374
2.02227,-0.0759204,0.0353237
2.06836,0.0234658,0.120464
2.0169,-0.075719,0.0822287
2.07362,0.0235255,-0.0965986
2.02779,-0.0761276,-0.106347
2.0723,0.0235105,0.254463
2.13036,0.128433,-0.0869508
2.0793,0.02359,-0.0483873
2.00946,-0.0824646,-0.0585302
2.01046,-0.0825057,-0.402433
2.06394,0.0162105,0
1.95992,-0.176643,-0.0229097
2.06312,0.016204,-0.320983
2.02197,-0.0829781,-0.257587
2.07195,0.0162734,-0.22319
2.07138,0.0162689,0.0482012
1.95992,-0.176643,0.0229097
2.07088,0.016265,-0.144814
2.00763,-0.0823895,-0.164031
2.02599,-0.0831429,0.0353935
2.12421,0.120622,-0.136357
2.07642,0.0163085,0.120929
2.01663,-0.0827589,0.0822287
2.06969,0.0162557,-0.0964125
2.02352,-0.0830416,-0.106137
2.0684,0.0162455,0.253976
2.02489,-0.0830978,0.3695
2.07537,0.0163003,-0.0482943
2.00117,-0.0891227,-0.0582974
2.01016,-0.089523,-0.402433
2.06398,0.00900587,0
1.95531,-0.18311,-0.0228631
2.05921,0.00898505,-0.320368
2.00978,-0.089506,-0.256072
2.06404,0.00900613,-0.222334
2.06342,0.00900343,0.0480151
1.95929,-0.183483,0.0229097
2.06693,0.00901875,-0.144535
2.01131,-0.0895743,-0.164356
2.0097,-0.0895027,0.0351142
1.96009,-0.183557,-0.11465
2.06448,0.00900806,0.120232
2.01233,-0.0896199,0.0820659
2.06974,0.00903098,-0.0964125
2.01922,-0.0899268,-0.105928
2.06051,0.00899071,0.253001
2.12322,0.113132,-0.0866251
2.06742,0.00902088,-0.0481082
2.00203,-0.095464,-0.400864
2.056,0.00251188,0
1.95871,-0.189637,-0.0229097
2.05923,0.00251582,-0.320368
2.00949,-0.0958194,-0.256072
2.00569,-0.0956383,-0.0116703
2.0561,0.00251201,-0.221477
1.96225,-0.189981,-0.184029
2.06344,0.00252097,0.0480151
1.95473,-0.189252,0.0228631
2.05498,0.00251064,-0.143698
2.01102,-0.0958925,-0.164356
2.01341,-0.0960064,0.0351841
2.05651,0.00251251,0.119766
2.00805,-0.095751,0.0819031
2.05777,0.00251404,-0.0958541
2.01494,-0.0960797,-0.105719
2.11559,0.10606,-0.0862994
2.0125,-0.0959631,0.367347
2.06744,0.00252586,-0.0481082
1.99654,-0.102188,-0.0581811
1.99777,-0.102251,-0.400079
2.05199,-0.00465583,0
1.95405,-0.196074,-0.0228631
2.05132,-0.0046543,-0.319138
2.00518,-0.10263,-0.255567
2.00934,-0.102843,-0.0116936
2.04815,-0.0046471,-0.22062
1.95762,-0.196431,-0.183657
2.05944,-0.00467272,0.0479221
1.95405,-0.196074,0.0228631
2.05498,-0.0046626,-0.143698
2.00669,-0.102708,-0.164031
2.00507,-0.102625,0.0350444
2.05651,-0.00466608,0.119766
1.99972,-0.102351,0.0815774
2.05377,-0.00465985,-0.095668
2.11195,0.0984888,-0.0861366
2.00822,-0.102786,0.36663
2.06744,-0.00469086,-0.0481082
1.99216,-0.109286,-0.0580647
1.98955,-0.109143,-0.39851
1.94537,-0.202407,-0.02277
2.05524,-0.0121962,-0.319753
1.99686,-0.109544,-0.254557
2.00495,-0.109988,-0.0116703
2.04414,-0.0121303,-0.220192
1.94896,-0.202781,-0.182914
2.05541,-0.0121972,0.047829
1.94537,-0.202407,0.02277
2.00232,-0.109844,-0.163705
2.00468,-0.109973,0.0350444
2.05648,-0.0122035,0.119766
1.99933,-0.10968,0.0815774
2.05773,-0.012211,-0.0958541
2.1083,0.0905759,-0.0859738
2.0039,-0.109931,0.365912
2.06341,-0.0122446,-0.0480151
1.98777,-0.116007,-0.0579483
1.98916,-0.116087,-0.39851
2.03991,-0.0192263,0
1.94067,-0.208768,-0.0227234
2.04333,-0.0192585,-0.317908
2.00043,-0.116745,-0.255062
2.00456,-0.116986,-0.0116703
2.05204,-0.0193406,-0.221048
2.05535,-0.0193718,0.047829
1.94067,-0.208768,0.0227234
1.99794,-0.1166,-0.16338
2.00029,-0.116737,0.0349746
2.05243,-0.0193443,0.119534
1.99894,-0.116658,0.0815774
2.04569,-0.0192807,-0.0952957
2.00184,-0.116828,-0.105091
2.04455,-0.01927,0.251051
2.00743,-0.117154,0.36663
2.05935,-0.0194095,-0.0479221
1.98738,-0.122598,-0.0579483
1.98484,-0.122441,-0.397726
1.93997,-0.215203,-0.0227234
2.04325,-0.0260343,-0.317908
1.98419,-0.122401,-0.253042
2.00016,-0.123387,-0.0116471
2.04799,-0.0260946,-0.22062
1.94753,-0.216042,-0.182914
2.05128,-0.0261366,0.047736
1.94394,-0.215644,0.02277
2.04285,-0.0260291,-0.142861
1.99755,-0.123225,-0.16338
1.9959,-0.123124,0.0349048
2.09433,0.0756977,-0.134311
2.05236,-0.0261503,0.119534
1.99056,-0.122794,0.0812517
2.04562,-0.0260644,-0.0952957
2.00144,-0.123465,-0.105091
2.04448,-0.0260499,0.251051
2.00311,-0.123568,0.365912
1.98293,-0.12962,-0.057832
1.9883,-0.129971,-0.39851
2.03573,-0.0334013,0
1.93122,-0.2214,-0.0226303
2.03524,-0.0333933,-0.316679
1.98769,-0.129931,-0.253547
1.99172,-0.130195,-0.0116006
2.03197,-0.0333397,-0.218906
1.94277,-0.222725,-0.182542
2.05117,-0.0336547,0.047736
1.93519,-0.221856,0.0226768
1.98515,-0.129765,-0.162403
1.99145,-0.130177,0.034835
2.09061,0.0678915,-0.134055
1.94395,-0.22286,-0.113952
2.04027,-0.0334758,0.118836
1.98611,-0.129828,0.0810889
2.03752,-0.0334307,-0.0949235
2.0404,-0.033478,0.250563
2.09316,0.0679744,-0.0853225
1.99086,-0.130139,0.36376
2.05117,-0.0336547,-0.047736
1.98249,-0.136195,-0.057832
1.98003,-0.136026,-0.396941
2.03512,-0.0401422,-0.316679
1.97933,-0.135978,-0.252536
1.98728,-0.136525,-0.0115773
2.03185,-0.0400778,-0.218906
2.04705,-0.0403776,0.0476429
1.93445,-0.228272,0.0226768
2.03464,-0.0401327,-0.142303
1.99266,-0.136894,-0.163054
1.991,-0.13678,0.034835
2.08683,0.0608421,-0.133799
2.03615,-0.0401627,0.118604
1.97769,-0.135866,0.0807633
1.99256,-0.136887,-0.104672
2.03234,-0.0400874,0.249588
1.98649,-0.13647,0.363043
1.97003,-0.142251,-0.0574829
1.97563,-0.142655,-0.396157
1.93364,-0.235023,-0.0226768
2.03101,-0.0471541,-0.316064
1.9828,-0.143172,-0.253042
2.08328,0.0534611,0.012112
1.9828,-0.143173,-0.0115541
2.02374,-0.0469854,-0.21805
2.0429,-0.04743,0.0475499
1.92173,-0.233575,0.0225371
1.98024,-0.142988,-0.162078
1.98652,-0.143441,0.0347652
2.036,-0.0472699,0.118604
1.97721,-0.142769,0.0807633
1.98809,-0.143554,-0.104463
2.08159,0.0534176,-0.084834
1.97815,-0.142837,0.361608
1.96953,-0.149127,-0.0574829
2.02154,-0.053995,-0.566108
1.97512,-0.14955,-0.396157
1.9209,-0.240282,-0.0225371
2.02293,-0.0540323,-0.314834
1.97833,-0.149793,-0.252536
2.07945,0.0461001,0.0120888
1.9783,-0.149791,-0.0115308
2.03152,-0.0542617,-0.218906
1.93247,-0.24173,-0.181799
2.03872,-0.054454,0.0474568
1.92487,-0.240779,0.0225837
1.97973,-0.149899,-0.162078
2.03582,-0.0543766,0.118604
1.97271,-0.149368,0.0806004
2.02508,-0.0540897,-0.0943651
2.02407,-0.0540627,0.248613
1.97764,-0.149741,0.361608
1.97694,-0.156977,-0.0577156
2.01362,-0.06117,-0.563952
1.97456,-0.156788,-0.396157
2.01907,-0.0613354,0
1.92001,-0.247321,-0.0225371
2.01877,-0.0613264,-0.314219
1.9659,-0.156101,-0.251021
2.07561,0.0384042,0.0120655
1.97774,-0.157041,-0.0115308
2.03451,-0.0618045,0.0473638
1.92001,-0.247321,0.0225371
1.97917,-0.157154,-0.162078
1.98146,-0.157336,0.0346954
2.03162,-0.0617167,0.118371
1.96817,-0.156281,0.0804376
2.02088,-0.0613903,-0.094179
2.02386,-0.061481,0.248613
1.97708,-0.156989,0.361608
2.03451,-0.0618045,-0.0473638
1.96841,-0.163216,-0.0574829
2.00955,-0.0680681,-0.562873
1.974,-0.16368,-0.396157
1.9231,-0.254546,-0.0225837
2.01855,-0.0683729,-0.314219
1.9693,-0.16329,-0.251526
1.9732,-0.163613,-0.0115076
2.02629,-0.0686351,0.0471777
1.9231,-0.254546,0.0225837
2.01392,-0.0682163,-0.140908
2.07089,0.031086,0.0602756
1.97293,-0.163591,0.0345558
2.0274,-0.0686728,0.118138
1.96363,-0.16282,0.0802748
2.01967,-0.0684108,0.248126
1.96868,-0.163239,0.360173
1.96387,-0.169399,-0.0573665
2.00546,-0.0745884,-0.561795
1.96954,-0.169888,-0.395372
1.92224,-0.260922,-0.0225837
2.01831,-0.0750662,-0.314219
1.96084,-0.169137,-0.250516
2.06782,0.0241816,0.012019
1.96866,-0.169812,-0.0114843
1.92194,-0.260882,-0.181055
2.03005,-0.0755028,0.0472707
1.91828,-0.260384,0.0225371
2.0097,-0.074746,-0.140629
1.97011,-0.169937,-0.161427
2.06698,0.0241718,0.0601592
1.97237,-0.170133,0.0345558
1.91912,-0.260498,-0.11279
2.02317,-0.0752471,0.117906
1.95511,-0.168644,0.0799491
2.01943,-0.0751079,0.248126
1.96813,-0.169766,0.360173
2.03005,-0.0755028,-0.0472707
1.95531,-0.175538,-0.0571338
2.00519,-0.0815884,-0.561795
1.96112,-0.17606,-0.393804
1.9134,-0.266527,-0.0224906
2.01408,-0.0819503,-0.313604
1.96024,-0.175981,-0.250516
1.96407,-0.176325,-0.0114611
2.02578,-0.082426,0.0471777
1.9134,-0.266527,0.0224906
1.9695,-0.176813,-0.161427
1.9638,-0.176301,0.0344161
1.9182,-0.267196,-0.11279
2.01891,-0.0821465,0.117673
1.95849,-0.175824,0.0801119
1.96937,-0.176801,-0.103625
2.01122,-0.0818337,0.247151
1.96752,-0.176635,0.360173
1.9507,-0.181991,-0.0570174
2.00104,-0.0884173,-0.560717
1.95659,-0.18254,-0.393019
1.90453,-0.272073,-0.0223974
1.96356,-0.183191,-0.251021
2.06394,0.00972616,0.0119958
1.96344,-0.18318,-0.0114611
2.00245,-0.0884794,-0.215908
1.90453,-0.272073,0.0223974
2.00116,-0.0884222,-0.140071
1.96093,-0.182946,-0.160776
1.96317,-0.183155,0.0344161
2.01861,-0.0891933,0.117673
1.95389,-0.182289,0.0799491
1.99988,-0.0883657,-0.0932484
1.96476,-0.183303,-0.103416
2.01092,-0.0888537,0.247151
1.95906,-0.182771,0.358738
1.94611,-0.188074,-0.0569011
2.00459,-0.0952353,-0.561795
1.95207,-0.18865,-0.392235
1.90362,-0.278387,-0.0223974
2.00164,-0.095095,-0.311759
1.94714,-0.188175,-0.249001
2.05596,0.00287066,0.0119493
1.95884,-0.189305,-0.0114378
1.90362,-0.278387,0.0223974
2.00085,-0.0950578,-0.140071
1.96032,-0.189448,-0.160776
1.95459,-0.188895,0.0342765
2.01431,-0.0956972,0.117441
1.95327,-0.188767,0.0799491
2.01062,-0.0955217,0.247151
1.95061,-0.188509,0.357303
1.94935,-0.195945,-0.0570174
1.99267,-0.102339,-0.55856
1.95523,-0.196537,-0.393019
1.99337,-0.102375,0
1.89858,-0.2851,-0.0223509
2.00126,-0.10278,-0.311759
1.94641,-0.19565,-0.249001
2.05596,-0.00502366,0.0119493
1.94218,-0.195225,-0.0113449
1.89463,-0.284506,0.0223043
1.99649,-0.102535,-0.139792
1.95164,-0.196176,-0.160125
1.95386,-0.196398,0.0342765
1.9034,-0.285823,-0.112092
2.00595,-0.103021,0.116976
1.94458,-0.195466,0.0796234
1.9952,-0.102469,-0.0930622
1.95942,-0.196958,-0.103207
2.0023,-0.102834,0.246176
2.00881,-0.103168,-0.0468054
1.93672,-0.201507,-0.0566684
1.98845,-0.109083,-0.557482
1.95063,-0.202955,-0.392235
1.98901,-0.109114,0
1.90153,-0.292334,-0.0223974
1.99694,-0.109549,-0.311144
1.94571,-0.202443,-0.249001
2.05593,-0.0122003,0.0119493
1.94944,-0.202831,-0.0113914
2.00844,-0.110179,0.0468054
1.89758,-0.291726,0.0223509
1.99612,-0.109504,-0.139792
1.95094,-0.202987,-0.160125
2.0511,-0.0121716,0.0596938
1.95316,-0.203217,0.0342765
1.90239,-0.292466,-0.112092
2.00957,-0.110241,0.117208
1.93991,-0.201839,0.0794606
1.95475,-0.203383,-0.102997
1.99797,-0.109605,0.245689
1.948,-0.208869,-0.0570174
1.98425,-0.115106,-0.556404
1.94608,-0.208663,-0.39145
1.98466,-0.11513,0
1.98869,-0.115364,-0.309915
1.94112,-0.208131,-0.248496
2.05588,-0.0186591,0.0119493
1.94482,-0.208528,-0.0113681
1.90037,-0.29827,-0.179568
1.88875,-0.296446,0.0222578
1.9878,-0.115312,-0.139234
1.9503,-0.209115,-0.160125
1.94853,-0.208926,0.0342067
2.00124,-0.116092,0.116743
1.93927,-0.207932,0.0794606
1.9865,-0.115237,-0.09269
1.94616,-0.208671,-0.102578
1.99365,-0.115651,0.245201
1.93534,-0.214348,-0.0566684
1.98768,-0.122268,-0.557482
1.93755,-0.214592,-0.389881
1.98425,-0.122057,0
1.8877,-0.303037,-0.0222578
1.98039,-0.12182,-0.308685
1.94038,-0.214906,-0.248496
2.0438,-0.0256845,0.0118796
1.9401,-0.214875,-0.0113449
1.98078,-0.121843,-0.213766
1.89165,-0.303671,0.0223043
1.9834,-0.122005,-0.138955
1.9337,-0.214166,-0.158823
2.04297,-0.0256741,0.0594611
1.94779,-0.215726,0.0342067
2.03566,-0.0255822,-0.130473
2.00082,-0.123077,0.116743
1.93058,-0.213821,0.079135
1.9972,-0.122854,0.245689
1.99968,-0.123006,-0.0466193
1.93454,-0.22144,-0.0566684
1.97954,-0.129052,-0.555325
1.93675,-0.221692,-0.389881
1.98379,-0.129329,0
1.88263,-0.309305,-0.0222112
1.98782,-0.129592,-0.309915
1.9317,-0.221114,-0.247486
2.0437,-0.0331753,0.0118796
1.94328,-0.222439,-0.0113681
1.97635,-0.128844,-0.213337
1.89053,-0.310602,0.0223043
1.98692,-0.129533,-0.139234
1.93291,-0.221252,-0.158823
2.03887,-0.0330969,0.0593447
1.93109,-0.221045,0.0339275
1.99637,-0.130149,0.116511
1.92979,-0.220895,0.079135
1.98563,-0.129449,-0.09269
