2.58632,0.996941,-0.0322691
2.58632,0.996941,0.0322691
2.57839,0.993885,-0.160929
2.59013,0.987003,-0.0322691
2.58265,0.984155,0.032176
2.57846,0.982557,-0.160696
2.58607,0.975134,-0.032176
2.5973,0.979368,0.0323156
2.59308,0.977777,-0.161394
2.59662,0.969803,-0.0322691
2.60411,0.972602,0.0323622
2.59614,0.969625,-0.161394
2.59999,0.960734,-0.0322691
2.59999,0.960734,0.0322691
2.59576,0.959174,-0.161161
2.60725,0.952571,-0.0323156
2.60725,0.952571,0.0323156
2.59926,0.949654,-0.161161
2.62184,0.947542,-0.0324553
2.61056,0.943464,0.0323156
2.60632,0.941931,-0.161394
2.614,0.93389,-0.0323156
2.614,0.93389,0.0323156
2.61351,0.933717,-0.161626
2.62069,0.927005,-0.0323622
2.62446,0.928339,0.0324088
2.6202,0.926831,-0.161859
2.62768,0.919174,-0.0324088
2.62401,0.917887,-0.2595
2.63146,0.920494,0.0324553
2.61965,0.916363,-0.161626
2.63104,0.909536,-0.0324088
2.61982,0.90566,-0.258756
2.63482,0.910843,0.0324553
2.62299,0.906754,-0.161626
2.63782,0.902101,-0.0324553
2.62281,0.896968,-0.258756
2.63782,0.902101,0.0324553
2.63354,0.900636,-0.162092
2.63732,0.891146,-0.0324088
2.63363,0.889898,-0.2595
2.64111,0.892426,0.0324553
2.6406,0.892255,-0.162324
2.6518,0.885736,-0.0325485
2.6405,0.881962,-0.259872
2.648,0.884469,0.0325019
2.64749,0.884298,-0.162557
2.65457,0.877401,-0.0325485
2.59001,0.998884,-0.0161339
2.63947,0.872413,-0.2595
2.65836,0.878657,0.032595
2.65026,0.875977,-0.162557
2.66142,0.869371,-0.032595
2.59348,0.989836,-0.0161339
2.64629,0.86443,-0.259872
2.66522,0.870613,0.0326416
2.6533,0.866719,-0.162557
2.66458,0.859611,-0.032595
2.59335,0.978912,-0.0161106
2.64944,0.854726,-0.259872
2.66078,0.858383,0.0325485
2.66026,0.858215,-0.162789
2.6062,0.983763,0.113492
2.59358,0.978997,-0.145285
2.66376,0.849089,-0.0325485
2.60799,0.974051,-0.0161804
2.65241,0.845471,-0.259872
2.60962,0.974658,0.113492
2.5989,0.960845,-0.080639
2.67419,0.842655,-0.0326416
2.60746,0.964009,-0.0161571
2.65899,0.837867,-0.260243
2.678,0.843857,0.0326882
2.59512,0.959447,-0.225868
2.61461,0.966653,0.0486573
2.67746,0.843687,-0.163487
2.61658,0.967385,0.113655
2.68108,0.834036,-0.0326882
2.61097,0.954447,-0.0161571
2.66965,0.830482,-0.260987
2.68872,0.836413,0.0327813
2.60236,0.951298,-0.226193
2.67672,0.832682,-0.163254
2.60194,0.940863,-0.0805226
2.68397,0.824672,-0.0326882
2.61805,0.946686,-0.0161804
2.66873,0.819988,-0.260615
2.6878,0.825847,0.0327347
2.60566,0.942208,-0.226193
2.68343,0.824506,-0.163487
2.62344,0.948636,0.113655
2.69052,0.81693,-0.0327347
2.62494,0.939348,-0.0162036
2.67524,0.812292,-0.260987
2.69052,0.81693,0.0327347
2.60877,0.933563,-0.226193
2.62835,0.940568,0.0487271
2.68997,0.816763,-0.16372
2.62281,0.938585,0.113492
2.61763,0.93673,-0.145703
2.61206,0.924466,-0.080639
2.68952,0.806385,-0.0326882
2.6282,0.93018,-0.0162036
2.68188,0.804093,-0.261359
2.68952,0.806385,0.0326882
2.61202,0.924451,-0.226193
2.69281,0.807369,-0.16372
2.69616,0.798126,-0.0327347
2.68849,0.795856,-0.261731
2.69999,0.799262,0.0327813
2.61899,0.916644,-0.226519
2.63863,0.923517,0.0487969
2.69944,0.799097,-0.163952
2.63684,0.922892,0.113818
2.62616,0.908365,-0.0808717
2.7029,0.789361,-0.0327813
2.63857,0.912657,-0.0162269
2.69139,0.785997,-0.261731
2.70674,0.790482,0.0328279
2.6261,0.908343,-0.226844
2.64199,0.91384,0.0487969
2.70235,0.789199,-0.163952
2.70949,0.781028,-0.0328279
2.64174,0.90344,-0.0162269
2.71333,0.782136,0.0328744
2.63303,0.90046,-0.22717
2.64895,0.905906,0.0488667
2.70892,0.780866,-0.164185
2.64716,0.905293,0.11398
2.63229,0.890468,-0.0808717
2.71591,0.773135,-0.0328744
2.6523,0.897239,-0.0162734
2.69667,0.767659,-0.261731
2.71206,0.77204,0.0328279
2.636,0.891724,-0.22717
2.65194,0.897117,0.0488667
2.70766,0.770786,-0.163952
2.65393,0.897791,0.114143
2.64493,0.894744,-0.146331
2.71474,0.762569,-0.0328279
2.65542,0.887976,-0.0162734
2.70317,0.759319,-0.262102
2.72244,0.764732,0.032921
2.63531,0.881253,-0.226844
2.65885,0.889124,0.0489365
2.71802,0.76349,-0.164417
2.65705,0.888522,0.114143
2.65182,0.886774,-0.146541
2.58632,0.99746,0
2.72509,0.755224,-0.032921
2.6585,0.8787,-0.0162734
2.70964,0.750942,-0.262474
2.72895,0.756292,0.0329675
2.64216,0.873299,-0.22717
2.66194,0.879836,0.0489365
2.72067,0.753997,-0.164417
2.66773,0.88175,0.114469
2.58725,0.997817,-0.12917
2.65111,0.876257,-0.146331
2.64907,0.865338,-0.0811044
2.58605,0.987,0
2.73157,0.746762,-0.0329675
2.66535,0.870658,-0.0162966
2.71993,0.74358,-0.263218
2.73543,0.747817,0.0330141
2.64898,0.86531,-0.227495
2.72714,0.745549,-0.16465
2.66414,0.870261,0.228797
2.59679,0.981247,0
2.74176,0.739784,-0.0330607
2.64314,0.853712,-0.353551
2.66442,0.860585,-0.0162734
2.72238,0.734557,-0.263218
2.74176,0.739784,0.0330607
2.58673,0.977447,-0.193365
2.65563,0.857747,-0.227821
2.72959,0.736502,-0.16465
2.67367,0.863572,0.114469
2.5865,0.97736,-0.128798
2.66701,0.861423,0.228797
2.59983,0.982396,-0.0646715
2.59662,0.970321,0
2.74445,0.729728,-0.0330607
2.65381,0.846428,-0.354561
2.67137,0.852028,-0.0162966
2.72506,0.724572,-0.263218
2.74058,0.7287,0.0330141
2.58656,0.966561,-0.193086
2.65876,0.848005,-0.227821
2.73227,0.726491,-0.16465
2.67681,0.853765,0.114469
2.59381,0.96927,-0.128984
2.67015,0.85164,0.228797
2.60358,0.963093,0
2.74299,0.719609,-0.0330141
2.65282,0.83643,-0.354056
2.68181,0.84557,-0.0163431
2.739,0.718564,-0.264333
2.74685,0.720624,0.0330607
2.5935,0.959363,-0.193365
2.66155,0.839185,-0.227821
2.68144,0.845456,0.0490762
2.74626,0.720467,-0.165347
2.68725,0.847287,0.114795
2.60076,0.96205,-0.12917
2.67296,0.842781,0.228797
2.61038,0.965607,-0.0647646
2.60693,0.954,0
2.74935,0.711031,-0.0330607
2.68474,0.836205,-0.0163431
2.73764,0.708002,-0.263961
2.75323,0.712033,0.0331072
2.59683,0.950305,-0.193365
2.66447,0.82989,-0.227821
2.68438,0.836091,0.0490762
2.74875,0.710877,-0.165347
2.69019,0.837903,0.114795
2.60785,0.95434,-0.129357
2.61373,0.95649,-0.0647646
2.61776,0.947616,0
2.75182,0.701429,-0.0330607
2.66239,0.819056,-0.354561
2.68764,0.826827,-0.0163431
2.74395,0.699424,-0.264333
2.75569,0.702417,0.0331072
2.60388,0.942592,-0.193644
2.66735,0.820583,-0.227821
2.6911,0.827891,0.049146
2.74348,0.699304,-0.164882
2.69692,0.829681,0.114957
2.68782,0.826883,-0.147378
2.61705,0.94736,-0.0647646
2.61745,0.936668,0
2.75825,0.692313,-0.0331072
2.66917,0.810446,-0.355066
2.69448,0.818134,-0.0163664
2.74263,0.688393,-0.263961
2.76213,0.693287,0.0331538
2.60356,0.931698,-0.193365
2.67797,0.813118,-0.228471
2.69795,0.819185,0.0492158
2.75377,0.691189,-0.165347
2.69612,0.818631,0.114795
2.61462,0.935654,-0.129357
2.69323,0.817751,0.229773
2.62448,0.92886,0
2.76453,0.68364,-0.0331538
2.67578,0.802263,-0.355571
2.69732,0.808722,-0.0163664
2.75275,0.680727,-0.264705
2.76842,0.6846,0.0332004
2.68079,0.803765,-0.228471
2.70462,0.81091,0.0492856
2.75617,0.681571,-0.165347
2.70279,0.810361,0.114957
2.62163,0.927854,-0.129543
2.69988,0.80949,0.230099
2.68739,0.796042,-0.0815699
2.62377,0.91883,0
2.7629,0.673522,-0.0331072
2.68223,0.794513,-0.356076
2.70383,0.80091,-0.0163896
2.75886,0.672539,-0.265077
2.76678,0.674469,0.0331538
2.61361,0.915273,-0.193644
2.70346,0.800802,0.0492158
2.76617,0.67432,-0.165813
2.64194,0.925195,0.163022
2.71313,0.803665,0.115283
2.62847,0.920476,-0.129729
2.69873,0.7994,0.229773
2.63061,0.921225,-0.0648576
2.62696,0.909667,0
2.76912,0.664808,-0.0331538
2.68499,0.785146,-0.356076
2.71044,0.79259,-0.0164128
2.76894,0.664764,-0.26582
2.7769,0.666676,0.0332469
2.62433,0.908756,-0.194202
2.6862,0.7855,-0.228471
2.71008,0.792483,0.0492856
2.77239,0.665593,-0.166045
2.63166,0.911296,-0.129729
2.70533,0.791095,0.230099
2.63012,0.90049,0
2.77921,0.656978,-0.0332469
2.68771,0.775768,-0.356076
2.70935,0.782014,-0.0163896
2.76737,0.654178,-0.265448
2.79089,0.659738,0.0333866
2.63126,0.900882,-0.194481
2.69658,0.778329,-0.229122
2.71667,0.784126,0.0493554
2.77081,0.654992,-0.165813
2.71867,0.784704,0.115283
2.63105,0.900809,-0.129543
2.71574,0.783857,0.23075
2.64076,0.904133,-0.0649507
2.64082,0.89387,0
2.77759,0.646366,-0.0332004
2.71591,0.773648,-0.0164128
2.76963,0.644515,-0.265448
2.78538,0.648179,0.0332935
2.63439,0.891692,-0.194481
2.69928,0.768912,-0.229122
2.72324,0.775735,0.0494252
2.78086,0.647127,-0.166278
2.63796,0.892901,-0.129729
2.72229,0.775465,0.231075
2.64768,0.896192,-0.0650437
2.64393,0.884645,0
2.78763,0.638452,-0.0332935
2.70452,0.760207,-0.357592
2.72245,0.765245,-0.0164361
2.77963,0.63662,-0.266192
2.78763,0.638452,0.0332935
2.70963,0.761642,-0.229773
2.77921,0.636524,-0.166045
2.73178,0.767868,0.115609
2.64106,0.883687,-0.129729
2.72498,0.765957,0.231075
2.58948,0.999198,-0.0484479
2.71244,0.752224,-0.0819189
2.647,0.87541,0
2.78984,0.628717,-0.0332935
2.70716,0.750761,-0.357592
2.57864,0.995014,0.0160641
2.73281,0.757874,-0.0164826
2.78961,0.628664,-0.266935
2.80155,0.631355,0.0334332
2.64055,0.873278,-0.194481
2.70843,0.751113,-0.229448
2.58878,0.998927,0.0807553
2.73629,0.758841,0.0495648
2.58085,0.995867,-0.17729
2.7931,0.629451,-0.166743
2.73059,0.757259,0.115446
2.64413,0.874462,-0.129729
2.72526,0.755781,-0.148215
2.73148,0.757505,0.231401
2.57655,0.994206,-0.112515
2.65369,0.867873,0
2.79191,0.619464,-0.0332935
2.70963,0.741781,-0.357592
2.58193,0.986459,0.0160641
2.73531,0.74881,-0.0164826
2.79168,0.619412,-0.266935
2.80362,0.622063,0.0334332
2.71475,0.743182,-0.229773
2.59582,0.991766,0.0808717
2.57668,0.984456,-0.176779
2.79517,0.620188,-0.166743
2.65081,0.866933,-0.129915
2.73013,0.747392,0.231075
2.58356,0.987084,-0.112678
2.59248,0.980136,-0.0483781
2.6567,0.858604,0
2.79796,0.610566,-0.0333401
2.71221,0.732318,-0.357592
2.58909,0.978854,0.0160874
2.73404,0.738214,-0.0164593
2.8055,0.61221,-0.268051
2.80969,0.613125,0.0334798
2.65023,0.856512,-0.19476
2.71733,0.7337,-0.229773
2.74526,0.741242,0.0496346
2.58384,0.976866,-0.177034
2.79732,0.610426,-0.166743
2.67881,0.865747,0.163952
2.74726,0.741782,0.115934
2.65763,0.858903,-0.130101
2.74427,0.740975,0.232052
2.58699,0.978059,-0.112678
2.6674,0.862061,-0.0652298
2.59981,0.972028,-0.0484479
2.66364,0.850077,0
2.81191,0.602823,-0.0334798
2.72254,0.724413,-0.358602
2.59641,0.970759,0.0161106
2.73673,0.728189,-0.0164593
2.79993,0.600254,-0.267307
2.81191,0.602823,0.0334798
2.65335,0.846793,-0.19476
2.7277,0.725787,-0.230424
2.60659,0.974566,0.080988
2.74795,0.731175,0.0496346
2.59488,0.970186,-0.177546
2.79954,0.60017,-0.166743
2.74996,0.731708,0.115934
2.65695,0.847942,-0.129915
2.74697,0.730912,0.232052
2.59805,0.971371,-0.113003
2.67435,0.853495,-0.0653229
2.60693,0.964334,-0.0485177
2.814,0.593003,-0.0334798
2.59978,0.96169,0.0161106
2.75473,0.722691,-0.0165523
2.8098,0.592119,-0.268051
2.81791,0.593828,0.0335263
2.6601,0.838725,-0.195039
2.73022,0.71626,-0.230424
2.61373,0.966847,0.0811044
2.60199,0.962507,-0.177802
2.81334,0.592864,-0.16744
2.75636,0.723118,0.116097
2.6637,0.839863,-0.130101
2.75721,0.723342,0.232702
2.60517,0.963682,-0.113166
2.61404,0.956602,-0.0485875
2.74063,0.708776,-0.0823844
2.66951,0.83146,0
2.81605,0.583176,-0.0334798
2.73522,0.707374,-0.359612
2.61064,0.955357,0.0161571
2.75337,0.712068,-0.0165291
2.81185,0.582306,-0.268051
2.81997,0.583987,0.0335263
2.66301,0.829434,-0.195039
2.74042,0.708721,-0.231075
2.61333,0.956343,0.080988
2.75687,0.712973,0.0497045
2.60159,0.952046,-0.177546
2.82321,0.584658,-0.167906
2.755,0.712491,0.115934
2.66662,0.830559,-0.130101
2.75351,0.712104,-0.149053
2.75586,0.712714,0.232377
2.60101,0.951834,-0.112841
2.6172,0.94793,-0.0485875
2.61379,0.946697,0.0161571
2.76346,0.704913,-0.0165756
2.82157,0.57457,-0.268794
2.83757,0.577827,0.0337126
2.66956,0.821775,-0.195318
2.74662,0.700617,-0.231401
2.62025,0.949035,0.0811044
2.76309,0.704817,0.0497743
2.60098,0.942056,-0.17729
2.82513,0.575295,-0.167906
2.76896,0.706316,0.116423
2.677,0.824064,-0.130473
2.75972,0.703959,-0.149262
2.75821,0.703573,0.232377
2.60791,0.944567,-0.113003
2.61673,0.937439,-0.0485177
2.67894,0.814434,0
2.74382,0.689708,-0.360117
2.61708,0.937566,0.0161571
2.75815,0.693311,-0.0165291
2.83137,0.566279,-0.269538
2.83565,0.567133,0.033666
2.75292,0.691996,-0.231726
2.62354,0.939882,0.0811044
2.76941,0.696142,0.0498441
2.60801,0.934316,-0.177546
2.81929,0.563863,-0.16744
2.77529,0.69762,0.116586
2.67986,0.814714,-0.130473
2.76216,0.69432,-0.149262
2.76838,0.695884,0.233028
2.61119,0.935457,-0.113003
2.68969,0.817703,-0.0654159
2.61998,0.928299,-0.0485177
2.68942,0.807378,0
2.82976,0.555689,-0.0335729
2.74235,0.679172,-0.359612
2.62411,0.92976,0.0161804
2.76832,0.685602,-0.0165756
2.83333,0.556391,-0.269538
2.84153,0.558002,0.0337126
2.6867,0.806558,-0.196155
2.75532,0.682382,-0.231726
2.63435,0.933389,0.0813371
2.77182,0.68647,0.0498441
2.61502,0.926539,-0.177802
2.83692,0.557095,-0.168371
2.70782,0.812901,0.16465
2.76995,0.686006,0.11626
2.76845,0.685634,-0.149472
2.77079,0.686215,0.233028
2.61821,0.927671,-0.113166
2.69636,0.809459,-0.065509
2.62698,0.920471,-0.0485875
2.69606,0.799122,0
2.83954,0.547323,-0.033666
2.75242,0.671477,-0.360622
2.62734,0.920595,0.0161804
2.77847,0.677831,-0.0166221
2.83526,0.546498,-0.269538
2.70683,0.802315,0.0656951
2.83954,0.547323,0.033666
2.76155,0.673705,-0.232052
2.63382,0.922866,0.0812208
2.77809,0.677739,0.0499139
2.62577,0.920046,-0.178314
2.83885,0.54719,-0.168371
2.78397,0.679175,0.116748
2.68931,0.797121,-0.130659
2.76694,0.67502,-0.149262
2.78092,0.67843,0.233679
2.62898,0.92117,-0.113492
2.69917,0.800042,-0.065509
2.63018,0.911295,-0.0485875
2.75475,0.661864,-0.360622
2.63431,0.912728,0.0162036
2.7847,0.669062,-0.0166453
2.84498,0.538078,-0.270281
2.85322,0.539637,0.0338057
2.68843,0.786661,-0.195876
2.76001,0.663129,-0.231726
2.6408,0.914975,0.0813371
2.78433,0.668971,0.0499837
2.63274,0.912181,-0.178569
2.84466,0.538019,-0.168603
2.78633,0.669452,0.116748
2.69208,0.787728,-0.130659
2.77705,0.667223,-0.149681
2.77939,0.667786,0.233353
2.6284,0.910678,-0.113329
2.70962,0.792861,-0.0656951
2.64469,0.905998,-0.0487969
2.70926,0.782502,0
2.63748,0.903528,0.0162036
2.79091,0.66026,-0.0166686
2.84684,0.528145,-0.270281
2.72005,0.785619,0.0658812
2.85902,0.530406,0.0338523
2.69883,0.779488,-0.196434
2.77007,0.655329,-0.232377
2.64019,0.904457,0.0812208
2.78275,0.658329,0.0499139
2.62835,0.9004,-0.178058
2.84652,0.528087,-0.168603
2.72386,0.786718,0.165115
2.79254,0.660644,0.116911
2.69865,0.779437,-0.130846
2.78559,0.659,0.233679
2.63534,0.902795,-0.113492
2.71621,0.784509,-0.0657882
2.63648,0.892912,-0.0485875
2.71582,0.774136,0
2.85692,0.519706,-0.0338057
2.76703,0.644418,-0.361632
2.63683,0.893033,0.0161804
2.78931,0.649606,-0.0166453
2.8565,0.51963,-0.271025
2.72662,0.777215,0.0659743
2.86085,0.520422,0.0338523
2.69769,0.768968,-0.196155
2.77622,0.646559,-0.232702
2.63955,0.893952,0.0811044
2.79282,0.650425,0.0500535
2.63148,0.891219,-0.178058
2.85621,0.519577,-0.169068
2.72659,0.777205,0.165115
2.79872,0.651798,0.117074
2.7052,0.771107,-0.131032
2.78553,0.648727,-0.14989
2.72231,0.775984,0.347571
2.79175,0.650176,0.234004
2.63848,0.893589,-0.113492
2.71509,0.773926,-0.0656951
2.64685,0.887167,-0.0487271
2.71439,0.764516,0
2.86641,0.512136,-0.0338988
2.64342,0.886016,0.0162036
2.79913,0.642631,-0.0166918
2.85028,0.509253,-0.270281
2.72905,0.768646,0.0659743
2.86641,0.512136,0.0338988
2.77824,0.637834,-0.232702
2.64993,0.888197,0.0813371
2.79485,0.641649,0.0500535
2.63805,0.884217,-0.178314
2.85783,0.510602,-0.169068
2.73286,0.769718,0.165347
2.78907,0.64032,0.116586
2.79534,0.641761,-0.150309
2.79378,0.641403,0.234004
2.64127,0.885297,-0.113492
2.72135,0.766477,-0.0657882
2.65404,0.878253,-0.0487969
2.86836,0.501125,-0.0338988
2.77533,0.625957,-0.362137
2.65819,0.879629,0.0162734
2.80548,0.632757,-0.0167151
2.85613,0.49899,-0.270653
2.72813,0.757091,0.0658812
2.86442,0.500437,0.0338523
2.78845,0.628916,-0.233353
2.6647,0.881783,0.0816862
2.809,0.633552,0.0502629
2.64901,0.876588,-0.178825
2.87157,0.501686,-0.169766
2.73964,0.760286,0.16558
2.8032,0.632244,0.117074
2.71821,0.754339,-0.131404
2.79779,0.631022,-0.150309
2.804,0.632424,0.234655
2.65224,0.877659,-0.113818
2.73198,0.75816,-0.0659743
2.65328,0.867739,-0.0487271
2.72378,0.745653,0
2.87009,0.491109,-0.0338988
2.78137,0.617125,-0.362642
2.66125,0.870344,0.0162734
2.81158,0.623826,-0.0167383
2.87356,0.491703,-0.27214
2.73461,0.748619,0.0659743
2.87403,0.491783,0.0339454
2.7133,0.742783,-0.196713
2.66397,0.871233,0.0815699
2.8112,0.623742,0.0502629
2.65205,0.867336,-0.178825
2.86936,0.490985,-0.169533
2.74228,0.750718,0.16558
2.8171,0.625051,0.117563
2.72468,0.7459,-0.13159
2.79997,0.621251,-0.150309
2.8023,0.621768,0.23433
2.64769,0.86591,-0.113492
2.73076,0.747563,-0.0658812
2.656,0.8594,-0.0487271
2.72997,0.738137,0
2.87162,0.48209,-0.0338988
2.65636,0.859517,0.0162269
2.87902,0.483333,-0.272512
2.74467,0.742112,0.0661604
2.87951,0.483415,0.033992
2.79256,0.610408,-0.233353
2.66669,0.86286,0.0815699
2.80923,0.614053,0.0501931
2.65476,0.859,-0.178825
2.88271,0.483952,-0.170231
2.74463,0.742099,0.16558
2.81905,0.616198,0.117563
2.72701,0.737337,-0.13159
2.80814,0.613813,0.234655
2.6542,0.858819,-0.113655
2.74081,0.741068,-0.0660673
2.6669,0.851629,-0.0488667
2.73665,0.728679,0
2.88529,0.473002,-0.0340385
2.66726,0.851745,0.0162734
2.81977,0.605023,-0.0167616
2.88478,0.47292,-0.272884
2.74364,0.73054,0.0660673
2.88529,0.473002,0.0340385
2.80268,0.601354,-0.234004
2.81939,0.604941,0.0503327
2.66184,0.850015,-0.179081
2.87666,0.471588,-0.169766
2.74746,0.731556,0.16558
2.8253,0.606209,0.117725
2.73369,0.72789,-0.131776
2.81596,0.604204,-0.150937
2.81827,0.6047,0.235306
2.66509,0.851053,-0.11398
2.73591,0.728482,-0.0658812
2.66985,0.842314,-0.0488667
2.78631,0.587675,-0.569525
2.73918,0.719121,0
2.89087,0.46356,-0.0340851
2.79545,0.589603,-0.363652
2.6664,0.841225,0.0162501
2.82578,0.596001,-0.0167848
2.87462,0.460954,-0.271768
2.74617,0.720957,0.0660673
2.89087,0.46356,0.0340851
2.72864,0.716356,-0.197271
2.80866,0.59239,-0.23433
2.68057,0.845695,0.0818026
2.82149,0.595095,0.0503327
2.66479,0.840718,-0.179081
2.88618,0.462808,-0.170231
2.75386,0.722975,0.165813
2.83131,0.597167,0.117888
2.73621,0.718342,-0.131776
2.82196,0.595194,-0.151146
2.761,0.72485,0.350496
2.82426,0.595681,0.235632
2.66805,0.841744,-0.11398
2.74617,0.720957,-0.0660673
2.67278,0.83299,-0.0488667
2.74554,0.710558,0
2.89642,0.454087,-0.0341317
2.68078,0.835483,0.0163199
2.82785,0.586134,-0.0167848
2.89195,0.453385,-0.273256
2.75641,0.713371,0.0662534
2.89247,0.453467,0.0340851
2.81852,0.584201,-0.234981
2.68732,0.837523,0.0819189
2.83529,0.587678,0.0505422
2.67152,0.832599,-0.179337
2.89566,0.453968,-0.170696
2.76023,0.714358,0.166045
2.83338,0.587281,0.117888
2.74257,0.709788,-0.131962
2.82402,0.585341,-0.151146
2.76736,0.716203,0.350984
2.82632,0.585819,0.235632
2.67097,0.832427,-0.11398
2.75254,0.712369,-0.0661604
2.67935,0.825299,-0.0489365
2.75176,0.702438,0
2.90187,0.445085,-0.0341782
2.69118,0.828943,0.0163664
2.83369,0.577552,-0.0168081
2.89737,0.444396,-0.273627
2.75876,0.704226,0.0662534
2.81653,0.574054,-0.234655
2.68626,0.827429,0.0818026
2.67427,0.823735,-0.179337
2.89715,0.444362,-0.170696
2.77032,0.707176,0.16651
2.83922,0.578679,0.118051
2.75265,0.702665,-0.132335
2.67371,0.823564,-0.11398
2.75876,0.704226,-0.0662534
2.68221,0.815941,-0.0489365
2.76583,0.695755,0
2.9034,0.434952,-0.0341782
2.6864,0.817215,0.0163199
2.83961,0.568441,-0.0168313
2.90285,0.434869,-0.273999
2.76121,0.694591,0.0662534
2.90736,0.435545,0.0342248
2.74362,0.690166,-0.197829
2.82243,0.565001,-0.234981
2.68914,0.818047,0.0818026
2.84315,0.569149,0.050612
2.67713,0.814394,-0.179337
2.90659,0.435429,-0.171161
2.77277,0.697501,0.16651
2.84515,0.569549,0.118214
2.75896,0.694027,-0.132521
2.83577,0.567672,-0.151565
2.77987,0.699286,0.351959
2.83416,0.567349,0.235957
2.6804,0.815388,-0.114143
2.76508,0.695567,-0.0663465
2.68873,0.808193,-0.0490064
2.82856,0.556479,-0.0838971
2.76036,0.684654,0
2.91274,0.426481,-0.0342714
2.69293,0.809454,0.0163431
2.83756,0.55825,-0.0168081
2.90427,0.425241,-0.273999
2.76738,0.686394,0.0663465
2.91274,0.426481,0.0342714
2.75751,0.683947,-0.198666
2.8282,0.556408,-0.235306
2.69566,0.810276,0.0819189
2.84502,0.559718,0.050612
2.68746,0.807811,-0.179849
2.90801,0.425788,-0.171161
2.77119,0.687341,0.166278
2.85486,0.561654,0.11854
2.76125,0.684874,-0.132521
2.83993,0.558717,0.236282
2.68691,0.807646,-0.114306
2.68784,0.797197,-0.0489365
2.77839,0.678328,0
2.91825,0.416368,-0.0343179
2.70355,0.801854,0.0163896
2.84744,0.549362,-0.0168546
2.90975,0.415156,-0.274371
2.76987,0.676247,0.0663465
2.92617,0.417498,0.034411
2.76387,0.674782,-0.198945
2.83805,0.54755,-0.235957
2.70245,0.801528,0.0820353
2.85098,0.550045,0.0506818
2.68658,0.796821,-0.179593
2.91746,0.416256,-0.171626
2.77757,0.678127,0.16651
2.8569,0.551187,0.11854
2.76762,0.675698,-0.132707
2.84979,0.549816,0.236933
2.69369,0.79893,-0.114469
2.69445,0.788933,-0.0490064
2.77297,0.666754,0
2.91968,0.406178,-0.0343179
2.83048,0.535848,-0.366683
2.70633,0.792411,0.0163896
2.85327,0.540163,-0.0168778
2.91908,0.406094,-0.275114
2.7761,0.667508,0.0664395
2.91968,0.406178,0.0343179
2.75845,0.663264,-0.198387
2.84386,0.538381,-0.236282
2.70907,0.793213,0.0821517
2.85681,0.540833,0.0507516
2.69317,0.788559,-0.179849
2.92285,0.406619,-0.171859
2.78769,0.670294,0.166975
2.85881,0.541211,0.11854
2.76996,0.666032,-0.132707
2.84548,0.538688,-0.151774
2.7909,0.671066,0.352446
2.69262,0.788399,-0.114306
2.70844,0.7838,-0.0492158
2.77894,0.658963,0
2.83215,0.526954,-0.366683
2.71649,0.78613,0.0164361
2.85889,0.531928,-0.016901
2.92034,0.396922,-0.275114
2.78208,0.659707,0.0665326
2.92491,0.397543,0.0343645
2.76441,0.655516,-0.198666
2.84946,0.530174,-0.236608
2.70386,0.782476,0.0819189
2.86243,0.532588,0.0508214
2.69947,0.781204,-0.180104
2.93203,0.398511,-0.172324
2.79367,0.662455,0.167208
2.86049,0.532228,0.11854
2.77593,0.658249,-0.132893
2.85894,0.531939,-0.152402
2.80072,0.664127,0.353421
2.69509,0.779936,-0.114306
2.71129,0.773868,-0.0492158
2.85572,0.520518,-0.0844789
2.78523,0.649682,0
2.93428,0.387869,-0.0344576
2.71551,0.775071,0.0164128
2.86869,0.522882,-0.0169475
2.92572,0.386738,-0.275486
2.78448,0.649506,0.0665326
2.94221,0.388917,0.0345507
2.77845,0.6481,-0.199504
2.8553,0.520442,-0.236933
2.7144,0.774756,0.0821517
2.86436,0.522094,0.0508214
2.70232,0.771306,-0.180104
2.94139,0.388809,-0.172789
2.79996,0.653119,0.16744
2.87029,0.523174,0.118865
2.79,0.650794,-0.133451
2.71013,0.763314,-0.049146
2.85358,0.509843,-0.0843626
2.8341,0.506362,-0.5758
2.79528,0.641745,0
2.94355,0.378644,-0.0345507
2.84757,0.508768,-0.368198
2.7259,0.767755,0.0164593
2.86656,0.512161,-0.0169243
2.93495,0.377538,-0.27623
2.79842,0.642466,0.0668117
2.94751,0.379154,0.0345973
2.78069,0.638396,-0.199504
2.86103,0.511172,-0.237259
2.72094,0.766359,0.082268
2.87798,0.514201,0.0510308
2.70499,0.761867,-0.180104
2.93877,0.378029,-0.172557
2.80223,0.64334,0.16744
2.87997,0.514556,0.119191
2.79615,0.641944,-0.133637
2.86887,0.512575,0.23791
2.70829,0.762798,-0.114632
2.79842,0.642466,-0.0668117
2.71676,0.754447,-0.0492158
2.8398,0.496648,-0.576585
2.79761,0.631496,0
2.95285,0.368845,-0.0346439
2.72869,0.75776,0.0164593
2.8763,0.503029,-0.0169708
2.93632,0.366779,-0.27623
2.94888,0.368349,0.0345973
2.7908,0.629958,-0.200062
2.86681,0.50137,-0.237584
2.73143,0.758522,0.0825008
2.87985,0.50365,0.0510308
2.71546,0.754085,-0.180616
2.94806,0.368246,-0.173022
2.80846,0.633945,0.167673
2.8779,0.503309,0.119028
2.79458,0.630812,-0.133451
2.87466,0.502744,0.238235
2.71107,0.752867,-0.114632
2.80076,0.632206,-0.0668117
2.71912,0.745907,-0.0492158
2.86881,0.492436,-0.0847116
2.79568,0.621835,0
2.95797,0.360049,-0.0346904
2.85879,0.490716,-0.369208
2.73877,0.751299,0.0165058
2.8818,0.494667,-0.016994
2.94536,0.358514,-0.276973
2.79883,0.622535,0.0667187
2.954,0.359565,0.0346439
2.78887,0.62032,-0.199783
2.7338,0.749936,0.0825008
2.88536,0.495276,0.0511006
2.71781,0.74555,-0.180616
2.95713,0.359947,-0.173487
2.81824,0.626852,0.168138
2.88734,0.495617,0.119354
2.80435,0.623764,-0.133824
2.88184,0.494673,-0.15324
2.82135,0.627544,0.354884
2.71728,0.745403,-0.114795
2.72569,0.736979,-0.0492856
2.80966,0.614146,0
2.95529,0.348735,-0.0346439
2.73765,0.740211,0.0164826
2.88754,0.484763,-0.0170173
2.78962,0.609765,-0.307583
2.94666,0.347716,-0.276973
2.805,0.613126,0.0668117
2.95529,0.348735,0.0346439
2.79112,0.610094,-0.199783
2.87802,0.483163,-0.238235
2.73653,0.73991,0.0825008
2.72438,0.736624,-0.180872
2.96239,0.349573,-0.173719
2.82051,0.616518,0.168138
2.89702,0.486354,0.119679
2.81052,0.614334,-0.13401
2.88363,0.484106,-0.15324
2.83138,0.618894,0.355859
2.72825,0.727461,-0.0492856
2.87621,0.472543,-0.084828
2.85638,0.469286,-0.578938
2.80788,0.603495,0
2.96444,0.339328,-0.034737
2.74408,0.731682,0.0165058
2.89711,0.475978,-0.0170638
2.79562,0.600859,-0.308011
2.95972,0.338788,-0.278089
2.81885,0.605852,0.0670909
2.96841,0.339783,0.0347836
2.80104,0.602025,-0.200341
2.87969,0.473115,-0.238235
2.73524,0.729324,0.0823844
2.89277,0.475265,0.0511705
2.72308,0.726082,-0.180616
2.96359,0.339231,-0.173719
2.82655,0.607509,0.168371
2.8987,0.476239,0.119679
2.81656,0.60536,-0.134196
2.89319,0.475333,-0.153658
2.83353,0.609007,0.355859
2.81885,0.605852,-0.0670909
2.86954,0.461681,-0.581292
2.8216,0.596663,0
2.96952,0.329938,-0.0347836
2.75036,0.723596,0.0165291
2.90262,0.467004,-0.017087
2.96479,0.329411,-0.27846
2.81693,0.595675,0.0669978
2.96952,0.329938,0.0347836
2.80302,0.592733,-0.200341
2.88911,0.46483,-0.238886
2.74537,0.722285,0.0826171
2.89828,0.466305,0.0512403
2.96073,0.328961,-0.173487
2.82074,0.59648,0.167906
2.90816,0.467894,0.120005
2.82084,0.596502,-0.0670909
2.88733,0.453695,-0.0850607
2.87121,0.451161,-0.581292
2.82769,0.587132,0
2.97867,0.319906,-0.0348767
2.75299,0.713511,0.0165291
2.90431,0.456363,-0.017087
2.96201,0.318118,-0.278089
2.81909,0.585347,0.0669978
2.98264,0.320334,0.0349233
2.81689,0.58489,-0.201178
2.89867,0.455476,-0.239537
2.75187,0.713221,0.0827335
2.90787,0.456922,0.0513799
2.73581,0.709058,-0.181128
2.96986,0.318961,-0.173952
2.83854,0.589386,0.168836
2.90985,0.457233,0.120005
2.82463,0.586496,-0.134382
2.90261,0.456095,0.239862
2.82301,0.58616,-0.0670909
2.74335,0.70131,-0.0494252
2.89673,0.445332,-0.0852934
2.87269,0.441637,-0.581292
2.8257,0.57695,0
2.98767,0.310854,-0.0349698
2.8826,0.44316,-0.371229
2.75922,0.705368,0.0165523
2.90977,0.447336,-0.0171103
2.81335,0.574428,-0.309296
2.97098,0.309117,-0.278832
2.83277,0.578394,0.067277
2.98369,0.31044,0.0349233
2.811,0.573948,-0.20062
2.90411,0.446466,-0.239862
2.7581,0.705082,0.0828498
2.91728,0.448491,0.0515195
2.98282,0.310349,-0.17465
2.84048,0.579969,0.168836
2.91135,0.44758,0.120005
2.82656,0.577125,-0.134382
2.85132,0.582181,0.357321
2.82885,0.577594,-0.067184
2.75353,0.693683,-0.0495648
2.89826,0.435217,-0.0852934
2.88197,0.43277,-0.582861
2.83162,0.567869,0
2.98874,0.300422,-0.0349698
2.76166,0.695732,0.0165523
2.91922,0.438364,-0.0171568
2.81923,0.565385,-0.309725
2.97996,0.299541,-0.279576
2.8387,0.569288,0.0673701
2.98874,0.300422,0.0349698
2.8169,0.564917,-0.200899
2.90171,0.435734,-0.239537
2.91487,0.43771,0.0514497
2.74444,0.691393,-0.181384
2.98786,0.300334,-0.174882
2.85032,0.57162,0.169301
2.9208,0.438601,0.120331
2.83639,0.568825,-0.134754
2.84944,0.571443,0.356833
2.83477,0.568502,-0.067277
2.75594,0.684069,-0.0495648
2.90768,0.426259,-0.0855262
2.88347,0.42271,-0.582861
2.84143,0.559529,0
2.99773,0.290762,-0.0350629
2.76019,0.685126,0.0165291
2.91677,0.427593,-0.0171335
2.81729,0.554774,-0.309296
2.98892,0.289908,-0.280319
2.84459,0.56015,0.0674631
3.00171,0.291148,0.0351095
2.90715,0.426182,-0.239862
2.76295,0.685811,0.0828498
2.92825,0.429275,0.0516591
2.99683,0.290676,-0.175347
2.93022,0.429565,0.120656
2.84228,0.559695,-0.13494
2.8631,0.563796,0.358296
2.91899,0.427917,0.240839
2.83674,0.558605,-0.067277
2.91706,0.417238,-0.0857589
2.88881,0.413197,-0.583645
2.8473,0.550366,0
3.00271,0.280668,-0.0351095
2.77422,0.678336,0.0165988
2.91825,0.417408,-0.0171335
2.98991,0.279472,-0.280319
2.85438,0.551734,0.0676492
3.00669,0.28104,0.0351561
2.83253,0.54751,-0.201736
2.91652,0.41716,-0.240513
2.76533,0.676161,0.0828498
2.92973,0.41905,0.0516591
2.99386,0.279841,-0.175115
2.86208,0.553224,0.169766
2.93171,0.419333,0.120656
2.92221,0.417974,-0.154705
2.86895,0.554551,0.358783
2.83867,0.548699,-0.067277
2.76442,0.66623,-0.0496346
2.91447,0.407009,-0.0856425
2.89793,0.404699,-0.585214
2.85304,0.541666,0
3.01159,0.271426,-0.0352026
2.90416,0.405569,-0.373249
2.77646,0.669132,0.0165988
2.9315,0.409387,-0.0172033
2.83272,0.537809,-0.310581
2.99082,0.269555,-0.280319
2.84834,0.540773,0.0674631
3.01159,0.271426,0.0352026
2.83825,0.538858,-0.202015
2.92183,0.408037,-0.240839
2.77144,0.667923,0.0829662
2.93111,0.409332,0.0516591
3.00272,0.270627,-0.17558
2.93308,0.409608,0.120656
2.84995,0.541079,-0.135126
2.93149,0.409386,-0.155124
2.86687,0.544293,0.358296
2.92973,0.40914,0.24149
2.85226,0.541519,-0.0675562
2.77073,0.657017,-0.0497045
2.92387,0.397402,-0.0858753
2.89939,0.394075,-0.585214
2.85107,0.530474,0
3.02053,0.261076,-0.0352958
2.78278,0.659875,0.0166221
2.93298,0.398641,-0.0172033
2.99973,0.259278,-0.281063
2.86209,0.532525,0.0677423
3.01655,0.260732,0.0352492
2.84805,0.529912,-0.202573
2.77776,0.658684,0.0830826
2.94051,0.399664,0.0517987
2.76548,0.655772,-0.182151
3.00767,0.259964,-0.175812
2.8698,0.53396,0.169998
2.94248,0.399932,0.120982
2.87666,0.535235,0.359271
2.94306,0.40001,0.242466
2.85423,0.531062,-0.0675562
2.78469,0.650068,-0.0499139
2.92524,0.387192,-0.0858753
2.90853,0.384981,-0.586783
2.86077,0.521954,0
3.02143,0.25053,-0.0352958
2.91485,0.385818,-0.374259
2.78897,0.651065,0.0166453
2.94229,0.389449,-0.0172498
2.84432,0.518952,-0.311438
3.00458,0.249133,-0.281435
2.86787,0.523248,0.0678353
3.02143,0.25053,0.0352958
2.84595,0.51925,-0.202294
2.93653,0.388688,-0.241815
2.78005,0.648983,0.0830826
2.94189,0.389397,0.0517987
3.0205,0.250453,-0.17651
2.94782,0.390182,0.121145
2.85607,0.521095,-0.0675562
2.78695,0.640344,-0.0499139
2.93054,0.377491,-0.0859916
2.91764,0.375829,-0.588352
2.87045,0.513374,0
3.01829,0.239666,-0.0352492
2.79122,0.641327,0.0166453
2.95156,0.380199,-0.0172963
2.85394,0.510421,-0.312295
3.01734,0.23959,-0.28255
2.87361,0.513939,0.0679284
3.03026,0.240616,0.0353889
2.85953,0.511421,-0.203131
2.94183,0.378945,-0.242141
2.9472,0.379637,0.0518686
3.02135,0.239909,-0.17651
2.88814,0.516537,0.360246
2.94973,0.379964,0.242792
2.85787,0.511123,-0.0675562
2.94771,0.369247,-0.0864571
2.92671,0.366618,-0.589921
2.87617,0.504042,0
3.02709,0.229735,-0.0353423
2.79734,0.632462,0.0166686
2.95287,0.369894,-0.0172963
3.02213,0.229358,-0.282922
3.03108,0.230037,0.0353889
2.8613,0.501437,-0.203131
2.94709,0.36917,-0.242466
2.79231,0.631324,0.0833153
2.95644,0.370342,0.0520082
3.02616,0.229664,-0.176743
2.88704,0.505947,0.170696
2.96237,0.371084,0.121633
2.87699,0.504186,-0.136057
2.89384,0.507138,0.360733
2.955,0.370161,0.243117
2.86357,0.501835,-0.0676492
2.79514,0.622228,-0.0499837
2.94494,0.358986,-0.0863407
2.92791,0.356909,-0.589921
2.88571,0.495856,0
3.0398,0.220563,-0.035482
2.80333,0.624051,0.0166918
2.95805,0.360584,-0.0173195
2.86127,0.491657,-0.312723
3.01493,0.218758,-0.282178
2.88099,0.495044,0.0680214
3.04778,0.221141,0.0355752
2.87081,0.493296,-0.203689
2.95621,0.360359,-0.243117
2.96162,0.361019,0.052078
3.03088,0.219915,-0.176975
2.96359,0.361258,0.121633
2.87471,0.493965,-0.135871
2.96017,0.360841,0.243443
2.86916,0.493013,-0.0677423
2.79741,0.61198,-0.0499837
2.95021,0.348659,-0.0864571
2.9292,0.346176,-0.589921
2.88751,0.485276,0
3.04458,0.209695,-0.0355286
2.93572,0.346947,-0.376279
2.8056,0.613773,0.0166918
2.96333,0.350209,-0.0173428
2.86305,0.481167,-0.312723
3.02763,0.208528,-0.283294
2.88672,0.485145,0.0681145
3.04458,0.209695,0.0355286
2.8726,0.482772,-0.203689
2.96147,0.34999,-0.243443
2.80446,0.613523,0.083548
3.03565,0.20908,-0.177208
2.89837,0.487103,0.171161
2.97283,0.351332,0.121959
2.90122,0.487581,0.361221
2.96543,0.350458,0.243768
2.87489,0.483157,-0.0678353
2.80343,0.603052,-0.0500535
2.95936,0.339269,-0.0866898
2.93429,0.336395,-0.590705
2.88524,0.474544,0
3.04529,0.199065,-0.0355286
2.95268,0.338504,-0.3783
2.80773,0.603975,0.0166918
2.97645,0.341229,-0.0174125
2.87257,0.47246,-0.31358
3.03629,0.198477,-0.284037
2.90024,0.477012,0.0683936
3.04928,0.199326,0.0355752
2.87821,0.473388,-0.203968
2.96267,0.33965,-0.243443
2.98002,0.341639,0.0523572
2.79812,0.601909,-0.18343
3.04832,0.199263,-0.177905
2.98198,0.341863,0.122285
2.89,0.475327,-0.136429
2.91074,0.478739,0.362196
2.97456,0.341012,0.244419
2.89235,0.475714,-0.0682075
2.81325,0.595408,-0.0501931
2.96046,0.329453,-0.0866898
2.93929,0.327096,-0.59149
2.89074,0.465609,0
3.04993,0.189213,-0.0355752
2.81363,0.595488,0.0167151
2.97757,0.331356,-0.0174125
2.87412,0.462931,-0.31358
3.04091,0.188653,-0.284409
2.90575,0.468027,0.0684867
3.06191,0.189956,0.0357148
2.8837,0.464475,-0.204247
2.96775,0.330263,-0.243768
2.98114,0.331754,0.0523572
3.05295,0.1894,-0.178138
2.97912,0.331529,0.122122
2.8955,0.466375,-0.136615
2.91623,0.469714,0.362683
2.97567,0.331145,0.244419
2.88601,0.464847,-0.0680214
2.81531,0.585586,-0.0501931
2.96955,0.319976,-0.0869225
2.94821,0.317677,-0.593059
2.9042,0.457384,0
3.05057,0.178567,-0.0355752
2.97871,0.320963,-0.0174125
3.0495,0.178505,-0.285152
3.06654,0.179502,0.0357614
2.8853,0.454408,-0.204247
2.97681,0.320758,-0.244419
2.82237,0.587056,0.0838971
2.99023,0.322205,0.0524968
2.80606,0.583663,-0.183686
3.04562,0.178277,-0.177673
2.91113,0.458474,0.171626
2.99218,0.322415,0.12261
2.92177,0.460152,0.363171
2.98077,0.321185,0.244744
2.88762,0.454772,-0.0680214
2.81733,0.575754,-0.0501931
2.9532,0.307789,-0.593843
2.90183,0.446635,0
3.05916,0.168357,-0.0356683
2.82163,0.576633,0.0167383
2.97981,0.310562,-0.0174125
3.04613,0.167639,-0.284781
2.90895,0.447731,0.0684867
3.06715,0.168796,0.0357614
2.8987,0.446154,-0.205084
2.97791,0.310364,-0.244419
2.99134,0.311764,0.0524968
2.81199,0.574663,-0.183942
3.05021,0.167864,-0.177905
2.98932,0.311553,0.122448
2.98981,0.311604,0.245395
2.90104,0.446514,-0.0683006
2.82717,0.56749,-0.0503327
2.97966,0.300036,-0.0871552
2.91128,0.437692,0
3.06373,0.157882,-0.0357148
2.96891,0.298953,-0.379815
2.99282,0.30136,-0.0174822
2.89061,0.434583,-0.314865
3.05465,0.157414,-0.285524
2.9184,0.438762,0.0686728
3.07571,0.1585,0.0358545
2.8963,0.435439,-0.204805
2.98691,0.300766,-0.24507
2.83424,0.56891,0.0841298
2.99639,0.30172,0.0525666
3.06274,0.157831,-0.178603
2.9261,0.43992,0.172324
3.00231,0.302317,0.122936
2.91208,0.437811,-0.137174
2.92884,0.440332,0.363658
3.00278,0.302363,0.246372
2.82525,0.567106,-0.1174
2.91049,0.437573,-0.0684867
2.83698,0.559165,-0.0504724
2.98467,0.290021,-0.0872716
2.90883,0.426946,0
2.97784,0.289356,-0.380825
2.83736,0.559241,0.0168081
3.00181,0.291686,-0.0175287
2.89997,0.425646,-0.315722
3.06711,0.147325,-0.28664
2.92783,0.429734,0.0688589
3.08024,0.147955,0.0359011
2.90175,0.425906,-0.205084
2.98794,0.290338,-0.24507
2.83229,0.55824,0.0840135
3.00539,0.292033,0.0527063
2.82377,0.556561,-0.184454
3.06726,0.147332,-0.178836
3.00335,0.291836,0.122936
2.93429,0.430682,0.364146
3.00381,0.291881,0.246372
2.91992,0.428573,-0.0686728
2.84677,0.550777,-0.050612
2.97488,0.278589,-0.38032
2.83537,0.548573,0.0167848
2.90144,0.41552,-0.315722
3.07159,0.136794,-0.287011
2.92931,0.419511,0.0688589
3.08473,0.137379,0.0359477
2.91112,0.416905,-0.205642
2.98894,0.279906,-0.24507
2.83814,0.549109,0.0841298
3.00639,0.28154,0.0527063
3.07175,0.136801,-0.179068
3.01629,0.282467,0.123424
2.94364,0.421562,0.365121
3.01275,0.282136,0.247023
2.83699,0.548886,-0.117725
2.92535,0.418944,-0.0687658
2.84081,0.539346,-0.0504724
2.99857,0.270253,-0.0876207
2.93155,0.409395,0
3.0812,0.126447,-0.0359011
2.98769,0.269272,-0.381835
2.8412,0.539419,0.0168081
3.01573,0.271799,-0.0175985
3.08399,0.126562,-0.288127
2.93868,0.41039,0.069045
3.09319,0.126939,0.0360408
2.92046,0.407845,-0.2062
3.00181,0.270545,-0.246046
2.84397,0.539945,0.0842462
3.01532,0.271763,0.0528459
3.01726,0.271938,0.123424
2.94902,0.411834,0.365608
3.01372,0.271619,0.247023
2.84282,0.539726,-0.117888
2.93076,0.409284,-0.0688589
2.85054,0.530891,-0.050612
2.929,0.39862,0
3.08562,0.115842,-0.0359477
2.99651,0.259527,-0.382845
2.847,0.530231,0.0168313
3.01267,0.260926,-0.0175752
2.91215,0.396328,-0.316579
3.08441,0.115796,-0.288127
2.94009,0.40013,0.069045
3.09361,0.116142,0.0360408
2.92186,0.397649,-0.2062
3.00273,0.260066,-0.246046
2.86156,0.532943,0.0847116
3.02023,0.261581,0.0529157
2.84122,0.529154,-0.185221
3.0846,0.115803,-0.179766
3.02217,0.261749,0.123587
2.93375,0.399266,-0.137918
2.95437,0.402074,0.366096
3.02656,0.26213,0.247999
2.84468,0.5298,-0.117888
2.93217,0.399052,-0.0688589
2.85631,0.521655,-0.0506818
2.93434,0.388918,0
3.094,0.105342,-0.0360408
3.00531,0.249722,-0.383855
2.85276,0.521007,0.0168546
3.02951,0.251733,-0.0176682
2.91746,0.386682,-0.317007
3.09275,0.105299,-0.28887
2.94544,0.39039,0.0691381
2.92324,0.387447,-0.2062
3.01157,0.250242,-0.246697
2.85554,0.521514,0.0844789
2.85483,0.521384,-0.185989
3.09695,0.105442,-0.180464
3.02705,0.251528,0.12375
2.93908,0.389547,-0.138104
3.02143,0.251061,-0.158892
2.95182,0.391236,0.365608
3.02746,0.251563,0.247999
2.85438,0.521302,-0.118214
2.94544,0.39039,-0.0691381
2.86993,0.513797,-0.0508912
2.94361,0.379697,0
3.09834,0.0946637,-0.0360874
3.00616,0.239231,-0.383855
3.02638,0.24084,-0.017645
3.10505,0.0948685,-0.289986
3.10234,0.0947859,0.0361339
2.93644,0.378772,-0.207037
3.01242,0.239729,-0.246697
2.86128,0.512248,0.0845953
3.03793,0.241759,0.0531949
2.85663,0.511416,-0.185989
3.10928,0.0949978,-0.181161
3.03588,0.241595,0.124076
2.94835,0.380308,-0.138477
2.96498,0.382454,0.36707
3.03229,0.24131,0.248324
2.85618,0.511336,-0.118214
2.95075,0.380618,-0.0692311
2.87564,0.504466,-0.050961
3.02199,0.229876,-0.0882025
2.94095,0.368921,0
3.00698,0.228735,-0.383855
3.03518,0.23088,-0.0176915
3.10934,0.0841362,-0.290357
2.95603,0.370812,0.0693242
3.11465,0.0842798,0.0362736
2.93775,0.368519,-0.207037
3.02119,0.229816,-0.247348
2.87092,0.503639,0.084828
3.03876,0.231152,0.0531949
2.85446,0.500751,-0.185733
3.11358,0.084251,-0.181394
2.94966,0.370014,-0.138477
2.9663,0.372101,0.36707
3.03709,0.231026,0.24865
2.86189,0.502053,-0.118377
2.88124,0.495606,-0.0510308
2.9501,0.360137,0
3.11491,0.0739514,-0.0362736
3.01564,0.219339,-0.384866
3.03992,0.221105,-0.0177147
3.11756,0.0740144,-0.291101
3.11491,0.0739514,0.0362736
2.94291,0.359259,-0.207316
3.02591,0.220086,-0.247673
2.87652,0.494794,0.0849444
3.04748,0.221655,0.0533346
2.86398,0.492636,-0.186244
3.11784,0.0740209,-0.181626
2.9588,0.361199,-0.138849
2.97146,0.362744,0.367558
3.0458,0.221532,0.249301
2.86747,0.493238,-0.11854
2.95724,0.361008,-0.0693242
2.87892,0.485383,-0.050961
2.95128,0.350351,0
3.11914,0.0637024,-0.0363202
3.02427,0.209886,-0.385876
3.04064,0.211022,-0.0177147
3.11779,0.063675,-0.291101
2.96239,0.351671,0.0694172
3.12314,0.0637841,0.0363667
2.95201,0.350438,-0.207874
3.03856,0.210878,-0.24865
2.88603,0.486581,0.0851771
3.05219,0.211824,0.0534044
2.86953,0.483799,-0.1865
3.12605,0.0638436,-0.182091
3.05411,0.211957,0.124727
2.95205,0.350443,-0.138477
2.98053,0.353824,0.368533
3.05049,0.211706,0.249626
2.87304,0.48439,-0.118702
2.96239,0.351671,-0.0694172
2.88455,0.475982,-0.0510308
2.95646,0.340505,0
3.12734,0.0529503,-0.0364133
3.02498,0.199328,-0.385876
3.04934,0.200933,-0.0177612
2.97949,0.343158,0.0697894
2.95718,0.340589,-0.208153
3.03928,0.200271,-0.24865
2.89166,0.477155,0.0852934
3.0569,0.201432,0.0534742
2.87908,0.47508,-0.187012
3.13025,0.0529995,-0.182324
3.05882,0.201559,0.12489
2.96119,0.341051,-0.138849
2.98175,0.343418,0.368533
3.05917,0.201581,0.250277
2.8826,0.47566,-0.119028
2.97155,0.342243,-0.0696033
2.89417,0.466681,-0.0511705
2.96564,0.330554,0
3.13151,0.0415414,-0.0364599
3.02965,0.188487,-0.386381
3.06203,0.190501,-0.017831
2.98073,0.332236,0.0697894
3.13551,0.0415945,0.0365064
2.95841,0.329749,-0.208153
3.04397,0.189378,-0.248975
2.88944,0.465918,0.0851771
3.06161,0.190476,0.053544
2.88474,0.465161,-0.187268
3.13841,0.0416329,-0.182789
3.06752,0.190843,0.125216
2.96639,0.330639,-0.139035
3.05788,0.190244,-0.160567
2.98693,0.332928,0.36902
3.05591,0.190121,0.249952
2.88037,0.464456,-0.118865
2.89965,0.457705,-0.0512403
3.13963,0.0312369,-0.036553
3.03422,0.178673,-0.386886
3.07063,0.180817,-0.0178774
2.98579,0.322781,0.0698825
3.14363,0.0312767,0.0365996
2.95949,0.319937,-0.208153
3.05254,0.179752,-0.249626
2.90676,0.458828,0.0856425
3.07021,0.180793,0.0536836
2.89021,0.456215,-0.187524
3.14252,0.0312657,-0.183022
3.07213,0.180905,0.125378
2.97145,0.32123,-0.139221
3.06248,0.180338,-0.160776
2.99197,0.323448,0.369508
3.06448,0.180455,0.250603
2.89374,0.456772,-0.119354
2.98182,0.322351,-0.0697894
3.05402,0.169143,-0.089017
3.14772,0.0203282,-0.0366461
3.04275,0.168519,-0.387896
3.07124,0.170097,-0.0178774
2.99485,0.313187,0.0700686
2.96456,0.310019,-0.208432
3.06111,0.169536,-0.250277
2.90835,0.448678,0.0856425
3.06683,0.169853,0.0536138
2.89573,0.446731,-0.187779
3.1466,0.020321,-0.183254
2.99854,0.313573,0.17558
3.08072,0.170622,0.125704
2.97255,0.310855,-0.139221
3.06708,0.169867,-0.160985
2.99703,0.313415,0.369995
2.89927,0.447277,-0.119517
2.99088,0.312771,-0.0699755
2.90285,0.436944,-0.0512403
3.15577,0.00881413,-0.0367393
3.05127,0.157776,-0.388906
3.07983,0.159253,-0.0179239
2.99996,0.30261,0.0701616
3.15177,0.00880296,0.0366927
2.97361,0.299953,-0.20899
3.05773,0.15811,-0.249952
2.91393,0.438611,0.0857589
3.07942,0.159231,0.0538232
2.90525,0.437304,-0.188291
3.15464,0.00881097,-0.183719
2.99967,0.302581,0.17558
3.08532,0.159536,0.125867
2.98162,0.300761,-0.139593
3.07168,0.158831,-0.161195
3.00211,0.302827,0.370483
2.90089,0.436648,-0.119517
2.992,0.301808,-0.0699755
2.91212,0.428987,-0.0513799
3.15979,-0.00110234,-0.0367858
3.05572,0.148381,-0.389411
3.08431,0.14977,-0.0179472
3.0009,0.293184,0.0701616
3.07016,0.149082,-0.250928
2.91925,0.430036,0.0858753
3.0799,0.149555,0.0538232
2.9066,0.428174,-0.188291
3.16264,-0.00110334,-0.184184
3.00855,0.293932,0.176045
3.08979,0.150036,0.12603
2.98255,0.291391,-0.139593
3.07216,0.149179,-0.161195
3.00304,0.293393,0.370483
2.91015,0.428697,-0.119842
2.99692,0.292795,-0.0700686
2.92167,0.418938,-0.0515195
3.16376,-0.013251,-0.0368324
3.06023,0.136825,-0.389916
3.08487,0.137926,-0.0179472
2.97762,0.279372,-0.322148
3.00996,0.282407,0.0703477
3.07071,0.137293,-0.250928
2.92088,0.418825,0.0858753
3.08445,0.137908,0.053893
2.91613,0.418144,-0.188803
3.17459,-0.0132964,-0.184882
3.01761,0.283124,0.17651
3.09434,0.13835,0.126193
2.9916,0.280684,-0.139966
3.08069,0.13774,-0.161613
3.01205,0.282603,0.371458
2.90782,0.416953,-0.119679
2.92707,0.40929,-0.0515893
3.17569,-0.0243875,-0.0369721
3.06465,0.126304,-0.390421
3.09732,0.127651,-0.0180169
2.99046,0.270049,-0.323433
3.0189,0.272617,0.0705338
2.98851,0.269873,-0.209827
3.0871,0.127229,-0.25223
2.93024,0.409733,0.086108
3.0929,0.127469,0.0540326
2.92548,0.409067,-0.189314
3.17453,-0.0243786,-0.184882
3.01858,0.272588,0.17651
3.10279,0.127876,0.126518
3.0045,0.271317,-0.140524
3.08913,0.127313,-0.162032
3.01697,0.272443,0.371945
2.92113,0.40846,-0.120168
2.92848,0.399069,-0.0515893
3.18759,-0.0356075,-0.0371118
2.92492,0.398583,0.0171568
3.09775,0.116837,-0.0180169
3.02381,0.262422,0.0706269
2.99341,0.259784,-0.210106
3.09151,0.116602,-0.252555
2.93958,0.400581,0.0863407
3.09333,0.116671,0.0540326
2.93084,0.399391,-0.18957
3.18241,-0.0355497,-0.185347
3.01952,0.262049,0.17651
3.11121,0.117345,0.126844
3.00543,0.260827,-0.140524
3.10154,0.11698,-0.16266
3.03373,0.263283,0.373895
2.93046,0.399339,-0.120494
3.01584,0.26173,-0.0704408
2.93765,0.390923,-0.0517289
3.19146,-0.045678,-0.0371583
2.93012,0.389921,0.01718
3.10209,0.107244,-0.0180402
3.02462,0.252922,0.0706269
3.00614,0.251376,-0.210944
3.09983,0.107165,-0.253206
2.94478,0.391872,0.0864571
3.09768,0.107091,0.0541025
2.92813,0.389656,-0.189314
3.02828,0.253228,0.176975
3.11555,0.107709,0.127007
3.00624,0.251384,-0.140524
3.10189,0.107236,-0.16266
2.93963,0.391186,-0.120819
3.02462,0.252922,-0.0706269
2.9431,0.380152,-0.0517987
3.19126,-0.0579328,-0.0371583
2.99436,0.238816,-0.467331
2.93556,0.379179,0.0172033
3.11048,0.0955766,-0.0180867
3.00106,0.23935,-0.32429
3.02557,0.241305,0.0706269
3.10819,0.0955062,-0.253857
2.95023,0.381073,0.0865734
3.11006,0.0955637,0.0543119
2.94148,0.379943,-0.190082
3.20205,-0.0581286,-0.18651
3.03719,0.242232,0.17744
3.11994,0.0958673,0.12717
3.01913,0.240792,-0.141082
3.11425,0.0956926,-0.163288
2.93714,0.379383,-0.120656
2.95221,0.371904,-0.0519384
2.94865,0.371455,0.017273
3.11476,0.0859152,-0.0181099
3.00972,0.230529,-0.325147
3.03429,0.23241,0.070813
3.01578,0.230993,-0.211502
3.10449,0.0856318,-0.253532
2.94745,0.371304,0.0864571
3.12234,0.0861241,0.0545213
2.95058,0.371699,-0.190593
3.03794,0.23269,0.17744
3.12821,0.0862862,0.127495
3.02784,0.231916,-0.141455
2.93832,0.370154,-0.120656
3.03828,0.232716,-0.0709061
2.95746,0.362082,-0.0520082
3.0077,0.219815,-0.469176
2.94992,0.361159,0.017273
3.11504,0.0750413,-0.0181099
3.02241,0.22089,-0.326432
3.03907,0.222108,0.0709061
3.02851,0.221336,-0.212339
3.12071,0.0751778,-0.254834
2.9646,0.362956,0.0869225
3.11862,0.0751274,0.0544515
2.95186,0.361396,-0.190593
3.0467,0.222666,0.177905
3.1285,0.0753654,0.127495
3.04058,0.222219,-0.142013
3.12281,0.0752283,-0.163707
2.9515,0.361352,-0.121145
2.95877,0.351241,-0.0520082
3.11803,0.0636801,-0.0907625
3.03271,0.210472,0
3.01243,0.209065,-0.469791
2.95917,0.351288,0.0173195
3.1193,0.0637059,-0.0181332
3.0232,0.209812,-0.326432
3.04784,0.211522,0.0710922
3.02532,0.209959,-0.21206
3.12495,0.0638214,-0.255159
2.96591,0.352088,0.0869225
3.12687,0.0638606,0.0545911
2.95713,0.351046,-0.190849
3.05546,0.212051,0.178371
3.04138,0.211074,-0.142013
3.13105,0.063946,-0.164126
2.95677,0.351003,-0.121308
3.04784,0.211522,-0.0710922
2.96395,0.341368,-0.052078
3.02892,0.199587,-0.472251
2.96435,0.341414,0.0173428
3.1315,0.0530195,-0.0182029
3.03185,0.19978,-0.327289
3.04457,0.200618,0.0709991
3.03798,0.200184,-0.212897
3.14307,0.0532154,0.0548704
2.9623,0.341177,-0.191105
3.0522,0.201121,0.178138
3.03811,0.200192,-0.141827
2.96989,0.342051,-0.121796
3.05255,0.201144,-0.0711852
2.96904,0.331983,-0.0521478
3.13438,0.042674,-0.0912279
2.96547,0.331584,0.0173428
3.13966,0.0427458,-0.0182494
3.03646,0.189975,-0.327717
3.0532,0.191022,0.0711852
3.03464,0.189861,-0.212618
2.97618,0.332782,0.0871552
3.14723,0.0428489,0.0549402
2.97135,0.332241,-0.191617
3.06879,0.191998,0.179068
3.05471,0.191117,-0.142571
2.96703,0.331759,-0.121633
2.97422,0.321528,-0.0522176
3.13452,0.0311848,-0.0912279
3.05471,0.179879,0
2.97064,0.321142,0.017366
3.14779,0.0313169,-0.0182959
3.04508,0.179312,-0.328574
3.05787,0.180065,0.0712783
3.04727,0.17944,-0.213455
3.14538,0.0312929,-0.256786
2.98136,0.3223,0.0872716
3.14337,0.0312728,0.0548704
2.97255,0.321348,-0.191617
3.06947,0.180748,0.179068
3.05539,0.179919,-0.142571
3.14752,0.0313142,-0.164963
2.9722,0.32131,-0.121796
2.98317,0.313018,-0.0523572
3.1466,0.0214195,-0.091577
3.06325,0.170727,0
2.98357,0.31306,0.0174357
3.14787,0.0214283,-0.0182959
3.05754,0.170409,-0.329859
3.0704,0.171126,0.0715574
3.0518,0.170089,-0.213734
3.15145,0.0214526,0.05501
2.97354,0.312008,-0.191617
3.06791,0.170987,-0.14313
2.97717,0.312389,-0.121959
2.98424,0.302602,-0.0523572
3.15465,0.0104614,-0.0918097
3.06782,0.160241,0
2.98464,0.302643,0.0174357
3.15193,0.0104524,-0.0183192
3.05017,0.159319,-0.329002
3.08296,0.161032,0.0718366
3.06034,0.15985,-0.214292
2.99934,0.304134,0.087737
2.97858,0.302029,-0.191873
3.08656,0.16122,0.179998
3.16364,0.0104913,-0.1658
2.9862,0.302801,-0.122285
3.07497,0.160615,-0.0716505
2.98936,0.291529,-0.052427
3.0804,0.149039,0
2.99375,0.291956,0.0174822
3.16395,-0.00165722,-0.0183889
3.06268,0.148182,-0.330287
3.07956,0.148999,0.0717435
3.07289,0.148676,-0.215129
3.00447,0.293002,0.0878534
2.99164,0.291751,-0.19264
3.09114,0.149559,0.180231
3.08105,0.149071,-0.143688
2.98734,0.291331,-0.122285
3.08356,0.149192,-0.0718366
2.99434,0.281467,-0.0524968
3.15864,-0.0126796,-0.0919261
3.0769,0.138107,0
3.00669,0.282628,0.017552
3.17592,-0.012749,-0.0184586
3.0751,0.138026,-0.331573
3.08406,0.138428,0.0718366
3.07339,0.13795,-0.215129
3.00547,0.282513,0.0878534
