1.85087,0.666355,-0.0572502
1.88335,0.783963,0
1.82451,0.557808,-0.0222112
1.87044,0.6734,-0.0115541
1.83958,0.562418,-0.179568
1.89761,0.789898,0.047829
1.83216,0.560147,0.0223043
1.84926,0.665777,-0.160451
1.87019,0.673309,0.0346954
1.83682,0.561572,-0.111859
1.85388,0.667438,0.0802748
1.88131,0.783114,-0.0949235
1.86039,0.669783,-0.103625
1.84551,0.664427,0.160125
1.88653,0.785288,-0.0475499
1.84565,0.657207,-0.0570174
1.87868,0.774335,0
1.8341,0.553748,-0.0223043
1.86524,0.664183,-0.0115076
1.83391,0.55369,-0.178824
1.88926,0.778697,0.0475499
1.82261,0.550279,0.0221646
1.85158,0.659317,-0.160451
1.86122,0.662752,0.034486
1.83494,0.554003,-0.111627
1.85243,0.659622,0.0801119
1.88034,0.775019,-0.0947374
1.86272,0.663284,-0.103625
1.84407,0.656643,0.1598
1.88926,0.778697,-0.0475499
1.85171,0.652089,-0.0571338
1.87767,0.766262,0
1.83219,0.5462,-0.0222578
1.86378,0.65634,-0.0114843
1.83201,0.546148,-0.178453
1.88826,0.770587,0.0474568
1.81686,0.541629,0.0220715
1.85387,0.652851,-0.160451
1.87107,0.658908,0.0346256
1.83304,0.546454,-0.111394
1.84341,0.649169,0.0796234
1.87193,0.763922,-0.094179
1.85749,0.654125,-0.103207
1.84635,0.650202,0.1598
1.88826,0.770587,-0.0474568
1.85019,0.644306,-0.0570174
1.87662,0.758204,0
1.82641,0.537542,-0.0221646
1.86228,0.648514,-0.0114611
1.84155,0.541998,-0.179196
1.88724,0.762493,0.0473638
1.8149,0.534154,0.0220249
1.8599,0.647686,-0.160776
1.86203,0.648426,0.0344161
1.83494,0.540051,-0.111394
1.84944,0.644045,0.0797863
1.87088,0.755886,-0.0939929
1.85599,0.646323,-0.102997
1.83355,0.638508,0.158498
1.88353,0.760995,-0.0472707
1.85254,0.637521,-0.0570174
1.87567,0.749836,0
1.82069,0.528614,-0.0220715
1.85725,0.639142,-0.250011
1.86086,0.640383,-0.0114378
1.83205,0.531914,-0.178081
1.8863,0.754087,0.0472707
1.81684,0.527499,0.0220249
1.85095,0.636973,-0.1598
1.86439,0.641598,0.0344161
1.83307,0.532209,-0.111162
1.84801,0.635962,0.0796234
1.87364,0.749024,-0.0939929
1.85834,0.639516,-0.102997
1.8321,0.630487,0.158173
1.88259,0.752602,-0.0471777
1.85086,0.630085,-0.0569011
1.87071,0.740667,0
1.82243,0.522573,-0.0220715
1.85936,0.632979,-0.250011
1.85161,0.630341,-0.0113681
1.8338,0.525835,-0.178081
1.89251,0.749299,0.0473638
1.81858,0.521471,0.0220249
1.85873,0.735925,-0.139792
1.84928,0.629547,-0.159474
1.86272,0.634122,0.0343463
1.82715,0.523926,-0.110697
1.84633,0.628541,0.0794606
1.87611,0.742806,-0.0939929
1.85667,0.632062,-0.102788
1.83418,0.624407,0.158173
1.88136,0.744883,-0.0470846
1.83789,0.61852,-0.0564356
1.87328,0.734133,0
1.81654,0.514031,-0.0219784
1.85404,0.623954,-0.249001
1.84622,0.621323,-0.0113216
1.8318,0.518347,-0.177709
1.88395,0.738311,0.0470846
1.81654,0.514031,0.0219784
1.86129,0.729432,-0.139792
1.84769,0.621816,-0.159149
1.85734,0.625066,0.0342067
1.82128,0.515371,-0.110232
1.87012,0.732891,0.116976
1.84093,0.619543,0.079135
1.86382,0.730422,-0.0932484
1.85508,0.624304,-0.102578
1.83257,0.61673,0.157847
1.8765,0.735393,-0.0468985
1.83635,0.610517,-0.0563193
1.86477,0.722924,0
1.81842,0.507369,-0.0219784
1.85255,0.615902,-0.248496
1.89298,0.842414,0.0120423
1.84849,0.614551,-0.0113216
1.82601,0.509488,-0.176966
1.88291,0.729955,0.0469915
1.81456,0.506294,0.0219318
1.86395,0.722605,-0.139792
1.85374,0.616297,-0.159474
1.85583,0.616992,0.0341369
1.827,0.509764,-0.110464
1.87651,0.727474,0.117208
1.83561,0.61027,0.0788093
1.86275,0.722141,-0.0930622
1.85736,0.6175,-0.102578
1.82726,0.607493,0.157196
1.87918,0.72851,-0.0468985
1.83467,0.602855,-0.0562029
1.85608,0.712111,0
1.80861,0.497833,-0.0218387
1.85092,0.608193,-0.247991
1.89591,0.8358,0.0120423
1.85062,0.608095,-0.0113216
1.83162,0.504168,-0.177337
1.88172,0.721945,0.0468985
1.80475,0.496772,0.0217921
1.85529,0.711806,-0.138955
1.8483,0.607333,-0.158823
1.85037,0.608012,0.0339973
1.81722,0.500204,-0.109766
1.87904,0.720919,0.117208
1.83393,0.60261,0.0786465
1.86526,0.715634,-0.0930622
1.85191,0.608519,-0.10216
1.818,0.597377,0.15622
1.88172,0.721945,-0.0468985
1.89108,0.826194,-0.0360218
1.84047,0.598004,-0.0563193
1.86217,0.707373,0
1.81025,0.491833,-0.0218387
1.84915,0.600825,-0.247486
1.88768,0.824705,0.0119725
1.85263,0.601955,-0.0113216
1.82944,0.497047,-0.176966
1.88036,0.714282,0.0468054
1.80639,0.490785,0.0217921
1.85391,0.704233,-0.138676
1.84652,0.599969,-0.158498
1.84477,0.599402,0.0338577
1.82272,0.495223,-0.109999
1.87022,0.71043,0.116511
1.83592,0.596526,0.0786465
1.86016,0.706607,-0.09269
1.85012,0.60114,-0.10195
1.82377,0.592577,0.156545
1.87662,0.712862,-0.0467124
1.8756,0.811647,-0.0356727
1.83112,0.587909,-0.0559702
1.86463,0.700869,0
1.81195,0.485512,-0.0218387
1.8399,0.590728,-0.245971
1.88687,0.816523,0.0119493
1.83567,0.589371,-0.0112054
1.82731,0.489628,-0.176594
1.8791,0.706307,0.0467124
1.81195,0.485512,0.0218387
1.85635,0.697758,-0.138676
1.8448,0.592302,-0.158173
1.84304,0.591736,0.0337879
1.81287,0.485757,-0.109301
1.86521,0.701088,0.116045
1.83418,0.588892,0.0784836
1.85887,0.698704,-0.0925039
1.85221,0.594679,-0.10195
1.81823,0.58377,0.155894
1.87536,0.7049,-0.0466193
1.87843,0.805094,-0.0356727
1.82554,0.579095,-0.0557375
1.86707,0.694355,0
1.80977,0.478162,-0.0217921
1.84195,0.584302,-0.245971
1.88603,0.808355,0.011926
1.84153,0.584168,-0.0112286
1.82131,0.481211,-0.17585
1.8778,0.698349,0.0466193
1.8175,0.480205,0.0218852
1.85878,0.691273,-0.138676
1.84306,0.584652,-0.157847
1.8451,0.585299,0.0337879
1.81841,0.480445,-0.109534
1.87139,0.695965,0.116278
1.82099,0.577652,0.0778323
1.85381,0.689425,-0.0921316
1.84666,0.585793,-0.101532
1.82026,0.57742,0.155894
1.87406,0.696955,-0.0465263
1.87386,0.795408,-0.0355331
1.82755,0.572721,-0.0557375
1.85822,0.683692,0
1.81143,0.471843,-0.0217921
1.84398,0.57787,-0.245971
1.88516,0.800205,0.0119028
1.83974,0.576542,-0.0112054
1.82298,0.474852,-0.17585
1.87648,0.690411,0.0465263
1.80756,0.470835,0.0217455
1.84994,0.680648,-0.137839
1.84509,0.578217,-0.157847
1.88072,0.798318,0.0594611
1.83949,0.576464,0.0336482
1.81235,0.472083,-0.109069
1.86257,0.685293,0.11558
1.82681,0.572488,0.0779952
1.85245,0.681571,-0.0919455
1.84107,0.576956,-0.101113
1.81846,0.569871,0.155569
1.87627,0.796432,-0.0830429
1.87648,0.690411,-0.0465263
1.87294,0.787312,-0.0354633
1.83336,0.56752,-0.0558538
1.84556,0.671728,0
1.80144,0.462532,-0.0216524
1.8422,0.570256,-0.245465
1.88426,0.792069,0.0118796
1.84175,0.570116,-0.0112054
1.82077,0.467495,-0.175478
1.87888,0.683856,0.0465263
1.81306,0.465516,0.0217921
1.84856,0.672821,-0.13756
1.83948,0.569414,-0.157196
1.87243,0.787099,0.059112
1.83768,0.568856,0.0335784
1.81786,0.466747,-0.109301
1.86495,0.678786,0.11558
1.82498,0.564926,0.0778323
1.85482,0.6751,-0.0919455
1.83544,0.568163,-0.100694
1.81663,0.562341,0.155243
1.87167,0.78678,-0.0827172
1.8676,0.679753,-0.0462471
1.86829,0.777695,-0.0353237
1.82768,0.558778,-0.0556211
1.85165,0.666636,0
1.79529,0.454278,-0.0215593
1.83279,0.560341,-0.24395
1.87962,0.782412,0.0118331
1.83607,0.561344,-0.0111589
1.84849,0.665496,-0.211624
1.81853,0.460159,-0.175107
1.86996,0.673229,0.0462471
1.80692,0.457222,0.021699
1.84714,0.665012,-0.137281
1.83764,0.561824,-0.156871
1.87148,0.779021,0.0589956
1.83583,0.561268,0.0335086
1.8156,0.459418,-0.109069
1.86355,0.670919,0.115348
1.8193,0.556214,0.0775067
1.84589,0.664561,-0.0913871
1.83359,0.560584,-0.100485
1.81095,0.553664,0.154593
1.87072,0.778705,-0.0825544
1.86996,0.673229,-0.0462471
1.86333,0.768772,-0.0351841
1.8256,0.551877,-0.0555047
1.84997,0.659473,0
1.80059,0.449605,-0.0216059
1.82695,0.552284,-0.24294
1.87838,0.774978,0.0118098
1.83017,0.553259,-0.0111124
1.83933,0.65568,-0.210339
1.8161,0.453479,-0.174735
1.87207,0.667351,0.0462471
1.80835,0.451543,0.021699
1.85298,0.660546,-0.13756
1.83558,0.554895,-0.156545
1.87022,0.771613,0.0588792
1.82992,0.553184,0.033369
1.81704,0.453712,-0.109069
1.85813,0.66238,0.114883
1.82486,0.551653,0.0776695
1.85549,0.661442,-0.0917594
1.83534,0.554822,-0.100485
1.80887,0.546819,0.154267
1.86577,0.769776,-0.0822287
1.86454,0.664666,-0.046061
1.866,0.762263,-0.0351841
1.81602,0.542071,-0.0551557
1.84849,0.651682,0
1.80215,0.443318,-0.0216059
1.82886,0.545904,-0.24294
1.87737,0.766904,0.0117866
1.82826,0.545723,-0.0110891
1.83786,0.647934,-0.20991
1.80994,0.445234,-0.173991
1.87062,0.659483,0.0461541
1.80603,0.444273,0.0216524
1.84399,0.650094,-0.136723
1.84133,0.549625,-0.156871
1.8729,0.765081,0.0588792
1.83568,0.547937,0.0334388
1.8031,0.443552,-0.108139
1.85289,0.653235,0.114418
1.81528,0.541851,0.077181
1.84649,0.650976,-0.091201
1.84109,0.549555,-0.100694
1.81459,0.541642,0.154593
1.86844,0.763259,-0.0822287
1.8593,0.655494,-0.0458749
1.8615,0.752096,-0.0350444
1.81809,0.535093,-0.0551557
1.8472,0.643264,0
1.79995,0.435454,-0.0215593
1.83095,0.538877,-0.24294
1.87659,0.758191,0.0117633
1.83034,0.538699,-0.0110891
1.83282,0.638256,-0.209053
1.81164,0.438281,-0.173991
1.86936,0.65098,0.046061
1.79995,0.435454,0.0215593
1.84647,0.643009,-0.136723
1.83195,0.539173,-0.155894
1.87212,0.756385,0.0587629
1.82626,0.537497,0.0332294
1.80479,0.436625,-0.108139
1.85162,0.644802,0.114185
1.82119,0.536004,0.0773438
1.8452,0.642567,-0.0910149
1.83169,0.539097,-0.100066
1.81283,0.533545,0.154267
1.86765,0.754581,-0.0820659
1.86558,0.649665,-0.045968
1.86014,0.744757,-0.0349746
1.81592,0.528261,-0.0550393
1.84921,0.637457,0
1.78964,0.427012,-0.0214196
1.82882,0.532014,-0.242435
1.87153,0.749318,0.0117168
1.8205,0.529594,-0.0110194
1.83858,0.63379,-0.209482
1.813,0.432587,-0.173991
1.86761,0.6438,0.045968
1.80131,0.429797,0.0215593
1.84471,0.635904,-0.136444
1.82981,0.532301,-0.155569
1.85964,0.744555,0.0582974
1.83562,0.53399,0.033369
1.86773,0.747797,-0.128938
1.80615,0.430952,-0.108139
1.84608,0.636378,0.11372
1.81902,0.529163,0.077181
1.84343,0.635464,-0.0908288
1.83338,0.53334,-0.100066
1.80301,0.524506,0.153291
1.86259,0.745739,-0.0817402
1.86005,0.641194,-0.0457819
1.85901,0.736786,-0.0349048
1.81776,0.52192,-0.0550393
1.84764,0.629708,0
1.78722,0.419848,-0.021373
1.82304,0.523437,-0.241425
1.86298,0.73836,0.0116471
1.83003,0.525444,-0.0110659
1.83325,0.624803,-0.208625
1.81062,0.425345,-0.17362
1.86228,0.634698,0.0457819
1.8028,0.423507,0.0215593
1.84314,0.628174,-0.136165
1.82399,0.52371,-0.154918
1.85851,0.736586,0.0581811
1.82594,0.524269,0.0331596
1.86291,0.738331,-0.128427
1.80376,0.423732,-0.107906
1.84829,0.629931,0.11372
1.81702,0.521708,0.0770182
1.84564,0.629026,-0.0908288
1.82755,0.524732,-0.0996477
1.84138,0.627576,0.238864
1.79717,0.516009,0.15264
1.85404,0.734815,-0.0812517
1.80794,0.519103,0.342953
1.85471,0.632117,-0.0455958
1.85053,0.725588,-0.0346954
1.81966,0.515254,-0.0550393
1.81527,0.514011,-0.37733
1.84614,0.621656,0
1.80044,0.415996,-0.0215127
1.82113,0.515671,-0.24092
1.86568,0.731527,0.0116471
1.81655,0.514374,-0.0109729
1.83176,0.616811,-0.208197
1.80829,0.41781,-0.173248
1.86459,0.627868,0.0457819
1.80434,0.416897,0.0215593
1.84165,0.620141,-0.135886
1.82206,0.515936,-0.154593
1.8612,0.72977,0.0581811
1.82015,0.515394,0.03302
1.86189,0.730042,-0.128171
1.80141,0.41622,-0.107673
1.85059,0.623153,0.11372
1.81123,0.512868,0.0766925
1.84414,0.620982,-0.0906426
1.82946,0.518031,-0.0996477
1.80672,0.511591,0.153291
1.86044,0.729474,-0.0814146
1.84943,0.622764,-0.0454097
1.85293,0.719448,-0.0346954
1.8175,0.508141,-0.0549229
1.82829,0.511158,-0.379683
1.8444,0.614267,0
1.79401,0.408249,-0.0214196
1.82665,0.510698,-0.241425
1.86436,0.723889,0.0116238
1.81439,0.507271,-0.0109496
1.83002,0.609477,-0.207768
1.80578,0.410928,-0.172876
1.85908,0.619155,0.0455958
1.80181,0.410024,0.0215127
1.84748,0.615292,-0.136165
1.82376,0.509891,-0.154593
1.86733,0.725042,0.0582974
1.82185,0.509356,0.03302
1.8643,0.723864,-0.128171
1.80278,0.410244,-0.107673
1.84886,0.615751,0.113487
1.81292,0.506859,0.0766925
1.83861,0.612339,-0.0902704
1.83117,0.511962,-0.0996477
1.86079,0.619724,0.240814
1.80457,0.504524,0.152965
1.8554,0.720408,-0.0810889
1.81152,0.506469,0.342953
1.8477,0.615364,-0.0453166
1.85169,0.711541,-0.0346256
1.81156,0.499667,-0.0546902
1.8225,0.502686,-0.378114
1.84653,0.607824,0
1.79542,0.401984,-0.0214196
1.82077,0.502208,-0.240415
1.85941,0.714507,0.0115773
1.82386,0.503061,-0.0109961
1.83591,0.604328,-0.208197
1.80332,0.403751,-0.172504
1.85743,0.611411,0.0455027
1.79542,0.401984,0.0214196
1.84204,0.606344,-0.135607
1.82169,0.502461,-0.154267
1.86239,0.71565,0.0580647
1.8159,0.500866,0.0328803
1.85936,0.714488,-0.127659
1.8042,0.403948,-0.107673
1.851,0.609293,0.113487
1.81082,0.499464,0.0765297
1.84074,0.605917,-0.0902704
1.81754,0.501318,-0.0988103
1.85163,0.6095,0.239351
1.80247,0.497161,0.15264
1.8579,0.713926,-0.0810889
1.82087,0.502235,0.344388
1.84603,0.60766,-0.0452235
1.85055,0.703329,-0.0345558
1.81724,0.494073,-0.0548066
1.82812,0.497032,-0.378899
1.84114,0.598579,0
1.78907,0.393682,-0.0213265
1.81877,0.494491,-0.23991
1.85828,0.706266,0.0115541
1.81797,0.494274,-0.0109496
1.83433,0.596366,-0.207768
1.8009,0.396284,-0.172132
1.85585,0.603363,0.0454097
1.79298,0.394541,0.021373
1.83666,0.597121,-0.135049
1.80813,0.491598,-0.152965
1.85379,0.704558,0.0577156
1.81387,0.493158,0.0328105
1.85451,0.704832,-0.127148
1.79007,0.3939,-0.106743
1.83803,0.597567,0.112557
1.80493,0.490727,0.076204
1.83915,0.597931,-0.0900843
1.81937,0.494653,-0.0988103
1.85007,0.601482,0.238864
1.80428,0.490552,0.15264
1.85303,0.704273,-0.0807633
1.8113,0.492461,0.342236
1.83684,0.597181,-0.0449444
1.84539,0.694371,-0.0344161
1.80728,0.484935,-0.0544575
1.82218,0.488934,-0.37733
1.84312,0.59247,0
1.78646,0.3869,-0.0212799
1.82497,0.586637,-0.298231
1.8089,0.485371,-0.238394
1.85687,0.698691,0.0115308
1.81574,0.487206,-0.0109264
1.8363,0.590279,-0.207768
1.8022,0.390309,-0.172132
1.85785,0.597205,0.0454097
1.79819,0.389439,0.0214196
1.83483,0.589806,-0.134769
1.81745,0.487665,-0.153616
1.85237,0.696999,0.0575993
1.81549,0.48714,0.0328105
1.8531,0.697272,-0.126892
1.79136,0.387962,-0.106743
1.8476,0.593912,0.113022
1.80655,0.484739,0.076204
1.84112,0.591828,-0.0900843
1.821,0.488617,-0.0988103
1.85206,0.595344,0.238864
1.7905,0.480433,0.151338
1.85162,0.696716,-0.0806004
1.81293,0.486451,0.342236
1.84642,0.593533,-0.0451305
1.85155,0.68932,-0.034486
1.8051,0.477601,-0.0543411
1.82008,0.481567,-0.376545
1.83755,0.58361,0
1.7878,0.380661,-0.0212799
1.82324,0.579066,-0.297616
1.81442,0.480068,-0.238899
1.85555,0.690809,0.0115076
1.8097,0.478818,-0.0108799
1.83077,0.581458,-0.206912
1.79576,0.382356,-0.171389
1.84848,0.587084,0.0451305
1.79171,0.381494,0.0213265
1.84068,0.584605,-0.135049
1.823,0.482337,-0.153942
1.85105,0.689133,0.0574829
1.80945,0.478753,0.0326709
1.85178,0.689406,-0.126636
1.79661,0.382537,-0.106976
1.82683,0.580206,0.111627
1.80823,0.478429,0.076204
1.83937,0.584188,-0.0898981
1.81883,0.481235,-0.0986009
1.85034,0.587673,0.238376
1.79987,0.476219,0.151989
1.85029,0.688853,-0.0804376
1.81081,0.479113,0.341518
1.83705,0.583453,-0.0448513
1.84644,0.680088,-0.0343463
1.79901,0.469279,-0.0541084
1.82555,0.476201,-0.37733
1.84339,0.578391,0
1.79303,0.375238,-0.0213265
1.83279,0.575065,-0.298846
1.81609,0.473732,-0.238899
1.85419,0.682945,0.0114843
1.81136,0.472498,-0.0108799
1.8214,0.571492,-0.205626
1.80099,0.376902,-0.171761
1.84289,0.578234,0.0449444
1.79695,0.376057,0.021373
1.84271,0.578176,-0.135049
1.81695,0.473959,-0.153291
1.85344,0.682668,0.0574829
1.81111,0.472435,0.0326709
1.85792,0.684318,-0.126892
1.79403,0.375446,-0.106743
1.83265,0.575021,0.111859
1.80215,0.470097,0.0758784
1.83758,0.576568,-0.089712
1.82437,0.475892,-0.0988103
1.84859,0.580022,0.237889
1.79381,0.467921,0.151338
1.84519,0.679628,-0.0801119
1.80866,0.471796,0.340801
1.83526,0.57584,-0.0447583
1.85256,0.675008,-0.0344161
1.7929,0.461005,-0.0538757
1.81201,0.465919,-0.374192
1.83012,0.567216,0
1.79433,0.368977,-0.0213265
1.82724,0.566324,-0.297616
1.81389,0.466402,-0.238394
1.85656,0.676469,0.0114843
1.80912,0.465177,-0.0108567
1.82719,0.566309,-0.206055
1.79449,0.369009,-0.171017
1.84108,0.570614,0.0448513
1.78258,0.36656,0.0211868
1.83328,0.568197,-0.134211
1.80701,0.464635,-0.152314
1.84454,0.672088,0.0571338
1.81275,0.46611,0.0326709
1.8528,0.675096,-0.12638
1.79533,0.369182,-0.106743
1.83846,0.569803,0.112092
1.80378,0.463804,0.0758784
1.82813,0.566602,-0.0891536
1.81054,0.465542,-0.0979729
1.84302,0.571216,0.236914
1.79543,0.461657,0.151338
1.84755,0.673183,-0.0801119
1.80649,0.4645,0.340083
1.83726,0.56943,-0.0447583
1.84726,0.666147,-0.0342765
1.79441,0.455057,-0.0538757
1.81354,0.459907,-0.374192
1.82816,0.559972,0
1.7877,0.361439,-0.0212333
1.82155,0.557946,-0.296387
1.81158,0.459409,-0.237889
1.84751,0.666238,0.0114146
1.80678,0.458191,-0.0108334
1.82525,0.559081,-0.205626
1.7918,0.362266,-0.170645
1.83914,0.563334,0.0447583
1.78378,0.360646,0.0211868
1.82752,0.559777,-0.133653
1.80082,0.45668,-0.151663
1.843,0.664611,0.0570174
1.81428,0.460096,0.0326709
1.85127,0.667593,-0.126124
1.78872,0.361643,-0.106278
1.83652,0.562533,0.111859
1.80918,0.458802,0.0760412
1.83382,0.561706,-0.0893398
1.81595,0.460517,-0.0981823
1.84111,0.563938,0.236427
1.78922,0.45374,0.150687
1.84225,0.664341,-0.0797863
1.80039,0.456572,0.338648
1.83531,0.562163,-0.0446652
1.84957,0.659695,-0.0342765
1.79211,0.447821,-0.0537593
1.80752,0.451671,-0.372623
1.83011,0.553587,0
1.78503,0.354417,-0.0211868
1.82348,0.551584,-0.296387
1.80162,0.450196,-0.236374
1.84229,0.657097,0.0113681
1.81613,0.453821,-0.0108799
1.831,0.553857,-0.206055
1.78915,0.355234,-0.170274
1.84109,0.55691,0.0447583
1.78896,0.355196,0.0212333
1.82947,0.553394,-0.133653
1.8024,0.450391,-0.151663
1.83778,0.655486,0.0567847
1.80424,0.450851,0.0324615
1.84607,0.658444,-0.125613
1.79388,0.356174,-0.106511
1.83465,0.554963,0.111627
1.80302,0.450546,0.0757155
1.83195,0.554144,-0.0891536
1.81367,0.453206,-0.0979729
1.83927,0.556357,0.235939
1.7908,0.447491,0.150687
1.84079,0.656563,-0.0796234
1.80579,0.451238,0.339366
1.83344,0.554595,-0.0445722
1.83323,0.645944,-0.0339275
1.79382,0.440937,-0.0537593
1.80925,0.444729,-0.372623
1.82072,0.543127,0
1.78245,0.346798,-0.0211402
1.81801,0.54232,-0.295157
1.80719,0.444223,-0.236879
1.8448,0.650019,0.0113681
1.8062,0.443981,-0.0108102
1.82549,0.54455,-0.205198
1.7944,0.349123,-0.170645
1.84322,0.549838,0.0447583
1.78638,0.347562,0.0211868
1.82775,0.545226,-0.133374
1.80412,0.443468,-0.151663
1.84028,0.648426,0.0567847
1.80596,0.443921,0.0324615
1.84482,0.650026,-0.125357
1.78348,0.346997,-0.105813
1.82529,0.544491,0.110929
1.80474,0.44362,0.0757155
1.83406,0.547107,-0.0891536
1.80764,0.444333,-0.0975542
1.83758,0.548157,0.235452
1.79637,0.441565,0.151012
1.84707,0.65082,-0.0797863
1.79987,0.442424,0.337931
1.82406,0.544123,-0.044293
1.83903,0.641497,-0.0339973
1.79131,0.434356,-0.0536429
1.81063,0.439042,-0.372623
1.83776,0.541928,0
1.79139,0.342698,-0.0212333
1.81971,0.536604,-0.295157
1.79701,0.435737,-0.235364
1.83928,0.641584,0.0113216
1.80759,0.438303,-0.0108102
1.82338,0.537686,-0.20477
1.78767,0.341986,-0.169902
1.83343,0.54065,0.0444791
1.79139,0.342698,0.0212333
1.82563,0.538351,-0.133095
1.80163,0.436857,-0.151338
1.84231,0.64264,0.0567847
1.79957,0.436359,0.0323219
1.84308,0.642911,-0.125101
1.78848,0.342141,-0.106046
1.82316,0.537623,0.110697
1.79835,0.436063,0.0753899
1.82811,0.539081,-0.0887814
1.81291,0.439592,-0.0977636
1.8431,0.543503,0.235939
1.79388,0.434978,0.150687
1.84156,0.64238,-0.0794606
1.79742,0.435838,0.337213
1.82576,0.538388,-0.044293
1.84126,0.635075,-0.0339973
1.78893,0.427173,-0.0535266
1.80071,0.429987,-0.370269
1.82428,0.531039,0
1.78865,0.335706,-0.0211868
1.82157,0.53025,-0.295157
1.80238,0.430385,-0.235869
1.84151,0.635161,0.0113216
1.80522,0.431063,-0.0107869
1.82142,0.530208,-0.204341
1.78102,0.334276,-0.169158
1.82379,0.530895,0.0442
1.77685,0.333493,0.0210471
1.82367,0.530861,-0.132816
1.80314,0.430567,-0.151338
1.84454,0.636207,0.0567847
1.79719,0.429147,0.032252
1.83777,0.633871,-0.124589
1.78574,0.335161,-0.105813
1.82886,0.532373,0.110929
1.80375,0.430713,0.0755527
1.82614,0.531581,-0.0885953
1.79889,0.429552,-0.0969262
1.82974,0.532629,0.233989
1.79538,0.428715,0.150687
1.84001,0.634645,-0.0792978
1.80276,0.430477,0.337931
1.82763,0.532013,-0.044293
1.83968,0.627353,-0.0339275
1.79041,0.420926,-0.0535266
1.79838,0.422801,-0.369485
1.81843,0.522458,0
1.77801,0.327288,-0.0210471
1.81961,0.522797,-0.294542
1.80387,0.42409,-0.235869
1.83993,0.627438,0.0112984
1.80282,0.423843,-0.0107637
1.81944,0.522748,-0.203913
1.78218,0.328056,-0.169158
1.82947,0.52563,0.044293
1.78194,0.328012,0.0210936
1.82167,0.523389,-0.132537
1.78911,0.42062,-0.150036
1.83539,0.625892,0.0564356
1.79868,0.42287,0.032252
1.84375,0.628741,-0.124845
1.78297,0.328202,-0.10558
1.82687,0.524883,0.110697
1.79746,0.422584,0.0752271
1.82414,0.524099,-0.0884091
1.80038,0.423269,-0.0969262
1.82777,0.525142,0.233502
1.78911,0.42062,0.150036
1.83465,0.625638,-0.0789721
1.80425,0.424181,0.337931
1.82947,0.52563,-0.044293
1.83428,0.618372,-0.0337879
1.78797,0.413771,-0.0534102
1.80367,0.417404,-0.370269
1.82025,0.516107,0
1.77914,0.321079,-0.0210471
1.81762,0.515363,-0.293927
1.79374,0.415107,-0.234354
1.83453,0.618455,0.0112519
1.80039,0.416645,-0.0107404
1.82126,0.516393,-0.203913
1.78331,0.321833,-0.169158
1.82745,0.518149,0.0442
1.77914,0.321079,0.0210471
1.81197,0.513762,-0.1317
1.80222,0.417068,-0.151012
1.83757,0.619481,0.0564356
1.79625,0.415687,0.0321822
1.8308,0.617199,-0.123822
1.78804,0.322685,-0.105813
1.81717,0.515234,0.109999
1.80282,0.417208,0.0753899
1.81827,0.515548,-0.0880369
1.80573,0.417882,-0.0971355
1.82578,0.517675,0.233014
1.7828,0.412574,0.149385
1.83304,0.617953,-0.0788093
1.79806,0.416105,0.336496
1.81975,0.515968,-0.0440139
1.82504,0.608172,-0.0335784
1.77771,0.404865,-0.0530611
1.80129,0.410235,-0.369485
1.81818,0.508673,0
1.76843,0.312777,-0.0209074
1.8156,0.507951,-0.293312
1.79131,0.407962,-0.233849
1.82149,0.60699,0.0111589
1.80183,0.410358,-0.0107404
1.81156,0.506819,-0.202628
1.78443,0.315606,-0.169158
1.8331,0.512845,0.044293
1.77631,0.31417,0.0210005
1.8176,0.508509,-0.131979
1.792,0.408119,-0.150036
1.82834,0.609271,0.0560866
1.79379,0.408527,0.0321124
1.83294,0.610805,-0.123822
1.77736,0.314356,-0.105115
1.81511,0.507812,0.109766
1.80037,0.410025,0.0752271
1.82391,0.510275,-0.088223
1.79939,0.409803,-0.0967169
1.82757,0.511299,0.233014
1.78811,0.407234,0.149711
1.83139,0.610288,-0.0786465
1.79566,0.408953,0.335779
1.81769,0.508535,-0.0439208
1.82335,0.600546,-0.0335086
1.77911,0.398656,-0.0530611
1.80271,0.403944,-0.369485
1.81995,0.502323,0
1.77739,0.307968,-0.0210005
1.80975,0.499507,-0.292082
1.79659,0.402574,-0.234354
1.8274,0.601879,0.0111821
1.79545,0.402317,-0.0106939
1.81715,0.50155,-0.203056
1.77767,0.308015,-0.168415
1.82331,0.503251,0.0440139
1.77739,0.307968,0.0210005
1.81552,0.501099,-0.1317
1.79341,0.401861,-0.150036
1.82666,0.601634,0.0559702
1.7952,0.402262,0.0321124
1.83506,0.604403,-0.123822
1.77451,0.307467,-0.104883
1.81687,0.501473,0.109766
1.79789,0.402864,0.0750642
1.81798,0.501779,-0.0878508
1.80081,0.403519,-0.0967169
1.82552,0.50386,0.232527
1.77785,0.398374,0.148734
1.82971,0.60264,-0.0784836
1.79324,0.401822,0.335061
1.8156,0.501123,-0.0438278
1.82924,0.595417,-0.0335784
1.77268,0.390723,-0.0528284
1.80028,0.396806,-0.368701
1.82169,0.495968,0
1.77846,0.301763,-0.0210005
1.81911,0.495264,-0.293312
1.79799,0.396301,-0.234354
1.82949,0.595498,0.0111821
1.80465,0.39777,-0.0107404
1.80738,0.492071,-0.201771
1.77481,0.301143,-0.168043
1.82892,0.497935,0.0441069
1.77452,0.301094,0.020954
1.8134,0.493712,-0.131421
1.7987,0.396458,-0.150362
1.83255,0.596493,0.0560866
1.79269,0.395134,0.0320426
1.82957,0.595524,-0.12331
1.77557,0.301273,-0.104883
1.81476,0.49408,0.109534
1.79538,0.395727,0.0749014
1.81201,0.493332,-0.0874785
1.79441,0.395512,-0.0962982
1.81961,0.4954,0.231552
1.78313,0.393025,0.14906
1.828,0.595014,-0.0783208
1.79079,0.394714,0.334344
1.81734,0.494783,-0.0438278
1.83131,0.589028,-0.0335784
1.77794,0.38538,-0.0529448
1.79015,0.388027,-0.366347
1.81569,0.487531,0
1.76766,0.293586,-0.0208608
1.81319,0.486861,-0.292082
1.79548,0.389182,-0.233849
1.82775,0.587883,0.0111589
1.80212,0.39062,-0.0107172
1.81292,0.48679,-0.202199
1.76799,0.29364,-0.167299
1.81906,0.488436,0.0438278
1.76372,0.292931,0.0208143
1.80356,0.484274,-0.130584
1.78838,0.387643,-0.149385
1.81939,0.585195,0.0556211
1.79015,0.388026,0.0319728
1.83164,0.589134,-0.12331
1.77661,0.295072,-0.104883
1.81647,0.487742,0.109534
1.79284,0.38861,0.0747386
1.80986,0.485967,-0.0872924
1.79187,0.388399,-0.0960888
1.82132,0.489045,0.231552
1.77669,0.385109,0.148409
1.82627,0.587405,-0.078158
1.79215,0.38846,0.334344
1.81906,0.488436,-0.0438278
1.82573,0.580209,-0.0334388
1.77928,0.379171,-0.0529448
1.78766,0.380957,-0.365563
1.80964,0.479142,0
1.76868,0.287414,-0.0208608
1.80724,0.478505,-0.290852
1.78907,0.381257,-0.232839
1.82217,0.579076,0.0111124
1.79565,0.38266,-0.0106707
1.80308,0.477404,-0.200914
1.77687,0.288744,-0.168043
1.82462,0.483107,0.0439208
1.76868,0.287414,0.0208608
1.80909,0.478996,-0.130863
1.78583,0.380566,-0.14906
1.81381,0.576418,0.0553884
1.78758,0.380941,0.031903
1.82988,0.581527,-0.123054
1.77369,0.288228,-0.10465
1.8143,0.480376,0.109301
1.78637,0.380683,0.0744129
1.81155,0.479646,-0.0872924
1.7854,0.380477,-0.0956701
1.81534,0.480651,0.230577
1.77803,0.378905,0.148409
1.8245,0.579816,-0.0779952
1.7935,0.382201,0.334344
1.81302,0.480036,-0.0436417
1.82011,0.571436,-0.0332992
1.77276,0.371319,-0.052712
1.78898,0.374715,-0.365563
1.80743,0.471812,0
1.76572,0.280611,-0.0208143
1.80507,0.471196,-0.290237
1.7865,0.374197,-0.232334
1.82418,0.572712,0.0111124
1.79306,0.37557,-0.0106474
1.80473,0.471108,-0.200914
1.77,0.28129,-0.167299
1.81855,0.474715,0.0437347
1.76572,0.280611,0.0208143
1.80303,0.470663,-0.130305
1.77934,0.372696,-0.148409
1.81962,0.571282,0.0555047
1.7889,0.374699,0.031903
1.82047,0.571549,-0.122287
1.77468,0.282035,-0.10465
1.8121,0.473032,0.109069
1.7916,0.375265,0.0745757
1.82094,0.475338,-0.0876646
1.79063,0.375061,-0.0958795
1.81701,0.474312,0.230577
1.77544,0.371879,0.148083
1.8227,0.572247,-0.0778323
1.79097,0.375132,0.333626
1.81081,0.472695,-0.0435486
1.81436,0.563026,-0.0331596
1.77007,0.364631,-0.0525957
1.79021,0.36878,-0.365563
1.80899,0.465816,0
1.77059,0.275368,-0.0208608
1.80662,0.465207,-0.290237
1.78385,0.36747,-0.231828
1.82607,0.566659,0.0111124
1.79821,0.370428,-0.0106707
1.80629,0.46512,-0.200914
1.76305,0.274195,-0.166556
1.81237,0.466687,0.0435486
1.77455,0.275983,0.0209074
1.80458,0.464681,-0.130305
1.78057,0.366793,-0.148409
1.81769,0.564059,0.0553884
1.79013,0.368764,0.031903
1.82617,0.566692,-0.122543
1.77166,0.275535,-0.104418
1.80593,0.465028,0.108604
1.78892,0.368515,0.0744129
1.8109,0.466307,-0.0871063
1.79578,0.369927,-0.0960888
1.81473,0.467294,0.230089
1.77276,0.365184,0.147758
1.82458,0.566199,-0.0778323
1.78449,0.367603,0.332191
1.8085,0.46569,-0.0434555
1.82024,0.557544,-0.0332294
1.77139,0.358141,-0.0525957
1.78386,0.360662,-0.363994
1.80681,0.458199,0
1.77555,0.269477,-0.0209074
1.80832,0.458582,-0.290237
1.78907,0.361716,-0.232334
1.81666,0.556448,0.0110426
1.79564,0.363043,-0.0106474
1.80412,0.457519,-0.200486
1.76404,0.267731,-0.166556
1.81019,0.459058,0.0434555
1.76764,0.268277,0.0208143
1.80241,0.457083,-0.130026
1.78581,0.361055,-0.148734
1.81974,0.557393,0.0553884
1.78755,0.361408,0.0318332
1.8206,0.557657,-0.122031
1.76477,0.267841,-0.103953
1.80375,0.457424,0.108371
1.78634,0.361164,0.0742501
1.80485,0.457703,-0.086734
1.78538,0.360968,-0.0954608
1.80488,0.457712,0.228627
1.77799,0.359475,0.148083
1.82283,0.558338,-0.0776695
1.78969,0.36184,0.332909
1.81019,0.459058,-0.0434555
1.81442,0.549188,-0.0330898
1.76865,0.351486,-0.0524793
1.7812,0.353981,-0.363209
1.79667,0.449294,0
1.76852,0.262414,-0.0208143
1.80599,0.451625,-0.289623
1.79026,0.355781,-0.232334
1.82232,0.55158,0.0110659
1.79683,0.357087,-0.0106474
1.80177,0.45057,-0.200057
1.76492,0.26188,-0.166556
1.81171,0.453053,0.0434555
1.76456,0.261827,0.0207677
1.80004,0.450136,-0.129747
1.77526,0.3528,-0.147758
1.8101,0.547881,0.0550393
1.78874,0.355479,0.0318332
1.82626,0.552773,-0.122287
1.77749,0.263746,-0.10465
1.80913,0.452409,0.108604
1.78753,0.355238,0.0742501
1.80248,0.450747,-0.0865479
1.78264,0.354267,-0.0952514
1.80639,0.451724,0.228627
1.76744,0.351246,0.147107
1.81702,0.549975,-0.0773438
1.81171,0.453053,-0.0434555
1.81249,0.541706,-0.03302
1.76594,0.344544,-0.052363
1.78243,0.34776,-0.363209
1.79435,0.442063,0
1.7615,0.255092,-0.0207211
1.79988,0.443426,-0.288393
1.7837,0.34801,-0.231323
1.81657,0.542925,0.0110194
1.79414,0.350046,-0.0106242
1.8072,0.445228,-0.200486
1.76582,0.255718,-0.166556
1.81328,0.446726,0.0434555
1.7615,0.255092,0.0207211
1.79773,0.442895,-0.129468
1.77648,0.346601,-0.147758
1.80434,0.539269,0.0548066
1.78212,0.347701,0.0316936
1.81671,0.542965,-0.121519
1.79907,0.443226,0.107906
1.78484,0.348231,0.0740873
1.80404,0.444451,-0.0865479
1.78779,0.348807,-0.0954608
1.80796,0.445416,0.228627
1.76474,0.34431,0.146782
1.80744,0.540195,-0.0768554
1.80551,0.444813,-0.0432694
1.81054,0.534244,-0.0329501
1.77499,0.339882,-0.0525957
1.79199,0.434854,0
1.76634,0.249502,-0.0207677
1.80142,0.437141,-0.288393
1.77711,0.340289,-0.230313
1.81462,0.535448,0.0109961
1.78749,0.342277,-0.0105777
1.79715,0.436104,-0.199201
1.76671,0.249553,-0.166556
1.81482,0.440394,0.0434555
1.76238,0.248942,0.0207211
1.79151,0.434735,-0.12891
1.7816,0.341148,-0.148083
1.81005,0.534099,0.0549229
1.79118,0.342983,0.0318332
1.81859,0.536621,-0.121519
1.76743,0.249655,-0.103953
1.79284,0.43506,0.107441
1.78997,0.342751,0.0742501
1.80558,0.438152,-0.0865479
1.78507,0.341813,-0.0952514
1.79793,0.436294,0.227164
1.76594,0.338149,0.146782
1.81314,0.535014,-0.0770182
1.80317,0.437565,-0.0431764
1.80471,0.525684,-0.0328105
1.7683,0.332207,-0.052363
1.80517,0.431385,0
1.76324,0.242788,-0.0207211
1.79909,0.429931,-0.287778
1.78219,0.334816,-0.230818
1.81648,0.529111,0.0109961
1.78868,0.336035,-0.0105777
1.79866,0.429828,-0.199201
1.75967,0.242297,-0.165812
1.80079,0.430338,0.0430833
1.7672,0.243334,0.0207677
1.80077,0.430334,-0.129468
1.77886,0.33419,-0.147758
1.8119,0.527777,0.0549229
1.78451,0.335251,0.0316936
1.80896,0.52692,-0.120752
1.76434,0.242939,-0.10372
1.79435,0.428799,0.107441
1.77937,0.334286,0.0737616
1.79933,0.429989,-0.0861756
1.78626,0.33558,-0.0952514
1.8033,0.430937,0.227652
1.7671,0.331982,0.146782
1.81116,0.527563,-0.0768554
1.80079,0.430338,-0.0430833
1.80269,0.518275,-0.0327407
1.76552,0.325307,-0.0522466
1.79109,0.421416,0
1.76408,0.236632,-0.0207211
1.80058,0.423648,-0.287778
1.77945,0.327873,-0.230313
1.81447,0.521661,0.0109729
1.79377,0.330513,-0.0106009
1.79628,0.422635,-0.198772
1.75262,0.235094,-0.165069
1.79839,0.423133,0.0429903
1.75219,0.235036,0.0205814
1.78673,0.420389,-0.128352
1.77609,0.327256,-0.147432
1.80605,0.519239,0.0546902
1.78566,0.329019,0.0316936
1.81078,0.520602,-0.120752
1.76121,0.236247,-0.103487
1.80361,0.424361,0.107906
1.77266,0.326624,0.0734359
1.79693,0.42279,-0.0859895
1.77563,0.327171,-0.0946234
1.7932,0.421912,0.22619
1.76825,0.325811,0.146782
1.81299,0.521237,-0.0768554
1.80228,0.424049,-0.0430833
1.80834,0.513072,-0.0328105
1.76664,0.319144,-0.0522466
1.79645,0.416065,0
1.76093,0.229956,-0.0206746
1.79435,0.415578,-0.286548
1.78058,0.321661,-0.230313
1.81628,0.515325,0.0109729
1.79098,0.32354,-0.0105777
1.79774,0.416364,-0.198772
1.75737,0.229492,-0.16544
1.79596,0.415952,0.0428972
1.75696,0.229438,0.020628
1.7843,0.413251,-0.128073
1.77723,0.321055,-0.147432
1.79631,0.509659,0.0543411
1.79074,0.323496,0.0317634
1.81259,0.514279,-0.120752
1.7973,0.416262,0.107441
1.78166,0.321856,0.0737616
1.7984,0.416516,-0.0859895
1.78069,0.321682,-0.0948328
1.79466,0.415651,0.22619
1.76546,0.318929,0.146456
1.80711,0.512725,-0.0765297
1.79986,0.416855,-0.0429903
1.80627,0.505678,-0.0327407
1.76381,0.312278,-0.0521302
1.79399,0.408902,0
1.76172,0.223807,-0.0206746
1.79579,0.409312,-0.286548
1.77778,0.314752,-0.229808
1.80266,0.504668,0.0108799
1.7921,0.317286,-0.0105777
1.7953,0.409202,-0.198344
1.76212,0.223857,-0.165812
1.8052,0.411458,0.0430833
1.76172,0.223807,0.0206746
1.78962,0.407906,-0.128352
1.77048,0.313459,-0.146782
1.80193,0.504463,0.0544575
1.78398,0.315848,0.0316238
1.80669,0.505796,-0.12024
1.79874,0.409985,0.107441
1.77884,0.314938,0.0735988
1.79205,0.408459,-0.0856173
1.77787,0.314767,-0.0946234
1.7961,0.409383,0.22619
1.76656,0.312764,0.146456
1.80889,0.506414,-0.0765297
1.8013,0.410569,-0.0429903
1.80031,0.497241,-0.0326011
1.76883,0.306803,-0.0522466
1.7837,0.400012,0
1.75455,0.216676,-0.0205814
1.78949,0.401311,-0.285318
1.77105,0.307188,-0.228798
1.80826,0.499438,0.0109032
1.78137,0.308978,-0.0105079
1.78508,0.400322,-0.197059
1.75498,0.216729,-0.165069
1.80272,0.404279,0.0429903
1.74661,0.215696,0.0204883
1.78714,0.400784,-0.128073
1.77157,0.307277,-0.146782
1.80368,0.498171,0.0544575
1.77719,0.308253,0.0314841
1.80074,0.497361,-0.119729
1.76359,0.217792,-0.103487
1.78847,0.401083,0.106743
1.77993,0.308727,0.0735988
1.80126,0.40395,-0.0859895
1.77503,0.307877,-0.0944141
1.78977,0.401374,0.225215
1.75586,0.304552,0.14548
1.80294,0.497969,-0.076204
1.79882,0.403404,-0.0428972
1.79818,0.489902,-0.0325313
1.76201,0.299287,-0.0520139
1.79289,0.395506,0
1.75927,0.211026,-0.020628
1.79088,0.395062,-0.285318
1.7682,0.300339,-0.228293
1.80228,0.49102,0.0108567
1.78244,0.302758,-0.0105079
1.79035,0.394945,-0.197487
1.75177,0.210127,-0.164697
1.79631,0.39626,0.0428042
1.7553,0.21055,0.0205814
1.78853,0.394543,-0.128073
1.76477,0.299756,-0.146131
1.80155,0.49082,0.0543411
1.77826,0.302047,0.0314841
1.80632,0.492121,-0.119984
1.76434,0.211635,-0.103487
1.78986,0.394837,0.106743
1.77311,0.301173,0.0732731
1.78705,0.394217,-0.085245
1.78397,0.303017,-0.0948328
1.79892,0.396834,0.22619
1.75691,0.298421,0.14548
1.80081,0.490621,-0.0760412
1.79631,0.39626,-0.0428042
1.79207,0.48186,-0.0323917
1.76299,0.293442,-0.0520139
1.78247,0.387013,0
1.75599,0.204728,-0.0205814
1.79604,0.38996,-0.285933
1.76919,0.294474,-0.228293
1.80003,0.484002,0.0108334
1.77554,0.295532,-0.0104614
1.78776,0.388162,-0.197059
1.75246,0.204317,-0.164697
1.79762,0.390302,0.0428042
1.74804,0.203802,0.0204883
1.78203,0.386917,-0.127515
1.76969,0.294557,-0.146456
1.79544,0.482767,0.0541084
1.78319,0.296805,0.031554
1.80023,0.484056,-0.119473
1.76107,0.205321,-0.103255
1.78726,0.388053,0.106511
1.77016,0.294636,0.0731103
1.78444,0.387441,-0.0850589
1.77314,0.295132,-0.0942047
1.78858,0.38834,0.224727
1.76182,0.293248,0.145805
1.80629,0.485685,-0.076204
1.79762,0.390302,-0.0428042
1.78987,0.474576,-0.0323219
1.76795,0.287929,-0.0521302
1.77599,0.379118,0
1.75272,0.198148,-0.0205349
1.79353,0.382863,-0.285318
1.77804,0.289572,-0.229303
1.81331,0.480791,0.0109032
1.78051,0.289975,-0.0104847
1.78522,0.381089,-0.19663
1.75316,0.198198,-0.164697
1.79506,0.383189,0.0427111
1.75272,0.198148,0.0205349
1.77946,0.37986,-0.127236
1.76283,0.287096,-0.145805
1.79712,0.476497,0.0541084
1.77632,0.289293,0.0314143
1.80577,0.478792,-0.119729
1.79251,0.382645,0.106743
1.77512,0.289097,0.0732731
1.78969,0.382044,-0.085245
1.77416,0.28894,-0.0942047
1.78993,0.382094,0.224727
1.74709,0.284532,0.144503
1.79639,0.476303,-0.0757155
1.79897,0.384024,-0.0428042
1.79152,0.468325,-0.0323219
1.7571,0.279869,-0.0517812
1.78121,0.373738,0
1.74544,0.191158,-0.0204417
1.77938,0.373354,-0.282858
1.76728,0.281492,-0.227788
1.7995,0.470412,0.0108102
1.78654,0.374855,-0.19663
1.74988,0.191644,-0.164325
1.79639,0.376921,0.0427111
1.7534,0.192029,0.0205349
1.78468,0.374466,-0.127515
1.76382,0.280941,-0.145805
1.79103,0.468198,0.0538757
1.77732,0.283091,0.0314143
1.79971,0.470466,-0.119217
1.78602,0.374746,0.106278
1.77217,0.282271,0.0731103
1.79102,0.375795,-0.085245
1.77121,0.282118,-0.0939954
1.78736,0.375028,0.22424
1.75201,0.27906,0.144829
1.79804,0.47003,-0.0757155
1.79639,0.376921,-0.0427111
1.79314,0.462068,-0.0323219
1.76201,0.274349,-0.0518975
1.77859,0.36671,0
1.74212,0.184642,-0.0203952
1.78454,0.367938,-0.283473
1.76826,0.275321,-0.227788
1.80113,0.464127,0.0108102
1.77459,0.276307,-0.0104382
1.77615,0.366207,-0.195345
1.7545,0.185954,-0.164697
1.79769,0.370648,0.0427111
1.74212,0.184642,0.0203952
1.77816,0.366622,-0.126957
1.76873,0.275395,-0.146131
1.79265,0.461943,0.0538757
1.7704,0.275654,0.0312747
1.79361,0.462189,-0.118705
1.75121,0.185605,-0.102557
1.78731,0.368509,0.106278
1.7692,0.275467,0.0729474
1.7884,0.368733,-0.0850589
1.77219,0.275933,-0.0939954
1.78866,0.368787,0.22424
1.75298,0.272942,0.144829
1.7958,0.462753,-0.0755527
1.78986,0.369033,-0.042525
1.78699,0.453838,-0.0321822
1.75901,0.267596,-0.0517812
1.77986,0.360499,0
1.74674,0.178968,-0.0204417
1.78194,0.360922,-0.282858
1.76528,0.26855,-0.227283
1.79499,0.455869,0.0107637
1.77554,0.270111,-0.0104382
1.77742,0.360005,-0.195345
1.75118,0.179423,-0.164325
1.79505,0.363577,0.0426181
1.75469,0.179783,0.0205349
1.78334,0.361206,-0.127236
1.7618,0.268021,-0.14548
1.79426,0.455683,0.0538757
1.77925,0.270676,0.0314143
1.79134,0.454943,-0.118449
1.78859,0.362268,0.106278
1.77015,0.26929,0.0729474
1.78185,0.360902,-0.0846866
1.77314,0.269745,-0.0939954
1.78605,0.361753,0.223752
1.74998,0.266222,0.144503
1.7974,0.456482,-0.0755527
1.79505,0.363577,-0.0426181
1.7808,0.445655,-0.0320426
1.75598,0.260866,-0.0516648
1.77326,0.352723,0
1.73939,0.172081,-0.0203486
1.78319,0.354699,-0.282858
1.76621,0.262386,-0.227283
1.80045,0.450571,0.0107869
1.77252,0.263323,-0.0104149
1.77866,0.353798,-0.195345
1.74387,0.172524,-0.163582
1.79239,0.356528,0.042525
1.74337,0.172475,0.0203952
1.77677,0.353421,-0.126678
1.75878,0.261283,-0.145154
1.78808,0.447476,0.0536429
1.77228,0.263288,0.0312747
1.79292,0.448687,-0.118449
1.74849,0.172981,-0.102325
1.78201,0.354464,0.105813
1.76317,0.261935,0.0726218
1.77134,0.352341,-0.0841283
1.76617,0.26238,-0.0935767
1.78341,0.354741,0.223265
1.74695,0.259525,0.144178
1.79123,0.448264,-0.0752271
1.78847,0.355748,-0.042432
1.78631,0.440082,-0.0321124
1.75692,0.254429,-0.0516648
1.77061,0.345456,0
1.74001,0.165705,-0.0203486
1.78448,0.348161,-0.282858
1.76716,0.255911,-0.227283
1.7982,0.443012,0.0107637
1.76951,0.256252,-0.0103917
1.77214,0.345754,-0.194488
1.75242,0.166887,-0.164325
1.78976,0.349191,0.042432
1.74001,0.165705,0.0203486
1.77022,0.345379,-0.12612
1.75973,0.254835,-0.145154
1.78582,0.439963,0.0535266
1.77323,0.25679,0.0312747
1.79455,0.442113,-0.118449
1.7833,0.34793,0.105813
1.76412,0.255471,0.0726218
1.77654,0.346612,-0.0843144
1.76712,0.255905,-0.0935767
1.7769,0.346682,0.22229
1.74,0.251978,0.143527
1.78898,0.44074,-0.0750642
1.79369,0.349957,-0.042525
1.78387,0.433213,-0.0320426
1.75776,0.248602,-0.0516648
1.76782,0.33883,0
1.73657,0.159569,-0.020302
1.77786,0.340754,-0.281629
1.76407,0.249494,-0.226778
1.79189,0.435159,0.0107172
1.77431,0.250943,-0.0104149
1.77718,0.340624,-0.194917
1.749,0.160711,-0.163953
1.78698,0.342502,0.0423389
1.74851,0.160667,0.0204417
1.77135,0.339507,-0.12612
1.75662,0.24844,-0.144829
1.78727,0.434039,0.0535266
1.76615,0.249789,0.0311351
1.78825,0.434276,-0.117938
1.78444,0.342015,0.105813
1.76496,0.24962,0.0726218
1.77768,0.340719,-0.0843144
1.77191,0.250603,-0.093786
1.77804,0.340788,0.22229
1.73688,0.245649,0.143201
1.79043,0.434806,-0.0750642
1.79091,0.343255,-0.042432
1.77759,0.425122,-0.031903
1.75465,0.241918,-0.0515484
1.76899,0.332657,0
1.73711,0.153505,-0.020302
1.77904,0.334546,-0.281629
1.75707,0.242251,-0.225768
1.79729,0.429832,0.0107404
1.76329,0.243109,-0.0103452
1.76664,0.332213,-0.193631
1.74955,0.154604,-0.163953
1.7921,0.337001,0.042432
1.7411,0.153858,0.0203486
1.77645,0.334058,-0.126399
1.75747,0.242307,-0.144829
1.78878,0.427797,0.0535266
1.76701,0.243622,0.0311351
1.78587,0.427102,-0.117682
1.74622,0.154311,-0.102092
1.78562,0.335784,0.105813
1.76582,0.243457,0.0726218
1.78279,0.33525,-0.0845005
1.76882,0.243871,-0.0935767
1.77922,0.334579,0.22229
1.74563,0.240673,0.143852
1.79194,0.428553,-0.0750642
1.7921,0.337001,-0.042432
1.77517,0.417998,-0.0318332
1.74756,0.234727,-0.0513157
1.77408,0.327205,0
1.73764,0.147441,-0.020302
1.77631,0.327617,-0.281014
1.76577,0.237173,-0.226778
1.79488,0.422639,0.0107172
1.76413,0.236953,-0.0103452
1.76387,0.325324,-0.193203
1.7854,0.329293,0.0422459
1.72967,0.146765,0.0202089
1.77368,0.327132,-0.12612
1.75831,0.236171,-0.144829
1.78248,0.419718,0.0532939
1.76389,0.23692,0.0310653
1.78735,0.420866,-0.117682
1.77893,0.328101,0.105348
1.75873,0.236228,0.0722961
1.77216,0.326851,-0.0839422
1.78038,0.328367,0.22229
1.73855,0.233517,0.143201
1.78564,0.420464,-0.0747386
1.78933,0.330018,-0.0423389
1.77273,0.410896,-0.0317634
1.74837,0.228625,-0.0513157
1.76734,0.319587,0
1.74213,0.141699,-0.0203486
1.77356,0.320711,-0.280399
1.76265,0.230493,-0.226273
1.79635,0.416371,0.0107172
1.76891,0.231311,-0.0103685
1.76891,0.319872,-0.193631
1.78653,0.323058,0.0422459
1.73017,0.140726,0.0202089
1.76696,0.319518,-0.125562
1.75122,0.228997,-0.144178
1.78783,0.414396,0.0534102
1.76867,0.23128,0.0311351
1.78492,0.413722,-0.117426
1.77614,0.321178,0.105115
1.75955,0.230087,0.0722961
1.77329,0.320663,-0.0839422
1.76652,0.230998,-0.0933674
1.76979,0.32003,0.220827
1.74331,0.227964,0.143527
1.7871,0.414228,-0.0747386
1.78653,0.323058,-0.0422459
1.77415,0.404705,-0.0317634
1.75312,0.223025,-0.0514321
1.76844,0.313415,0
1.73862,0.135306,-0.020302
1.77077,0.313828,-0.279784
1.76344,0.224338,-0.226273
1.79389,0.409208,0.0106939
1.76177,0.224125,-0.010322
1.76219,0.312307,-0.192775
1.78371,0.316122,0.0421528
1.73065,0.134685,0.0202089
1.76413,0.312652,-0.125283
1.752,0.222883,-0.144178
1.77757,0.405484,0.0530611
1.76153,0.224095,0.0309955
1.78635,0.407489,-0.117426
1.77725,0.314976,0.105115
1.75638,0.223439,0.0721333
1.7744,0.31447,-0.0839422
1.76335,0.224326,-0.093158
1.77872,0.315236,0.221802
1.73223,0.220367,0.142551
1.78074,0.406209,-0.0744129
1.78765,0.31682,-0.0422459
1.77165,0.397634,-0.0316936
1.74992,0.216414,-0.0513157
1.76558,0.306556,0
1.73111,0.128644,-0.0202089
1.76796,0.306969,-0.279169
1.75634,0.217208,-0.225263
1.7914,0.402068,0.0106707
1.7711,0.307515,-0.193631
1.78481,0.309894,0.0421528
1.72712,0.128347,0.0201624
1.76128,0.30581,-0.125004
1.75277,0.216766,-0.144178
1.77507,0.398402,0.0529448
1.7623,0.217945,0.0309955
1.77219,0.397755,-0.116403
1.7862,0.310136,0.10558
1.75715,0.217307,0.0721333
1.76761,0.306908,-0.0835699
1.76016,0.217679,-0.0929487
1.77589,0.308346,0.221315
1.73695,0.214809,0.142876
1.77825,0.399115,-0.0742501
1.78875,0.310578,-0.0422459
1.77303,0.391448,-0.0316936
1.75464,0.210781,-0.0514321
1.76664,0.300392,0
1.72756,0.122318,-0.0201624
1.76513,0.300134,-0.278554
1.78889,0.39495,0.0106474
1.75932,0.211344,-0.0102987
1.75648,0.298664,-0.191918
1.78588,0.303662,0.0421528
1.73155,0.1226,0.0202089
1.76234,0.29966,-0.125004
1.75352,0.210647,-0.144178
1.78426,0.393928,0.0531775
1.75908,0.211315,0.0309257
1.77356,0.391566,-0.116403
1.77547,0.301892,0.104883
1.75392,0.210696,0.0719705
1.77261,0.301406,-0.083756
1.76091,0.211534,-0.0929487
1.77696,0.302146,0.221315
1.72977,0.207794,0.142225
1.77963,0.392906,-0.0742501
1.77799,0.302321,-0.0419667
1.77034,0.385025,-0.0316238
1.74735,0.204339,-0.0511993
1.76363,0.294182,0
1.73591,0.11743,-0.0202555
1.76996,0.295237,-0.279169
1.78621,0.388478,0.0106242
1.75998,0.205815,-0.0102987
1.76134,0.293798,-0.192346
1.77893,0.296734,0.0419667
1.73192,0.11716,0.0202089
1.77114,0.295435,-0.125562
1.75021,0.204673,-0.143852
1.78158,0.38747,0.0530611
1.77869,0.38684,-0.116659
1.77247,0.295655,0.10465
1.75061,0.20472,0.0718077
1.76961,0.295178,-0.0835699
1.77398,0.295908,0.220827
1.73437,0.202821,0.142551
1.77305,0.385614,-0.0739244
1.77499,0.296076,-0.0418737
1.7718,0.378225,-0.0316238
1.74415,0.197179,-0.051083
1.75685,0.286122,0
1.73236,0.110509,-0.0202089
1.76718,0.287804,-0.278554
1.78378,0.380782,0.0106009
1.75678,0.198607,-0.0102755
1.76245,0.287034,-0.192346
1.77611,0.289259,0.0418737
1.72438,0.11,0.0201158
1.76045,0.286708,-0.124725
1.75495,0.1984,-0.144178
1.77914,0.379792,0.0529448
1.75654,0.19858,0.0308559
1.77625,0.379175,-0.116403
1.77359,0.288847,0.10465
1.74741,0.197548,0.0716448
1.75889,0.286454,-0.0830115
1.75837,0.198787,-0.0927393
1.76727,0.287818,0.219852
1.73514,0.196161,0.142551
1.77451,0.378804,-0.0739244
1.78401,0.290544,-0.0420598
1.7692,0.371216,-0.031554
1.73688,0.190219,-0.0508503
1.75784,0.279987,0
1.73274,0.104461,-0.0202089
1.75646,0.279768,-0.276709
1.79293,0.376195,0.0106474
1.75349,0.192038,-0.0102522
1.75951,0.280254,-0.191918
1.77711,0.283057,0.0418737
1.72475,0.103979,0.0201158
1.76144,0.280561,-0.124725
1.7477,0.191404,-0.143527
1.77655,0.372758,0.0528284
1.75722,0.192447,0.0308559
1.77757,0.372972,-0.116403
1.77459,0.282654,0.10465
1.74809,0.191447,0.0716448
1.76383,0.280941,-0.0831977
1.75508,0.192213,-0.09253
1.76826,0.281647,0.219852
1.73185,0.189668,0.142225
1.77583,0.372607,-0.0739244
1.78106,0.283686,-0.0419667
1.77036,0.365657,-0.031554
1.73746,0.184761,-0.0508503
1.75476,0.273847,0
1.72507,0.0985608,-0.0201158
1.78627,0.368943,0.0106009
1.76039,0.274725,-0.191918
1.77799,0.277473,0.0418737
1.72507,0.0985608,0.0201158
1.75837,0.27441,-0.124446
1.74829,0.185913,-0.143527
1.77379,0.366367,0.052712
1.75384,0.186503,0.030786
1.77091,0.365771,-0.115891
1.77152,0.276462,0.104418
1.74471,0.185532,0.071482
1.7647,0.275399,-0.0831977
1.76914,0.276091,0.219852
1.72847,0.183805,0.1419
1.76916,0.365409,-0.0735988
1.78194,0.278089,-0.0419667
1.76378,0.357885,-0.0314143
1.74605,0.179514,-0.051083
1.75571,0.26772,0
1.71342,0.0918963,-0.0199761
1.7797,0.361115,0.0105544
1.75074,0.179996,-0.010229
1.75347,0.26738,-0.191061
1.77895,0.271265,0.0418737
1.72141,0.0923247,0.0200692
1.75932,0.268271,-0.124446
1.74893,0.17981,-0.143527
1.77114,0.359378,0.0525957
1.7505,0.179971,0.0307162
1.76826,0.358794,-0.115635
1.77247,0.270277,0.104418
1.74534,0.179441,0.071482
1.7617,0.268635,-0.0830115
1.77009,0.269914,0.219852
1.77042,0.359232,-0.0735988
1.775,0.270662,-0.0417806
1.76508,0.351417,-0.0314143
1.73874,0.172324,-0.0508503
1.75668,0.261283,0
1.72573,0.086214,-0.0201158
1.78101,0.354589,0.0105544
1.75837,0.261536,-0.19149
1.72573,0.086214,0.0201158
1.76029,0.261821,-0.124446
1.74958,0.173398,-0.143527
1.78029,0.354445,0.0528284
1.75115,0.173554,0.0307162
1.76957,0.35231,-0.115635
1.7695,0.263191,0.104185
1.74599,0.173042,0.071482
1.75872,0.261588,-0.0828254
1.77107,0.263424,0.219852
1.76781,0.35196,-0.0734359
1.77598,0.264154,-0.0417806
1.76237,0.344487,-0.0313445
1.73137,0.165493,-0.0506175
1.75362,0.254575,0
1.72203,0.0800043,-0.0200692
1.77832,0.347603,0.0105312
1.75199,0.167463,-0.010229
1.7514,0.254254,-0.190633
1.72203,0.0800043,0.0200692
1.75724,0.255102,-0.124167
1.74621,0.166911,-0.143201
1.77367,0.346695,0.0525957
1.75175,0.16744,0.0307162
1.76687,0.345366,-0.115379
1.77041,0.257013,0.104185
1.73863,0.166186,0.0711563
1.75567,0.254874,-0.0826393
1.76019,0.25553,0.21839
1.77687,0.347321,-0.0737616
1.75958,0.337887,-0.0312747
1.74653,0.247636,0
1.71429,0.073949,-0.0199761
1.77946,0.341704,0.0105312
1.7483,0.247887,-0.190204
1.76981,0.250937,0.0415945
1.71429,0.073949,0.0199761
1.75413,0.248713,-0.123888
1.73881,0.160387,-0.142551
1.76696,0.339303,0.052363
1.77192,0.340258,-0.115635
1.7673,0.250581,0.103953
1.73519,0.160053,0.0709935
1.7486,0.247929,-0.082267
1.75016,0.161434,-0.0921113
1.76624,0.339166,-0.0732731
1.77377,0.251499,-0.0416875
1.76075,0.331742,-0.0312747
1.73246,0.153704,-0.0506175
1.75531,0.242633,0
1.77278,0.334009,0.0104847
1.7491,0.15518,-0.0102057
1.74915,0.241782,-0.190204
1.77068,0.244758,0.0415945
1.71853,0.0681225,0.0200227
1.74708,0.241496,-0.123329
1.74333,0.154668,-0.142876
1.76813,0.333133,0.052363
1.74886,0.155159,0.0306464
1.76526,0.332592,-0.115124
1.76816,0.24441,0.103953
1.73972,0.154348,0.0711563
1.75341,0.24237,-0.0824532
1.76348,0.332258,-0.0731103
1.75796,0.324868,-0.0312049
1.74095,0.148335,-0.0508503
1.75615,0.236505,0
1.71876,0.0621236,-0.0200227
1.77393,0.327819,0.0104847
1.74166,0.148395,-0.0101592
1.75393,0.236206,-0.190633
1.75187,0.235929,-0.123608
1.73989,0.148244,-0.142551
1.76535,0.326233,0.0522466
1.74142,0.148375,0.0305068
1.76248,0.325703,-0.114868
1.76505,0.237704,0.10372
1.74423,0.148614,0.0713192
1.7582,0.236782,-0.0826393
1.76463,0.3261,-0.0731103
1.75127,0.316997,-0.0310653
1.72953,0.140978,-0.0505012
1.757,0.230066,0
