2.50613,0.0923332,0.0291958
2.50206,0.0921833,-0.145813
2.50642,0.0840226,-0.0291958
2.49843,0.0837546,0.0291027
2.49836,0.0837524,-0.14558
2.57089,0.203237,-0.0750536
2.4987,0.0750335,-0.0291027
2.51194,0.075431,-0.234591
2.4987,0.0750335,0.0291027
2.50662,0.0752712,-0.146045
2.57155,0.19471,-0.0750536
2.48694,0.066426,-0.028963
2.50023,0.066781,-0.233476
2.48694,0.066426,0.028963
2.4869,0.0664248,-0.144882
2.56427,0.184709,-0.0748209
2.47518,0.0570346,-0.0288233
2.49648,0.0575255,-0.233104
2.47917,0.0571267,0.0288699
2.49511,0.0574939,-0.145348
2.56981,0.185108,-0.135027
2.5649,0.175756,-0.0748209
2.48336,0.0485499,-0.0289165
2.57791,0.176648,-0.015018
2.49268,0.0487323,-0.232732
2.48336,0.0485499,0.0289165
2.47134,0.048315,-0.143952
2.55347,0.166916,-0.0744718
2.4795,0.0406829,-0.0288699
2.56249,0.167506,-0.014925
2.48884,0.0408362,-0.23236
2.4795,0.0406829,0.0288699
2.46749,0.0404858,-0.14372
2.54209,0.156818,-0.0741227
2.47563,0.0315444,-0.0288233
2.55909,0.157867,-0.0149017
2.47703,0.0315622,-0.231245
2.47563,0.0315444,0.0288233
2.46762,0.0314423,-0.14372
2.55563,0.157653,-0.134189
2.53464,0.147478,-0.07389
2.46773,0.0228279,-0.0287302
2.55164,0.148467,-0.0148553
2.47314,0.022878,-0.230873
2.47173,0.0228649,0.0287768
2.46372,0.0227909,-0.143487
2.54819,0.148266,-0.133771
2.53115,0.138411,-0.0737736
2.45179,0.014121,-0.0285439
2.54815,0.139341,-0.014832
2.46922,0.0142214,-0.230501
2.46379,0.0141901,0.0286836
2.45979,0.0141671,-0.143255
2.54869,0.13937,-0.133771
2.53159,0.130017,-0.0737736
2.44783,0.00598125,-0.0284974
2.53661,0.130275,-0.0147623
2.46527,0.00602388,-0.23013
2.45583,0.00600079,0.0285905
2.54426,0.130667,0.0444687
2.44385,0.00597153,-0.142324
2.54515,0.130713,-0.133561
2.52007,0.120167,-0.0734245
2.44783,-0.00298998,-0.0284974
2.53707,0.120977,-0.0147623
2.45333,-0.00299669,-0.229014
2.45583,-0.00299975,0.0285905
2.54073,0.121152,0.0443989
2.44386,-0.00298512,-0.142324
2.54162,0.121194,-0.133352
2.51648,0.111193,-0.0733081
2.44781,-0.011534,-0.0284974
2.52549,0.111591,-0.0146925
2.45331,-0.0115599,-0.229014
2.44781,-0.011534,0.0284974
2.53714,0.112106,0.0443291
2.44383,-0.0115152,-0.142324
2.53405,0.111969,-0.132933
2.51683,0.102847,-0.0733081
2.44776,-0.0196518,-0.0284974
2.52585,0.103215,-0.0146925
2.44529,-0.019632,-0.228271
2.44376,-0.0196197,0.0284508
2.52548,0.1032,-0.20634
2.5295,0.103365,0.0441895
2.43979,-0.0195879,-0.142092
2.52243,0.103076,-0.132305
2.50521,0.0931751,-0.0729591
2.44367,-0.028577,-0.0284508
2.51422,0.0935103,-0.0146228
2.44122,-0.0285484,-0.227899
2.44767,-0.0286238,0.0284974
2.51788,0.0936463,-0.205689
2.52987,0.0940922,0.0441895
2.43571,-0.0284839,-0.141859
2.5188,0.0936806,-0.132096
2.49752,0.0841609,-0.0727263
2.43156,-0.0369241,-0.0283111
2.50254,0.0843299,-0.014553
2.43712,-0.0370087,-0.227527
2.44355,-0.0371063,0.0284508
2.5142,0.084723,-0.205364
2.51819,0.0848572,0.0439801
2.42761,-0.0368642,-0.141394
2.51512,0.0847538,-0.131887
2.4898,0.0756361,-0.0724936
2.43142,-0.0449868,-0.0283111
2.49881,0.0759097,-0.0145298
2.42902,-0.0449424,-0.226784
2.43942,-0.0451347,0.0284042
2.51049,0.0762646,-0.205038
2.51446,0.0763852,0.0439103
2.41549,-0.0446921,-0.140696
2.50077,0.0759694,0.101931
2.51139,0.0762921,-0.131677
2.57918,0.204799,-0.060205
2.48205,0.066729,-0.0722609
2.43125,-0.0534744,-0.0283111
2.49506,0.0670786,-0.0145065
2.42089,-0.0532465,-0.22604
2.42725,-0.0533864,0.0282646
2.50675,0.0673931,-0.204713
2.49872,0.067177,0.043631
2.41133,-0.0530363,-0.140464
2.49703,0.0671316,0.101768
2.57778,0.195635,-0.120423
2.49168,0.0669878,-0.130631
2.57191,0.195189,-0.0600189
2.48227,0.0580652,-0.0722609
2.55731,0.185106,0
2.41905,-0.0616544,-0.0281714
2.49528,0.0583694,-0.0145065
2.41671,-0.0615947,-0.225668
2.41905,-0.0616544,0.0281714
2.49502,0.0583633,-0.203737
2.49494,0.0583615,0.0435612
2.41113,-0.0614526,-0.140464
2.49325,0.058322,0.101605
2.49589,0.0583838,-0.13084
2.56858,0.185922,-0.0599259
2.47846,0.0493198,-0.0721445
2.41482,-0.0699829,-0.0281249
2.48747,0.0494991,-0.01446
2.40453,-0.0696847,-0.224553
2.42682,-0.0703305,0.0282646
2.49122,0.0495737,-0.203411
2.48713,0.0494924,0.0434216
2.40691,-0.0697536,-0.140231
2.48145,0.0493793,0.101117
2.55916,0.176261,-0.119492
2.4841,0.0494321,-0.130212
2.56523,0.176679,-0.0598328
2.47462,0.0406019,-0.0720282
2.41057,-0.0782826,-0.0280783
2.47962,0.040684,-0.0144135
2.41224,-0.0783368,-0.225296
2.41456,-0.0784124,0.0281249
2.4834,0.040746,-0.20276
2.48329,0.0407441,0.0433518
2.39468,-0.0777666,-0.139534
2.47761,0.0406509,0.100954
2.55577,0.167065,-0.119306
2.48426,0.04076,-0.130212
2.55785,0.167201,-0.0596467
2.46275,0.0318104,-0.0716791
2.55911,0.158316,0
2.41827,-0.0869825,-0.0281714
2.45995,0.0317741,-0.313145
2.47575,0.0319783,-0.0143903
2.40399,-0.0864687,-0.224553
2.40628,-0.0865512,0.0280317
2.48353,0.0320787,-0.20276
2.47942,0.0320256,0.043282
2.39439,-0.0861235,-0.139534
2.46975,0.0319007,0.100628
2.54437,0.157405,-0.118747
2.47639,0.0319866,-0.129793
2.55043,0.15778,-0.0594606
2.45085,0.0235276,-0.07133
2.53965,0.14866,0
2.40598,-0.0945309,-0.0280317
2.47184,0.0237291,-0.0143671
2.39573,-0.094128,-0.223809
2.40198,-0.0943738,0.0279852
2.54143,0.148764,-0.178019
2.47565,0.0237656,-0.202109
2.47151,0.0237259,0.0431423
2.38611,-0.0937502,-0.139069
2.46584,0.0236715,0.100466
2.54089,0.148732,-0.118561
2.47249,0.0237353,-0.129584
2.54695,0.149087,-0.0593675
2.45492,0.0149961,-0.0714464
2.54016,0.139793,0
2.39764,-0.102587,-0.0279386
2.47598,0.0151248,-0.315165
2.47991,0.0151488,-0.0144135
2.39936,-0.102661,-0.224181
2.40164,-0.102758,0.0279852
2.46774,0.0150745,-0.201458
2.47958,0.0151468,0.043282
2.38976,-0.10225,-0.139301
2.46191,0.0150389,0.100303
2.54139,0.139861,-0.118561
2.46058,0.0150307,-0.128956
2.53548,0.139535,-0.0590884
2.44296,0.00639591,-0.0710973
2.53264,0.130514,0
2.39328,-0.110771,-0.027892
2.44824,0.00640974,-0.31163
2.46795,0.00646134,-0.0143438
2.38706,-0.110483,-0.223066
2.39328,-0.110771,0.027892
2.53444,0.130607,-0.17746
2.4638,0.00645047,-0.201133
2.46362,0.00645,0.0430027
2.38939,-0.110591,-0.139301
2.45795,0.00643517,0.10014
2.53389,0.130578,-0.118189
2.45662,0.00643168,-0.128746
2.52796,0.130273,-0.0589023
2.44696,-0.00256283,-0.0712136
2.52511,0.120848,0
2.39285,-0.119542,-0.027892
2.45618,-0.00257249,-0.31264
2.45596,-0.00257225,-0.0142741
2.38266,-0.119033,-0.222694
2.54839,0.121962,0.0593675
2.38886,-0.119343,0.0278455
2.52693,0.120935,-0.176902
2.45982,-0.0025763,-0.200808
2.44763,-0.00256353,0.0427235
2.38099,-0.11895,-0.138836
2.45396,-0.00257017,0.0999771
2.53036,0.121099,-0.118003
2.45263,-0.00256877,-0.128537
2.44786,-0.00256377,0.199831
2.52842,0.121006,-0.0589023
2.43095,-0.010607,-0.0707482
2.52949,0.112652,0
2.38446,-0.127051,-0.0277989
2.44822,-0.0106823,-0.31163
2.45194,-0.0106985,-0.0142508
2.3743,-0.126509,-0.22195
2.54079,0.113155,0.0591814
2.37647,-0.126625,0.0277058
2.52333,0.112377,-0.176623
2.45182,-0.010698,-0.200157
2.4476,-0.0106796,0.0427235
2.37261,-0.126419,-0.138371
2.44994,-0.0106899,0.0998143
2.52675,0.11253,-0.117817
2.44862,-0.0106841,-0.128328
2.43986,-0.0106459,0.19918
2.51682,0.112088,-0.0586231
2.4229,-0.0190292,-0.0705155
2.51788,0.10333,0
2.384,-0.135373,-0.0277989
2.44024,-0.0191653,-0.31062
2.44788,-0.0192254,-0.0142276
2.37384,-0.134796,-0.22195
2.53318,0.103958,0.0589953
2.37202,-0.134692,0.0276592
2.50776,0.102915,-0.175507
2.44778,-0.0192246,-0.199831
2.45155,-0.0192542,0.0427933
2.36418,-0.134247,-0.137906
2.4419,-0.0191784,0.0994886
2.51915,0.103382,-0.117445
2.43658,-0.0191366,-0.1277
2.43582,-0.0191307,0.198855
2.5132,0.103138,-0.0585301
2.42682,-0.0275326,-0.0706318
2.51423,0.0943897,0
2.38351,-0.143694,-0.0277989
2.43222,-0.0275939,-0.30961
2.4478,-0.0277706,-0.0142276
2.3654,-0.142602,-0.221207
2.52554,0.0948142,0.0588092
2.36754,-0.142731,0.0276127
2.50412,0.09401,-0.175228
2.43973,-0.027679,-0.19918
2.45147,-0.0278123,0.0427933
2.36768,-0.14274,-0.138138
2.43782,-0.0276574,0.0993258
2.51949,0.0945872,-0.117445
2.4325,-0.0275971,-0.12749
2.43574,-0.0276338,0.198855
2.50556,0.0940641,-0.058344
2.41871,-0.0358844,-0.0703991
2.50655,0.0853411,0
2.37501,-0.151503,-0.0277058
2.44004,-0.0362009,-0.31062
2.44369,-0.036255,-0.0142043
2.36887,-0.151111,-0.221579
2.52186,0.0858623,0.0587162
2.36703,-0.150994,0.0276127
2.50044,0.0851332,-0.174949
2.43563,-0.0361354,-0.198855
2.43136,-0.0360721,0.0424443
2.36717,-0.151003,-0.138138
2.44171,-0.0362256,0.0994886
2.50783,0.0853846,-0.116886
2.43239,-0.0360875,-0.12749
2.42367,-0.035958,0.197878
2.50187,0.0851819,-0.0582509
2.57945,0.205272,-0.0451668
2.41857,-0.0443277,-0.0703991
2.50283,0.0764683,0
2.37447,-0.159794,-0.0277058
2.42403,-0.0444278,-0.3086
2.44355,-0.0447855,-0.0142043
2.36435,-0.159113,-0.221207
2.51814,0.0769361,0.0586231
2.36649,-0.159256,0.0276127
2.50072,0.0764039,-0.174949
2.43549,-0.0446378,-0.198855
2.43522,-0.0446329,0.0425141
2.35866,-0.15873,-0.137673
2.42958,-0.0445295,0.0990001
2.50412,0.0765075,-0.1167
2.42826,-0.0445053,-0.127281
2.42353,-0.0444186,0.197878
2.49016,0.0760812,-0.0579717
2.56819,0.195356,-0.0449574
2.41041,-0.052596,-0.0701664
2.50308,0.0677306,0
2.36193,-0.167234,-0.0275661
2.42386,-0.0528897,-0.3086
2.43538,-0.053141,-0.0141578
2.35186,-0.166522,-0.220092
2.5064,0.0678205,0.058344
2.35794,-0.166952,0.0275195
2.493,0.0674577,-0.174391
2.42735,-0.0529657,-0.198204
2.43105,-0.0530465,0.0424443
2.35411,-0.166681,-0.137441
2.42541,-0.0529235,0.0988373
2.49638,0.0675492,-0.116328
2.42809,-0.0529819,-0.127281
2.41539,-0.0527048,0.197227
2.56645,0.195224,-0.104862
2.48642,0.0672796,-0.0578787
2.56487,0.186102,-0.0448876
2.40621,-0.0609076,-0.07005
2.48731,0.0586167,0
2.36133,-0.175477,-0.0275661
2.42366,-0.0613494,-0.3086
2.43118,-0.0615397,-0.0141346
2.34729,-0.174434,-0.21972
2.49463,0.0587893,0.0580648
2.34537,-0.174291,0.0273798
2.48125,0.0584739,-0.173554
2.42715,-0.0614376,-0.198204
2.42685,-0.0614301,0.0423744
2.35351,-0.174896,-0.137441
2.42122,-0.0612874,0.0986745
2.4926,0.0587415,-0.116142
2.4199,-0.0612542,-0.126862
2.41519,-0.0611349,0.197227
2.55914,0.185687,-0.104536
2.48264,0.0585066,-0.0577856
2.55353,0.176321,-0.0446782
2.39799,-0.0690762,-0.0698173
2.4795,0.0497734,0
2.34874,-0.182788,-0.0274264
2.4155,-0.0695807,-0.307589
2.43095,-0.0700257,-0.0141346
2.3427,-0.182318,-0.219348
2.49482,0.050081,0.0580648
2.34475,-0.182477,0.0273798
2.47745,0.0497323,-0.173275
2.41496,-0.0695651,-0.197227
2.42263,-0.0697859,0.0423046
2.34891,-0.182801,-0.137208
2.48728,0.0499297,0.144882
2.42099,-0.0697387,0.0986745
2.4888,0.0499601,-0.115956
2.41967,-0.0697009,-0.126862
2.41098,-0.0694503,0.196902
2.54781,0.175926,-0.104048
2.48683,0.0499205,-0.0578787
2.55011,0.16759,-0.0446084
2.39775,-0.0770279,-0.0698173
2.47965,0.0415509,0
2.34812,-0.190575,-0.0274264
2.40732,-0.0773356,-0.306579
2.42271,-0.0778298,-0.0140881
2.4813,0.0415784,-0.267314
2.34208,-0.190085,-0.219348
2.48698,0.0416736,0.0578787
2.34413,-0.190252,0.0273798
2.4776,0.0415165,-0.173275
2.41073,-0.077445,-0.196902
2.41439,-0.0775624,0.042165
2.53333,0.166487,-0.162708
2.34829,-0.190589,-0.137208
2.48744,0.0416813,0.144882
2.42074,-0.0777666,0.0986745
2.48096,0.0415728,-0.115583
2.40745,-0.0773397,-0.126234
2.40276,-0.077189,0.196251
2.54838,0.167477,-0.104048
2.47098,0.0414056,-0.0575065
2.54267,0.158635,-0.0444687
2.39748,-0.0849787,-0.0698173
2.47178,0.0332203,0
2.34349,-0.198024,-0.0273798
2.40706,-0.0853181,-0.306579
2.547,0.158905,0.014832
2.41444,-0.08558,-0.0140416
2.47347,0.033243,-0.266457
2.34541,-0.198186,-0.21972
2.4871,0.0334263,0.0578787
2.33552,-0.19735,0.0272867
2.46975,0.033193,-0.172717
2.39851,-0.0850152,-0.195926
2.41412,-0.0855684,0.042165
2.33968,-0.197702,-0.136743
2.47957,0.0333251,0.144417
2.40849,-0.0853689,0.098186
2.48109,0.0333454,-0.115583
2.40718,-0.0853226,-0.126234
2.39453,-0.084874,0.1956
2.54494,0.158776,-0.103885
2.47111,0.0332113,-0.0575065
2.53522,0.149288,-0.0443291
2.38918,-0.0930358,-0.0695846
2.47188,0.024592,0
2.3388,-0.205852,-0.0273333
2.39881,-0.093411,-0.305569
2.54754,0.150013,0.014832
2.41413,-0.0940074,-0.0140416
2.46561,0.0245297,-0.265601
2.3328,-0.205324,-0.218604
2.47521,0.0246251,0.0575995
2.33083,-0.205151,0.0272401
2.46187,0.0244924,-0.172159
2.40617,-0.0936973,-0.196577
2.40981,-0.0938391,0.0420952
2.5344,0.14924,-0.162708
2.335,-0.205518,-0.13651
2.4637,0.0245107,0.143487
2.40418,-0.0936201,0.0980231
2.47719,0.0246448,-0.115397
2.40288,-0.0935693,-0.126025
2.39422,-0.0932319,0.1956
2.52952,0.148952,-0.103234
2.46721,0.0245455,-0.0574134
2.53178,0.139332,-0.0442593
2.38481,-0.102038,-0.0694682
2.45595,0.0150028,0
2.33401,-0.214465,-0.0272867
2.40637,-0.10296,-0.306579
2.54411,0.140011,0.0148088
2.40176,-0.102763,-0.0139718
2.46171,0.0150379,-0.265172
2.32803,-0.213916,-0.218233
2.47129,0.0150964,0.0575065
2.31409,-0.212635,0.0270539
2.45396,0.0149906,-0.171601
2.39782,-0.102595,-0.195926
2.40543,-0.10292,0.0420254
2.52698,0.139068,-0.162196
2.33022,-0.214117,-0.136278
2.45579,0.0150018,0.143022
2.39981,-0.10268,0.0978603
2.46528,0.0150597,-0.114839
2.39452,-0.102453,-0.125606
2.38986,-0.102254,0.195275
2.53406,0.139458,-0.103397
2.45929,0.0150231,-0.0572273
2.52824,0.130729,-0.0441895
2.38046,-0.109761,-0.0693518
2.45599,0.00685843,0
2.31736,-0.220687,-0.0271004
2.39412,-0.110391,-0.305064
2.52858,0.130747,0.0147158
2.4054,-0.110912,-0.0139951
2.4538,0.00685231,-0.264316
2.32334,-0.221257,-0.217861
2.45932,0.00686775,0.0572273
2.31736,-0.220687,0.0271004
2.44602,0.00683059,-0.171043
2.3895,-0.110178,-0.195275
2.39709,-0.110528,0.0418858
2.51946,0.130276,-0.161685
2.32552,-0.221465,-0.136045
2.46382,0.00688029,0.143487
2.39147,-0.110269,0.0975347
2.46132,0.00687332,-0.114653
2.39018,-0.110209,-0.125397
2.38154,-0.109811,0.194624
2.52253,0.130435,-0.102908
2.45133,0.00684541,-0.0570412
2.52067,0.121958,-0.0440499
2.37609,-0.117457,-0.0692355
2.452,-0.00128386,0
2.32059,-0.228763,-0.027147
2.38581,-0.117938,-0.304054
2.52101,0.121975,0.0146693
2.39703,-0.118493,-0.0139486
2.45778,-0.00128689,-0.264744
2.32656,-0.229351,-0.218233
2.45933,-0.0012877,0.0572273
2.32059,-0.228763,0.027147
2.44603,-0.00128074,-0.171043
2.38514,-0.117905,-0.194949
2.512,0.121539,0.0731918
2.39271,-0.118279,0.041816
2.5119,0.121534,-0.161173
2.3208,-0.228783,-0.135813
2.45185,-0.00128378,0.142789
2.39109,-0.118199,0.0975347
2.45334,-0.00128457,-0.11428
2.39379,-0.118332,-0.125606
2.3732,-0.117314,0.193973
2.51896,0.121876,-0.102745
2.45534,-0.00128561,-0.0571343
2.51309,0.1128,-0.0439103
2.37167,-0.125539,-0.0691191
2.43998,-0.00979477,0
2.3158,-0.236456,-0.0271004
2.38539,-0.126265,-0.304054
2.51343,0.112815,0.0146228
2.39261,-0.126648,-0.0139253
2.44583,-0.00981825,-0.263459
2.32574,-0.237471,-0.218233
2.46331,-0.00988843,0.0573204
2.3158,-0.236456,0.0271004
2.44601,-0.00981896,-0.171043
2.38472,-0.12623,-0.194949
2.5164,0.112949,0.0733081
2.38829,-0.126419,0.0417462
2.50832,0.112586,-0.160917
2.31999,-0.236883,-0.135813
2.44783,-0.00982629,0.142557
2.38268,-0.126122,0.097209
2.44533,-0.00981624,-0.113908
2.38538,-0.126265,-0.125188
2.37277,-0.125598,0.193973
2.51139,0.112724,-0.10242
2.43932,-0.00979212,-0.0567621
2.5015,0.103094,-0.0437008
2.36721,-0.134005,-0.0690027
2.37313,-0.13434,-0.475388
2.43993,-0.0187377,0
2.31492,-0.244942,-0.0271004
2.38095,-0.134783,-0.303549
2.50583,0.103273,0.0145763
2.39213,-0.135416,-0.0139253
2.43385,-0.018691,-0.262174
2.3209,-0.245574,-0.217861
2.44727,-0.018794,0.0569482
2.3189,-0.245363,0.027147
2.44197,-0.0187533,-0.170764
2.38026,-0.134744,-0.194624
2.50481,0.103231,0.0729591
2.38781,-0.135172,0.0417462
2.50872,0.103392,-0.160917
2.31116,-0.244544,-0.135348
2.44379,-0.0187673,0.142324
2.37423,-0.134403,0.0968833
2.43329,-0.0186867,-0.11335
2.38092,-0.134781,-0.124978
2.36832,-0.134068,0.193647
2.50779,0.103354,-0.102257
2.43927,-0.0187326,-0.0567621
2.49383,0.0944956,-0.0435612
2.35877,-0.141376,-0.06877
2.36092,-0.141505,-0.473035
2.42785,-0.0266967,0
2.31409,-0.252617,-0.0271004
2.37653,-0.14244,-0.303044
2.50616,0.0949628,0.0145763
2.38368,-0.142869,-0.0138789
2.4298,-0.0267181,-0.261745
2.31215,-0.252405,-0.217117
2.43919,-0.0268214,0.0567621
2.29819,-0.250881,0.0269142
2.42593,-0.0266756,-0.169648
2.37582,-0.142398,-0.194298
2.49715,0.0946214,0.0727263
2.37937,-0.142611,0.0416065
2.50107,0.09477,-0.160406
2.3024,-0.25134,-0.134883
2.43972,-0.0268272,0.142092
2.37776,-0.142514,0.0970462
2.43321,-0.0267557,-0.11335
2.36849,-0.141959,-0.12435
2.36388,-0.141682,0.193322
2.50013,0.0947344,-0.101931
2.44319,-0.0268654,-0.0568551
2.49016,0.0852179,-0.0434914
2.35424,-0.149767,-0.0686537
2.35647,-0.149909,-0.47225
2.41974,-0.0354778,0
2.29726,-0.259303,-0.0269142
2.37599,-0.15115,-0.303044
2.4945,0.0853662,0.0145065
2.37915,-0.151351,-0.0138556
2.42173,-0.035507,-0.260888
2.31121,-0.260878,-0.217117
2.44308,-0.0358199,0.0568551
2.29328,-0.258854,0.0268676
2.41784,-0.0354499,-0.16909
2.37926,-0.151358,-0.194624
2.48549,0.085058,0.0723772
2.37484,-0.151077,0.0415367
2.5014,0.0856025,-0.160406
2.30146,-0.259777,-0.134883
2.4396,-0.035769,0.142092
2.36924,-0.150721,0.0967205
2.4291,-0.0356151,-0.113164
2.36397,-0.150385,-0.124141
2.35141,-0.149586,0.192346
2.48848,0.0851602,-0.101443
2.43508,-0.0357027,-0.056669
2.49042,0.0773944,-0.0434914
2.35376,-0.157162,-0.0686537
2.35599,-0.157311,-0.47225
2.42362,-0.0431506,0
2.29643,-0.266518,-0.0269142
2.36758,-0.158085,-0.302034
2.49076,0.0774049,0.0144833
2.37866,-0.158825,-0.0138556
2.42161,-0.0431148,-0.260888
2.30642,-0.267678,-0.216746
2.43495,-0.0433525,0.056669
2.28848,-0.265596,0.0268211
2.40973,-0.0429035,-0.168532
2.36684,-0.158035,-0.193647
2.48175,0.077125,0.0722609
2.37036,-0.15827,0.0414669
2.49767,0.0776197,-0.16015
2.3046,-0.267467,-0.135115
2.43149,-0.0432909,0.141627
2.36477,-0.157897,0.0965577
2.42099,-0.0431039,-0.112791
2.36747,-0.158077,-0.12435
2.34695,-0.156707,0.19202
2.48873,0.077342,-0.101443
2.43895,-0.0434237,-0.0567621
2.48268,0.0684802,-0.0433518
2.34921,-0.165097,-0.0685373
2.35543,-0.165534,-0.47225
2.41545,-0.05144,0
2.28754,-0.273583,-0.0268211
2.41835,-0.0515018,-0.376325
2.3591,-0.165792,-0.301023
2.48701,0.0685997,0.01446
2.37011,-0.166566,-0.0138091
2.41746,-0.0514829,-0.26046
2.29757,-0.274782,-0.216002
2.43479,-0.0518518,0.056669
2.28754,-0.273583,0.0268211
2.41356,-0.0513997,-0.168811
2.3623,-0.166016,-0.193322
2.482,0.0684616,0.0722609
2.3658,-0.166263,0.0413971
2.48994,0.0686806,-0.159638
2.29176,-0.274087,-0.134417
2.42734,-0.0516931,0.141394
2.3642,-0.166151,0.0965577
2.43281,-0.0518097,-0.11335
2.36691,-0.16634,-0.12435
2.33843,-0.16434,0.191369
2.48499,0.068544,-0.10128
2.43079,-0.0517667,-0.056576
2.4749,0.059621,-0.0432122
2.34064,-0.172708,-0.0683046
2.35875,-0.174043,-0.473035
2.41126,-0.0597721,0
2.29054,-0.282055,-0.0268676
2.42211,-0.0600411,-0.37694
2.36246,-0.174318,-0.301529
2.48324,0.0598217,0.0144368
2.36553,-0.174544,-0.0137859
2.40534,-0.0596254,-0.259175
2.29264,-0.282313,-0.21563
2.4266,-0.0601523,0.0564829
2.2826,-0.281077,0.0267745
2.40539,-0.0596265,-0.168253
2.36568,-0.174555,-0.193647
2.47423,0.0596048,0.0720282
2.36521,-0.17452,0.0413971
2.48219,0.0597964,-0.159126
2.28682,-0.281597,-0.134185
2.42315,-0.0600668,0.141162
2.35165,-0.17352,0.0960692
2.41264,-0.0598064,-0.112419
2.35834,-0.174014,-0.123932
2.33785,-0.172501,0.191369
2.47723,0.0596769,-0.100954
2.4186,-0.0599541,-0.0562968
2.47512,0.0501176,-0.0432122
2.34395,-0.182003,-0.0684209
2.39902,-0.0686868,0
2.27754,-0.289336,-0.0267279
2.41001,-0.0690015,-0.375095
2.35782,-0.18308,-0.301023
2.47945,0.0502054,0.0144135
2.35687,-0.183006,-0.0137394
2.40112,-0.068747,-0.258747
2.29154,-0.291114,-0.21563
2.41835,-0.0692404,0.0562968
2.27357,-0.288832,0.0266814
2.39317,-0.0685195,-0.167416
2.35307,-0.182711,-0.192671
2.46645,0.0499421,0.0717954
2.36053,-0.183291,0.0413273
2.47841,0.0501842,-0.158871
2.28573,-0.290376,-0.134185
2.41891,-0.0692563,0.140929
2.34698,-0.182239,0.0959064
2.4084,-0.0689555,-0.112233
2.34969,-0.182449,-0.123513
2.42876,-0.0695383,0.298336
2.33717,-0.181477,0.191369
2.47744,0.0501646,-0.100954
2.41835,-0.0692404,-0.0562968
2.46728,0.0413435,-0.0430725
2.33931,-0.189861,-0.0683046
2.39476,-0.0769321,0
2.27652,-0.297284,-0.0267279
2.4058,-0.0772867,-0.37448
2.34135,-0.190026,-0.299003
2.46761,0.0413491,0.0143438
2.35621,-0.191232,-0.0137394
2.39689,-0.0770004,-0.258318
2.28261,-0.29808,-0.214887
2.4181,-0.0776816,0.0562968
2.27255,-0.296766,0.0266814
2.38494,-0.0766165,-0.166857
2.34844,-0.190601,-0.192346
2.46261,0.0412653,0.0716791
2.35589,-0.191206,0.0412575
2.47058,0.0413989,-0.158359
2.2847,-0.298352,-0.134185
2.41466,-0.0775712,0.140696
2.34235,-0.190107,0.0957435
2.40415,-0.0772336,-0.112047
2.34506,-0.190327,-0.123304
2.40469,-0.077251,0.295411
2.32857,-0.188989,0.190718
2.46561,0.0413155,-0.100466
2.4101,-0.0774248,-0.0561107
2.46741,0.0327308,-0.0430725
2.33864,-0.198025,-0.0683046
2.39448,-0.0852909,0
2.26754,-0.304165,-0.0266348
2.39367,-0.0852619,-0.372635
2.34067,-0.198197,-0.299003
2.46374,0.0326822,0.0143206
2.35155,-0.199118,-0.0137161
2.39263,-0.085225,-0.25789
2.28156,-0.306046,-0.214887
2.41382,-0.0859795,0.0562037
2.26357,-0.303633,0.0265882
2.38466,-0.0849411,-0.166857
2.33982,-0.198125,-0.191695
2.45474,0.0325629,0.0714464
2.34724,-0.198754,0.0411179
2.45475,0.0325629,-0.157336
2.27968,-0.305795,-0.133952
2.41038,-0.0858573,0.140464
2.34167,-0.198282,0.0957435
2.40387,-0.0856252,-0.112047
2.3404,-0.198175,-0.123094
2.40441,-0.0856444,0.295411
2.32393,-0.196779,0.190393
2.45375,0.0325497,-0.0999771
2.40982,-0.0858372,-0.0561107
2.4515,0.0248172,-0.0427933
2.33402,-0.205021,-0.0681882
2.38621,-0.092503,0
2.27053,-0.311832,-0.0266814
2.39339,-0.0927814,-0.372635
2.33213,-0.204855,-0.297993
2.45983,0.0249015,0.0142973
2.33497,-0.205105,-0.0136231
2.38441,-0.0924332,-0.257033
2.28058,-0.313212,-0.214887
2.41353,-0.0935623,0.0562037
2.26261,-0.310743,0.0265882
2.3804,-0.0922777,-0.166578
2.33918,-0.205475,-0.191695
2.45483,0.0248509,0.0714464
2.34262,-0.205777,0.0410481
2.45085,0.0248105,-0.15708
2.26684,-0.311325,-0.133255
2.39813,-0.0929653,0.139766
2.33307,-0.204938,0.0954179
2.39959,-0.0930219,-0.111861
2.34773,-0.206225,-0.123513
2.40016,-0.0930438,0.294924
2.31932,-0.20373,0.190067
2.45384,0.0248408,-0.0999771
2.40155,-0.0930976,-0.0559246
2.43957,0.0161801,-0.0425839
2.31736,-0.211712,-0.0677228
2.38187,-0.100663,0
2.26547,-0.319197,-0.0266348
2.39305,-0.101135,-0.372635
2.33535,-0.213356,-0.298498
2.4559,0.0162884,0.0142741
2.33822,-0.213618,-0.0136464
2.37612,-0.10042,-0.256176
2.27553,-0.320615,-0.214515
2.4052,-0.101649,0.0560176
2.26151,-0.318639,0.0265882
2.38803,-0.100923,-0.167137
2.33845,-0.213639,-0.191695
2.45091,0.0162553,0.07133
2.33392,-0.213225,0.0409084
2.44293,0.0162024,-0.156568
2.26574,-0.319236,-0.133255
2.39779,-0.101336,0.139766
2.32836,-0.212717,0.095255
2.38728,-0.100891,-0.111302
2.34301,-0.214056,-0.123304
2.39982,-0.101421,0.294924
2.31066,-0.2111,0.189416
2.44592,0.0162222,-0.0996514
2.39721,-0.101311,-0.0558315
2.43962,0.00681272,-0.0425839
2.32051,-0.220988,-0.0678391
2.37747,-0.109624,0
2.26027,-0.32732,-0.0265882
2.38475,-0.109959,-0.371406
2.33057,-0.221945,-0.297993
2.45595,0.00685832,0.0142741
2.33739,-0.222594,-0.0136464
2.38366,-0.109909,-0.257033
2.27034,-0.32878,-0.214143
2.40479,-0.110883,0.0560176
2.26027,-0.32732,0.0265882
2.37168,-0.109357,-0.16602
2.33761,-0.222616,-0.191695
2.44695,0.0068332,0.0712136
2.34105,-0.222943,0.0410481
2.45096,0.00684439,-0.15708
2.26055,-0.327361,-0.133022
2.40138,-0.110726,0.139999
2.32753,-0.221656,0.095255
2.38687,-0.110057,-0.111302
2.33422,-0.222293,-0.122885
2.38751,-0.110087,0.293461
2.3138,-0.220348,0.189742
2.44196,0.00681927,-0.0994886
2.39281,-0.110331,-0.0557385
2.43563,-0.000850198,-0.0425141
2.31185,-0.227494,-0.0676064
2.37312,-0.116895,0
2.25131,-0.333248,-0.0264951
2.3765,-0.117062,-0.370176
2.32591,-0.228877,-0.297488
2.45196,-0.000855898,0.0142508
2.32871,-0.229153,-0.0135999
2.37536,-0.117006,-0.256176
2.26142,-0.334744,-0.2134
2.40044,-0.118241,0.0559246
2.25131,-0.333248,0.0264951
2.36734,-0.116611,-0.165741
2.32897,-0.229178,-0.191044
2.43897,-0.000851363,0.0709809
2.3284,-0.229122,0.0408386
2.44299,-0.000852767,-0.156568
2.25951,-0.334461,-0.133022
2.39304,-0.117876,0.139534
2.31887,-0.228184,0.0949294
2.37454,-0.116965,-0.110744
2.32556,-0.228843,-0.122466
2.38319,-0.117391,0.292974
2.3131,-0.227616,0.189742
2.43798,-0.000851018,-0.0993258
2.38846,-0.117651,-0.0556454
2.43161,-0.00976116,-0.0424443
2.311,-0.235966,-0.0676064
2.36868,-0.125381,0
2.24612,-0.340897,-0.0264485
2.36816,-0.125353,-0.368946
2.31716,-0.236594,-0.296478
2.43994,-0.0097946,0.0141811
2.32388,-0.23728,-0.0135766
2.37095,-0.125501,-0.255748
2.26412,-0.343628,-0.213771
2.39999,-0.127038,0.0559246
2.25008,-0.341498,0.0264951
2.3669,-0.125287,-0.165741
2.32414,-0.237308,-0.190718
2.43495,-0.00977457,0.0708645
2.32356,-0.237248,0.0407688
2.43099,-0.00975868,-0.155801
2.25827,-0.342741,-0.133022
2.3886,-0.126436,0.139301
2.31404,-0.236276,0.0947666
2.37809,-0.125879,-0.11093
2.32868,-0.237771,-0.122675
2.38275,-0.126125,0.292974
2.29638,-0.234473,0.18844
2.42996,-0.00975456,-0.0990001
2.38801,-0.126404,-0.0556454
2.42756,-0.018219,-0.0423744
2.30221,-0.243191,-0.0673737
2.36424,-0.133423,0
2.24492,-0.348736,-0.0264485
2.3677,-0.133619,-0.368946
2.32421,-0.245515,-0.297488
2.43589,-0.0182815,0.0141578
2.31508,-0.24455,-0.0135301
2.36255,-0.133328,-0.254891
2.2629,-0.351529,-0.213771
2.39554,-0.13519,0.0558315
2.24492,-0.348736,0.0264485
2.36645,-0.133548,-0.165741
2.31537,-0.244581,-0.190067
2.4269,-0.018214,0.0706318
2.31477,-0.244517,0.0406292
2.42695,-0.0182144,-0.155545
2.24522,-0.348782,-0.132324
2.38017,-0.134323,0.138836
2.30923,-0.243932,0.0946037
2.36966,-0.133729,-0.110558
2.32386,-0.245478,-0.122466
2.38229,-0.134442,0.292974
2.29555,-0.242487,0.18844
2.42592,-0.0182067,-0.0988373
2.37558,-0.134063,-0.0553663
2.41149,-0.0260958,-0.0420952
2.30537,-0.251257,-0.06749
2.37177,-0.14174,0
2.23585,-0.354924,-0.0263554
2.35936,-0.140998,-0.367716
2.30761,-0.251501,-0.295468
2.43182,-0.0263158,0.0141346
2.31028,-0.251793,-0.0135069
2.3621,-0.141162,-0.254891
2.24992,-0.357158,-0.212656
2.39109,-0.142894,0.0557385
2.2477,-0.356805,0.0264951
2.35802,-0.140919,-0.165183
2.31851,-0.25269,-0.190393
2.42683,-0.0262618,0.0706318
2.31394,-0.252192,0.0406292
2.42688,-0.0262624,-0.155545
2.24405,-0.356226,-0.132324
2.37971,-0.142215,0.138836
2.29648,-0.250289,0.0941152
2.36122,-0.14111,-0.110186
2.31907,-0.25275,-0.122257
2.37787,-0.142104,0.292486
2.29473,-0.250098,0.18844
2.42185,-0.0262079,-0.0986745
2.37113,-0.141701,-0.0552732
2.41538,-0.0345706,-0.042165
2.3005,-0.258856,-0.0673737
2.35529,-0.149008,0
2.24249,-0.364008,-0.0264485
2.3628,-0.149483,-0.368331
2.31066,-0.259998,-0.295973
2.43171,-0.0348043,0.0141346
2.30939,-0.259856,-0.0135069
2.34968,-0.148653,-0.253606
2.24866,-0.36501,-0.212656
2.38658,-0.150987,0.0556454
2.24249,-0.364008,0.0264485
2.35354,-0.148897,-0.164904
2.30969,-0.25989,-0.189742
2.41873,-0.0346185,0.0703991
2.31305,-0.260268,0.0406292
2.41879,-0.0346193,-0.155033
2.24674,-0.364697,-0.132557
2.37123,-0.150016,0.138371
2.29957,-0.258751,0.0942781
2.3647,-0.149603,-0.110372
2.31023,-0.25995,-0.121838
2.36943,-0.149902,0.291512
2.28592,-0.257215,0.187789
2.42174,-0.0346616,-0.0986745
2.37461,-0.15023,-0.0553663
2.41124,-0.0433514,-0.0420952
2.28762,-0.265901,-0.0670246
2.35074,-0.157372,0
2.22536,-0.369604,-0.0262623
2.3504,-0.15735,-0.366486
2.30969,-0.268466,-0.295973
2.42757,-0.0436448,0.0141113
2.30047,-0.267395,-0.0134604
2.35706,-0.157795,-0.254463
2.24338,-0.372596,-0.212284
2.38202,-0.159467,0.0555524
2.2372,-0.37157,0.026402
2.35696,-0.157788,-0.165183
2.3008,-0.267433,-0.189091
2.41459,-0.0434115,0.0702827
2.31208,-0.268744,0.0406292
2.41865,-0.0434845,-0.155033
2.23357,-0.370966,-0.131859
2.37067,-0.158706,0.138371
2.29066,-0.266255,0.0939524
2.35218,-0.157469,-0.109813
2.30926,-0.268416,-0.121838
2.36887,-0.158586,0.291512
2.281,-0.265132,0.187464
2.40961,-0.043322,-0.098186
2.37005,-0.158665,-0.0552732
2.41109,-0.0509262,-0.0420952
2.28678,-0.273086,-0.0670246
2.34624,-0.164477,0
2.22025,-0.375925,-0.0262157
2.34595,-0.164456,-0.365871
2.29701,-0.274309,-0.294457
2.41542,-0.0510176,0.0140416
2.29565,-0.274146,-0.0134371
2.35258,-0.164921,-0.254034
2.2422,-0.379642,-0.212284
2.37353,-0.16639,0.0553663
2.23208,-0.377928,0.0263554
2.34451,-0.164355,-0.164346
2.29599,-0.274187,-0.188766
2.40644,-0.050828,0.07005
2.29137,-0.273635,0.0402802
2.40653,-0.0508297,-0.154266
2.22845,-0.377315,-0.131627
2.36617,-0.165874,0.138138
2.28982,-0.27345,0.0939524
2.35167,-0.164857,-0.109813
2.30047,-0.274722,-0.121419
2.3644,-0.165749,0.291024
2.2762,-0.271823,0.187138
2.40547,-0.0508074,-0.0980231
2.36156,-0.165551,-0.0550871
2.39891,-0.059047,-0.0418858
2.28581,-0.281067,-0.0670246
2.34565,-0.172666,0
2.21892,-0.383673,-0.0262157
2.34142,-0.172354,-0.365256
2.2921,-0.281841,-0.293952
2.41123,-0.0593503,0.0140183
2.28674,-0.281181,-0.0133907
2.3401,-0.172256,-0.252749
2.22909,-0.385431,-0.211169
2.36895,-0.17438,0.0552732
2.2268,-0.385036,0.0263088
2.33994,-0.172245,-0.164067
2.29107,-0.281713,-0.18844
2.41025,-0.0593262,0.0701664
2.2904,-0.281631,0.0402802
2.40234,-0.0591315,-0.15401
2.23106,-0.385772,-0.131859
2.3616,-0.173839,0.137906
2.28885,-0.281441,0.0939524
2.35108,-0.173065,-0.109813
2.29554,-0.282263,-0.12121
2.35589,-0.173419,0.290049
2.27524,-0.279767,0.187138
2.40128,-0.0591054,-0.0978603
2.34502,-0.172619,-0.0547149
2.39468,-0.0677259,-0.041816
2.27683,-0.288438,-0.0667919
2.34102,-0.180953,0
2.2175,-0.391803,-0.0262157
2.34078,-0.180935,-0.365256
2.28712,-0.289742,-0.293447
2.411,-0.0681874,0.0140183
2.28966,-0.290064,-0.0134139
2.33548,-0.180526,-0.252321
2.36032,-0.182445,0.0550871
2.22144,-0.392499,0.0262623
2.33929,-0.18082,-0.164067
2.29397,-0.29061,-0.188766
2.40602,-0.0680467,0.07005
2.28935,-0.290024,0.0402802
2.39812,-0.0678233,-0.153754
2.21783,-0.391862,-0.131162
2.35696,-0.182186,0.137673
2.27591,-0.288321,0.0934639
2.33848,-0.180757,-0.109255
2.29052,-0.290173,-0.121001
2.35919,-0.182358,0.290537
2.27024,-0.287603,0.186813
2.40504,-0.0680191,-0.0980231
2.34437,-0.181213,-0.0547149
2.39444,-0.0756666,-0.041816
2.27586,-0.295987,-0.0667919
2.33243,-0.188073,0
2.20832,-0.397737,-0.0261226
2.33622,-0.188378,-0.364642
2.29008,-0.297836,-0.293952
2.40276,-0.0759295,0.0139718
2.28869,-0.297655,-0.0134139
2.33487,-0.188269,-0.252321
2.35571,-0.18995,0.0549941
2.21619,-0.399155,0.0262157
2.33073,-0.187935,-0.163509
2.28904,-0.297701,-0.18844
2.40578,-0.076025,0.07005
2.28838,-0.297614,0.0402802
2.39788,-0.0757754,-0.153754
2.22045,-0.399922,-0.131394
2.35635,-0.190001,0.137673
2.27494,-0.295867,0.0934639
2.33389,-0.18819,-0.109069
2.28559,-0.297252,-0.120791
2.35858,-0.190181,0.290537
2.26928,-0.29513,0.186813
2.40081,-0.0758679,-0.0978603
2.34376,-0.188986,-0.0547149
2.39416,-0.0840243,-0.041816
2.26689,-0.30287,-0.0665591
2.32777,-0.195878,0
2.21478,-0.406888,-0.0262157
2.33161,-0.196201,-0.364027
2.28509,-0.305303,-0.293447
2.39848,-0.084176,0.0139486
2.2797,-0.304582,-0.0133674
2.32627,-0.195752,-0.251464
2.35504,-0.198172,0.0549941
2.21872,-0.407611,0.0262623
2.33403,-0.196404,-0.163788
2.27614,-0.304106,-0.187464
2.39351,-0.0840016,0.0697009
2.28336,-0.305071,0.0402103
2.39361,-0.0840051,-0.153498
2.21904,-0.40767,-0.131394
2.34771,-0.197555,0.137208
2.27389,-0.303806,0.0934639
2.33321,-0.196336,-0.109069
2.28058,-0.304699,-0.120582
2.34603,-0.197414,0.289074
2.38855,-0.0838273,-0.0973718
2.34308,-0.197166,-0.0547149
2.38185,-0.092334,-0.0416065
2.2618,-0.310633,-0.0664428
2.33102,-0.204758,0
2.20148,-0.412792,-0.026076
2.31907,-0.203708,-0.362182
2.2761,-0.312596,-0.292437
2.39016,-0.0926564,0.0139021
2.27461,-0.312392,-0.0133442
2.32554,-0.204277,-0.251464
2.3543,-0.206802,0.0549941
2.21721,-0.41574,0.0262623
2.32932,-0.204609,-0.163509
2.27896,-0.312989,-0.187789
2.39319,-0.0927737,0.0697009
2.2743,-0.312349,0.0400707
2.3893,-0.0926229,-0.153242
2.21753,-0.415801,-0.131394
2.34697,-0.206159,0.137208
2.2688,-0.311594,0.0933011
2.33248,-0.204886,-0.109069
2.27153,-0.311969,-0.120163
2.34529,-0.206011,0.289074
2.38423,-0.0924264,-0.097209
2.33836,-0.205403,-0.0546219
2.38153,-0.100232,-0.0416065
2.26076,-0.318131,-0.0664428
2.32635,-0.212124,0
2.20403,-0.42084,-0.0261226
2.31838,-0.211397,-0.362182
2.25933,-0.31793,-0.290417
2.38585,-0.100414,0.0138789
2.2696,-0.319375,-0.0133209
2.31297,-0.210904,-0.250179
2.34563,-0.213882,0.054808
2.21189,-0.42234,0.0262157
2.32068,-0.211607,-0.162951
2.27396,-0.319989,-0.187464
2.38088,-0.100205,0.0693518
2.26929,-0.319332,0.0400009
2.381,-0.10021,-0.152731
2.20437,-0.420905,-0.130697
2.33037,-0.21249,0.136278
2.2638,-0.318559,0.0931383
2.33577,-0.212982,-0.109255
2.27839,-0.320613,-0.120582
2.33669,-0.213066,0.288099
2.37992,-0.100164,-0.0970462
2.33368,-0.212793,-0.0545288
2.38115,-0.10896,-0.0416065
2.24771,-0.3247,-0.0660937
2.32157,-0.220271,0
2.19462,-0.427386,-0.0260295
2.31759,-0.219893,-0.362182
2.37747,-0.108792,0.0138324
2.2605,-0.326548,-0.0132744
2.30822,-0.219004,-0.24975
2.33687,-0.221722,0.0546219
2.21032,-0.430444,0.0262157
2.32386,-0.220488,-0.16323
2.26488,-0.327181,-0.186813
2.3805,-0.108931,0.0693518
2.26415,-0.327076,0.0399311
2.37663,-0.108754,-0.152475
2.19498,-0.427455,-0.130231
2.33355,-0.221407,0.13651
2.26262,-0.326854,0.0931383
2.32304,-0.22041,-0.108697
2.2693,-0.327819,-0.120163
2.37554,-0.108704,-0.0968833
2.32095,-0.220211,-0.0542496
2.36877,-0.116681,-0.0413971
2.2426,-0.331959,-0.0659773
2.31283,-0.22759,0
2.19312,-0.435044,-0.0260295
2.31287,-0.227594,-0.361567
2.37708,-0.11709,0.0138324
2.25539,-0.333851,-0.0132512
2.30744,-0.22706,-0.24975
2.33608,-0.229878,0.0546219
2.20096,-0.436601,0.0261226
2.31911,-0.228208,-0.162951
2.27161,-0.336252,-0.187464
2.37611,-0.117043,0.0692355
2.26695,-0.335563,0.0400009
2.37624,-0.117049,-0.152475
2.2013,-0.436669,-0.130697
2.32481,-0.228769,0.136045
2.25356,-0.33358,0.0928126
2.3143,-0.227735,-0.108324
2.26024,-0.334569,-0.119745
2.37515,-0.116995,-0.0968833
2.32414,-0.228703,-0.0543427
2.36435,-0.124738,-0.0413273
2.24539,-0.340384,-0.0660937
2.31202,-0.235662,0
2.19158,-0.442697,-0.0260295
2.30813,-0.235265,-0.360952
2.37665,-0.125387,0.0138324
2.26212,-0.342921,-0.0132977
2.30664,-0.235113,-0.24975
2.33527,-0.238031,0.0546219
2.1955,-0.443489,0.026076
2.31036,-0.235492,-0.162393
2.25465,-0.34179,-0.186162
2.3717,-0.125126,0.0691191
2.26181,-0.342874,0.0399311
2.37183,-0.125133,-0.152219
2.19585,-0.443559,-0.130464
2.31606,-0.236073,0.13558
2.25633,-0.342043,0.0929754
2.31747,-0.236217,-0.108511
2.25511,-0.341858,-0.119535
2.36674,-0.124864,-0.0965577
2.31537,-0.236004,-0.0541566
2.35993,-0.132354,-0.0412575
2.24424,-0.347828,-0.0660937
2.31123,-0.243328,0
2.18227,-0.448352,-0.0259363
2.30341,-0.242504,-0.360337
2.36424,-0.132596,0.0137626
2.25306,-0.349195,-0.0132512
2.30189,-0.242344,-0.249322
2.32651,-0.244936,0.0544357
2.1901,-0.449962,0.0260295
2.30957,-0.243153,-0.162393
2.24957,-0.348654,-0.185836
2.36328,-0.132542,0.0688864
2.25276,-0.349148,0.0397915
2.36343,-0.13255,-0.151707
2.18655,-0.449231,-0.129999
2.31923,-0.24417,0.135813
2.24728,-0.348299,0.0926498
2.3127,-0.243482,-0.108324
2.25396,-0.349334,-0.119535
2.36232,-0.132488,-0.0963948
2.31855,-0.244099,-0.0542496
2.35546,-0.140353,-0.0411877
2.23907,-0.355034,-0.0659773
2.31036,-0.251394,0
2.1846,-0.456786,-0.0259829
2.29862,-0.250116,-0.359722
2.36776,-0.141086,0.0137859
2.24393,-0.355805,-0.0132047
2.29708,-0.249948,-0.248894
2.31769,-0.252191,0.0542496
2.30077,-0.25035,-0.161835
2.24834,-0.356504,-0.185836
2.35482,-0.140315,0.0686537
2.24757,-0.356383,0.0397217
2.35498,-0.140324,-0.151196
2.30646,-0.250968,0.135115
2.24605,-0.356142,0.0926498
2.30786,-0.251121,-0.108138
2.25667,-0.357825,-0.119745
2.35786,-0.140496,-0.096232
2.30576,-0.250893,-0.0539705
2.35097,-0.148322,-0.0411179
2.22597,-0.360928,-0.0656282
2.3055,-0.25901,0
2.183,-0.464409,-0.0259829
2.29773,-0.258138,-0.359722
2.35927,-0.148846,0.0137394
2.24267,-0.363635,-0.0132047
2.29224,-0.257521,-0.248465
2.31679,-0.26028,0.0542496
2.30781,-0.25927,-0.162393
2.24315,-0.363712,-0.185511
2.35432,-0.148534,0.0686537
2.24237,-0.363586,0.0396519
2.35846,-0.148795,-0.151451
2.3016,-0.258572,0.134883
2.23296,-0.362061,0.0921613
2.29506,-0.257838,-0.10758
2.24752,-0.364422,-0.119326
2.35336,-0.148474,-0.0960692
2.3009,-0.258494,-0.0538774
2.35046,-0.156118,-0.0411179
2.22871,-0.36896,-0.0657446
2.29668,-0.265735,0
2.17363,-0.469955,-0.0258898
2.35477,-0.156404,0.0137161
2.24145,-0.37107,-0.0132047
2.29137,-0.265121,-0.248465
2.31195,-0.267501,0.0541566
2.29505,-0.265546,-0.161556
2.24193,-0.371149,-0.185511
2.35381,-0.15634,0.0686537
2.23326,-0.369714,0.0395123
2.34999,-0.156086,-0.15094
2.30073,-0.266203,0.134883
2.23175,-0.369464,0.0921613
2.29816,-0.265906,-0.107766
2.23448,-0.369916,-0.118698
2.35286,-0.156277,-0.0960692
2.29208,-0.265203,-0.0536913
2.34987,-0.164731,-0.0411179
2.2234,-0.376459,-0.0656282
2.28774,-0.273202,0
2.16798,-0.477059,-0.0258432
2.35817,-0.165313,0.0137394
2.23614,-0.378615,-0.0131814
2.28249,-0.272574,-0.247608
2.30698,-0.275499,0.0540635
2.2901,-0.273483,-0.161277
2.23269,-0.378032,-0.18486
2.34525,-0.164407,0.0684209
2.23583,-0.378564,0.0395821
2.34542,-0.164419,-0.150684
2.3037,-0.275107,0.135115
2.23038,-0.377641,0.0921613
2.2932,-0.273854,-0.10758
2.23311,-0.378103,-0.118698
2.3443,-0.16434,-0.0957435
2.28713,-0.273128,-0.0535983
2.3453,-0.172639,-0.0410481
2.21813,-0.383537,-0.0655119
2.28678,-0.281186,0
2.17411,-0.48637,-0.0259363
2.3496,-0.172956,0.0136929
2.2348,-0.386419,-0.0131814
2.28152,-0.28054,-0.247608
2.306,-0.28355,0.0540635
2.28121,-0.280501,-0.160719
2.23136,-0.385823,-0.18486
2.34466,-0.172593,0.0684209
2.22662,-0.385004,0.0394424
2.34085,-0.172312,-0.150428
2.2948,-0.282173,0.13465
2.2962,-0.282344,-0.107766
2.23178,-0.385896,-0.118698
2.33972,-0.172229,-0.0955807
2.28616,-0.28111,-0.0535983
2.33275,-0.179495,-0.0408386
2.2326,-0.393667,-0.0659773
2.28583,-0.288768,0
2.34104,-0.180133,0.0136464
2.22957,-0.393133,-0.0131582
2.27663,-0.287605,-0.24718
2.30505,-0.291196,0.0540635
2.28422,-0.288565,-0.160998
2.23399,-0.393913,-0.185186
2.3361,-0.179753,0.0681882
2.22927,-0.39308,0.0395123
2.34027,-0.180074,-0.150428
2.28989,-0.28928,0.134417
2.28732,-0.288956,-0.107394
2.22262,-0.391907,-0.118279
2.33914,-0.179987,-0.0955807
2.28521,-0.28869,-0.0535983
2.32812,-0.187316,-0.0407688
2.19973,-0.395794,-0.0650464
2.27688,-0.295715,0
2.33242,-0.187662,0.0135999
2.22031,-0.399496,-0.0131117
2.26773,-0.294526,-0.246323
2.29212,-0.297695,0.0537844
2.27924,-0.296022,-0.160719
2.2326,-0.401709,-0.185186
2.32749,-0.187265,0.0679555
2.22001,-0.399442,0.0393726
2.33564,-0.187922,-0.150172
2.27699,-0.295729,0.13372
2.27837,-0.295909,-0.107022
2.22517,-0.40037,-0.118489
2.33451,-0.18783,-0.0954179
2.2723,-0.29512,-0.0533191
2.3314,-0.196183,-0.0408386
2.19433,-0.403131,-0.0649301
2.27181,-0.303528,0
2.33172,-0.19621,0.0135999
2.21883,-0.407632,-0.0131117
2.27057,-0.303362,-0.246752
2.27913,-0.304505,0.0535052
2.27419,-0.303846,-0.16044
2.32679,-0.195795,0.0679555
2.22246,-0.408299,0.0394424
2.32699,-0.195811,-0.149661
2.27984,-0.304601,0.133952
2.27727,-0.304258,-0.107022
2.2119,-0.406358,-0.117861
2.33381,-0.196386,-0.0954179
2.27516,-0.303976,-0.0534122
2.31879,-0.202868,-0.0406292
2.19298,-0.410406,-0.0649301
2.27079,-0.31106,0
2.33504,-0.20429,0.0136231
2.21353,-0.414251,-0.0130884
2.26561,-0.310351,-0.246323
2.28999,-0.31369,0.0537844
2.26526,-0.310302,-0.159882
2.31816,-0.202813,0.0677228
2.2093,-0.41346,0.039233
2.32632,-0.203527,-0.149661
2.27091,-0.311076,0.133487
2.26833,-0.310723,-0.106649
2.21054,-0.413691,-0.117861
2.32518,-0.203427,-0.0950922
2.26622,-0.310433,-0.0532261
2.31408,-0.210598,-0.0405594
2.19546,-0.418807,-0.0650464
2.26177,-0.317871,0
2.32236,-0.211352,0.0135534
2.216,-0.422725,-0.0131117
2.26058,-0.317704,-0.245895
2.277,-0.320012,0.0535052
2.26021,-0.317652,-0.159603
2.31346,-0.210541,0.0676064
2.20785,-0.421169,0.039233
2.32162,-0.211284,-0.149405
2.26586,-0.318445,0.133255
2.27119,-0.319195,-0.106835
2.20908,-0.421404,-0.117861
2.3165,-0.210818,-0.0947666
2.26512,-0.318342,-0.0532261
2.30935,-0.218298,-0.0404896
2.19399,-0.426468,-0.0650464
2.26065,-0.325764,0
2.31365,-0.218704,0.0135069
2.20666,-0.428931,-0.0130652
2.25552,-0.325025,-0.245466
2.264,-0.326247,0.0532261
2.26304,-0.326109,-0.159882
2.30873,-0.218239,0.06749
2.20244,-0.42811,0.0391632
2.31292,-0.218636,-0.148893
2.25287,-0.324644,0.132557
2.26611,-0.326551,-0.106649
2.20367,-0.428351,-0.117651
2.31575,-0.218903,-0.0947666
2.26004,-0.325676,-0.053133
2.30858,-0.226358,-0.0404896
2.19249,-0.434124,-0.0650464
2.2595,-0.333654,0
2.31685,-0.227169,0.0135301
2.20515,-0.436631,-0.0130652
2.25044,-0.332316,-0.245038
2.2668,-0.334732,0.0533191
2.25794,-0.333424,-0.159603
2.30795,-0.226297,0.06749
2.31612,-0.227097,-0.149149
2.25173,-0.332506,0.132557
2.25705,-0.333292,-0.106277
2.19825,-0.435265,-0.117442
2.31497,-0.226985,-0.0947666
2.25493,-0.332979,-0.05304
2.30777,-0.234415,-0.0404896
2.17528,-0.438614,-0.064581
2.24645,-0.339744,0
2.30411,-0.234042,0.0134604
2.19577,-0.442745,-0.0130187
2.24926,-0.340169,-0.245038
2.25375,-0.340848,0.05304
2.24098,-0.338917,-0.158487
2.29919,-0.233543,0.0672573
2.31134,-0.234777,-0.148893
2.2466,-0.339767,0.132324
2.25192,-0.340571,-0.106091
2.18888,-0.441356,-0.117023
2.31416,-0.235064,-0.0947666
2.24585,-0.339652,-0.0528539
2.30296,-0.242051,-0.0404198
2.18157,-0.447812,-0.0648137
2.2413,-0.346972,0
2.31123,-0.24292,0.0135069
2.19421,-0.450407,-0.0130187
2.23627,-0.346193,-0.243753
2.25255,-0.348713,0.05304
2.23979,-0.346737,-0.158487
2.29439,-0.24115,0.067141
2.30257,-0.24201,-0.148382
2.2454,-0.347607,0.132324
2.24677,-0.347819,-0.105905
2.18342,-0.448191,-0.116814
2.30538,-0.242305,-0.0944409
2.25255,-0.348713,-0.05304
2.29813,-0.249656,-0.04035
2.17217,-0.453789,-0.064581
2.24798,-0.356045,0
2.29049,-0.248826,0.0133907
2.19263,-0.458063,-0.0130187
2.24683,-0.355864,-0.245038
2.25132,-0.356574,0.05304
2.23462,-0.353929,-0.158208
2.2975,-0.249589,0.0672573
2.2898,-0.248752,-0.147614
2.24554,-0.355659,-0.105905
2.18575,-0.456627,-0.117023
2.29657,-0.249488,-0.0941152
2.24342,-0.355323,-0.0528539
2.28938,-0.255986,-0.0402103
2.16682,-0.459781,-0.0644646
2.23895,-0.361829,0
2.28969,-0.256021,0.0133907
2.19118,-0.464949,-0.0130187
2.25019,-0.363645,0.05304
2.23744,-0.361584,-0.158487
2.28876,-0.255917,0.0670246
2.28901,-0.255945,-0.147614
2.24836,-0.363349,-0.106091
2.18821,-0.46432,-0.117233
2.29578,-0.256701,-0.0941152
2.24229,-0.362369,-0.0528539
2.28847,-0.263976,-0.0402103
2.16129,-0.466498,-0.0643483
2.23767,-0.369642,0
2.29276,-0.26447,0.0134139
2.18172,-0.470907,-0.0129722
2.24101,-0.370194,0.0528539
2.22435,-0.367441,-0.15765
2.28388,-0.263446,0.0669082
2.2881,-0.263933,-0.147614
2.23525,-0.369242,-0.105533
2.28693,-0.263797,-0.0937896
2.22918,-0.368239,-0.0525747
2.27553,-0.271341,-0.0400009
2.15949,-0.474794,-0.0643483
2.22441,-0.37623,0
2.28775,-0.272798,0.0133907
2.1838,-0.48014,-0.0129954
2.23169,-0.377462,0.0526678
2.22292,-0.375979,-0.15765
2.27888,-0.27174,0.0667919
2.28311,-0.272244,-0.147358
2.22594,-0.376489,-0.10516
2.28193,-0.272103,-0.0936268
2.23169,-0.377462,-0.0526678
2.27457,-0.279282,-0.0400009
2.15781,-0.482329,-0.0643483
2.21914,-0.383312,0
2.28282,-0.280295,0.0133674
2.23824,-0.386611,0.0528539
2.2216,-0.383736,-0.15765
2.27395,-0.279206,0.0666755
2.27818,-0.279726,-0.147102
2.22461,-0.384257,-0.10516
2.277,-0.27958,-0.0934639
2.22642,-0.384569,-0.0525747
2.27358,-0.28722,-0.0400009
2.14832,-0.488086,-0.0641155
2.21385,-0.390361,0
2.27389,-0.287259,0.0133209
2.229,-0.393033,0.0526678
2.21631,-0.390796,-0.157371
2.26503,-0.28614,0.0664428
2.26927,-0.286676,-0.146591
2.22325,-0.39202,-0.10516
2.27204,-0.287026,-0.0933011
2.229,-0.393033,-0.0526678
2.26473,-0.293334,-0.0398613
2.15067,-0.495731,-0.0642319
2.21261,-0.397314,0
2.26901,-0.293887,0.0132977
2.22776,-0.400034,0.0526678
2.20722,-0.396346,-0.156813
2.26016,-0.292741,0.0663264
2.2644,-0.293291,-0.146335
2.22201,-0.399002,-0.10516
2.27509,-0.294675,-0.0934639
2.21988,-0.39862,-0.0524816
2.25577,-0.300182,-0.0397217
2.14504,-0.502324,-0.0641155
2.20728,-0.404315,0
2.27193,-0.302333,0.0133209
2.22241,-0.407087,0.0525747
2.21367,-0.405486,-0.157371
2.26308,-0.301156,0.0664428
2.26732,-0.30172,-0.146591
2.20882,-0.404597,-0.104602
2.26613,-0.301561,-0.0931383
2.21455,-0.405646,-0.0523886
2.26263,-0.309137,-0.0398613
2.19799,-0.410548,0
2.2669,-0.309721,0.0132977
2.21312,-0.413374,0.0523886
2.20048,-0.411013,-0.156534
2.25806,-0.308512,0.0663264
2.2623,-0.309092,-0.146335
2.20739,-0.412304,-0.104602
2.26902,-0.31001,-0.0933011
2.21312,-0.413374,-0.0523886
2.25758,-0.316478,-0.0397915
2.19261,-0.41747,0
2.26184,-0.317076,0.0132744
2.21166,-0.421097,0.0523886
2.20295,-0.419438,-0.156813
2.25301,-0.315837,0.0662101
2.25725,-0.316433,-0.146079
2.20986,-0.420754,-0.104788
2.26001,-0.316819,-0.0929754
2.21166,-0.421097,-0.0523886
2.2525,-0.323788,-0.0397217
2.19507,-0.425883,0
2.24885,-0.323263,0.0132047
2.24793,-0.323131,0.0660937
2.25613,-0.32431,-0.146079
2.20053,-0.426944,-0.104416
2.24702,-0.323,-0.0924869
2.20625,-0.428053,-0.0522955
2.24344,-0.330483,-0.0395821
2.18964,-0.432767,0
2.2477,-0.33111,0.0132047
2.24679,-0.330976,0.0660937
2.24709,-0.33102,-0.145567
2.20687,-0.436172,-0.104788
2.25379,-0.332007,-0.0928126
2.20474,-0.435751,-0.0522955
2.23437,-0.337118,-0.0394424
2.1842,-0.439618,0
2.24654,-0.338954,0.0132047
2.23772,-0.337624,0.065861
2.24197,-0.338266,-0.145312
2.19358,-0.441507,-0.10423
2.24866,-0.339275,-0.0926498
2.19537,-0.441866,-0.0521094
2.23713,-0.345526,-0.0395123
2.17873,-0.446437,0
2.24534,-0.346794,0.0132047
2.24047,-0.346043,0.0659773
2.24472,-0.346699,-0.145567
2.1842,-0.447557,-0.103857
2.24351,-0.346513,-0.0924869
2.19381,-0.449527,-0.0521094
2.23986,-0.353957,-0.0395821
2.17716,-0.454039,0
2.23621,-0.353381,0.0131582
2.23135,-0.352613,0.0657446
2.23561,-0.353287,-0.145056
2.17871,-0.454363,-0.103671
2.23045,-0.35247,-0.0919985
2.18831,-0.456366,-0.0520164
2.22683,-0.359471,-0.0393726
2.17173,-0.460427,0
2.23503,-0.360795,0.0131582
2.22623,-0.359374,0.0656282
2.23443,-0.360698,-0.145056
2.17719,-0.461586,-0.103671
2.22532,-0.359228,-0.0918356
2.1907,-0.464449,-0.0521094
2.2176,-0.366327,-0.039233
2.2258,-0.36768,0.0131117
2.217,-0.366228,0.0653955
2.22916,-0.368235,-0.1448
2.22399,-0.367382,-0.0918356
2.18508,-0.471632,-0.0520164
2.21638,-0.373679,-0.039233
2.22457,-0.375059,0.0131117
2.21972,-0.374242,0.0655119
2.22399,-0.374961,-0.144544
2.22276,-0.374755,-0.0918356
2.17959,-0.478018,-0.0519233
2.21506,-0.381413,-0.039233
2.22324,-0.382822,0.0131117
2.21446,-0.38131,0.0653955
2.22266,-0.382722,-0.144544
2.22144,-0.382511,-0.0918356
2.17401,-0.484753,-0.0518303
2.20978,-0.38845,-0.0391632
2.22189,-0.39058,0.0131117
2.20918,-0.388345,0.0652792
2.21345,-0.389096,-0.144032
2.21615,-0.389571,-0.0916728
2.1762,-0.493223,-0.0519233
2.20841,-0.396161,-0.0391632
2.21658,-0.397628,0.0130884
2.20387,-0.395348,0.0651628
2.21208,-0.39682,-0.144032
2.21085,-0.396599,-0.09151
2.17057,-0.499919,-0.0518303
2.19914,-0.402428,-0.0390236
2.21518,-0.405362,0.0130884
2.1989,-0.402384,-0.143265
2.20552,-0.403594,-0.0913472
2.15324,-0.503848,-0.0514581
2.19379,-0.409368,-0.0389538
2.20982,-0.412359,0.0130652
2.20141,-0.410789,-0.143521
2.20409,-0.411291,-0.0913472
2.19628,-0.417771,-0.0390236
2.20836,-0.42007,0.0130652
2.19996,-0.418471,-0.143521
2.20265,-0.418982,-0.0913472
2.19088,-0.424674,-0.0389538
2.20689,-0.427776,0.0130652
2.19457,-0.425388,-0.143265
2.19332,-0.425147,-0.0910215
2.18546,-0.431544,-0.038884
2.20145,-0.434702,0.0130419
2.18398,-0.431252,-0.0906958
2.18002,-0.438382,-0.0388142
2.196,-0.441595,0.0130187
2.18638,-0.439661,-0.0908587
2.17464,-0.444807,-0.0387443
2.19061,-0.448073,0.0129954
2.18491,-0.446909,-0.0908587
2.17691,-0.45359,-0.0388142
2.17935,-0.454099,-0.0906958
2.17148,-0.459978,-0.0387443
2.17392,-0.460495,-0.090533
2.16595,-0.466712,-0.0386745
2.16839,-0.467238,-0.0903702
2.1604,-0.473414,-0.0386047
2.16654,-0.482692,-0.0387443
2.16094,-0.489368,-0.0386745
