2.4792,0.769337,-0.0302203
2.48952,0.763023,-0.0303134
2.48834,0.753169,-0.0302668
2.50245,0.747914,-0.0304065
2.50888,0.740307,-0.0304531
2.51272,0.741439,0.0304996
2.51516,0.733103,-0.0304996
2.52284,0.735341,0.0305928
2.5177,0.724318,-0.0304996
2.53308,0.728742,0.0306859
2.52419,0.716178,-0.0305462
2.53573,0.719453,0.0306859
2.5304,0.708882,-0.0305928
2.53425,0.709961,0.0306393
2.53286,0.700045,-0.0305928
2.54443,0.703242,0.0307325
2.54687,0.694356,-0.0307325
2.55458,0.69646,0.0308256
2.55314,0.6865,-0.030779
2.56086,0.688577,0.0308722
2.55165,0.676559,-0.0307325
2.57098,0.681684,0.0309653
2.55909,0.678531,-0.154185
2.57335,0.672705,0.0309653
2.55758,0.668583,-0.153952
2.48301,0.770994,-0.015111
2.58343,0.665714,0.0310584
2.5715,0.66264,-0.15465
2.50098,0.767015,-0.015204
2.58573,0.656694,0.0310584
2.57766,0.654644,-0.154882
2.58025,0.645721,-0.0309653
2.49982,0.757121,-0.0151807
2.59577,0.649605,0.0311515
2.58381,0.646611,-0.155115
2.59025,0.638626,-0.0310584
2.51011,0.750683,-0.0152272
2.6019,0.641498,0.0311981
2.5938,0.6395,-0.15558
2.59225,0.630484,-0.0310584
2.51629,0.743927,-0.0152505
2.60002,0.632375,0.0311515
2.59192,0.630404,-0.155347
2.59832,0.622364,-0.031105
2.52655,0.73738,-0.015297
2.6061,0.624228,0.0311981
2.52621,0.737281,0.0459347
2.60575,0.624144,-0.156045
2.60837,0.614672,-0.0311981
2.53308,0.729222,-0.0153202
2.61616,0.616507,0.0312912
2.52889,0.728017,0.0459347
2.6158,0.616422,-0.15651
2.62219,0.608274,-0.0313378
2.53561,0.720375,-0.0153202
2.62219,0.608274,0.0313378
2.53527,0.720277,0.0460045
2.61404,0.606384,-0.156278
2.6244,0.59866,-0.0313378
2.53823,0.711077,-0.0153202
2.6322,0.600439,0.0314309
2.54559,0.713139,0.0461442
2.62793,0.599464,-0.156975
2.63408,0.592165,-0.0314309
2.55202,0.706298,-0.0153899
2.63408,0.592165,0.0314309
2.54782,0.705136,0.0461442
2.63759,0.592955,-0.15744
2.63623,0.582507,-0.0314309
2.55459,0.696941,-0.0153899
2.64444,0.584321,-0.252808
2.64404,0.584233,0.0315241
2.63975,0.583284,-0.15744
2.56023,0.698478,0.108119
2.54728,0.694946,-0.138376
2.64606,0.575002,-0.0315241
2.56473,0.6901,-0.0154364
2.64646,0.575089,-0.252808
2.64997,0.575851,0.0315706
2.56052,0.688967,0.0462838
2.64957,0.575764,-0.157906
2.56651,0.690578,0.108281
2.55741,0.688128,-0.138795
2.55051,0.677209,-0.076799
2.65578,0.567896,-0.0316172
2.56701,0.68159,-0.0154364
2.66004,0.568807,-0.253923
2.65187,0.56706,0.0315706
2.57053,0.682524,0.0464234
2.65537,0.567809,-0.158138
2.56739,0.681693,-0.139214
2.66166,0.559444,-0.0316637
2.56937,0.672625,-0.0154364
2.66201,0.559518,-0.253923
2.66949,0.56109,0.0317569
2.57676,0.674559,0.0464932
2.66124,0.559357,-0.158371
2.57502,0.674103,0.108444
2.57362,0.673737,-0.139423
2.67936,0.552919,-0.03185
2.57957,0.665201,-0.0154829
2.66794,0.550563,-0.254295
2.66369,0.549685,0.0316637
2.58309,0.66611,0.046563
2.6711,0.551214,-0.158836
2.58521,0.666657,0.10877
2.57221,0.663303,-0.139214
2.48606,0.77242,-0.0605772
2.48929,0.764378,0
2.67726,0.543235,-0.0318034
2.58564,0.657629,-0.0155062
2.66975,0.541712,-0.254295
2.67726,0.543235,0.0318034
2.59304,0.659511,0.0467026
2.68074,0.543941,-0.159301
2.59128,0.659065,0.108933
2.57826,0.655754,-0.139423
2.49207,0.75525,0
2.68315,0.5342,-0.03185
2.59191,0.64912,-0.0155294
2.68344,0.534257,-0.25541
2.68315,0.5342,0.03185
2.59544,0.650003,0.0467026
2.68663,0.534892,-0.159533
2.59368,0.649563,0.108933
2.59227,0.649211,-0.140051
2.58534,0.637892,-0.0774972
2.69678,0.527132,-0.0319897
2.59804,0.641026,-0.0155527
2.6892,0.52565,-0.255782
2.69678,0.527132,0.0319897
2.60546,0.642855,0.0468423
2.68848,0.52551,-0.159533
2.59593,0.640505,0.108933
2.5984,0.641115,-0.14026
2.50168,0.748636,-0.0607633
2.5047,0.740974,0
2.69449,0.517903,-0.0319431
2.60393,0.633807,-0.0155759
2.69083,0.517199,-0.255782
2.51552,0.744177,0.0610425
2.69057,0.517148,0.0318966
2.69012,0.517062,-0.159533
2.60958,0.635183,0.109421
2.60817,0.634839,-0.140679
2.51552,0.744177,-0.0610425
2.50752,0.731352,0
2.70825,0.509773,-0.0320828
2.61412,0.625667,-0.0156224
2.70063,0.508337,-0.256526
2.69646,0.507553,0.0319431
2.60938,0.624531,-0.219033
2.61766,0.626513,0.0469819
2.69993,0.508206,-0.159999
2.61589,0.626089,0.109584
2.6067,0.62389,-0.14047
2.60938,0.624531,0.219033
2.51836,0.734513,-0.0610425
2.60355,0.613535,-0.0778463
2.5139,0.723701,0
2.71002,0.500316,-0.0320828
2.62019,0.617455,-0.0156457
2.71022,0.500353,-0.257269
2.71395,0.501042,0.0321294
2.61542,0.616332,-0.219359
2.70954,0.500228,-0.160464
2.62195,0.61787,0.109747
2.62053,0.617535,-0.141098
2.52475,0.726824,-0.0611355
2.52026,0.716015,0
2.72355,0.492991,-0.0322225
2.63012,0.610113,-0.0156922
2.71195,0.49089,-0.257269
2.53881,0.721285,0.0614147
2.72749,0.493703,0.0322691
2.61756,0.6072,-0.219359
2.62587,0.609127,0.0470517
2.71913,0.49219,-0.160929
2.63188,0.610521,0.110073
2.52522,0.717423,-0.122284
2.62656,0.609287,-0.141307
2.62144,0.6081,0.219684
2.53497,0.720192,-0.0613216
2.61926,0.598928,-0.0781954
2.5302,0.710255,0
2.72509,0.484431,-0.0322225
2.63202,0.601847,-0.0156922
2.72132,0.483761,-0.258013
2.72903,0.485131,0.0322691
2.62723,0.60075,-0.22001
2.63556,0.602657,0.0471913
2.72066,0.483645,-0.160929
2.63378,0.602249,0.110073
2.62723,0.60075,0.22001
2.53722,0.712224,-0.0613216
2.62544,0.589742,-0.0783117
2.53677,0.7016,0
2.73875,0.476018,-0.0323622
2.63822,0.592612,-0.0157154
2.72708,0.47399,-0.258385
2.55535,0.70674,0.0616939
2.74269,0.476703,0.0324088
2.63729,0.592405,-0.22066
2.64566,0.594285,0.0473309
2.73037,0.474561,-0.161394
2.63607,0.592131,0.110073
2.53017,0.699775,-0.122284
2.63854,0.592685,-0.141726
2.63729,0.592405,0.22066
2.54379,0.703542,-0.0614147
2.63118,0.582356,-0.0784281
2.74812,0.468757,-0.0324553
2.64397,0.585186,-0.0157387
2.73641,0.46676,-0.259128
2.55756,0.698709,0.0616939
2.74023,0.467412,0.0323622
2.64693,0.58584,-0.221311
2.65533,0.587699,0.0474705
2.73578,0.466653,-0.161626
2.64963,0.586438,0.110561
2.54392,0.694982,-0.122842
2.64819,0.58612,-0.142144
2.64303,0.584978,0.220986
2.5537,0.697655,-0.0616008
2.63711,0.574017,-0.0785444
2.54909,0.686841,0
2.74579,0.458502,-0.0324088
2.646,0.575952,-0.0157387
2.74195,0.45786,-0.2595
2.56384,0.690817,0.0617869
2.75368,0.45982,0.0325019
2.64506,0.575748,-0.220986
2.74527,0.458415,-0.162092
2.65947,0.578885,0.110887
2.5579,0.689216,-0.123401
2.65412,0.577721,-0.142354
2.55998,0.689777,-0.0616939
2.64701,0.566021,-0.0787772
2.7514,0.44908,-0.0324553
2.65591,0.567924,-0.0157852
2.74361,0.447808,-0.2595
2.57409,0.683469,0.061973
2.7593,0.450369,0.0325485
2.65495,0.567718,-0.221637
2.66729,0.570356,0.0476102
2.75088,0.448994,-0.162324
2.66939,0.570806,0.111212
2.56427,0.680862,-0.123587
2.56636,0.681416,-0.0617869
2.65289,0.557601,-0.0788935
2.56555,0.671623,0
2.76085,0.440735,-0.0325485
2.48003,0.780524,0.015111
2.66179,0.559473,-0.0158084
2.74909,0.438857,-0.259872
2.58033,0.675493,0.0620661
2.7648,0.441365,0.032595
2.66472,0.560087,-0.222288
2.66926,0.561042,0.0476102
2.74848,0.43876,-0.162092
2.56507,0.671499,0.154417
2.57436,0.673932,-0.123959
2.56485,0.671442,-0.0616939
2.65864,0.54961,-0.0790099
2.57938,0.666113,0
2.7702,0.432813,-0.0326416
2.6793,0.553882,-0.0159014
2.75446,0.430353,-0.260243
2.58255,0.666933,0.0620661
2.77811,0.434047,0.0327347
2.67437,0.552862,-0.222939
2.75781,0.430877,-0.162557
2.58275,0.666983,0.155347
2.68104,0.554242,0.111538
2.57272,0.664392,-0.123773
2.67437,0.552862,0.222939
2.57094,0.663933,-0.0617869
2.48126,0.761914,-0.0453064
2.66847,0.541452,-0.0792426
2.77968,0.423862,-0.0327347
2.49307,0.765539,0.0151575
2.68131,0.544058,-0.0159014
2.7639,0.421455,-0.260987
2.77572,0.423259,0.0326882
2.68028,0.543849,-0.223264
2.76727,0.421969,-0.163022
2.59292,0.65948,0.155813
2.68697,0.545206,0.111701
2.57901,0.655943,-0.123959
2.6816,0.544116,-0.143401
2.68419,0.544642,0.22359
2.5811,0.656476,-0.061973
2.48747,0.755276,-0.0453763
2.67408,0.533848,-0.079359
2.58385,0.648539,0
2.781,0.415126,-0.0327347
2.49929,0.758865,0.0151807
2.69478,0.53798,-0.0159711
2.77309,0.413945,-0.261731
2.78891,0.416307,0.0328279
2.57756,0.646959,-0.185831
2.68198,0.535425,-0.223264
2.77648,0.414452,-0.163487
2.59497,0.651331,0.155813
2.69259,0.537543,0.111864
2.58105,0.647837,-0.123959
2.69113,0.537252,-0.143819
2.58703,0.649337,-0.0620661
2.49392,0.747739,-0.0454461
2.6877,0.526819,-0.0797081
2.58998,0.640478,0
2.78639,0.405995,-0.0327813
2.67899,0.525114,-0.34749
2.49809,0.748989,0.0151575
2.70056,0.529342,-0.0159944
2.77845,0.404839,-0.262102
2.7943,0.407148,0.0328744
2.59142,0.640833,-0.186668
2.68774,0.526829,-0.22359
2.70412,0.530039,0.0480988
2.78581,0.405911,-0.163952
2.60886,0.645146,0.15651
2.70229,0.529681,0.112189
2.59881,0.642662,-0.124703
2.68774,0.526829,0.22359
2.58928,0.640305,-0.0620661
2.69354,0.517718,-0.0798244
2.60009,0.632871,0
2.79182,0.396339,-0.0328279
2.68869,0.516787,-0.3485
2.51616,0.744365,0.0152505
2.70641,0.520193,-0.0160176
2.79175,0.39633,-0.263218
2.8037,0.398026,0.0329675
2.59763,0.632273,-0.186947
2.69357,0.517724,-0.223915
2.70605,0.520123,0.0480988
2.78728,0.395696,-0.163952
2.61121,0.635578,0.15651
2.71207,0.521279,0.112515
2.60115,0.63313,-0.124703
2.69749,0.518477,0.22424
2.59938,0.632699,-0.0622522
2.51085,0.732798,-0.0456555
2.69542,0.507842,-0.0798244
2.61406,0.626133,0
2.80117,0.3872,-0.032921
2.69447,0.507664,-0.349005
2.51887,0.735138,0.0152505
2.7083,0.510271,-0.0160176
2.79713,0.386641,-0.263589
2.61724,0.626895,0.0626244
2.81306,0.388843,0.0330607
2.59993,0.622748,-0.186947
2.7072,0.510064,-0.224891
2.71187,0.510942,0.0481686
2.79267,0.386025,-0.164185
2.6174,0.626934,0.156743
2.71396,0.511336,0.112515
2.60346,0.623593,-0.124703
2.7072,0.510064,0.224891
2.60946,0.625032,-0.0624383
2.51698,0.726015,-0.0457253
2.70486,0.500828,-0.0800572
2.61212,0.616998,0
2.8103,0.379469,-0.0330141
2.69995,0.49992,-0.34951
2.52886,0.729439,0.015297
2.72169,0.503945,-0.0160874
2.80228,0.378385,-0.263961
2.8222,0.381075,0.0331538
2.60576,0.615495,-0.187226
2.71663,0.503008,-0.225542
2.80178,0.378319,-0.16465
2.62713,0.620544,0.157208
2.72734,0.504991,0.113003
2.61318,0.617248,-0.125076
2.70879,0.501557,0.224891
2.6192,0.61867,-0.0626244
2.71061,0.491624,-0.0801735
2.61826,0.608325,0
2.81168,0.369166,-0.0330141
2.70567,0.490728,-0.350016
2.53921,0.722354,0.0153435
2.80759,0.368629,-0.264333
2.82754,0.371248,0.0332004
2.61188,0.606843,-0.187505
2.71846,0.493047,-0.225542
2.52279,0.717684,0.0763336
2.81107,0.369086,-0.165115
2.62939,0.610911,0.157208
2.72524,0.494278,0.112841
2.6271,0.610379,-0.125634
2.51792,0.716299,-0.106653
2.62145,0.609065,-0.0626244
2.52597,0.709066,-0.0457951
2.71625,0.48286,-0.0802899
2.62817,0.600965,0
2.82088,0.360363,-0.0331072
2.71127,0.481976,-0.350521
2.54171,0.713486,0.0153435
2.82071,0.360341,-0.265448
2.82882,0.361377,0.0332004
2.62565,0.600391,-0.188342
2.72409,0.484253,-0.225868
2.54068,0.713196,0.076799
2.8163,0.359778,-0.165347
2.64318,0.6044,0.157906
2.73876,0.486861,0.113329
2.62921,0.601205,-0.125634
2.72409,0.484253,0.225868
2.5281,0.709666,-0.106979
2.62745,0.600803,-0.0627174
2.72571,0.475224,-0.0805226
2.64185,0.594883,0
2.83,0.351995,-0.0332004
2.71286,0.472983,-0.350521
2.54406,0.705054,0.0153435
2.74258,0.478165,-0.0161804
2.82585,0.351478,-0.26582
2.84191,0.353476,0.0333401
2.63542,0.593434,-0.188901
2.73746,0.477272,-0.226844
2.55074,0.706904,0.0770317
2.73827,0.477413,0.0485177
2.82144,0.35093,-0.16558
2.64517,0.595632,0.157906
2.74823,0.479149,0.113655
2.63509,0.593361,-0.12582
2.5343,0.702347,-0.107142
2.63724,0.593844,-0.0629035
2.64782,0.586522,0
2.72232,0.464845,-0.351531
2.55808,0.699333,0.0154132
2.75212,0.469934,-0.0162269
2.83496,0.342566,-0.266564
2.65491,0.588093,0.0632757
2.8471,0.344032,0.0333866
2.64137,0.585094,-0.18918
2.74304,0.468384,-0.22717
2.55319,0.697995,0.0770317
2.83454,0.342516,-0.166278
2.65114,0.587257,0.158138
2.63715,0.584159,-0.12582
2.74697,0.469055,0.227495
2.54444,0.695604,-0.107467
2.63929,0.584634,-0.0629035
2.5487,0.686738,-0.0460744
2.64995,0.576814,0
2.84834,0.333596,-0.0333866
2.73183,0.456172,-0.352541
2.55677,0.688913,0.0153899
2.84016,0.332637,-0.266935
2.74474,0.458328,-0.22717
2.56345,0.690713,0.0772645
2.76134,0.4611,0.0488667
2.55158,0.687514,-0.16936
2.84371,0.333054,-0.166743
2.66498,0.580085,0.158836
2.76341,0.461446,0.114143
2.64708,0.576189,-0.126192
2.74867,0.458984,0.227495
2.55083,0.687313,-0.10763
2.64532,0.575808,-0.0629966
2.55495,0.678864,-0.0461442
2.65977,0.569234,0
2.84948,0.32365,-0.0333866
2.57076,0.683064,0.0154597
2.84526,0.32317,-0.267307
2.85346,0.324102,0.0334332
2.64939,0.567013,-0.189459
2.75026,0.449386,-0.227495
2.56585,0.68176,0.0772645
2.85676,0.324477,-0.16744
2.75957,0.450907,-0.146541
2.75813,0.450672,0.228146
2.55708,0.679431,-0.107793
2.65905,0.56908,-0.0632757
2.56105,0.671402,-0.046214
2.75182,0.440278,-0.0811044
2.66556,0.561236,0
2.74271,0.43882,-0.353551
2.56914,0.673522,0.0154364
2.65906,0.559869,-0.190017
2.75567,0.440894,-0.227821
2.57196,0.674262,0.0773808
2.77231,0.443557,0.0490064
2.86576,0.315877,-0.167906
2.66658,0.561451,-0.126937
2.76354,0.442154,0.228471
2.57092,0.673989,-0.108281
2.66484,0.561084,-0.0633688
2.56725,0.663459,-0.0462838
2.67533,0.553548,0
2.58309,0.667552,0.0155062
2.77817,0.434553,-0.0163431
2.65995,0.550364,-0.292589
2.86753,0.305944,0.0335729
2.661,0.550583,-0.190017
2.76113,0.431888,-0.228146
2.57817,0.66628,0.0774972
2.78175,0.435113,0.049146
2.56625,0.6632,-0.169871
2.87081,0.306295,-0.168138
2.67863,0.55423,0.159301
2.78381,0.435436,0.114795
2.67244,0.552948,-0.127123
2.77441,0.433965,-0.147169
2.76901,0.43312,0.228797
2.57712,0.66601,-0.108444
2.66678,0.551778,-0.0633688
2.68107,0.545471,0
2.7574,0.421941,-0.355066
2.58529,0.658983,0.0155062
2.7796,0.425339,-0.0163431
2.66176,0.541541,-0.292589
2.87649,0.297256,0.033666
2.66672,0.542551,-0.190296
2.76649,0.423333,-0.228471
2.58037,0.657727,0.0774972
2.58004,0.657645,-0.170639
2.87579,0.297184,-0.168371
2.69219,0.547733,0.159999
2.78919,0.426807,0.114957
2.67425,0.544084,-0.127123
2.78373,0.425971,-0.147587
2.69221,0.547737,0.337334
2.77831,0.425142,0.229448
2.57157,0.655486,-0.108119
2.67643,0.544526,-0.0635549
2.58335,0.648891,-0.0464932
2.67904,0.535325,0
2.88149,0.28761,-0.0337126
2.7667,0.413486,-0.356076
2.59145,0.650928,0.0155294
2.79293,0.417406,-0.0164128
2.66753,0.533025,-0.293018
2.6686,0.533239,-0.190296
2.77978,0.41544,-0.229448
2.59816,0.652612,0.0779626
2.79256,0.41735,0.0492856
2.57845,0.647661,-0.170383
2.88078,0.28754,-0.168603
2.698,0.539114,0.160231
2.68397,0.536311,-0.127495
2.7852,0.416251,-0.147587
2.698,0.539114,0.337822
2.78766,0.416619,0.230099
2.58935,0.6504,-0.10877
2.68224,0.535963,-0.0636479
2.58571,0.639419,-0.0464932
2.69276,0.527811,0
2.77213,0.403916,-0.356581
2.60159,0.643346,0.0155759
2.7984,0.407744,-0.0164361
2.68228,0.525757,-0.191133
2.78128,0.40525,-0.229448
2.59277,0.641165,0.0777299
2.80198,0.408266,0.0494252
2.58856,0.640124,-0.170895
2.88976,0.277744,-0.169068
2.70388,0.52999,0.160464
2.68592,0.52647,-0.127495
2.79462,0.407192,-0.148006
2.70775,0.530749,0.338797
2.79312,0.406974,0.230424
2.59172,0.640905,-0.10877
2.69203,0.527668,-0.0638341
2.59569,0.632283,-0.0466328
2.69851,0.519164,0
2.59605,0.632369,0.0155294
2.80377,0.398537,-0.0164593
2.6869,0.51693,-0.294731
2.6841,0.516392,-0.191133
2.79057,0.396661,-0.230099
2.60276,0.634004,0.0779626
2.80735,0.399046,0.049495
2.59077,0.631085,-0.170895
2.90264,0.26876,-0.169766
2.71356,0.522058,0.160929
2.81336,0.399901,0.115772
2.69559,0.518602,-0.127868
2.79997,0.397998,-0.148215
2.71349,0.522045,0.339284
2.79847,0.397784,0.23075
2.59394,0.631855,-0.10877
2.70171,0.519779,-0.0640202
2.60944,0.626473,-0.0468423
2.70415,0.510956,0
2.6098,0.626558,0.0155992
2.80111,0.388688,-0.0164361
2.91223,0.259911,0.0340385
2.70148,0.510452,-0.192249
2.79582,0.387954,-0.230424
2.60874,0.626304,0.078079
2.8047,0.389185,0.0494252
2.59673,0.623422,-0.17115
2.89954,0.258779,-0.169533
2.71135,0.512316,0.160696
2.82259,0.391668,0.116097
2.70122,0.510403,-0.128054
2.80523,0.38926,-0.148425
2.7152,0.513044,0.339284
2.80372,0.38905,0.231075
2.60768,0.626049,-0.109258
2.69949,0.510075,-0.0639271
2.60394,0.615064,-0.0467026
2.7178,0.503224,0
2.61597,0.617906,0.0156224
2.81441,0.380023,-0.0165058
2.70334,0.500545,-0.192249
2.80118,0.378236,-0.23075
2.61101,0.616736,0.078079
2.82196,0.381041,0.0497045
2.60677,0.615734,-0.171662
2.72499,0.504554,0.161394
2.82797,0.381853,0.11626
2.70307,0.500497,-0.128054
2.8106,0.379508,-0.148634
2.72487,0.504533,0.340259
2.81698,0.380369,0.232052
2.61773,0.618323,-0.109584
2.70527,0.500904,-0.0640202
2.61765,0.609146,-0.0469121
2.71159,0.492779,0
2.92194,0.240227,-0.0341317
2.618,0.609228,0.0156224
2.81566,0.370688,-0.0165058
2.70498,0.491579,-0.192249
2.81427,0.370506,-0.231726
2.62473,0.610793,0.0784281
2.8232,0.371682,0.0497045
2.6088,0.607087,-0.171662
2.73057,0.496229,0.161626
2.83318,0.372995,0.116423
2.71258,0.49296,-0.128426
2.8158,0.370708,-0.148843
2.72653,0.495495,0.340259
2.61977,0.60964,-0.109584
2.72266,0.494791,-0.0643924
2.61976,0.600005,-0.0469121
2.72117,0.484714,0
2.63181,0.602766,0.0156922
2.8328,0.362891,-0.0165988
2.71061,0.482834,-0.192528
2.81555,0.360681,-0.231726
2.62295,0.600736,0.0783117
2.83639,0.36335,0.0499139
2.62647,0.601542,-0.172685
2.74015,0.488096,0.162092
2.83447,0.363104,0.116423
2.71429,0.483488,-0.128426
2.82501,0.361892,-0.149262
2.72824,0.485975,0.340259
2.62578,0.601384,-0.109747
2.63354,0.593494,-0.0471215
2.82497,0.351868,-0.0828498
2.72678,0.4759,0
2.6417,0.595333,0.0157387
2.83802,0.353494,-0.0166221
2.72014,0.47474,-0.193086
2.8247,0.351835,-0.232377
2.63673,0.594212,0.0786608
2.83367,0.352952,0.0498441
2.62466,0.591492,-0.17243
2.74971,0.479901,0.162557
2.84365,0.354195,0.116748
2.72777,0.476071,-0.128984
2.83022,0.352522,-0.149472
2.73384,0.477131,0.340747
2.63566,0.593971,-0.110073
2.73786,0.477833,-0.0646715
2.64341,0.58603,-0.0472611
2.73631,0.467727,0
2.94824,0.211333,-0.034411
2.63986,0.585243,0.0157154
2.84321,0.344067,-0.0166453
2.72965,0.466588,-0.193644
2.83383,0.342932,-0.233028
2.63879,0.585005,0.0786608
2.84282,0.34402,0.0499837
2.6384,0.584919,-0.173197
2.74743,0.469627,0.162324
2.84487,0.344267,0.116748
2.73729,0.467894,-0.129357
2.83936,0.343601,-0.14989
2.74331,0.468923,0.341722
2.8457,0.344368,0.234004
2.64162,0.585633,-0.110235
2.73951,0.468274,-0.0646715
2.64153,0.575946,-0.0471913
2.74187,0.458832,0
2.95694,0.201583,-0.0345042
2.65361,0.57858,0.0157852
2.84837,0.334606,-0.0166686
2.75691,0.461348,0.0650437
2.95694,0.201583,0.0345042
2.7352,0.457714,-0.193923
2.84689,0.334432,-0.234004
2.65644,0.579197,0.0791263
2.85195,0.335027,0.0501233
2.64432,0.576555,-0.173453
2.75693,0.461351,0.162789
2.85399,0.335267,0.117074
2.7389,0.458335,-0.129357
2.84848,0.334619,-0.150309
2.75276,0.460654,0.342697
2.65536,0.578962,-0.110724
2.75296,0.460688,-0.0649507
2.65525,0.569238,-0.0474007
2.96161,0.191519,-0.0345507
2.6517,0.568476,0.0157619
2.85746,0.325567,-0.0167151
2.76639,0.453015,0.0652298
2.74071,0.448809,-0.194202
2.85596,0.325396,-0.234655
2.66626,0.571598,0.079359
2.86105,0.325976,0.0502629
2.65022,0.568159,-0.173709
2.7664,0.453016,0.163254
2.85912,0.325755,0.117237
2.74443,0.449418,-0.129543
2.8536,0.325127,-0.150518
2.65737,0.56969,-0.110724
2.75456,0.451076,-0.0649507
2.66897,0.56244,-0.0476102
2.75291,0.440946,0
2.66541,0.561692,0.0158317
2.85858,0.315591,-0.0167151
2.77586,0.444621,0.0654159
2.75014,0.440503,-0.19476
2.85312,0.314988,-0.23433
2.66433,0.561463,0.0792426
2.86615,0.316426,0.0503327
2.66,0.560551,-0.17422
2.76402,0.442726,0.163022
2.86818,0.316651,0.117563
2.75387,0.4411,-0.129915
2.86265,0.316041,-0.150937
2.66325,0.561235,-0.110887
2.76796,0.443356,-0.0652298
2.67091,0.55312,-0.0476102
2.76234,0.43257,0
2.66736,0.552383,0.0158317
2.87558,0.307311,-0.0168081
2.6741,0.553781,0.0794753
2.86723,0.306419,0.0503327
2.66194,0.551262,-0.17422
2.78528,0.436163,0.164185
2.87722,0.307486,0.117888
2.76329,0.43272,-0.130287
2.87566,0.307319,-0.151565
2.67693,0.554366,-0.111375
2.77344,0.434309,-0.0653229
2.66489,0.542663,-0.0474705
2.77166,0.424618,0
2.66918,0.543534,0.0158317
2.87658,0.297772,-0.0168081
2.99138,0.162531,0.0348767
2.76886,0.424188,-0.195876
2.67984,0.545707,0.0795917
2.87619,0.297732,0.0504724
2.66767,0.543227,-0.174476
2.77882,0.425714,0.16372
2.77261,0.424764,-0.130659
2.88858,0.299015,-0.152193
2.77847,0.425662,0.345134
2.67876,0.545485,-0.111375
2.78277,0.42632,-0.065509
2.68255,0.536027,-0.0477498
2.77716,0.415049,0
2.68292,0.5361,0.0159014
2.88163,0.287625,-0.0168313
2.79618,0.417892,0.0657882
2.77434,0.414628,-0.196155
2.69359,0.538232,0.0799408
2.89318,0.288778,0.0507516
2.67747,0.535011,-0.174988
2.78826,0.416708,0.164185
2.77415,0.414599,-0.130659
2.79572,0.417823,0.347084
2.68466,0.536447,-0.111538
2.78827,0.41671,-0.0656021
2.68833,0.527429,-0.0478196
2.6887,0.527501,0.0159246
2.89058,0.278331,-0.0168778
2.80158,0.408705,0.0658812
2.77577,0.40494,-0.196155
2.69937,0.529595,0.0800572
2.90213,0.279443,0.0508912
2.68324,0.526429,-0.175244
2.7976,0.408124,0.16465
2.78744,0.406643,-0.131218
2.89462,0.27872,-0.152402
2.69436,0.528611,-0.111864
2.79366,0.407551,-0.0656951
2.69408,0.5188,-0.0478894
2.79187,0.397343,0
2.7023,0.520383,0.0159944
2.80695,0.399489,0.0659743
2.78507,0.396375,-0.196713
2.69728,0.519415,0.0799408
2.91106,0.270052,0.0510308
2.69682,0.519326,-0.176011
2.80296,0.398921,0.164882
2.90511,0.2695,0.118865
2.7928,0.397475,-0.131404
2.90353,0.269354,-0.152821
2.69619,0.519205,-0.111864
2.80299,0.398925,-0.0658812
2.7116,0.512362,-0.0481686
2.90323,0.259106,-0.084828
2.7972,0.388144,0
2.7041,0.510946,0.0159944
2.91237,0.259923,-0.016994
2.82021,0.391337,0.0662534
2.71086,0.512223,0.0802899
2.91198,0.259888,0.0510308
2.70254,0.51065,-0.176267
2.8162,0.39078,0.16558
2.91001,0.259712,0.119028
2.80208,0.388822,-0.131776
2.92037,0.260636,-0.153658
2.70976,0.512016,-0.112352
2.80832,0.389688,-0.0659743
2.70944,0.502166,-0.0480988
2.80646,0.37945,0
2.7098,0.502234,0.0160176
2.80358,0.37906,-0.197829
2.7205,0.504215,0.0805226
2.92084,0.250405,0.0511705
2.70823,0.501941,-0.176523
2.81755,0.380948,0.16558
2.92285,0.250577,0.119517
2.81926,0.38118,-0.132521
2.92922,0.251124,-0.154077
2.71546,0.503282,-0.112515
2.8057,0.379347,-0.0658812
2.71502,0.493893,-0.0481686
2.81167,0.370663,0
2.92205,0.24075,-0.0170405
2.82677,0.372654,0.0663465
2.81274,0.370803,-0.198387
2.72216,0.49519,0.0805226
2.93361,0.241702,0.0513799
2.7138,0.493671,-0.176779
2.82275,0.372124,0.165813
2.92764,0.241211,0.119679
2.81655,0.371306,-0.132335
2.72105,0.494989,-0.112678
2.82281,0.372131,-0.0662534
2.7246,0.485817,-0.0483083
2.82088,0.361865,0
2.72891,0.486585,0.0161106
2.93085,0.231178,-0.017087
2.81255,0.360796,-0.305441
2.83202,0.363293,0.0664395
2.73568,0.487791,0.0808717
2.93842,0.231776,0.0514497
2.72337,0.485597,-0.17729
2.83196,0.363285,0.166278
2.82972,0.362998,-0.132893
2.73063,0.486892,-0.113003
2.82805,0.362785,-0.0663465
2.73022,0.476993,-0.0483781
2.8261,0.352512,0
2.73453,0.477746,0.0161339
2.9436,0.221849,-0.0171568
2.82169,0.351961,-0.306298
2.83724,0.353901,0.0665326
2.82318,0.352147,-0.198945
2.73342,0.477552,0.0807553
2.94719,0.222119,0.0515893
2.72898,0.476776,-0.177546
2.83717,0.353892,0.16651
2.83493,0.353614,-0.133079
2.73625,0.478046,-0.113166
2.83327,0.353406,-0.0664395
2.73581,0.468133,-0.0484479
2.83526,0.343606,0
2.73618,0.468197,0.0161339
2.95234,0.212145,-0.0172033
2.85037,0.345438,0.0668117
2.82835,0.342769,-0.199224
2.74295,0.469355,0.080988
2.94795,0.211829,0.0515893
2.73456,0.467919,-0.177802
2.85028,0.345427,0.167208
2.84408,0.344676,-0.133451
2.74578,0.469839,-0.113492
2.84243,0.344476,-0.0666256
2.74532,0.459902,-0.0485875
2.84836,0.335109,0
2.75358,0.461286,0.0162269
2.95705,0.20211,-0.0172265
2.86347,0.336887,0.0670909
2.84142,0.334292,-0.200062
2.75246,0.461098,0.0812208
2.96064,0.202355,0.0517987
2.74405,0.459689,-0.178314
2.85543,0.335942,0.16744
2.74741,0.460251,-0.113492
2.84361,0.334551,-0.0666256
2.75086,0.450963,-0.0486573
2.8654,0.326979,0
2.75912,0.452319,0.0162501
2.96572,0.192305,-0.017273
2.86463,0.32689,0.0670909
2.8505,0.325277,-0.20062
2.76589,0.453429,0.0815699
2.96931,0.192538,0.0519384
2.74564,0.450109,-0.178314
2.86056,0.326426,0.167673
2.85039,0.325265,-0.133637
2.76083,0.452598,-0.11398
2.85668,0.325983,-0.0669048
2.75621,0.442954,-0.0487271
2.86642,0.317976,0
2.76448,0.444284,0.0162734
2.9743,0.18348,-0.0173195
2.87359,0.318771,0.067277
2.85943,0.317201,-0.201178
2.7752,0.446006,0.0818026
2.98188,0.183948,0.0521478
2.75098,0.442115,-0.178569
2.86554,0.317878,0.167906
2.86728,0.318072,-0.134382
2.76224,0.443923,-0.11398
2.85769,0.317008,-0.0669048
2.76959,0.435192,-0.0489365
2.77392,0.435872,0.0163199
2.9869,0.173793,-0.0173892
2.87866,0.309165,0.0673701
2.87243,0.308495,-0.202015
2.77279,0.435695,0.0816862
2.98649,0.173769,0.0522176
2.7604,0.433748,-0.179081
2.87457,0.308726,0.168371
2.87632,0.308914,-0.134754
2.76772,0.434898,-0.114143
2.86673,0.307884,-0.0670909
2.76729,0.42395,-0.0488667
2.87663,0.297779,0
2.77952,0.425824,0.0163431
2.99154,0.16254,-0.0174125
2.89574,0.299757,0.0677423
2.87359,0.297465,-0.202015
2.7863,0.426862,0.0820353
2.76204,0.423146,-0.179081
2.89162,0.299331,0.169301
2.88544,0.298691,-0.135126
2.77727,0.425479,-0.114469
2.87585,0.297698,-0.067277
2.77666,0.41547,-0.0490064
2.89357,0.289327,0
2.7889,0.417302,0.0163896
2.90473,0.290442,0.0679284
2.88255,0.288225,-0.202573
2.79173,0.417724,0.0821517
2.7714,0.414683,-0.179593
2.89265,0.289235,0.169301
2.89441,0.289411,-0.135499
2.77873,0.415781,-0.114469
2.88085,0.288055,-0.0673701
2.78601,0.406932,-0.049146
2.89855,0.27961,0
2.80222,0.4093,0.0164593
2.91368,0.28107,0.0681145
2.88354,0.278162,-0.202573
2.79317,0.407978,0.0821517
2.77678,0.405584,-0.179849
2.90159,0.279903,0.169766
2.89938,0.27969,-0.135685
2.78808,0.407234,-0.114795
2.8898,0.278766,-0.0675562
2.78741,0.397204,-0.049146
2.8995,0.269489,0
2.80363,0.399515,0.0164593
2.91465,0.270897,0.0681145
2.80645,0.399917,0.0825008
2.91448,0.270881,0.170464
2.90432,0.269937,-0.135871
2.80531,0.399754,-0.115446
2.89474,0.269046,-0.0676492
2.7967,0.388573,-0.0492856
2.91636,0.260792,0
2.81293,0.390828,0.0165058
2.92752,0.26179,0.0683936
2.80387,0.389568,0.0823844
2.90922,0.260154,-0.136057
2.80273,0.38941,-0.115283
2.91159,0.260365,-0.0680214
2.8098,0.381398,-0.049495
2.91717,0.251628,0
2.81811,0.382526,0.0165291
2.813,0.381832,0.0826171
2.80052,0.380138,-0.181128
2.92595,0.252386,-0.136801
2.80394,0.380602,-0.115283
2.92036,0.251904,-0.0682075
2.93003,0.241922,0
2.82346,0.372718,0.0165523
2.94518,0.243173,0.0687658
2.82231,0.372567,0.0828498
2.81377,0.371439,-0.181895
2.93482,0.242318,-0.137174
2.8172,0.371893,-0.115772
2.92525,0.241528,-0.0683006
2.82436,0.36281,-0.0497045
2.93883,0.232323,0
2.83268,0.363879,0.0165988
2.94601,0.23289,0.0687658
2.83153,0.363731,0.0830826
2.81901,0.362123,-0.182151
2.83038,0.363583,-0.11626
2.93405,0.231945,-0.0684867
2.83348,0.354437,-0.0498441
2.93959,0.222578,0
2.84577,0.355975,0.0166686
2.83272,0.354341,0.0830826
2.82811,0.353766,-0.182663
2.83553,0.354694,-0.116423
2.95075,0.223424,-0.0688589
2.8427,0.345011,-0.0499837
2.95634,0.21295,0
2.84309,0.345058,0.0166453
2.96751,0.213754,0.0692311
2.84193,0.344918,0.0833153
2.82939,0.343396,-0.182663
2.83681,0.344296,-0.116423
2.95155,0.212605,-0.0688589
2.83992,0.33462,-0.0499139
2.95707,0.202631,0
2.84825,0.335602,0.0166686
2.97621,0.203943,0.0694172
2.85503,0.336401,0.0836644
2.8385,0.334453,-0.183174
2.8499,0.335797,-0.116911
2.96823,0.203396,-0.0692311
2.96168,0.193599,0
2.85724,0.327561,0.0167151
2.8521,0.326973,0.083548
2.85143,0.326896,-0.183942
2.85889,0.32775,-0.117237
2.96487,0.193807,-0.0691381
2.97438,0.182963,0
2.86245,0.317029,0.0167383
2.98555,0.18365,0.0696033
2.87321,0.31822,0.0841298
2.85664,0.316385,-0.184198
2.86807,0.317651,-0.117563
2.86713,0.30742,-0.0503327
2.86752,0.307462,0.0167616
2.8743,0.30819,0.0841298
2.86169,0.306838,-0.184454
2.87711,0.308491,-0.117888
2.87603,0.29924,-0.0504724
2.87642,0.29928,0.0168081
2.88321,0.299986,0.0843626
2.87852,0.299499,-0.185477
2.88204,0.299864,-0.118051
2.88502,0.289998,-0.050612
2.88143,0.289637,0.0168313
2.87955,0.289448,-0.185477
2.88704,0.290201,-0.118214
2.89403,0.280193,-0.0507516
2.89442,0.280231,0.016901
2.89324,0.280117,0.0845953
2.88854,0.279662,-0.185989
2.90002,0.280774,-0.118702
2.90295,0.270832,-0.0508912
2.89936,0.270497,0.0169243
2.91013,0.271501,0.0850607
2.90894,0.271391,-0.119028
2.90786,0.261055,-0.050961
2.90427,0.260733,0.0169475
2.923,0.262415,0.0854098
2.91783,0.261951,-0.119354
2.91672,0.25159,-0.0511006
2.91712,0.251624,0.0170173
2.91992,0.251865,0.0852934
2.92271,0.252107,-0.119517
2.92157,0.241736,-0.0511705
2.92197,0.241769,0.0170405
2.93552,0.242891,-0.120005
2.94229,0.23363,-0.0515195
2.94149,0.233567,0.0858753
2.94309,0.223359,-0.0515195
2.94349,0.223389,0.0171568
2.95026,0.223903,0.086108
2.95582,0.21395,-0.0517289
2.94824,0.213401,0.01718
2.959,0.21418,0.0863407
2.95654,0.203631,-0.0517289
2.96493,0.204208,0.017273
2.95574,0.203576,0.0862243
2.96525,0.193313,-0.0518686
2.96565,0.19334,0.017273
2.97386,0.183973,-0.0520082
2.97027,0.183751,0.0172963
2.97888,0.173848,0.0173428
2.99545,0.164325,0.0174357
