1.89834,0.457504,-0.11372
1.90156,0.443908,-0.11372
1.9031,0.437268,-0.11372
1.89675,0.429192,-0.113255
1.86752,0.408552,-0.178453
1.89978,0.415608,-0.113255
1.86894,0.40203,-0.178453
1.90512,0.409813,-0.113487
1.86636,0.395006,-0.178081
1.90647,0.403494,-0.113487
1.86383,0.387678,-0.177709
1.90395,0.396024,-0.113255
1.8743,0.376224,-0.178453
1.90667,0.382722,-0.113255
1.86388,0.367368,-0.177337
1.90408,0.375291,-0.113022
1.86906,0.361617,-0.177709
1.94898,0.370379,-0.0230959
1.87416,0.356161,-0.178081
1.87546,0.349289,-0.178081
1.87356,0.444618,-0.157196
1.95159,0.356423,-0.0230959
1.87275,0.342025,-0.177709
1.8751,0.438075,-0.157196
1.95669,0.350656,-0.0231425
1.87387,0.335813,-0.177709
1.88043,0.43275,-0.157522
1.95391,0.343472,-0.0230959
1.87497,0.329597,-0.177709
1.88185,0.426511,-0.157522
1.95115,0.33597,-0.0230493
1.87611,0.323049,-0.177709
1.87944,0.419071,-0.157196
1.95631,0.329481,-0.0230959
1.87729,0.316171,-0.177709
1.88096,0.41218,-0.157196
1.88232,0.405941,-0.157196
1.91088,0.315316,-0.11279
1.92439,0.40799,-0.0572502
1.95851,0.316157,-0.0230959
1.87546,0.302751,-0.177337
1.97431,0.318707,0.0232822
1.88372,0.399367,-0.157196
1.92972,0.402086,-0.0573665
1.9596,0.309319,-0.0230959
1.87257,0.295582,-0.176966
1.9675,0.310567,0.023189
1.8812,0.391977,-0.156871
1.91225,0.398445,-0.102369
1.97248,0.304651,0.0232356
1.88249,0.385736,-0.156871
1.91356,0.392101,-0.102369
1.92065,0.386574,-0.0570174
1.87454,0.282829,-0.176966
1.98144,0.298957,0.0233287
1.87992,0.378376,-0.156545
1.95883,0.287857,-0.0230493
1.97861,0.290765,0.0232822
1.88527,0.371926,-0.156871
1.91938,0.372395,-0.0569011
1.8425,0.357478,-0.238899
1.88041,0.270302,-0.177337
1.98348,0.285117,0.0233287
1.88252,0.365243,-0.156545
1.92067,0.365692,-0.0569011
1.97258,0.276525,0.023189
1.87341,0.452534,-0.134769
1.91401,0.268315,-0.112557
1.92206,0.358316,-0.0569011
1.95777,0.26679,-0.0230028
1.98155,0.270031,0.0232822
1.87902,0.446261,-0.135049
1.92711,0.352995,-0.0570174
1.96257,0.261165,-0.0230493
1.84224,0.337449,-0.238394
1.98239,0.263803,0.0232822
1.88041,0.440354,-0.135049
1.92833,0.346267,-0.0570174
1.8395,0.330316,-0.237889
1.87805,0.432892,-0.134769
1.92565,0.338503,-0.0569011
1.8407,0.323571,-0.237889
1.87698,0.236119,-0.176594
1.98423,0.24961,0.0232822
1.88351,0.426887,-0.135049
1.92682,0.331781,-0.0569011
1.83791,0.316471,-0.237384
1.95913,0.337346,-0.0115541
1.97714,0.241713,0.023189
1.8772,0.418574,-0.13449
1.90315,0.424359,-0.0908288
1.93185,0.326055,-0.0570174
1.95808,0.232794,-0.0229562
1.84286,0.311035,-0.237889
1.97396,0.234683,0.0231425
1.87468,0.41149,-0.134211
1.88695,0.318476,-0.15622
1.90064,0.417188,-0.0906426
1.92909,0.318321,-0.0569011
1.98276,0.228362,0.0232356
1.87618,0.404617,-0.134211
1.8881,0.311558,-0.15622
1.89825,0.409377,-0.0904565
1.93018,0.311585,-0.0569011
1.84112,0.297207,-0.237384
1.97559,0.220551,0.0231425
1.88148,0.398892,-0.13449
1.88524,0.30433,-0.155894
1.90358,0.403577,-0.0906426
1.9272,0.304895,-0.0567847
1.84596,0.292042,-0.237889
1.88471,0.204412,-0.176966
1.98025,0.214775,0.023189
1.87882,0.392165,-0.134211
1.92831,0.297829,-0.0567847
1.83918,0.284063,-0.236879
1.96467,0.303445,-0.0115541
1.85062,0.379205,-0.203484
1.97705,0.207099,0.0231425
1.92929,0.291433,-0.0567847
1.84403,0.278555,-0.237384
1.97772,0.200542,0.0231425
1.88151,0.379039,-0.134211
1.89973,0.382709,-0.0902704
1.9382,0.285863,-0.0570174
1.84499,0.272116,-0.237384
1.84536,0.365056,-0.202628
1.98239,0.194026,0.023189
1.88283,0.372468,-0.134211
1.98621,0.292943,0.0350444
1.90498,0.37685,-0.0904565
1.93523,0.278526,-0.0569011
1.84593,0.265674,-0.237384
1.96769,0.283198,-0.0115541
1.99102,0.187856,0.0232822
1.88803,0.366654,-0.13449
1.89017,0.272041,-0.155894
1.87635,0.460527,-0.123822
1.9102,0.370959,-0.0906426
1.94316,0.37736,-0.046061
1.93228,0.270876,-0.0567847
1.98771,0.180196,0.0232356
1.88936,0.359732,-0.13449
1.99221,0.279278,0.0351142
1.87802,0.453648,-0.123822
1.9037,0.362461,-0.0902704
1.92882,0.367244,-0.0456888
1.92921,0.263926,-0.0566684
1.84774,0.252781,-0.237384
1.98033,0.172909,0.0231425
1.8827,0.351998,-0.133932
1.89202,0.258839,-0.155894
1.87952,0.447418,-0.123822
1.90882,0.356881,-0.0904565
1.93396,0.361581,-0.0457819
1.93016,0.256853,-0.0566684
1.85033,0.338933,-0.202628
1.8852,0.157642,-0.176594
1.98892,0.166316,0.0232356
1.89575,0.347252,-0.134769
1.89296,0.251903,-0.155894
1.88114,0.440526,-0.123822
1.91404,0.350603,-0.0906426
1.9392,0.355211,-0.0458749
1.93105,0.250114,-0.0566684
1.96557,0.157456,-0.0229562
1.84557,0.239043,-0.236879
1.84759,0.331768,-0.202199
1.98949,0.159372,0.0232356
1.89303,0.339927,-0.13449
1.91526,0.343919,-0.0906426
1.93587,0.243872,-0.0567847
1.85033,0.233095,-0.237384
1.96841,0.24797,-0.0115308
1.84874,0.325317,-0.202199
1.98605,0.152121,0.023189
1.8942,0.333318,-0.13449
1.89072,0.238183,-0.155569
1.88417,0.427383,-0.123822
1.91251,0.336539,-0.0904565
1.92878,0.236141,-0.056552
1.85113,0.226635,-0.237384
1.84986,0.318862,-0.202199
1.89535,0.326703,-0.13449
1.88565,0.420803,-0.123822
2.01527,0.24673,0.0827172
1.91367,0.329861,-0.0904565
1.93352,0.230216,-0.0566684
1.95233,0.329862,0
1.84793,0.220026,-0.236879
1.97005,0.234566,-0.0115308
1.85091,0.312726,-0.202199
1.98704,0.138599,0.023189
1.89249,0.319752,-0.134211
1.89094,0.415404,-0.124078
2.01608,0.240046,0.0827172
1.91476,0.323514,-0.0904565
1.90496,0.418484,-0.0794606
1.94392,0.32844,-0.0458749
1.93034,0.223007,-0.056552
1.85199,0.306264,-0.202199
1.98751,0.131663,0.023189
1.8936,0.313144,-0.134211
1.88457,0.407116,-0.123566
1.91587,0.316828,-0.0904565
1.94505,0.321653,-0.0458749
1.93107,0.216604,-0.056552
1.77743,0.199371,-0.357718
1.95848,0.317205,0
1.84939,0.207442,-0.236879
1.85299,0.30012,-0.202199
1.88591,0.400863,-0.123566
1.90385,0.404677,-0.0792978
1.93579,0.210294,-0.0566684
1.95562,0.30974,0
1.8501,0.200985,-0.236879
1.84617,0.292405,-0.201342
1.89962,0.300871,-0.13449
1.88339,0.393461,-0.12331
1.92193,0.304404,-0.0906426
1.93535,0.306529,-0.0455958
1.93257,0.20278,-0.056552
1.9607,0.303182,0
1.85509,0.286853,-0.202199
1.89283,0.292687,-0.133932
1.88873,0.387358,-0.123566
2.01923,0.211874,0.0827172
1.91514,0.296137,-0.0902704
1.91453,0.392649,-0.0796234
1.93646,0.299433,-0.0455958
1.94122,0.196839,-0.0567847
1.78336,0.180832,-0.358502
1.95779,0.295738,0
1.81727,0.274512,-0.285933
1.85149,0.187741,-0.236879
1.85215,0.279781,-0.201771
1.89384,0.286078,-0.133932
1.89007,0.380762,-0.123566
2.01996,0.204823,0.0827172
1.91616,0.28945,-0.0902704
1.91197,0.385173,-0.0794606
1.93788,0.190011,-0.0566684
1.78395,0.174918,-0.358502
1.9548,0.28866,0
1.96951,0.0963254,-0.0229562
1.81817,0.268485,-0.285933
1.85307,0.273638,-0.201771
1.99348,0.0974977,0.0232356
1.89083,0.279213,-0.133653
1.89524,0.375268,-0.123822
1.92502,0.284262,-0.0906426
1.93853,0.183246,-0.0566684
1.78845,0.169059,-0.359287
1.9558,0.281835,0
1.81519,0.261573,-0.285318
1.84878,0.174761,-0.236374
1.85795,0.267735,-0.202199
1.98981,0.0903575,0.023189
1.89969,0.27375,-0.134211
1.8887,0.367127,-0.12331
2.02131,0.19107,0.0827172
1.92204,0.276971,-0.0904565
1.91062,0.371388,-0.0792978
1.93678,0.36946,-0.0344161
1.94713,0.177202,-0.0569011
1.78903,0.162815,-0.359287
1.96469,0.27612,0
1.82,0.255785,-0.285933
1.84937,0.168306,-0.236374
1.97182,0.17945,-0.0115076
1.851,0.260141,-0.201342
1.99411,0.0835782,0.0232356
1.90063,0.267117,-0.134211
1.88997,0.360532,-0.12331
1.91904,0.269703,-0.0902704
1.91191,0.364716,-0.0792978
1.93812,0.362359,-0.0344161
1.94378,0.169717,-0.0567847
1.78961,0.156257,-0.359287
1.96173,0.268375,0
1.82093,0.249113,-0.285933
1.85393,0.161872,-0.236879
1.85194,0.253355,-0.201342
1.99685,0.273181,0.0468985
1.99441,0.0762693,0.0232356
1.89765,0.259608,-0.133932
1.8952,0.354336,-0.123566
2.01864,0.176254,0.0825544
1.92001,0.262668,-0.0902704
1.9093,0.356972,-0.079135
1.93931,0.35593,-0.0344161
1.93636,0.162601,-0.056552
1.78621,0.149993,-0.358502
1.95864,0.261339,0
1.81783,0.24255,-0.285318
1.85446,0.155723,-0.236879
1.97302,0.165679,-0.0115076
1.86065,0.248264,-0.202199
1.99775,0.266557,0.0468985
1.99465,0.0696546,0.0232356
1.8985,0.253314,-0.133932
1.89637,0.348049,-0.123566
2.0232,0.169892,0.0827172
1.92088,0.256299,-0.0902704
2.04994,0.172138,0.167936
1.91834,0.352081,-0.0794606
1.94054,0.349158,-0.0344161
1.94489,0.156482,-0.0567847
1.78282,0.143442,-0.357718
1.95954,0.2545,0
1.81474,0.235694,-0.284703
1.85362,0.240743,-0.201342
1.99867,0.259582,0.0468985
1.90333,0.247199,-0.134211
1.89757,0.341428,-0.123566
2.02378,0.16283,0.0827172
1.92176,0.249593,-0.0902704
2.04656,0.164662,0.167611
1.91562,0.344676,-0.0792978
1.93781,0.341688,-0.0343463
1.94941,0.15,-0.0569011
1.79113,0.137821,-0.359287
1.96042,0.247659,0
1.81556,0.229359,-0.284703
1.8555,0.142774,-0.236879
1.85839,0.234771,-0.201771
1.99956,0.252604,0.0468985
1.99509,0.0557286,0.0232356
1.90022,0.240054,-0.133932
1.99779,0.153722,0.0349746
1.89089,0.333416,-0.123054
1.92262,0.242884,-0.0902704
1.91288,0.337293,-0.079135
1.94293,0.335602,-0.0344161
1.94992,0.143194,-0.0569011
1.7916,0.131567,-0.359287
1.96127,0.240814,0
1.81635,0.223019,-0.284703
1.85599,0.136295,-0.236879
1.97465,0.145009,-0.0115076
1.85131,0.227312,-0.200914
1.90501,0.233906,-0.134211
1.88418,0.325454,-0.122543
2.01689,0.148112,0.0823915
1.92742,0.236658,-0.0904565
2.04766,0.150371,0.167611
1.91798,0.331294,-0.0792978
1.93226,0.326817,-0.0342067
1.94243,0.135828,-0.0566684
1.78813,0.125038,-0.358502
1.96607,0.23444,0
1.82104,0.217145,-0.285318
1.85645,0.129815,-0.236879
1.85604,0.221319,-0.201342
1.99543,0.041798,0.0232356
1.90185,0.226782,-0.133932
1.99881,0.13977,0.0349746
1.89317,0.320206,-0.123054
2.0174,0.14107,0.0823915
1.9203,0.228982,-0.0900843
1.92307,0.325263,-0.0794606
1.93733,0.320723,-0.0342765
1.94289,0.129047,-0.0566684
1.78465,0.118536,-0.357718
1.95893,0.226656,0
1.82178,0.210788,-0.285318
1.85689,0.123335,-0.236879
1.96522,0.32534,0.0115773
1.8647,0.215753,-0.202199
1.99156,0.034763,0.023189
1.90263,0.220142,-0.133932
1.89428,0.313596,-0.123054
2.01788,0.134027,0.0823915
1.92109,0.222277,-0.0900843
2.04866,0.136072,0.167611
1.92419,0.318548,-0.0794606
1.94228,0.315277,-0.0343463
1.94728,0.123195,-0.0567847
1.78501,0.112929,-0.357718
1.96361,0.220949,0
1.97566,0.0282775,-0.0230028
1.81065,0.203738,-0.283473
1.96623,0.319165,0.0115773
1.85747,0.209005,-0.201342
1.99884,0.224913,0.0468054
1.99166,0.0285065,0.023189
1.90331,0.214164,-0.133932
1.89919,0.308283,-0.12331
2.02775,0.228165,0.118836
2.01829,0.127688,0.0823915
1.92575,0.216688,-0.0902704
1.91729,0.311221,-0.079135
1.94347,0.307817,-0.0343463
1.94375,0.115481,-0.0566684
1.78935,0.106308,-0.358502
1.96444,0.213408,0
1.81535,0.197211,-0.284088
1.85771,0.110369,-0.236879
1.95954,0.310362,0.0115308
1.8543,0.201442,-0.200914
1.99969,0.217237,0.0468054
1.99576,0.0209012,0.0232356
1.90412,0.206855,-0.133932
1.89642,0.300365,-0.123054
2.03258,0.22081,0.119069
2.01876,0.119938,0.0823915
1.91453,0.303232,-0.0789721
1.93663,0.299807,-0.0342067
1.95212,0.109141,-0.0569011
1.78971,0.100061,-0.358502
1.96518,0.206549,0
1.81996,0.191286,-0.284703
1.85016,0.10344,-0.235869
1.96061,0.303519,0.0115308
1.97688,0.110525,-0.0115076
1.85895,0.195384,-0.201342
1.98782,0.0138783,0.0231425
1.89746,0.293743,-0.123054
2.01917,0.11289,0.0823915
1.91557,0.296547,-0.0789721
1.94558,0.294241,-0.0343463
1.95249,0.102326,-0.0569011
1.79396,0.0940175,-0.359287
1.96986,0.200091,0
1.82455,0.185331,-0.285318
1.85843,0.0973964,-0.236879
1.96957,0.297869,0.0115773
1.85962,0.188893,-0.201342
2.00116,0.20327,0.0468054
1.98785,0.00693888,0.0231425
1.90552,0.193555,-0.133932
1.89847,0.287117,-0.123054
2.02215,0.205403,0.118371
2.02354,0.106049,0.0825544
1.92798,0.195837,-0.0902704
2.05036,0.107455,0.167611
1.92055,0.290456,-0.079135
1.94253,0.287542,-0.0342765
1.94881,0.095995,-0.0567847
1.78641,0.0879955,-0.357718
1.95854,0.192727,0
1.82119,0.179211,-0.284703
1.85477,0.0913626,-0.236374
1.96654,0.291095,0.0115541
1.8602,0.18305,-0.201342
1.99586,0.000696988,0.0232356
1.90612,0.187568,-0.133932
1.89542,0.280567,-0.122798
2.02676,0.19944,0.118604
2.05068,0.101013,0.167611
1.92145,0.284421,-0.079135
1.94748,0.281332,-0.0343463
1.94913,0.0891922,-0.0567847
1.79063,0.0819389,-0.358502
1.97115,0.187023,0
1.97586,-0.00620664,-0.0230028
1.8218,0.172853,-0.284703
1.9715,0.284801,0.0115773
1.86083,0.176556,-0.201342
1.99186,-0.0062569,0.023189
1.90676,0.180914,-0.133932
1.98653,0.286972,0.0584138
1.90429,0.275091,-0.12331
2.02347,0.191987,0.118371
1.92923,0.183047,-0.0902704
1.91452,0.27657,-0.0788093
1.94449,0.273973,-0.0342765
1.94544,0.0822185,-0.0566684
1.7909,0.0756875,-0.358502
1.96382,0.179413,0
1.97582,-0.0131042,-0.0230028
1.81846,0.166133,-0.284088
1.8514,0.0782441,-0.235869
1.86144,0.170059,-0.201342
2.00311,0.183003,0.0468054
1.99982,-0.0132633,0.0232822
1.98356,0.279478,0.0582974
2.00191,0.084605,0.0349746
1.89338,0.266771,-0.122543
2.0281,0.185286,0.118604
2.02451,0.0855603,0.0825544
1.92986,0.176311,-0.0902704
1.91943,0.270442,-0.0789721
1.94971,0.0755815,-0.0567847
1.78724,0.0692832,-0.357718
1.97241,0.173257,0
1.81903,0.159784,-0.284088
1.85562,0.0719342,-0.236374
1.96948,0.270485,0.0115541
1.97848,0.0766969,-0.0115076
1.85806,0.163212,-0.200914
1.90798,0.167597,-0.133932
1.98452,0.272551,0.0582974
2.00219,0.077616,0.0349746
1.90221,0.261246,-0.123054
2.02078,0.177506,0.118138
2.05163,0.0795325,0.167611
1.92433,0.264284,-0.079135
1.95037,0.260581,-0.0343463
1.94598,0.0682952,-0.0566684
1.79532,0.0630077,-0.359287
1.97303,0.166027,0
1.82354,0.153448,-0.284703
1.97046,0.263265,0.0115541
1.85864,0.156401,-0.200914
1.99567,-0.0275182,0.0232356
1.9046,0.160269,-0.133653
1.99344,0.266335,0.0585302
2.00246,0.0702775,0.0349746
1.89919,0.253744,-0.122798
2.0254,0.170434,0.118371
2.02507,0.0710711,0.0825544
1.92132,0.2567,-0.0789721
1.94329,0.25308,-0.0342067
1.95019,0.0619691,-0.0567847
1.7916,0.0569297,-0.358502
1.96958,0.159161,0
1.82798,0.147718,-0.285318
1.97132,0.25673,0.0115541
1.86311,0.150558,-0.201342
1.99557,-0.0341356,0.0232356
1.90512,0.153952,-0.133653
1.99034,0.259207,0.0584138
1.89607,0.246929,-0.122543
2.02595,0.163717,0.118371
2.0213,0.0642288,0.0823915
1.92364,0.155448,-0.0898981
2.11715,0.171086,0.2608
1.92612,0.250844,-0.079135
1.94416,0.246295,-0.0342067
1.95439,0.0552747,-0.0569011
1.97411,0.152594,0
1.97945,-0.0407713,-0.0230493
1.81666,0.140423,-0.283473
1.9722,0.249848,0.0115541
1.86759,0.14436,-0.201771
2.00149,0.15471,0.0467124
1.99144,-0.0410184,0.023189
1.90167,0.146994,-0.133374
1.99124,0.252259,0.0584138
1.90484,0.241313,-0.123054
2.03049,0.156952,0.118604
2.02551,0.0572861,0.0825544
1.93214,0.149349,-0.0902704
2.10982,0.163083,0.259825
2.05235,0.0580452,0.167611
1.91906,0.243115,-0.0788093
1.94505,0.239166,-0.0342067
1.95058,0.0480113,-0.0567847
1.79196,0.044107,-0.358502
1.97067,0.145062,0
1.82111,0.134053,-0.284088
1.86042,0.0457921,-0.236879
1.96914,0.242128,0.0115308
1.86414,0.137221,-0.201342
1.99928,-0.0485126,0.0232822
1.98818,0.244469,0.0582974
2.00309,0.0493037,0.0349746
1.89382,0.232867,-0.122287
2.03504,0.1498,0.118836
2.02171,0.0497621,0.0823915
1.93267,0.142265,-0.0902704
1.91994,0.236078,-0.0788093
1.94579,0.233055,-0.0342067
1.94673,0.0417977,-0.0566684
1.97111,0.138871,0
1.82152,0.128331,-0.284088
1.96989,0.235941,0.0115308
1.8606,0.131085,-0.200914
1.99911,-0.0547929,0.0232822
1.91059,0.134606,-0.133932
1.98894,0.238222,0.0582974
1.89851,0.227391,-0.122543
2.02355,0.142565,0.118138
2.02186,0.0434108,0.0823915
1.92514,0.135631,-0.0898981
2.09503,0.147601,0.257876
2.05668,0.0441586,0.167936
1.9286,0.230996,-0.079135
1.94266,0.225461,-0.0341369
1.94287,0.0345916,-0.056552
1.9756,0.131912,0
1.82592,0.121918,-0.284703
1.85672,0.0330578,-0.236374
1.97471,0.229181,0.0115541
1.86107,0.124265,-0.200914
2.0029,-0.0622435,0.0233287
1.91107,0.127603,-0.133932
1.99377,0.231392,0.0584138
1.90726,0.221352,-0.123054
2.03202,0.13568,0.118604
2.01801,0.0359293,0.0822287
1.92961,0.128841,-0.0900843
2.10745,0.140716,0.259338
2.05683,0.0366206,0.167936
1.92547,0.223466,-0.0789721
1.94745,0.218786,-0.0342067
1.95098,0.0275839,-0.0567847
1.7884,0.0252852,-0.357718
1.9641,0.123915,0
1.97867,-0.0687503,-0.0230493
1.82241,0.114976,-0.284088
1.8608,0.0263088,-0.236879
1.96759,0.221049,0.0115076
1.86548,0.117694,-0.201342
1.99866,-0.0694447,0.0232822
1.91152,0.120598,-0.133932
1.99063,0.223637,0.0582974
1.90806,0.214361,-0.123054
2.03251,0.128231,0.118604
2.03011,0.0287027,0.0827172
2.11191,0.133241,0.259825
2.05695,0.0290821,0.167936
1.93025,0.216854,-0.079135
1.9521,0.213101,-0.0342765
1.95106,0.021454,-0.0567847
1.79239,0.0197093,-0.358502
1.96847,0.117983,0
1.97845,-0.0749667,-0.0230493
1.82276,0.10925,-0.284088
1.97225,0.2153,0.0115308
1.86981,0.11207,-0.201771
1.99443,-0.0755725,0.0232356
1.91189,0.114592,-0.133932
1.99132,0.217382,0.0582974
1.90872,0.208365,-0.123054
2.0329,0.121845,0.118604
2.0262,0.0222802,0.0825544
1.93443,0.115943,-0.0902704
2.10043,0.125892,0.258363
2.05703,0.0226193,0.167936
1.92694,0.210354,-0.0789721
1.94886,0.205866,-0.0342067
1.95112,0.0146438,-0.0567847
1.97286,0.111337,0
1.81919,0.102664,-0.283473
1.85696,0.0139371,-0.236374
1.87416,0.105767,-0.202199
2.00615,-0.0830296,0.0233753
1.91228,0.107918,-0.133932
1.99604,0.21085,0.0584138
2.00364,0.015038,0.0349746
1.9015,0.200863,-0.122543
2.03331,0.114748,0.118604
2.02626,0.0152078,0.0825544
1.93482,0.10919,-0.0902704
2.09689,0.118336,0.257876
1.93164,0.204047,-0.079135
1.94161,0.198249,-0.0340671
1.95116,0.00783253,-0.0567847
1.79249,0.00719557,-0.358502
1.96924,0.104238,0
1.82348,0.096522,-0.284088
1.96973,0.201119,0.0115076
1.8626,0.0985929,-0.200914
1.99386,-0.0894944,0.0232356
1.91265,0.101242,-0.133932
1.99279,0.203475,0.0582974
1.90616,0.194629,-0.122798
2.02573,0.107227,0.118138
1.93519,0.102435,-0.0902704
2.10522,0.111435,0.258851
2.05714,0.00825797,0.167936
1.93234,0.197302,-0.079135
1.95025,0.192255,-0.0342067
1.95117,0.00102208,-0.0567847
1.98158,0.097956,0
1.82381,0.0901567,-0.284088
1.96643,0.193851,0.0114843
1.86294,0.092091,-0.200914
2.00501,0.0991141,0.0467124
2.00552,-0.0970332,0.0233753
1.91299,0.0945652,-0.133932
1.99349,0.196518,0.0582974
2.00769,0.00105168,0.0350444
1.90683,0.187974,-0.122798
2.02609,0.100156,0.118138
2.02632,0.00106144,0.0825544
1.93554,0.0956798,-0.0902704
2.11353,0.104479,0.259825
2.05716,0.00107759,0.167936
1.93302,0.190557,-0.079135
1.94693,0.185067,-0.0341369
1.94317,-0.00576559,-0.056552
1.79249,-0.00531852,-0.358502
1.96593,0.0903037,0
1.82806,0.0839707,-0.284703
1.86098,-0.00552172,-0.236879
1.97905,0.18812,0.0115541
1.86722,0.0857695,-0.201342
1.99718,-0.103619,0.0232822
1.90932,0.0877034,-0.133653
2.00212,0.190314,0.0585302
1.90747,0.181317,-0.122798
2.0344,0.0934491,0.118604
2.03031,-0.00602414,0.0827172
1.93187,0.0887391,-0.0900843
2.05715,-0.00610378,0.167936
1.92969,0.183429,-0.0789721
1.95154,0.178635,-0.0342067
1.95513,-0.0126255,-0.0569011
1.79639,-0.0116004,-0.359287
1.97422,0.0837803,0
1.98083,-0.109705,-0.0230959
1.82439,0.0774219,-0.284088
1.97571,0.180847,0.0115308
1.86751,0.0792516,-0.201342
2.00479,-0.111032,0.0233753
1.90961,0.0810385,-0.133653
1.99083,0.182231,0.0581811
1.91207,0.175022,-0.123054
2.03073,0.0861783,0.118371
1.93616,0.0821649,-0.0902704
2.11421,0.0897208,0.259825
1.93032,0.176693,-0.0789721
1.95614,0.172173,-0.0342765
1.95907,-0.0194895,-0.0570174
1.80026,-0.0179095,-0.360071
1.9785,0.0770446,0
1.82465,0.0710535,-0.284088
1.86089,-0.0185128,-0.236879
1.97234,0.173599,0.0115076
1.87175,0.0728875,-0.201771
2.00439,-0.118029,0.0233753
1.91387,0.0745279,-0.133932
1.99145,0.175281,0.0581811
1.90471,0.167647,-0.122543
2.03501,0.079245,0.118604
2.03022,-0.0201972,0.0827172
1.93643,0.0754064,-0.0902704
2.11054,0.0821863,0.259338
1.92695,0.169603,-0.0788093
1.95274,0.165006,-0.0342067
1.955,-0.0262746,-0.0569011
1.79234,-0.0240886,-0.358502
1.97876,0.0701373,0
1.82884,0.0648234,-0.284703
1.86478,-0.0250622,-0.237384
1.96895,0.166376,0.0114843
1.98379,-0.0266616,-0.0115308
1.87199,0.0663529,-0.201771
2.00397,-0.125025,0.0233753
1.90529,0.160996,-0.122543
2.02729,0.0718575,0.118138
2.03413,-0.0273381,0.08288
2.11875,0.0750993,0.260313
1.92753,0.162876,-0.0788093
1.95824,0.0694101,-0.0455958
1.95331,0.158189,-0.0342067
1.9469,-0.0329629,-0.0566684
1.79617,-0.0304109,-0.359287
1.98299,0.0633579,0
1.8251,0.0583133,-0.284088
1.97351,0.159825,0.0115076
1.86823,0.0596914,-0.201342
2.01043,0.0642347,0.0468054
2.00352,-0.132019,0.0233753
1.91036,0.0610373,-0.133653
1.99263,0.161374,0.0581811
1.9138,0.15499,-0.123054
2.03152,0.0649085,0.118371
2.03002,-0.0343703,0.0827172
1.93691,0.0618857,-0.0902704
2.11106,0.0674499,0.259338
1.93207,0.156469,-0.0789721
1.94989,0.15072,-0.0341369
1.95076,-0.0401812,-0.0567847
1.79212,-0.0369136,-0.358502
1.97521,0.0558628,0
1.97908,-0.137697,-0.0230959
1.86059,-0.0383239,-0.236879
1.97408,0.15259,0.0115076
1.87639,0.053068,-0.202199
2.01065,0.0568651,0.0468054
2.00302,-0.139362,0.0233753
1.91456,0.0541474,-0.133932
2.00118,0.154685,0.0584138
1.91037,0.147666,-0.122798
2.03574,0.0575746,0.118604
2.03388,-0.0418933,0.08288
1.93712,0.0547856,-0.0902704
2.10336,0.059487,0.258363
1.93263,0.149386,-0.0789721
1.94641,0.143619,-0.0340671
1.9586,-0.0471826,-0.0570174
1.79198,-0.0431687,-0.358502
1.9674,0.0487698,0
1.82152,0.0451538,-0.283473
1.97859,0.145993,0.0115308
1.87656,0.0465182,-0.202199
2.01084,0.0498467,0.0468054
1.99853,-0.146061,0.0233287
1.91473,0.0474644,-0.133932
1.91087,0.140997,-0.122798
2.03193,0.0503696,0.118371
2.02973,-0.048896,0.0827172
2.10752,0.0522434,0.258851
1.92915,0.142346,-0.0788093
1.95486,0.137725,-0.0342067
1.95844,-0.0536778,-0.0570174
1.79575,-0.0492188,-0.359287
1.97954,0.0425025,0
1.82561,0.0391975,-0.284088
1.85632,-0.050879,-0.236374
1.97507,0.13915,0.0115076
1.86876,0.0401238,-0.201342
2.01099,0.0431777,0.0468054
2.00203,-0.152993,0.0233753
1.91488,0.0411141,-0.133932
1.90893,-0.052321,-0.155894
1.9982,0.140779,0.0582974
2.00294,-0.0548977,0.0349746
1.90735,0.134378,-0.122543
2.03608,0.0437164,0.118604
2.03355,-0.0557366,0.08288
1.92946,0.0414272,-0.0898981
2.11165,0.045339,0.259338
1.92961,0.135947,-0.0788093
1.95532,0.130901,-0.0342067
1.95024,-0.0602667,-0.0567847
1.97168,0.0354485,0
1.98553,-0.158706,-0.023189
1.82969,0.0328957,-0.284703
1.86406,-0.0576036,-0.237384
1.97554,0.132255,0.0115076
1.86491,0.0335289,-0.200914
2.00148,-0.159981,0.0233753
1.91102,0.034358,-0.133653
1.99469,0.133536,0.0581811
2.01073,-0.062136,0.0351142
1.90382,0.127453,-0.122287
2.03223,0.0365371,0.118371
1.93759,0.0348355,-0.0902704
1.93406,0.129477,-0.0789721
1.94779,0.123568,-0.0340671
1.95801,-0.0673489,-0.0570174
1.79928,-0.0618891,-0.360071
1.97579,0.0286238,0
1.98497,-0.165636,-0.023189
1.82979,0.0265087,-0.284703
1.85988,-0.0639736,-0.236879
1.97999,0.125611,0.0115308
1.98679,-0.0683388,-0.0115541
1.86501,0.0270189,-0.200914
2.00725,0.0290795,0.0467124
1.99913,0.126826,0.0582974
1.90824,0.121059,-0.122543
2.03234,0.0294431,0.118371
2.02912,-0.0697946,0.0827172
1.92971,0.0279561,-0.0898981
2.11192,0.0305959,0.259338
1.9345,0.122726,-0.0789721
1.96326,0.0284423,-0.0456888
1.95218,0.117349,-0.0341369
1.95378,-0.0736908,-0.0569011
1.79515,-0.0677075,-0.359287
1.97588,0.0220717,0
1.98042,-0.171871,-0.0231425
1.82987,0.0204407,-0.284703
1.86759,-0.07044,-0.237889
1.9764,0.118804,0.0115076
1.881,0.0210119,-0.202628
2.01133,0.0224677,0.0468054
2.00034,-0.1736,0.0233753
1.90722,0.0213048,-0.133374
2.00752,0.120675,0.0585302
1.91262,0.11497,-0.122798
2.03642,0.022748,0.118604
2.02488,-0.0763723,0.0825544
1.92579,0.0215122,-0.089712
2.11201,0.0235923,0.259338
1.93091,0.11607,-0.0788093
1.95258,0.110533,-0.0341369
1.94952,-0.0803457,-0.0567847
1.79882,-0.0741349,-0.360071
1.97194,0.0151437,0
1.98379,-0.179143,-0.023189
1.82203,0.0139924,-0.283473
1.86337,-0.0767953,-0.237384
1.9808,0.112131,0.0115308
1.87311,0.0143847,-0.201771
2.00769,-0.181301,0.0234684
1.91527,0.0147085,-0.133932
1.91301,0.108293,-0.122798
2.04048,0.0156701,0.118836
2.03259,-0.0837692,0.08288
1.93784,0.0148819,-0.0902704
1.92731,0.109103,-0.0786465
1.95694,0.103929,-0.0342067
1.95722,-0.0875075,-0.0570174
1.80247,-0.0805886,-0.360856
1.97598,0.00827703,0
1.82206,0.0076323,-0.283473
1.86309,-0.0832992,-0.237384
1.97718,0.105004,0.0115076
1.8811,0.00787959,-0.202628
2.01144,0.00842554,0.0468054
2.00705,-0.188308,0.0234684
1.91531,0.00802287,-0.133932
1.99235,0.105809,0.0580647
1.90939,0.101403,-0.122543
2.03254,0.00851393,0.118371
2.03628,-0.0910422,0.0830429
1.93389,0.00810069,-0.0900843
2.10815,0.00883065,0.258851
1.92768,0.102375,-0.0786465
1.9533,0.0968993,-0.0341369
1.9569,-0.0943389,-0.0570174
1.984,0.00138509,0
1.98249,-0.192988,-0.023189
1.83394,0.00128033,-0.285318
1.98153,0.0982997,0.0115308
1.98566,-0.0957255,-0.0115541
1.87316,0.00130772,-0.201771
2.01036,-0.195701,0.023515
1.91532,0.00133715,-0.133932
2.00069,0.0992503,0.0582974
2.00936,-0.096868,0.0351142
1.90973,0.0947378,-0.122543
2.03256,0.00141899,0.118371
2.03195,-0.0979572,0.08288
1.9339,0.00135012,-0.0900843
1.93601,0.0960416,-0.0789721
1.96347,0.00137076,-0.0456888
1.95363,0.0900804,-0.0341369
1.94857,-0.100756,-0.0567847
1.80186,-0.0931702,-0.360856
1.97599,-0.00551802,0
1.98579,-0.200308,-0.0232356
1.82603,-0.00509924,-0.284088
1.98186,0.0913823,0.0115308
1.98531,-0.102656,-0.0115541
1.8652,-0.00520864,-0.200914
2.00966,-0.202717,0.023515
1.99703,0.0920818,0.0581811
2.013,-0.104088,0.0351841
1.91404,0.0882549,-0.122798
2.03654,-0.00568711,0.118604
2.02761,-0.104843,0.0827172
1.93789,-0.00541162,-0.0902704
2.10419,-0.00587602,0.258363
1.93234,0.089099,-0.0788093
1.94993,0.0830902,-0.0340671
1.9522,-0.107778,-0.0569011
1.79369,-0.0990269,-0.359287
1.97196,-0.0123904,0
1.83785,-0.0115477,-0.285933
1.97817,0.0842934,0.0115076
1.87313,-0.0117694,-0.201771
2.01142,-0.0126383,0.0468054
2.00497,-0.209315,0.0234684
1.9073,-0.0119841,-0.133374
2.00134,0.0852805,0.0582974
2.00863,-0.110894,0.0351142
1.91832,0.0817431,-0.123054
2.03651,-0.0127959,0.118604
2.03122,-0.11214,0.08288
1.93386,-0.012151,-0.0900843
2.10813,-0.0132459,0.258851
1.93663,0.0825235,-0.0789721
1.95421,0.0764394,-0.0341369
1.9558,-0.114826,-0.0570174
1.79725,-0.105517,-0.360071
1.97591,-0.0193128,0
1.98832,-0.214596,-0.0232822
1.8299,-0.0178857,-0.284703
1.98245,0.0775442,0.0115308
1.87705,-0.0183466,-0.202199
2.01136,-0.0196593,0.0468054
2.0082,-0.216742,0.023515
1.91124,-0.0186808,-0.133653
1.99763,0.0781378,0.0581811
2.00824,-0.117904,0.0351142
1.91062,0.0747343,-0.122543
2.04045,-0.0199436,0.118836
2.03082,-0.11923,0.08288
1.93781,-0.0189404,-0.0902704
2.11998,-0.020721,0.260313
1.92892,0.0754504,-0.0786465
1.95446,0.0696175,-0.0341369
1.9514,-0.121404,-0.0569011
1.80079,-0.112034,-0.360856
1.97983,-0.0262629,0
1.98756,-0.221535,-0.0232822
1.82982,-0.0242731,-0.284703
1.86927,-0.116295,-0.238394
1.97471,0.0703389,0.0114843
1.87698,-0.0248986,-0.202199
2.01528,-0.0267332,0.0468985
1.91914,-0.025458,-0.134211
1.99389,0.0710219,0.0580647
2.00781,-0.124914,0.0351142
1.90688,0.0679225,-0.122287
2.04036,-0.027066,0.118836
2.03039,-0.126318,0.08288
1.94172,-0.0257575,-0.0904565
2.12783,-0.0282263,0.261288
1.93317,0.068859,-0.0788093
1.9467,0.0625379,-0.0339973
1.95096,-0.128215,-0.0569011
1.80038,-0.118319,-0.360856
1.97972,-0.0331737,0
1.98677,-0.228472,-0.0232822
1.83368,-0.0307265,-0.285318
1.8649,-0.122559,-0.237889
1.97895,0.0635738,0.0115076
1.88085,-0.031517,-0.202628
2.01061,-0.231213,0.0235616
1.91505,-0.03209,-0.133932
1.99812,0.0641899,0.0581811
2.01135,-0.132184,0.0351841
1.91109,0.061394,-0.122543
2.03626,-0.0341211,0.118604
2.03392,-0.133667,0.0830429
1.94162,-0.0325352,-0.0904565
1.9334,0.0621106,-0.0788093
1.9549,0.0559712,-0.0341369
1.95848,-0.135577,-0.0571338
1.80387,-0.124874,-0.36164
1.97959,-0.040084,0
1.98596,-0.235405,-0.0232822
1.83356,-0.037127,-0.285318
1.98315,0.0567801,0.0115308
1.98721,-0.137565,-0.0115773
1.87278,-0.0379212,-0.201771
2.01104,-0.0407208,0.0468054
2.00979,-0.23823,0.0235616
1.91892,-0.0388554,-0.134211
2.00233,0.0573292,0.0582974
2.01088,-0.139204,0.0351841
1.91927,0.0549512,-0.123054
2.03613,-0.0412288,0.118604
2.02946,-0.14049,0.08288
1.9375,-0.0392317,-0.0902704
1.9376,0.0554758,-0.0789721
1.96706,-0.0398303,-0.0457819
1.95508,0.049147,-0.0341369
1.958,-0.142412,-0.0571338
1.79951,-0.130885,-0.360856
1.97944,-0.0469938,0
1.83737,-0.043621,-0.285933
1.86795,-0.135863,-0.238394
1.98334,0.0498573,0.0115308
1.88456,-0.0447413,-0.203056
1.90551,-0.232617,-0.179196
2.01489,-0.0478353,0.0468985
2.00895,-0.245244,0.0235616
1.91079,-0.0453641,-0.133653
2.00252,0.0503394,0.0582974
2.01437,-0.146512,0.0352539
1.91546,0.048151,-0.122798
2.04396,-0.0485255,0.119069
2.03693,-0.148153,0.0832057
1.94135,-0.0460894,-0.0904565
1.93778,0.048712,-0.0789721
1.95524,0.0423222,-0.0341369
1.95749,-0.149246,-0.0571338
1.79905,-0.137166,-0.360856
1.98326,-0.054012,0
1.98427,-0.249264,-0.0232822
1.82931,-0.0498191,-0.284703
1.9875,0.0430204,0.0115541
1.87645,-0.0511029,-0.202199
2.01471,-0.0548683,0.0468985
1.9186,-0.0522509,-0.134211
2.00668,0.0434355,0.0584138
2.01385,-0.153543,0.0352539
1.91163,0.0413781,-0.122543
2.03979,-0.0555513,0.118836
2.03241,-0.154958,0.0830429
1.93319,-0.0526481,-0.0900843
1.92595,0.0416881,-0.0784836
1.95938,0.0355694,-0.0342067
1.95297,-0.15576,-0.0570174
1.80247,-0.143757,-0.36164
1.97907,-0.0608117,0
1.98339,-0.256189,-0.0232822
1.82912,-0.0562043,-0.284703
1.87092,-0.149216,-0.238899
1.97964,0.0359372,0.0115076
1.88023,-0.0577747,-0.202628
1.90779,-0.246424,-0.179568
2.0145,-0.0619006,0.0468985
2.00282,0.0363581,0.0582974
2.00931,-0.160254,0.0351841
1.91176,0.034705,-0.122543
2.03958,-0.0626711,0.118836
2.03983,-0.162687,0.0833685
1.94098,-0.0596413,-0.0904565
1.93008,0.0350376,-0.0786465
1.95149,0.0286124,-0.0340671
1.9564,-0.162908,-0.0571338
1.98284,-0.0678563,0
1.98248,-0.263111,-0.0232822
1.82892,-0.0625888,-0.284703
1.86643,-0.155416,-0.238394
1.97975,0.0290268,0.0115076
1.87604,-0.0642016,-0.202199
1.91819,-0.0656439,-0.134211
1.99894,0.0293081,0.0581811
2.01273,-0.167598,0.0352539
1.91187,0.0280315,-0.122543
2.03935,-0.0697902,0.118836
1.93677,-0.0662796,-0.0902704
1.93419,0.0283587,-0.0788093
1.96632,-0.0672909,-0.0457819
1.95558,0.0218449,-0.0341369
1.94785,-0.169045,-0.0569011
1.98259,-0.0747773,0
1.98551,-0.27057,-0.0233287
1.83658,-0.0692704,-0.285933
1.86983,-0.162273,-0.238899
1.98384,0.0221606,0.0115308
1.99248,-0.172918,-0.0116238
1.87581,-0.0707498,-0.202199
1.90207,-0.259199,-0.179196
2.01802,-0.0761136,0.0469915
2.00703,0.0224196,0.0584138
2.01611,-0.174969,0.0353237
1.91595,0.0214022,-0.122798
2.04308,-0.0770589,0.119069
1.93652,-0.0730398,-0.0902704
1.93827,0.0216516,-0.0789721
1.95126,-0.175862,-0.0570174
1.98461,-0.277152,-0.0233287
1.83635,-0.0753604,-0.285933
1.98791,0.0156133,0.0115541
1.99189,-0.179524,-0.0116238
1.87954,-0.0771329,-0.202628
1.90515,-0.266056,-0.179568
1.9177,-0.078699,-0.134211
2.00709,0.0157639,0.0584138
1.91601,0.0150486,-0.122798
2.04681,-0.0839974,0.119301
1.94026,-0.079625,-0.0904565
1.93434,0.0151925,-0.0788093
1.95568,0.00853333,-0.0341369
1.95462,-0.183045,-0.0571338
1.97804,-0.0880926,0
1.97571,-0.282944,-0.0232356
1.83212,-0.0815941,-0.285318
1.86868,-0.174997,-0.238899
1.98795,0.00867411,0.0115541
1.87926,-0.0836932,-0.202628
1.90815,-0.273269,-0.17994
2.01745,-0.0898479,0.0469915
1.9214,-0.0855701,-0.13449
1.99913,0.00872292,0.0581811
2.01488,-0.188688,0.0353237
1.92004,0.00837781,-0.123054
2.03852,-0.0907862,0.118836
1.93997,-0.0863972,-0.0904565
1.93038,0.00842292,-0.0786465
1.9557,0.00170667,-0.0341369
1.95795,-0.190253,-0.0572502
1.97772,-0.0949967,0
1.98262,-0.291,-0.0233287
1.83183,-0.0879889,-0.285318
1.87201,-0.181903,-0.239405
1.97997,0.00172785,0.0115076
1.87101,-0.0898709,-0.201771
1.90719,-0.279928,-0.17994
2.01713,-0.0968896,0.0469915
1.91312,-0.0918936,-0.133932
1.99915,0.00174459,0.0581811
2.01022,-0.195333,0.0352539
1.91607,0.00167208,-0.122798
2.04218,-0.098093,0.119069
1.94365,-0.0933602,-0.0906426
1.9304,0.00168459,-0.0786465
1.9557,-0.00512,-0.0341369
1.95727,-0.197087,-0.0572502
1.98137,-0.102105,0
1.98159,-0.297919,-0.0233287
1.83546,-0.0945861,-0.285933
1.87136,-0.188436,-0.239405
1.98396,-0.00519399,0.0115308
1.99388,-0.200773,-0.0116471
1.87465,-0.0966061,-0.202199
1.91014,-0.287176,-0.180312
2.00315,-0.00524422,0.0582974
2.00953,-0.202349,0.0352539
1.91207,-0.00500579,-0.122543
2.03784,-0.105015,0.118836
1.94331,-0.100144,-0.0906426
1.93839,-0.00507468,-0.0789721
1.96885,-0.10146,-0.0458749
1.95966,-0.0119711,-0.0342067
1.95259,-0.203503,-0.0571338
1.97701,-0.108801,0
1.98845,-0.306051,-0.0234219
1.83511,-0.100992,-0.285933
1.97993,-0.0120948,0.0115076
1.87431,-0.103149,-0.202199
1.90912,-0.293842,-0.180312
2.0164,-0.110969,0.0469915
2.00711,-0.0122609,0.0584138
2.01279,-0.209777,0.0353237
1.92003,-0.0117289,-0.123054
2.04145,-0.112348,0.119069
1.94295,-0.106927,-0.0906426
1.93836,-0.0118409,-0.0789721
1.96361,-0.0188499,-0.0342765
1.95585,-0.210746,-0.0572502
1.97662,-0.115702,0
1.8387,-0.107629,-0.286548
1.87395,-0.201921,-0.23991
1.99187,-0.0191212,0.0115773
1.88187,-0.110156,-0.203056
2.016,-0.118007,0.0469915
1.924,-0.112622,-0.134769
2.00306,-0.0192286,0.0582974
2.01205,-0.216802,0.0353237
1.91598,-0.0183926,-0.122798
2.053,-0.120173,0.119766
1.94256,-0.113709,-0.0906426
1.9383,-0.0186069,-0.0789721
1.95553,-0.0255994,-0.0341369
1.95907,-0.218014,-0.0573665
1.98019,-0.122848,0
1.83042,-0.113557,-0.285318
1.9918,-0.026074,0.0115773
1.88148,-0.116724,-0.203056
1.90702,-0.307163,-0.180312
2.01558,-0.125044,0.0469915
1.91563,-0.118843,-0.134211
2.00698,-0.0262728,0.0584138
2.01923,-0.224708,0.0354633
1.9199,-0.0251328,-0.123054
1.94614,-0.120736,-0.0908288
1.93423,-0.0253205,-0.0788093
1.95943,-0.0324916,-0.0342067
1.95433,-0.224395,-0.0572502
1.98374,-0.130021,0
1.83001,-0.119945,-0.285318
1.86855,-0.214546,-0.239405
1.98769,-0.0329602,0.0115541
1.87709,-0.123031,-0.202628
1.90987,-0.314465,-0.180683
2.01912,-0.13234,0.0470846
1.9152,-0.125529,-0.134211
1.91699,-0.220108,-0.157522
2.00687,-0.0332783,0.0584138
2.00651,-0.230387,0.0352539
1.91581,-0.0317682,-0.122798
1.94571,-0.127529,-0.0908288
1.93813,-0.0321383,-0.0789721
1.97124,-0.129202,-0.045968
1.95931,-0.0393311,-0.0342067
1.9575,-0.231686,-0.0573665
1.9753,-0.136394,0
1.83747,-0.126877,-0.286548
1.97957,-0.0397378,0.0115076
1.99008,-0.235541,-0.0116471
1.87665,-0.129583,-0.202628
1.91873,-0.132489,-0.13449
2.00275,-0.0402031,0.0582974
2.00569,-0.237389,0.0352539
1.91967,-0.0385355,-0.123054
1.94138,-0.326618,-0.11465
1.94127,-0.134044,-0.0906426
1.938,-0.0389034,-0.0789721
1.95516,-0.0460759,-0.0341369
1.95271,-0.238033,-0.0572502
1.98678,-0.144157,0
1.83701,-0.13329,-0.286548
1.98342,-0.0467418,0.0115308
1.87619,-0.136132,-0.202628
2.01416,-0.146143,0.0469915
1.92224,-0.139474,-0.134769
2.00659,-0.047288,0.0584138
1.91554,-0.0451421,-0.122798
1.94477,-0.141109,-0.0908288
1.94185,-0.0457622,-0.079135
1.96298,-0.0531167,-0.0342765
1.95584,-0.245346,-0.0573665
1.98227,-0.150788,0
1.84048,-0.140002,-0.287163
1.98724,-0.0537731,0.0115541
1.99632,-0.250424,-0.0116936
1.88363,-0.143284,-0.203484
2.02161,-0.15378,0.0471777
1.91776,-0.14588,-0.13449
2.01041,-0.0544002,0.0585302
1.91936,-0.0519363,-0.123054
1.94427,-0.147897,-0.0908288
1.94168,-0.0525403,-0.079135
1.95879,-0.0598464,-0.0342067
1.951,-0.25166,-0.0572502
1.98572,-0.158023,0
1.83604,-0.146112,-0.286548
1.87324,-0.241629,-0.240415
1.99104,-0.0608317,0.0115773
1.99543,-0.257391,-0.0116936
1.88312,-0.149858,-0.203484
2.01708,-0.160519,0.0470846
1.92122,-0.15289,-0.134769
2.00222,-0.0611733,0.0582974
1.91917,-0.0586358,-0.123054
1.94772,-0.155,-0.0910149
1.93749,-0.0591956,-0.0789721
1.96259,-0.0661345,-0.0342765
1.95813,-0.258836,-0.0574829
1.98522,-0.164261,0
1.83557,-0.151879,-0.286548
1.86854,-0.246993,-0.23991
1.98684,-0.0669517,0.0115541
1.99462,-0.263659,-0.0116936
1.88264,-0.155774,-0.203484
2.02055,-0.167184,0.0471777
2.01001,-0.0677324,0.0585302
1.91897,-0.0646647,-0.123054
1.94325,-0.160788,-0.0908288
1.93729,-0.0652821,-0.0789721
1.95434,-0.0730286,-0.0341369
1.95717,-0.266011,-0.0574829
1.98062,-0.171192,0
1.835,-0.158606,-0.286548
1.98658,-0.0742334,0.0115541
1.98967,-0.270429,-0.0116703
1.87809,-0.16233,-0.203056
2.01992,-0.174589,0.0471777
1.92013,-0.165964,-0.134769
2.00575,-0.0749497,0.0584138
1.91872,-0.0716977,-0.123054
1.94723,-0.362303,-0.115348
1.94103,-0.0725314,-0.079135
1.96206,-0.0801766,-0.0342765
1.95227,-0.272289,-0.0573665
1.98399,-0.178463,0
1.84231,-0.165718,-0.287778
1.98631,-0.0811674,0.0115541
1.99268,-0.277925,-0.0116936
1.87752,-0.168885,-0.203056
2.0193,-0.181639,0.0471777
1.91954,-0.172666,-0.134769
2.00548,-0.0819506,0.0584138
1.91846,-0.0783948,-0.123054
1.93807,-0.174332,-0.0906426
1.94476,-0.0794697,-0.0792978
1.96177,-0.087025,-0.0342765
1.95526,-0.279668,-0.0574829
1.83778,-0.17178,-0.287163
1.98601,-0.0881004,0.0115541
1.99566,-0.285445,-0.0117168
1.88087,-0.175808,-0.203484
2.01865,-0.188686,0.0471777
1.91893,-0.179365,-0.134769
2.00518,-0.0889506,0.0584138
1.94142,-0.181468,-0.0908288
1.94447,-0.0862577,-0.0792978
1.96545,-0.0940636,-0.0343463
1.95428,-0.286492,-0.0574829
1.97871,-0.191923,0
1.83324,-0.177813,-0.286548
1.99368,-0.0954148,0.0116006
1.98673,-0.291249,-0.0116703
1.87233,-0.181604,-0.202628
2.01798,-0.195731,0.0471777
2.00486,-0.0959494,0.0584138
1.92584,-0.0921678,-0.123566
1.94476,-0.188629,-0.0910149
1.94017,-0.0928536,-0.079135
1.96112,-0.100719,-0.0342765
1.95326,-0.293312,-0.0574829
1.84047,-0.185001,-0.287778
1.98136,-0.101758,0.0115308
1.88751,-0.18973,-0.204341
2.02126,-0.203174,0.0472707
1.92001,-0.288319,-0.158498
1.91753,-0.0984802,-0.123054
1.94011,-0.195017,-0.0908288
1.94382,-0.0998304,-0.0792978
1.96077,-0.107221,-0.0342765
1.83592,-0.190695,-0.287163
1.98101,-0.108328,0.0115308
1.87896,-0.195166,-0.203484
2.0166,-0.209463,0.0471777
1.92492,-0.19994,-0.135328
2.00416,-0.109594,0.0584138
1.92118,-0.105056,-0.12331
1.94343,-0.201862,-0.0910149
1.93949,-0.106058,-0.079135
1.97285,-0.204918,-0.0461541
1.95637,-0.114174,-0.0342067
1.84307,-0.198269,-0.288393
1.98459,-0.115821,0.0115541
1.88219,-0.202477,-0.203913
2.01185,-0.216425,0.0470846
1.92417,-0.206994,-0.135328
1.92078,-0.112097,-0.12331
1.94665,-0.209411,-0.091201
1.94707,-0.113631,-0.0794606
1.96395,-0.121496,-0.0343463
1.84236,-0.204701,-0.288393
1.98817,-0.122995,0.0115773
1.88147,-0.209046,-0.203913
1.92344,-0.213709,-0.135328
1.92038,-0.118801,-0.12331
1.9459,-0.216205,-0.091201
1.94666,-0.120427,-0.0794606
1.96353,-0.128008,-0.0343463
1.99174,-0.129847,0.0116006
1.88472,-0.215736,-0.204341
1.92668,-0.22054,-0.135607
2.01088,-0.131095,0.0586465
1.91998,-0.125169,-0.12331
1.94518,-0.222656,-0.091201
1.95113,-0.320559,-0.103625
1.94625,-0.126882,-0.0794606
1.96305,-0.135204,-0.0343463
1.98726,-0.136872,0.0115773
1.89181,-0.223576,-0.205198
1.92586,-0.2276,-0.135607
2.0064,-0.13819,0.0585302
1.91951,-0.132205,-0.12331
1.94435,-0.229784,-0.091201
1.94577,-0.134014,-0.0794606
1.96257,-0.142056,-0.0343463
1.98278,-0.143519,0.0115541
1.87918,-0.228737,-0.203913
1.92506,-0.234321,-0.135607
2.01388,-0.14577,0.0587629
1.92699,-0.139481,-0.123822
1.94353,-0.23657,-0.091201
1.94529,-0.140805,-0.0794606
1.9661,-0.148522,-0.0344161
1.98061,-0.2474,0
1.9903,-0.15035,0.0116006
1.88634,-0.235625,-0.20477
1.92431,-0.240368,-0.135607
2.00942,-0.151795,0.0586465
1.92257,-0.145233,-0.123566
1.94278,-0.242675,-0.091201
1.94883,-0.147217,-0.0796234
1.9761,-0.246837,-0.0463402
1.96158,-0.155069,-0.0343463
1.99773,-0.157927,0.0116471
1.88157,-0.241702,-0.204341
1.9195,-0.246575,-0.135328
2.01287,-0.159123,0.0587629
1.92205,-0.151944,-0.123566
1.94192,-0.249455,-0.091201
1.94652,-0.34743,-0.103625
1.95228,-0.154334,-0.0797863
1.96894,-0.16326,-0.034486
1.98271,-0.262437,0
1.99711,-0.165596,0.0116471
1.88062,-0.248925,-0.204341
1.9225,-0.254467,-0.135607
2.00826,-0.16652,0.0586465
1.92543,-0.159652,-0.123822
1.94491,-0.257434,-0.0913871
1.94911,-0.355618,-0.103835
1.94769,-0.161499,-0.0796234
1.96836,-0.170132,-0.034486
1.98574,-0.269895,0
1.99254,-0.172222,0.0116238
1.89157,-0.257095,-0.205626
1.91764,-0.260639,-0.135328
2.01164,-0.173874,0.0587629
1.92486,-0.166372,-0.123822
1.944,-0.264221,-0.0913871
1.94712,-0.168296,-0.0796234
1.97728,-0.268744,-0.0464332
1.95985,-0.175601,-0.0343463
1.988,-0.178124,0.0116006
1.88681,-0.262488,-0.205198
1.92867,-0.268311,-0.136165
2.01109,-0.180193,0.0587629
1.92035,-0.172062,-0.123566
1.95107,-0.271428,-0.0917594
1.95056,-0.174769,-0.0797863
1.97643,-0.274955,-0.0464332
1.95919,-0.182783,-0.0343463
1.99132,-0.185781,0.0116238
1.8819,-0.268839,-0.20477
1.92767,-0.275379,-0.136165
2.0144,-0.187934,0.0588792
1.92766,-0.179841,-0.124078
1.9382,-0.276882,-0.091201
1.95318,-0.377185,-0.104253
1.94593,-0.181546,-0.0796234
1.97936,-0.282763,-0.0465263
1.99464,-0.193116,0.0116471
1.88488,-0.275983,-0.205198
1.92275,-0.281528,-0.135886
2.01373,-0.194964,0.0588792
1.92702,-0.186569,-0.124078
1.94926,-0.188723,-0.0797863
1.97836,-0.28967,-0.0465263
1.96583,-0.197255,-0.034486
1.99395,-0.200077,0.0116471
1.92176,-0.288238,-0.135886
1.93033,-0.193693,-0.124333
1.93622,-0.290406,-0.091201
1.94859,-0.195526,-0.0797863
1.97734,-0.296574,-0.0465263
1.96516,-0.203773,-0.034486
1.99328,-0.206689,0.0116471
1.92474,-0.295214,-0.136165
1.9257,-0.199681,-0.124078
1.9392,-0.297431,-0.0913871
1.95191,-0.202399,-0.0799491
1.9803,-0.303736,-0.0466193
1.96043,-0.210547,-0.0344161
1.99251,-0.213993,0.0116471
1.92364,-0.302266,-0.136165
1.92893,-0.207164,-0.124333
1.94599,-0.305777,-0.0917594
1.95115,-0.209551,-0.0799491
1.96369,-0.217487,-0.034486
1.99179,-0.220599,0.0116471
1.93051,-0.309909,-0.136723
1.92426,-0.21312,-0.124078
1.94102,-0.311595,-0.0915733
1.95045,-0.21602,-0.0799491
1.96292,-0.224341,-0.034486
1.98703,-0.227096,0.0116238
1.92548,-0.315999,-0.136444
1.92747,-0.220289,-0.124333
1.94386,-0.319016,-0.0917594
1.94968,-0.222827,-0.0799491
1.98096,-0.325104,-0.0467124
1.96209,-0.231534,-0.034486
1.99413,-0.235315,0.0116703
1.92431,-0.323054,-0.136444
1.92269,-0.226885,-0.124078
1.94268,-0.326139,-0.0917594
1.94885,-0.229972,-0.0799491
1.96524,-0.238864,-0.0345558
1.98933,-0.241792,0.0116471
1.91923,-0.329095,-0.136165
1.92188,-0.233595,-0.124078
1.93759,-0.332242,-0.0915733
1.94804,-0.236773,-0.0799491
1.96448,-0.245037,-0.0345558
1.99253,-0.248535,0.0116703
1.92605,-0.336496,-0.136723
1.92906,-0.240619,-0.124589
1.94047,-0.339016,-0.0917594
1.94728,-0.242892,-0.0799491
1.96757,-0.252401,-0.0346256
1.99165,-0.255489,0.0116703
1.93272,-0.344618,-0.137281
1.92821,-0.247352,-0.124589
1.93928,-0.345787,-0.0917594
1.94246,-0.249179,-0.0797863
1.96668,-0.259268,-0.0346256
1.93129,-0.254603,-0.124845
1.93806,-0.352554,-0.0917594
1.9495,-0.257003,-0.0801119
1.96576,-0.266131,-0.0346256
1.93039,-0.261342,-0.124845
1.94074,-0.360046,-0.0919455
1.94463,-0.26327,-0.0799491
1.96874,-0.273885,-0.0346954
1.92547,-0.267866,-0.124589
1.94726,-0.368643,-0.0923178
1.94761,-0.270947,-0.0801119
1.92852,-0.274813,-0.124845
1.94211,-0.374342,-0.0921316
1.95066,-0.277967,-0.0802748
1.96683,-0.28728,-0.0346954
1.9315,-0.28212,-0.125101
1.95363,-0.285352,-0.0804376
1.96576,-0.294487,-0.0346954
1.93045,-0.289197,-0.125101
1.94862,-0.291919,-0.0802748
1.93343,-0.296202,-0.125357
1.94369,-0.297774,-0.0801119
1.96761,-0.308823,-0.0347652
1.92839,-0.302667,-0.125101
1.94654,-0.305516,-0.0802748
1.97047,-0.316323,-0.034835
1.93126,-0.310029,-0.125357
1.9494,-0.312942,-0.0804376
1.93022,-0.316432,-0.125357
1.94835,-0.319405,-0.0804376
1.92911,-0.323168,-0.125357
1.95117,-0.326864,-0.0806004
1.9319,-0.330573,-0.125613
1.95002,-0.333673,-0.0806004
1.92293,-0.335605,-0.125101
1.94496,-0.33945,-0.0804376
1.92961,-0.343715,-0.125613
1.9477,-0.346938,-0.0806004
1.92833,-0.350785,-0.125613
1.95035,-0.35479,-0.0807633
1.95309,-0.361984,-0.0809261
1.95182,-0.368799,-0.0809261
