3.15244,0.547457,-0.217399
3.12228,0.522505,-0.215094
3.08569,0.481061,0.0149893
3.06584,0.458716,0.0148789
3.0546,0.455999,-0.0978139
3.04088,0.435922,0.0147445
3.04547,0.43555,-0.097434
3.16252,0.568971,-0.131812
3.16291,0.567046,-0.249341
3.02764,0.415082,0.0146677
3.03818,0.415501,-0.0971175
3.13544,0.544258,-0.130541
3.01821,0.410354,-0.20696
3.14963,0.54474,-0.248025
3.04234,0.412716,-0.321554
3.00168,0.394266,0.12403
3.01229,0.394162,0.0145813
3.02184,0.394393,-0.0965161
3.12295,0.522372,-0.129886
3.00979,0.390416,-0.206214
2.98719,0.373732,0.123334
3.00274,0.374187,0.0145237
3.08198,0.498084,-0.0148755
3.00321,0.37084,-0.205604
3.01834,0.366398,-0.545264
2.9795,0.354216,0.122925
2.98115,0.352934,0.0144085
3.07905,0.478244,-0.0148469
2.98973,0.352945,-0.0953448
2.9876,0.350314,-0.204384
2.99509,0.350292,-0.315825
3.00195,0.345731,-0.54191
2.96537,0.332629,0.0143221
3.05225,0.454919,-0.014704
2.97197,0.332372,-0.0947117
3.04704,0.452186,-0.126361
2.97184,0.329994,-0.203163
2.97939,0.329938,-0.31395
2.92848,0.312842,0.22853
2.94984,0.31403,0.121533
2.94846,0.312426,0.0142309
3.03492,0.431372,-0.125746
3.1635,0.566903,-0.162472
2.95793,0.310089,-0.202079
3.16854,0.566664,-0.280364
2.96454,0.309893,-0.312179
3.04608,0.427861,-0.465473
2.91745,0.29357,0.227524
2.93283,0.294031,0.120755
2.9354,0.292839,0.0141589
3.01203,0.411207,-0.0144848
3.11617,0.540388,-0.0449904
3.01474,0.409648,-0.124803
3.14035,0.542888,-0.161108
3.03318,0.410267,-0.237504
2.94461,0.289555,-0.309888
2.90828,0.274632,0.226673
2.98916,0.390002,0.0951558
2.91922,0.273146,0.0140725
2.99565,0.390264,-0.0143943
3.10858,0.519445,-0.0448339
3.00431,0.389472,-0.12427
3.11604,0.519014,-0.159695
3.0129,0.388714,-0.235725
3.0305,0.387813,-0.462331
2.87005,0.254122,0.328993
2.9796,0.370175,0.0947772
2.90589,0.253923,0.0140005
3.08802,0.496552,-0.0444925
2.98384,0.368216,-0.123328
3.1024,0.497198,-0.158836
2.99939,0.368276,-0.234487
3.0088,0.368205,-0.346653
3.01123,0.366582,-0.459039
2.87255,0.236589,0.329107
2.87864,0.236231,0.22412
2.96395,0.349777,0.0942092
2.96248,0.349027,-0.0142132
3.07519,0.475152,-0.0442649
2.96917,0.347924,-0.122631
3.08762,0.475417,-0.157928
2.88907,0.231352,-0.196927
2.97981,0.347325,-0.232785
3.08808,0.473004,-0.387244
2.99182,0.345603,-0.455748
2.90565,0.220689,-0.750037
2.86413,0.217357,0.222882
2.94563,0.331072,0.201297
2.94716,0.329474,0.0936098
3.05234,0.452461,-0.0438951
2.87654,0.214865,-0.0913563
2.95536,0.327936,-0.121975
3.05788,0.451647,-0.156261
2.8775,0.212664,-0.196046
2.97396,0.32816,-0.232166
3.06441,0.450153,-0.383922
2.98226,0.324231,-0.567259
2.84751,0.19853,0.22149
2.93867,0.312044,0.200688
2.93521,0.309915,0.0931681
2.8572,0.196751,0.0137462
2.93173,0.308978,-0.0140464
3.03525,0.430913,-0.0436106
2.86384,0.196254,-0.0909131
2.9444,0.308443,-0.121442
3.04873,0.431197,-0.155656
2.85685,0.193521,-0.194554
2.95509,0.307738,-0.230541
3.05309,0.430728,-0.268563
2.95775,0.306814,-0.340063
3.04255,0.427886,-0.380847
2.96954,0.304423,-0.564472
2.81783,0.179094,0.219092
2.92564,0.292517,0.199671
2.92811,0.291009,0.0928841
3.00647,0.40968,0.0673203
2.83141,0.177526,0.0136166
2.91964,0.289601,-0.0139797
3.01802,0.409592,-0.0433262
3.11703,0.53794,-0.0749295
2.93132,0.2889,-0.120828
3.02261,0.408603,-0.154191
3.14081,0.541873,-0.192258
2.83608,0.174639,-0.193063
3.03593,0.409324,-0.266828
2.85202,0.174771,-0.299263
3.03429,0.407756,-0.379494
3.03434,0.406792,-0.493441
2.82095,0.16276,0.32264
2.89146,0.271649,0.303449
2.80494,0.161001,0.218009
2.91149,0.27307,0.198587
2.82304,0.161002,0.115843
2.9169,0.271832,0.092474
2.82346,0.159642,0.0135734
2.9134,0.270941,-0.0139416
3.00462,0.389012,-0.0430986
3.1114,0.517328,-0.0747164
2.82412,0.15874,-0.0895836
2.91016,0.268795,-0.119885
3.01219,0.388388,-0.153535
3.11945,0.518499,-0.190753
2.81618,0.156074,-0.191639
3.0127,0.387385,-0.264572
3.01607,0.386481,-0.376911
3.02503,0.386663,-0.491531
2.80403,0.144527,0.320598
2.87821,0.252598,0.30189
2.80202,0.14256,0.114943
2.8986,0.252196,0.091843
2.98448,0.369439,0.0667214
2.8134,0.141761,0.0135206
2.89309,0.251157,-0.0138368
2.98611,0.368,-0.0427999
3.08885,0.494121,-0.0741007
2.81606,0.140959,-0.0892987
2.9008,0.24999,-0.119434
2.99568,0.367587,-0.152576
3.10582,0.496669,-0.189729
2.79914,0.137908,-0.190419
2.99821,0.366835,-0.263096
2.9977,0.365445,-0.374327
3.00775,0.365712,-0.488349
2.78402,0.126373,0.318216
2.86483,0.23372,0.300331
2.77583,0.125176,0.21561
2.87484,0.234082,0.195877
2.9684,0.349652,0.174329
2.78887,0.12474,0.11437
2.88116,0.232876,0.0912435
2.96584,0.348669,0.0662556
3.06361,0.472027,0.038576
2.79024,0.123435,0.0134054
2.87962,0.232195,-0.0137653
2.9744,0.348044,-0.0426007
3.07404,0.472426,-0.0736744
2.78791,0.122406,-0.0883807
2.88336,0.230672,-0.118655
2.98101,0.347235,-0.151718
3.08908,0.474572,-0.188525
2.79296,0.120429,-0.189945
2.89317,0.229679,-0.225203
2.98358,0.346478,-0.261621
2.80905,0.120288,-0.294471
2.98115,0.344878,-0.37199
2.81037,0.117839,-0.399024
2.99326,0.345326,-0.485644
2.76291,0.108431,0.31572
2.85134,0.215016,0.298773
2.8623,0.21539,0.194929
2.95461,0.329661,0.173397
2.7796,0.10724,0.11396
2.86659,0.214002,0.0907387
2.94706,0.328141,0.0657898
3.05062,0.450881,0.0383769
2.77196,0.105589,0.0133142
2.86504,0.213333,-0.0136891
2.95959,0.327915,-0.0423589
3.05512,0.450347,-0.0731534
2.77463,0.104769,-0.0879375
2.86479,0.211505,-0.117836
2.95331,0.325653,-0.150203
3.07416,0.452989,-0.187441
2.7767,0.102663,-0.188792
2.96188,0.325553,-0.259539
2.78886,0.102284,-0.292284
2.97236,0.325392,-0.370637
3.07655,0.449996,-0.416082
2.79272,0.0974965,-0.501134
2.88927,0.206874,-0.54775
2.75558,0.0912133,0.314813
2.84764,0.197173,0.298253
2.84664,0.196654,0.193777
2.94268,0.310061,0.172582
2.75823,0.08947,0.11306
2.8489,0.195112,0.0901393
2.9351,0.308588,0.0654792
3.02858,0.428651,0.0380658
2.75656,0.0880672,0.0132374
2.83836,0.193842,-0.0135557
2.93569,0.307045,-0.0419891
3.03506,0.42838,-0.0726087
2.76623,0.0874579,-0.0876527
2.85307,0.193046,-0.117303
2.94035,0.305976,-0.149446
3.03833,0.428679,-0.185093
2.75633,0.084978,-0.187369
2.85001,0.19109,-0.221645
2.94896,0.305831,-0.258237
2.77254,0.0846542,-0.290513
2.95653,0.305313,-0.368423
3.0606,0.428499,-0.413562
2.78191,0.082462,-0.39481
2.87099,0.189527,-0.435399
2.77752,0.0799059,-0.49831
2.7788,0.0777584,-0.605198
2.74119,0.073902,0.313111
2.90945,0.289854,0.27757
2.73082,0.0728117,0.211974
2.83883,0.17862,0.193167
2.74874,0.0722814,0.11265
2.83409,0.176633,0.0896344
2.92798,0.289687,0.0652796
3.01233,0.407513,0.0378294
2.74006,0.070713,0.0131558
3.00692,0.405606,-0.0718746
2.75373,0.070152,-0.0872411
2.83027,0.174064,-0.116319
2.93621,0.287345,-0.149143
3.02607,0.408028,-0.18419
2.74583,0.067793,-0.186623
2.8372,0.172751,-0.220562
2.94285,0.286957,-0.257543
2.76107,0.0673496,-0.289263
2.94254,0.285632,-0.366455
2.76356,0.064949,-0.392142
2.94703,0.285132,-0.47721
2.7632,0.0625279,-0.495662
2.76555,0.0604078,-0.60222
2.70558,0.056473,0.511043
2.73463,0.0569362,0.312317
2.81609,0.160291,0.29472
2.90126,0.27107,0.276625
2.81697,0.159897,0.191609
2.9954,0.387746,0.147616
2.73115,0.0550516,0.111914
2.81616,0.158175,0.089035
2.91178,0.270054,0.0648803
3.00386,0.387615,0.0376925
2.73144,0.0537221,0.0131126
2.80458,0.156984,-0.0133841
2.92131,0.269344,-0.0417331
3.0034,0.386383,-0.0717325
2.73712,0.0529257,-0.086703
2.81432,0.155756,-0.115622
2.92001,0.267682,-0.148234
3.00772,0.386779,-0.182925
2.72924,0.050629,-0.18547
2.82228,0.154467,-0.219324
2.74353,0.0500799,-0.287388
2.92151,0.265505,-0.363625
2.75302,0.0478018,-0.390597
2.74483,0.0452636,-0.492308
2.84058,0.150895,-0.537902
2.78722,0.141496,0.291602
2.88403,0.251619,0.274829
2.7016,0.0388646,0.209653
2.79797,0.141601,0.190254
2.98385,0.367649,0.146933
2.71645,0.0380825,0.1113
2.89745,0.250803,0.0645254
2.98633,0.366738,0.0374436
2.71672,0.0367583,0.0130406
2.7955,0.139275,-0.0133365
2.90099,0.249529,-0.0414202
2.99381,0.366489,-0.0714483
2.7244,0.0359586,-0.0862915
2.79926,0.137699,-0.114967
2.90468,0.248314,-0.147376
2.99518,0.366498,-0.182022
2.71752,0.0337332,-0.184657
2.79728,0.135889,-0.217312
2.73583,0.0331486,-0.286555
2.89935,0.245564,-0.360673
2.73742,0.0307308,-0.38835
2.82462,0.134302,-0.427918
3.01673,0.365341,-0.520354
2.72931,0.0282578,-0.489484
2.82379,0.132632,-0.534558
2.73774,0.0261946,-0.596051
2.74155,0.0227856,-0.705668
2.77611,0.123859,0.290355
2.87956,0.233436,0.274262
2.78383,0.123766,0.189237
2.69865,0.0212721,0.110563
2.77495,0.121721,0.0876783
2.87801,0.231338,0.0640596
2.97959,0.347366,0.0373316
2.71089,0.0200438,0.0130118
2.77732,0.121291,-0.013246
2.88254,0.230132,-0.0411357
2.98011,0.346267,-0.0710694
2.71457,0.0191707,-0.0859749
2.98051,0.346155,-0.180998
2.7097,0.017008,-0.184115
2.7901,0.118385,-0.216693
2.72007,0.0162661,-0.284888
2.80324,0.117815,-0.320861
2.89685,0.227459,-0.360181
2.7237,0.0138632,-0.386383
2.81057,0.116354,-0.425674
2.99345,0.343899,-0.515966
2.71959,0.011469,-0.487719
2.80688,0.114582,-0.531213
2.71733,0.00932526,-0.591584
2.72227,0.00592125,-0.700683
2.77229,0.107909,0.392384
2.6915,0.00648558,0.307325
2.76787,0.106479,0.28942
2.85811,0.214053,0.272088
2.67794,0.00565834,0.207797
2.76859,0.106071,0.188153
2.68974,0.00469742,0.110194
2.75866,0.104051,0.087142
2.85943,0.212195,0.063616
2.9588,0.326554,0.0370454
2.69897,0.00339457,0.0129542
2.87093,0.211486,-0.0409508
2.94442,0.323821,-0.0701695
2.69765,0.00249833,-0.0854368
2.70077,0.000380045,-0.183505
2.77483,0.100684,-0.215456
2.8715,0.209009,-0.250775
2.70222,-0.000421516,-0.283013
2.77809,0.0996863,-0.317907
2.86651,0.207388,-0.356244
2.71185,-0.00283688,-0.384698
2.97885,0.323715,-0.513097
2.70977,-0.00519943,-0.485954
2.78298,0.096506,-0.526568
2.70171,-0.00730589,-0.58818
2.71257,-0.010744,-0.69819
2.75806,0.0904099,0.390284
2.6756,-0.00997006,0.30551
2.7476,0.088819,0.287237
2.8405,0.195215,0.270293
2.93913,0.308578,0.251902
2.66098,-0.0107051,0.206482
2.74625,0.0883435,0.186595
2.67273,-0.011732,0.109498
2.84871,0.193831,0.0633498
2.93887,0.306114,0.0367717
2.67694,-0.0130587,0.0128486
2.83825,0.191577,-0.0404672
2.93541,0.304614,-0.069909
2.68562,-0.0139917,-0.0850569
2.75338,0.0846766,-0.112999
2.85694,0.191336,-0.14475
2.94681,0.305641,-0.17871
2.67977,-0.016066,-0.182081
2.76144,0.083236,-0.214373
2.84689,0.189664,-0.248519
2.95847,0.30445,-0.287892
2.69023,-0.0169269,-0.281763
2.76773,0.0823135,-0.316657
2.85981,0.189272,-0.35526
2.77818,0.0808772,-0.420586
2.70378,-0.0217786,-0.484895
2.76682,0.0789516,-0.523409
2.97169,0.304657,-0.625269
2.685,-0.0237363,-0.584564
2.78755,0.0774495,-0.634943
2.69405,-0.027202,-0.693454
2.7447,0.0731159,0.388323
2.73417,0.0715939,0.285783
2.82972,0.177036,0.269159
2.9251,0.288971,0.250544
2.6479,-0.0269007,0.205476
2.73577,0.0712057,0.185849
2.83571,0.176119,0.165712
2.65662,-0.0279631,0.108843
2.8249,0.174804,0.0627953
2.92378,0.286418,0.0365601
2.66581,-0.0293627,0.0127958
2.93026,0.285917,-0.0697432
2.67649,-0.030368,-0.0847721
2.73587,0.067338,-0.112261
2.83912,0.17265,-0.143791
2.92876,0.285616,-0.177506
2.66666,-0.0323511,-0.1812
2.75193,0.0660513,-0.213599
2.8291,0.17105,-0.24687
2.68013,-0.03331,-0.280722
2.75626,0.0650482,-0.315294
2.84309,0.17065,-0.353046
2.75194,0.063216,-0.416547
2.67997,-0.038033,-0.480658
2.75448,0.0616873,-0.520994
2.67699,-0.0400936,-0.582862
2.7714,0.0599853,-0.631169
2.67543,-0.0434332,-0.688718
2.72032,0.0566205,0.486138
2.65441,-0.0424692,0.303128
2.72263,0.0545767,0.284535
2.81187,0.158605,0.267363
2.63473,-0.0429363,0.20447
2.7202,0.0541005,0.184765
2.64841,-0.0441302,0.108516
2.71714,0.0524268,0.0857853
2.81394,0.1568,0.0625291
2.91652,0.26765,0.0364481
2.64758,-0.0454106,0.0127094
2.80645,0.15486,-0.0399835
2.91404,0.266294,-0.0693169
2.65626,-0.0464406,-0.084139
2.81819,0.154028,-0.14268
2.92051,0.266732,-0.176904
2.73135,0.0487906,-0.211974
2.81717,0.152985,-0.245742
2.66297,-0.0494405,-0.278951
2.74568,0.0479441,-0.314044
2.81931,0.151868,-0.349971
2.67174,-0.0519823,-0.37908
2.73448,0.0460297,-0.413853
2.67378,-0.0543563,-0.479599
2.74106,0.0445613,-0.518393
2.66985,-0.0563742,-0.581373
2.6635,-0.0595886,-0.685727
2.76446,0.0412257,-0.739679
2.63523,-0.0583378,0.300972
2.71197,0.0377178,0.283392
2.79589,0.140499,0.265756
2.7115,0.0372852,0.184156
2.6401,-0.0601975,0.108189
2.79388,0.138492,0.0620633
2.89121,0.247448,0.0361121
2.80035,0.137294,-0.039884
2.89769,0.246881,-0.0688907
2.64594,-0.0625022,-0.0838224
2.70852,0.0334145,-0.111114
2.79315,0.135475,-0.141367
2.90817,0.247621,-0.176061
2.72063,0.0319018,-0.211123
2.79915,0.134786,-0.244093
2.6487,-0.0654354,-0.277493
2.7191,0.0307922,-0.310976
2.80333,0.133762,-0.34788
2.91366,0.244964,-0.391279
2.65751,-0.0680201,-0.377114
2.72581,0.0291553,-0.412507
2.82631,0.133968,-0.456047
2.66061,-0.0704227,-0.477304
2.72654,0.0275925,-0.515606
2.65578,-0.0723823,-0.578395
2.74073,0.0256791,-0.624065
2.65437,-0.075682,-0.683484
2.73954,0.0240421,-0.732959
2.7778,0.12484,0.469706
2.78516,0.124488,0.367088
2.63085,-0.0743938,0.300518
2.7032,0.0210072,0.282457
2.77979,0.122596,0.26415
2.6997,0.0205559,0.183343
2.6227,-0.0759043,0.107493
2.7727,0.120392,0.0615753
2.87672,0.228436,0.035913
2.77817,0.119123,-0.0395568
2.86925,0.226734,-0.0681802
2.62852,-0.0782307,-0.0832843
2.70782,0.0151353,-0.210118
2.78698,0.117065,-0.242965
2.64427,-0.0815636,-0.277076
2.70533,0.0140354,-0.309386
2.78427,0.115734,-0.345419
2.6422,-0.0838539,-0.375007
2.71407,0.0123754,-0.410711
2.80834,0.115851,-0.453023
2.63652,-0.0859766,-0.473068
2.70995,0.0107957,-0.512447
2.80275,0.113758,-0.557909
2.63087,-0.0878612,-0.573077
2.72524,0.00881133,-0.620512
2.63934,-0.0914644,-0.679745
2.72418,0.00719134,-0.728824
2.6922,0.00562386,0.380761
2.61545,-0.0900223,0.298817
2.68936,0.00439752,0.281002
2.77054,0.105159,0.263205
2.86076,0.211873,0.244514
2.68581,0.00396984,0.182394
2.6132,-0.0916802,0.107124
2.7654,0.103079,0.0613979
2.86112,0.209539,0.0357015
2.76286,0.101487,-0.0393292
2.86261,0.208544,-0.0679908
2.617,-0.093963,-0.0829361
2.87515,0.209306,-0.173893
2.61122,-0.0958089,-0.177539
2.70088,-0.00147605,-0.209576
2.77769,0.0996051,-0.242097
2.61689,-0.0967944,-0.274264
2.6994,-0.00255885,-0.308704
2.87888,0.206496,-0.386239
2.62977,-0.0996149,-0.373321
2.70223,-0.0042594,-0.408916
2.78334,0.0977163,-0.448886
2.6143,-0.101314,-0.469184
2.69719,-0.00580494,-0.510031
2.79457,0.0962548,-0.556154
2.89274,0.207136,-0.607035
2.62736,-0.103886,-0.572439
2.70769,-0.00785963,-0.616516
2.80226,0.0952954,-0.666478
2.63002,-0.107302,-0.677501
2.71451,-0.00949029,-0.726239
2.75646,0.0900024,0.465875
2.66845,-0.0120101,0.27882
2.7582,0.087746,0.261976
2.84412,0.193101,0.242985
2.67082,-0.0124404,0.181378
2.6046,-0.107383,0.106797
2.66664,-0.0140033,0.0841762
2.74399,0.0854246,0.0609099
2.83641,0.19024,0.0353779
2.83989,0.189379,-0.0674224
2.6004,-0.109347,-0.0824296
2.74925,0.0826583,-0.139045
2.84351,0.18947,-0.171906
2.59563,-0.111189,-0.176522
2.68088,-0.0179151,-0.208029
2.75833,0.0819678,-0.240362
2.8624,0.18842,-0.277679
2.60432,-0.112335,-0.273014
2.68046,-0.0189883,-0.306545
2.75572,0.0806867,-0.341729
2.86525,0.187855,-0.384249
2.62218,-0.115444,-0.372338
2.6893,-0.0207408,-0.406971
2.76317,0.0800359,-0.445545
2.61461,-0.117397,-0.469361
2.6863,-0.0222649,-0.507988
2.77158,0.0784399,-0.551472
2.87247,0.187976,-0.602528
2.61886,-0.119649,-0.570737
2.69394,-0.0243502,-0.613408
2.78626,0.0776386,-0.662547
2.61674,-0.122847,-0.674261
2.70088,-0.0260158,-0.722621
2.73922,0.072617,0.462876
2.66136,-0.0283091,0.278092
2.74077,0.0703605,0.260275
2.83431,0.174971,0.242051
2.57242,-0.120927,0.199828
2.66371,-0.0287526,0.180903
2.74945,0.0693349,0.160413
2.83429,0.173778,0.138781
2.58693,-0.122559,0.106101
2.81556,0.171495,0.0351042
2.82504,0.170983,-0.0670435
2.5877,-0.124723,-0.0820497
2.66156,-0.0324926,-0.109188
2.73972,0.0655488,-0.13854
2.82669,0.170935,-0.170822
2.66278,-0.0341343,-0.206636
2.74783,0.0647832,-0.239407
2.83866,0.169372,-0.275271
2.58769,-0.12753,-0.271347
2.67036,-0.0353036,-0.305409
2.67232,-0.0370089,-0.404427
2.75176,0.0628096,-0.443635
2.60696,-0.133087,-0.468125
2.75828,0.0611281,-0.548741
2.85305,0.169131,-0.598226
2.59368,-0.134451,-0.565419
2.68204,-0.0407019,-0.610744
2.76917,0.0601606,-0.658384
2.68425,-0.0423287,-0.718227
2.72975,0.0556073,0.461211
2.63826,-0.0442547,0.275702
2.72821,0.0532894,0.259046
2.81046,0.156194,0.239927
2.64752,-0.044826,0.179819
2.73186,0.0521205,0.159365
2.81236,0.155118,0.137658
2.56817,-0.137469,0.105364
2.80458,0.15356,0.0349548
2.71927,0.0497913,-0.0386892
2.80906,0.152723,-0.0666409
2.5789,-0.140165,-0.0817965
2.64333,-0.0484932,-0.10845
2.72509,0.0484706,-0.137783
2.81572,0.152938,-0.1701
2.65155,-0.0502643,-0.205785
2.73224,0.0476437,-0.238019
2.82175,0.150993,-0.273536
2.57891,-0.142965,-0.270514
2.65519,-0.0513995,-0.303705
2.58696,-0.14572,-0.367563
2.65721,-0.0531088,-0.402183
2.7363,0.0456604,-0.441089
2.83863,0.150654,-0.486767
2.59823,-0.14863,-0.466713
2.7488,0.0440453,-0.54679
2.8384,0.150791,-0.594948
2.58891,-0.150137,-0.564568
2.66907,-0.0568877,-0.607858
2.74614,0.0428043,-0.652834
2.67042,-0.0585019,-0.714609
2.71131,0.0385902,0.458046
2.63794,-0.060442,0.275702
2.71754,0.0364017,0.258007
2.79245,0.138012,0.238314
2.63922,-0.060886,0.179277
2.80628,0.137517,0.137316
2.62396,-0.0620919,0.0828511
2.71011,0.0344573,0.0601336
2.79948,0.136057,0.0348802
2.63422,-0.0628408,-0.0125551
2.70653,0.032947,-0.0385042
2.56203,-0.15502,-0.08129
2.632,-0.0644424,-0.107999
2.71435,0.0316208,-0.137227
2.79268,0.134505,-0.168655
2.63724,-0.0661828,-0.204702
2.71754,0.0307092,-0.236717
2.80076,0.132641,-0.271417
2.64291,-0.0673866,-0.302341
2.82367,0.132985,-0.378281
2.57515,-0.160912,-0.366018
2.63806,-0.0689215,-0.39934
2.72666,0.0287657,-0.439498
2.81686,0.132171,-0.482885
2.58057,-0.163512,-0.463712
2.64418,-0.0706056,-0.500184
2.73136,0.0270037,-0.543279
2.82265,0.132591,-0.591465
2.58209,-0.165644,-0.563292
2.64917,-0.0727285,-0.603418
2.73079,0.0258064,-0.649134
2.65359,-0.0744258,-0.710216
2.68685,0.0217536,0.453882
2.61764,-0.0760493,0.273624
2.70676,0.0196471,0.256967
2.7823,0.120401,0.237379
2.62084,-0.0765544,0.178058
2.70534,0.018409,0.157793
2.79011,0.119568,0.136486
2.54036,-0.167267,0.1043
2.70128,0.0177685,0.0599339
2.78328,0.118156,0.0346686
2.61679,-0.0784931,-0.0124741
2.77477,0.116728,-0.0657883
2.54906,-0.16994,-0.0809101
2.69951,0.0148827,-0.13647
2.77849,0.116739,-0.167752
2.7107,0.0139982,-0.23611
2.79058,0.115002,-0.270357
2.63351,-0.0833192,-0.301319
2.80958,0.115049,-0.376291
2.56028,-0.17576,-0.364051
2.63561,-0.0850433,-0.399041
2.71197,0.0119694,-0.437111
2.79595,0.114001,-0.479172
2.55988,-0.177978,-0.460182
2.62995,-0.0863771,-0.497583
2.70794,0.0101556,-0.538597
2.79896,0.114271,-0.586343
2.56055,-0.180045,-0.558824
2.64283,-0.0887858,-0.602086
2.7163,0.00900171,-0.645665
2.64054,-0.0902774,-0.706856
2.73128,0.00795494,-0.759766
2.61414,-0.0920045,0.273312
2.68094,0.00300927,0.25451
2.76705,0.102736,0.23602
2.61135,-0.0923169,0.177448
2.69143,0.0017997,0.156978
2.77681,0.101933,0.135803
2.54128,-0.182995,0.104382
2.60302,-0.0935691,0.0822201
2.67834,0.00118325,0.0594237
2.76896,0.100532,0.034482
2.68273,-0.000266303,-0.0381629
2.76544,0.099341,-0.0655515
2.53601,-0.184706,-0.0805303
2.69256,-0.0016771,-0.136117
2.77018,0.0993661,-0.16721
2.61033,-0.0975725,-0.202691
2.6938,-0.00261819,-0.234635
2.7783,0.0974239,-0.269104
2.53815,-0.187624,-0.266556
2.61905,-0.0989514,-0.299728
2.79537,0.0972899,-0.374302
2.55027,-0.190802,-0.362787
2.70015,-0.0046508,-0.435202
2.78379,0.0964003,-0.476977
2.55187,-0.193161,-0.458946
2.69618,-0.00643215,-0.536256
2.78787,0.0966878,-0.583885
2.55453,-0.19538,-0.557761
2.63736,-0.104807,-0.600976
2.70171,-0.0076242,-0.642197
2.80485,0.0965414,-0.697973
2.71683,-0.00875748,-0.755746
2.58868,-0.107016,0.270714
2.67096,-0.0133908,0.253565
2.75668,0.085416,0.235086
2.60077,-0.107924,0.17677
2.67541,-0.0146273,0.156046
2.76441,0.0844965,0.135168
2.52617,-0.197494,0.103809
2.59042,-0.109035,0.0818415
2.6723,-0.0152166,0.0592907
2.75054,0.0829674,0.0342456
2.67668,-0.0166898,-0.0380775
2.75401,0.0820136,-0.0652673
2.51988,-0.199082,-0.0800555
2.67352,-0.0180701,-0.135157
2.75876,0.0820107,-0.166487
2.68576,-0.0190903,-0.233941
2.76491,0.0799718,-0.267755
2.53299,-0.202876,-0.266139
2.61541,-0.114889,-0.299387
2.77908,0.0796533,-0.372047
2.54214,-0.205887,-0.361804
2.60671,-0.116147,-0.394852
2.68921,-0.0211332,-0.433451
2.76068,0.0786438,-0.472927
2.53494,-0.207531,-0.456122
2.52991,-0.209119,-0.552655
2.68508,-0.0240533,-0.638265
2.78793,0.0788356,-0.693629
2.70324,-0.0253012,-0.751994
2.66286,-0.0296905,0.252809
2.73623,0.0679801,0.233303
2.57414,-0.122646,0.175009
2.66629,-0.0309388,0.155522
2.7499,0.067167,0.134436
2.50699,-0.211479,0.103072
2.66116,-0.0314831,0.0590467
2.738,0.0657766,0.0340838
2.66853,-0.0330143,-0.0379637
2.74546,0.0649012,-0.0650542
2.50865,-0.213692,-0.0797389
2.65639,-0.0342552,-0.134299
2.74525,0.0647522,-0.165644
2.67265,-0.035398,-0.232813
2.74844,0.0626197,-0.266117
2.51683,-0.217132,-0.264576
2.60573,-0.130487,-0.298365
2.66237,-0.0364238,-0.330043
2.53393,-0.220879,-0.360821
2.60101,-0.131889,-0.394103
2.67027,-0.037371,-0.430428
2.74732,0.0613948,-0.470564
2.52676,-0.222477,-0.454887
2.59062,-0.132859,-0.490522
2.60569,-0.135592,-0.594093
2.67321,-0.040352,-0.63549
2.76313,0.0611693,-0.687354
2.69051,-0.0416935,-0.74851
2.64471,-0.0457192,0.251108
2.72763,0.0510219,0.232538
2.72629,0.0498544,0.133265
2.49768,-0.226136,0.102744
2.64692,-0.0475597,0.0587361
2.72635,0.0487608,0.0339345
2.49366,-0.227001,0.0120183
2.65128,-0.0490729,-0.0377219
2.72482,0.0476868,-0.0645569
2.50132,-0.228535,-0.079549
2.64814,-0.0504018,-0.133895
2.72962,0.0476279,-0.164681
2.50359,-0.230726,-0.170828
2.65146,-0.051391,-0.23099
2.73981,0.0456054,-0.26525
2.50951,-0.232022,-0.263951
2.57711,-0.144912,-0.295183
2.65317,-0.0525822,-0.328936
2.7521,0.0450891,-0.368333
2.52267,-0.235503,-0.359417
2.58534,-0.147004,-0.391859
2.65914,-0.0535362,-0.428678
2.73581,0.0443448,-0.468538
2.51261,-0.236776,-0.452592
2.58093,-0.148245,-0.48885
2.65736,-0.0552636,-0.528648
2.73731,0.0445124,-0.573027
2.59605,-0.151068,-0.592095
2.66707,-0.0566298,-0.634103
2.74793,0.0439655,-0.683492
2.67768,-0.0579304,-0.745027
2.62647,-0.0615264,0.249407
2.71594,0.0341342,0.231519
2.71556,0.0329918,0.132728
2.48531,-0.2404,0.102294
2.63159,-0.0634386,0.0584034
2.7126,0.0318668,0.0337602
2.65093,-0.0653399,-0.0377219
2.71006,0.0307963,-0.0642016
2.49589,-0.24349,-0.0794224
2.6318,-0.0662474,-0.133087
2.71689,0.0307315,-0.163898
2.49419,-0.245302,-0.170286
2.63715,-0.0673032,-0.229776
2.73108,0.0286992,-0.264383
2.50111,-0.246732,-0.263222
2.5603,-0.159732,-0.293365
2.63891,-0.0685002,-0.327213
2.51428,-0.250291,-0.358433
2.56663,-0.161746,-0.389166
2.64593,-0.0695142,-0.426609
2.72716,0.027468,-0.467019
2.50131,-0.251205,-0.450827
2.64815,-0.0713302,-0.526893
2.72383,0.027577,-0.570159
2.58632,-0.166431,-0.590097
2.6482,-0.0724878,-0.629709
2.73651,0.0269888,-0.680596
2.65802,-0.0738243,-0.739667
2.60912,-0.0771407,0.2478
2.70115,0.0173728,0.230245
2.69973,0.0162327,0.131947
2.61716,-0.0791613,0.0580929
2.69175,0.0151042,0.0334989
2.47577,-0.256042,0.0119463
2.63249,-0.0810506,-0.0374659
2.48739,-0.258078,-0.0792008
2.61937,-0.0820196,-0.132481
2.70305,0.0139881,-0.163055
2.48172,-0.25946,-0.16954
2.62773,-0.0831995,-0.228995
2.71628,0.0118758,-0.262938
2.4956,-0.261659,-0.262806
2.7118,0.0111463,-0.362895
2.55079,-0.176468,-0.386922
2.62868,-0.0852043,-0.423904
2.7125,0.0106757,-0.464488
2.49679,-0.266235,-0.450297
2.63002,-0.0869939,-0.523381
2.71318,0.0108204,-0.567905
2.56482,-0.180857,-0.585435
2.63214,-0.088214,-0.626009
2.65366,-0.0900016,-0.738595
2.60263,-0.0929354,0.247233
2.68028,0.000792332,0.228462
2.61983,-0.09474,0.152902
2.68779,-0.000331308,0.131361
2.60064,-0.0946367,0.057738
2.68179,-0.00140711,0.0333745
2.46222,-0.269921,0.0118887
2.60296,-0.0961315,-0.0370534
2.68025,-0.00243544,-0.0634912
2.47682,-0.272353,-0.0789159
2.60784,-0.097679,-0.131926
2.6971,-0.00259197,-0.162694
2.47314,-0.273914,-0.169066
2.61423,-0.0988321,-0.227867
2.70236,-0.00476663,-0.261589
2.48406,-0.275869,-0.261764
2.53734,-0.189584,-0.290979
2.70587,-0.00548122,-0.362099
2.61528,-0.100837,-0.421835
2.70364,-0.00594858,-0.462969
2.47652,-0.279453,-0.446943
2.61963,-0.102745,-0.521431
2.54908,-0.195473,-0.582105
2.62766,-0.104209,-0.625084
2.72621,-0.00709262,-0.788637
2.60301,-0.108945,0.247327
2.67426,-0.0156187,0.227952
2.60225,-0.110096,0.151912
2.67975,-0.0167733,0.13097
2.58802,-0.110082,0.0574718
2.66873,-0.0177757,0.0332127
2.46548,-0.285599,0.0119127
2.59433,-0.111757,-0.0369396
2.67418,-0.0188388,-0.0633491
2.46319,-0.286161,-0.078536
2.68206,-0.0190347,-0.161791
2.46547,-0.288388,-0.168659
2.52224,-0.203006,-0.196347
2.59566,-0.114083,-0.226305
2.68835,-0.0212379,-0.26024
2.47639,-0.290411,-0.261139
2.60052,-0.115434,-0.322662
2.69885,-0.0220274,-0.361171
2.5307,-0.20631,-0.384228
2.61165,-0.11675,-0.421358
2.68778,-0.0224062,-0.460268
2.46206,-0.29313,-0.444648
2.52853,-0.2076,-0.479745
2.60622,-0.118239,-0.518895
2.61823,-0.119929,-0.623002
2.68608,-0.0229546,-0.668046
2.70499,-0.0236356,-0.782524
2.57544,-0.123626,0.244776
2.65319,-0.0317767,0.226169
2.59454,-0.125723,0.151504
2.58031,-0.12562,0.0573165
2.65158,-0.0339329,0.0330012
2.44979,-0.299025,0.0118455
2.65902,-0.0350493,-0.0629939
2.45544,-0.300541,-0.0783461
2.65494,-0.0351345,-0.160165
2.45573,-0.302535,-0.168117
2.66627,-0.0374255,-0.25812
2.59282,-0.131038,-0.321801
2.68281,-0.0383601,-0.359048
2.51855,-0.220884,-0.382583
2.59413,-0.131921,-0.418653
2.67478,-0.0387123,-0.458074
2.59859,-0.133875,-0.517529
2.6087,-0.135538,-0.620921
2.6723,-0.0392362,-0.664667
2.69711,-0.0401183,-0.7803
2.64398,-0.0478934,0.225404
2.57378,-0.140551,0.15034
2.64132,-0.0500127,0.0328767
2.44295,-0.313415,0.0118215
2.65276,-0.0512482,-0.0628518
2.44165,-0.314071,-0.0779662
2.6427,-0.0511923,-0.159442
2.44294,-0.316188,-0.167371
2.664,-0.0537446,-0.257928
2.50375,-0.233489,-0.287571
2.57513,-0.14599,-0.31971
2.6627,-0.0544158,-0.356396
2.51026,-0.235687,-0.381535
2.58045,-0.147105,-0.416584
2.66563,-0.0549409,-0.456555
2.58303,-0.14897,-0.514603
2.58451,-0.150187,-0.615371
2.66619,-0.0555112,-0.663219
2.66416,-0.0559806,-0.770852
2.63467,-0.0638982,0.22464
2.56291,-0.155736,0.149758
2.47998,-0.242041,0.0786549
2.62797,-0.0658928,0.032715
2.55291,-0.157096,-0.0363849
2.4377,-0.32878,-0.0779029
2.437,-0.330635,-0.1671
2.4893,-0.246548,-0.194103
2.64571,-0.0696183,-0.256193
2.49337,-0.247962,-0.286548
2.65737,-0.0706211,-0.355732
2.49991,-0.250199,-0.380189
2.56669,-0.162126,-0.414516
2.6475,-0.0708215,-0.453517
2.57383,-0.165419,-0.613058
2.65125,-0.0714773,-0.659599
2.6153,-0.0794879,0.223026
2.54995,-0.170658,0.149059
2.61552,-0.0816421,0.0325656
2.54292,-0.17215,-0.0362569
2.42406,-0.34404,-0.166354
2.48378,-0.2614,-0.193794
2.6333,-0.0854634,-0.255037
2.48192,-0.262213,-0.285412
2.49243,-0.264906,-0.379291
2.55285,-0.176985,-0.412447
2.62633,-0.0863845,-0.449972
2.48262,-0.26531,-0.472127
2.55557,-0.178876,-0.509531
2.6333,-0.0871658,-0.655255
2.60581,-0.0952062,0.222262
2.53691,-0.185428,0.14836
2.52859,-0.185397,0.0562518
2.60198,-0.0972038,0.0324039
2.53484,-0.187234,-0.0361573
2.41766,-0.356337,-0.0773964
2.46581,-0.273293,-0.101769
2.41302,-0.357591,-0.165744
2.47816,-0.276194,-0.193485
2.53928,-0.18979,-0.221792
2.62278,-0.101235,-0.254074
2.4773,-0.277105,-0.285071
2.54132,-0.191058,-0.315896
2.48486,-0.279531,-0.378393
2.54187,-0.191902,-0.410856
2.62477,-0.102459,-0.449804
2.54464,-0.193809,-0.507581
2.62108,-0.102865,-0.652358
2.59522,-0.110768,0.221413
2.52478,-0.200123,0.14772
2.51644,-0.200037,0.0560078
2.58835,-0.112603,0.0322421
2.52567,-0.202146,-0.0360435
2.40357,-0.369343,-0.0770166
2.45218,-0.287024,-0.101277
2.52558,-0.20347,-0.128089
2.40388,-0.371324,-0.165269
2.46355,-0.28988,-0.192479
2.5331,-0.204965,-0.221359
2.60719,-0.116659,-0.252629
2.47062,-0.291718,-0.284503
2.52725,-0.205602,-0.314297
2.61601,-0.11774,-0.350427
2.47426,-0.293724,-0.377047
2.53474,-0.207013,-0.409901
2.61523,-0.118162,-0.448285
2.53363,-0.208614,-0.50563
2.60582,-0.1176,-0.545984
2.60877,-0.118418,-0.649462
2.57857,-0.125913,0.220054
2.51057,-0.214506,0.146963
2.50421,-0.214535,0.0557638
2.51741,-0.217038,-0.0359439
2.57805,-0.129,-0.0611467
2.44542,-0.301454,-0.101072
2.50737,-0.217495,-0.127231
2.39565,-0.385117,-0.164863
2.45579,-0.304255,-0.192015
2.52286,-0.219726,-0.220578
2.58356,-0.131491,-0.250413
2.45597,-0.305279,-0.283026
2.51605,-0.220239,-0.313067
2.60633,-0.133334,-0.349233
2.39353,-0.387691,-0.343967
2.4626,-0.307674,-0.37555
2.52555,-0.221871,-0.408628
2.60067,-0.133499,-0.445922
2.52156,-0.223205,-0.503484
2.59636,-0.133823,-0.646566
2.56481,-0.141021,0.21895
2.50424,-0.229451,0.146672
2.49687,-0.229348,0.0556307
2.42988,-0.313134,-0.0116736
2.50906,-0.231836,-0.0358444
2.57122,-0.14448,-0.0610046
2.4346,-0.315298,-0.100703
2.38635,-0.398659,-0.164388
2.44399,-0.318031,-0.191241
2.51254,-0.234369,-0.219797
2.45109,-0.319957,-0.282685
2.51268,-0.235488,-0.312821
2.5926,-0.148586,-0.347509
2.44694,-0.320978,-0.373456
2.51137,-0.236161,-0.406559
2.5939,-0.149115,-0.444909
2.50842,-0.237563,-0.501143
2.54997,-0.155905,0.217761
2.49144,-0.244274,0.055542
2.54891,-0.157938,0.0317817
2.49167,-0.245657,-0.0356168
2.5623,-0.159756,-0.0608151
2.42569,-0.32929,-0.100416
2.48861,-0.246672,-0.126423
2.36813,-0.410567,-0.163304
2.43902,-0.332617,-0.191009
2.50213,-0.248894,-0.219016
2.5599,-0.161804,-0.248293
2.50131,-0.249915,-0.311591
2.57977,-0.163738,-0.345917
2.43513,-0.33464,-0.371959
2.50201,-0.250779,-0.405286
2.57228,-0.163713,-0.441364
2.5531,-0.1729,0.125064
2.48293,-0.258831,0.0553867
2.48216,-0.260108,-0.035503
2.55729,-0.175202,-0.0607204
2.40879,-0.34206,-0.0998016
2.48109,-0.26131,-0.12612
2.36066,-0.424207,-0.162965
2.49263,-0.263405,-0.218321
2.55787,-0.177439,-0.248196
2.49381,-0.264629,-0.310853
2.56784,-0.178806,-0.344458
2.42422,-0.34831,-0.370613
2.49159,-0.265186,-0.403854
2.55648,-0.178464,-0.438833
2.54502,-0.188047,0.124722
2.4654,-0.272305,0.0550318
2.52584,-0.18765,0.0315203
2.47356,-0.274561,-0.0354034
2.53922,-0.189624,-0.0603178
2.39577,-0.355222,-0.0993508
2.47845,-0.276418,-0.126069
2.3482,-0.436859,-0.162287
2.48107,-0.277587,-0.217454
2.54581,-0.192306,-0.247137
2.48918,-0.279594,-0.310484
2.55878,-0.19396,-0.343397
2.48403,-0.279806,-0.4029
2.54944,-0.193699,-0.43782
2.45991,-0.288336,-0.0352327
2.52704,-0.204314,-0.0600573
2.38466,-0.368542,-0.0989819
2.46877,-0.290686,-0.125666
2.32392,-0.447112,-0.160795
2.47536,-0.292338,-0.217107
2.53566,-0.207194,-0.246269
2.40913,-0.37482,-0.278822
2.54569,-0.208685,-0.341806
2.47638,-0.294343,-0.401945
2.53641,-0.20837,-0.435795
2.50542,-0.217078,0.0312964
2.45015,-0.302445,-0.0351189
2.51479,-0.218863,-0.0597968
2.37644,-0.382215,-0.098736
2.45207,-0.303985,-0.124908
2.51092,-0.218658,-0.152036
2.39469,-0.386652,-0.188224
2.52641,-0.222051,-0.245499
2.39893,-0.388325,-0.277913
2.46192,-0.30717,-0.307531
2.46474,-0.308307,-0.400354
2.52625,-0.223148,-0.434276
2.49637,-0.230724,0.122525
2.49607,-0.231708,0.0311968
2.43734,-0.316058,-0.0349625
2.50145,-0.233176,-0.0595126
2.36616,-0.395471,-0.0984081
2.44125,-0.317865,-0.124454
2.50356,-0.233505,-0.151675
2.38441,-0.400019,-0.187605
2.51905,-0.236989,-0.244921
2.38573,-0.401225,-0.276663
2.45114,-0.32111,-0.306424
2.45105,-0.321882,-0.398444
2.51993,-0.238181,-0.433432
2.49292,-0.245841,0.122428
2.49063,-0.246625,0.031147
2.43041,-0.330334,-0.0348914
2.50296,-0.248816,-0.0595837
2.43332,-0.332028,-0.124151
2.49811,-0.248467,-0.151434
2.37209,-0.412932,-0.186831
2.36952,-0.413465,-0.275073
2.43831,-0.334659,-0.305071
2.42849,-0.33409,-0.395103
2.51155,-0.252947,-0.43225
2.47912,-0.260856,0.0310226
2.42041,-0.344115,-0.0347776
2.48349,-0.26228,-0.0591574
2.42233,-0.345682,-0.123696
2.48562,-0.262636,-0.150772
2.3597,-0.425709,-0.186058
2.36107,-0.426935,-0.274391
2.49035,-0.266257,-0.428875
2.47251,-0.275509,0.0309604
2.39452,-0.355436,-0.0344362
2.47686,-0.276958,-0.059039
2.41128,-0.359214,-0.123242
2.47503,-0.276884,-0.15023
2.35018,-0.438899,-0.185516
2.34962,-0.43977,-0.273368
2.41537,-0.361763,-0.302734
2.48182,-0.280757,-0.427693
2.45587,-0.288922,0.0307737
2.46817,-0.29133,-0.0588732
2.46536,-0.291129,-0.149748
2.3357,-0.451042,-0.184588
2.33127,-0.451158,-0.27155
2.39741,-0.374128,-0.300766
2.47907,-0.295863,-0.427524
2.39288,-0.386548,-0.122535
2.45857,-0.305635,-0.149447
2.32018,-0.46283,-0.183582
2.3843,-0.387082,-0.299413
2.46058,-0.308981,-0.424655
2.44576,-0.319293,-0.148785
2.37698,-0.40088,-0.298798
2.44105,-0.321755,-0.421617
2.36631,-0.412113,-0.121425
2.43486,-0.333077,-0.148243
2.38564,-0.37107,-0.0571918
2.33662,-0.452253,-0.207301
2.32013,-0.463847,-0.206086
2.3026,-0.475055,-0.204785
2.38843,-0.404326,-0.324165
2.35643,-0.426127,-0.144449
2.34397,-0.455601,-0.231143
2.33137,-0.468015,-0.230179
