2.75356,0.661073,0.0329675
2.74079,0.801463,0.0498441
2.73144,0.787874,-0.0827335
2.72489,0.932408,0
2.75208,0.650058,-0.032921
2.74408,0.79152,-0.0165988
2.75208,0.650058,0.032921
2.73986,0.790304,0.0497743
2.74953,0.793092,0.116586
2.72648,0.776144,-0.0825008
2.71676,0.919045,0
2.75043,0.639541,-0.0328744
2.75822,0.641352,0.0329675
2.7426,0.780735,0.0497743
2.72904,0.767098,-0.0825008
2.71979,0.91003,0
2.74857,0.629507,-0.263218
2.74717,0.772194,0.11626
2.73043,0.91359,-0.0669978
2.72295,0.90053,0
2.74692,0.619044,0.0327813
2.744,0.760978,0.0497045
2.74985,0.762599,0.11626
2.73361,0.904053,-0.0669978
2.73047,0.746973,-0.0823844
2.72988,0.892264,0
2.74906,0.609454,-0.0327813
2.75687,0.611185,0.0328744
2.74664,0.751397,0.0497045
2.73306,0.737437,-0.0823844
2.72917,0.881499,0
2.75117,0.599853,-0.0327813
2.75508,0.600705,0.0328279
2.74539,0.740762,0.0496346
2.73562,0.727893,-0.0823844
2.72842,0.870752,0
2.75325,0.590247,-0.0327813
2.74833,0.731274,-0.0165291
2.75716,0.591085,0.0328279
2.74409,0.730147,0.0495648
2.73526,0.862424,0
2.75529,0.580632,-0.0327813
2.72689,0.859786,0.0665326
2.76312,0.582281,0.0328744
2.7525,0.722104,0.115934
2.72468,0.859087,-0.133079
2.72298,0.848113,0
2.7573,0.57101,-0.0327813
2.75336,0.570192,-0.262474
2.72606,0.849072,0.0664395
2.75339,0.570199,0.0327347
2.74912,0.71097,0.0495648
2.755,0.712491,0.115934
2.73135,0.69672,-0.0820353
2.73342,0.841434,0
2.75918,0.561865,-0.0327813
2.75184,0.701947,-0.0165058
2.73268,0.841206,0.0665326
2.75918,0.561865,0.0327813
2.75146,0.701852,0.0495648
2.73776,0.687678,-0.0821517
2.72883,0.829083,0
2.76122,0.551748,-0.0327813
2.72469,0.684396,-0.357592
2.75336,0.550177,-0.262102
2.73575,0.831184,0.0665326
2.7573,0.550964,0.0327347
2.75014,0.690787,0.049495
2.74014,0.678118,-0.0821517
2.76313,0.542106,-0.0327813
2.73863,0.82163,0.0665326
2.75921,0.541336,0.0327347
2.74865,0.680223,0.0494252
2.75067,0.680723,0.115446
2.74382,0.679029,0.23075
2.72674,0.808216,0
2.76099,0.532183,-0.0327347
2.74738,0.670247,-0.0164361
2.75704,0.531422,-0.262102
2.73367,0.81027,0.0663465
2.76492,0.53294,0.0327813
2.75089,0.671104,0.0494252
2.76043,0.532074,-0.16372
2.75291,0.671597,0.115446
2.73911,0.811883,-0.133079
2.74606,0.669926,0.23075
2.72557,0.798046,0
2.76274,0.523024,-0.0327347
2.74306,0.659563,-0.359107
2.75488,0.521537,-0.261731
2.74018,0.802325,0.0664395
2.75881,0.522281,0.0326882
2.75901,0.663399,0.115609
2.74827,0.660816,0.23075
2.7392,0.648026,-0.0819189
2.72847,0.788051,0
2.7607,0.512166,-0.0326882
2.74159,0.648592,-0.358602
2.75588,0.651972,-0.0164593
2.73926,0.791167,0.0663465
2.75677,0.511436,0.0326416
2.72566,0.787239,-0.198387
2.75364,0.651443,0.115283
2.74087,0.791633,-0.132893
2.74679,0.649822,0.230424
2.73118,0.924985,-0.0503327
2.73755,0.637552,-0.0818026
2.72736,0.777425,0
2.75854,0.50181,-0.0326416
2.74384,0.639017,-0.358602
2.72397,0.922544,0.0167151
2.74585,0.782696,0.0664395
2.76641,0.503241,0.0327347
2.72839,0.777719,-0.198387
2.75777,0.642261,0.0494252
2.7559,0.641826,0.115283
2.71906,0.91084,-0.0500535
2.73965,0.62847,-0.0818026
2.72993,0.768376,0
2.76019,0.492659,-0.0326416
2.73821,0.62814,-0.357592
2.72322,0.912234,0.0166918
2.75246,0.631409,-0.0164128
2.74458,0.772502,0.0663465
2.76806,0.494064,0.0327347
2.72712,0.767585,-0.198108
2.75988,0.633111,0.0494252
2.76191,0.633577,0.115446
2.75115,0.631108,0.230424
2.72238,0.900869,-0.0500535
2.72887,0.757296,0
2.74049,0.6181,-0.357592
2.72275,0.900991,0.0166686
2.75475,0.621317,-0.0164128
2.75805,0.481854,-0.261359
2.74354,0.761369,0.0662534
2.76592,0.483228,0.0326882
2.73376,0.758652,-0.198387
2.75828,0.622112,0.0493554
2.75642,0.621691,0.11512
2.73746,0.759681,-0.132335
2.75345,0.621021,0.230424
2.72171,0.890117,-0.0499837
2.76759,0.473569,-0.0326882
2.74651,0.609389,-0.358097
2.73348,0.893967,0.0167151
2.75691,0.611696,-0.0164128
2.75972,0.472223,-0.261359
2.74233,0.75073,0.0661604
2.7597,0.47222,0.032595
2.74613,0.751772,0.165813
2.75857,0.612065,0.11512
2.74395,0.751175,-0.132521
2.72068,0.880331,-0.0499139
2.74207,0.599372,-0.0816862
2.72997,0.738137,0
2.76906,0.464873,-0.0326882
2.74453,0.599911,-0.357592
2.73628,0.885376,0.0167151
2.75881,0.603033,-0.0164128
2.74853,0.743156,0.0662534
2.76906,0.464873,0.0326882
2.72332,0.736339,-0.197271
2.75844,0.602951,0.0492856
2.75234,0.744184,0.166045
2.76048,0.603396,0.11512
2.74244,0.741509,-0.132335
2.71504,0.878505,-0.11626
2.72404,0.869879,-0.0499139
2.74044,0.588001,-0.0815699
2.76688,0.45359,-0.0326416
2.74294,0.588536,-0.357087
2.7206,0.86878,0.0165988
2.7572,0.591597,-0.0163896
2.75902,0.452302,-0.260987
2.74364,0.73054,0.0660673
2.76293,0.452943,0.032595
2.75683,0.591517,0.0492158
2.74746,0.731556,0.16558
2.76278,0.592793,0.11512
2.74527,0.730974,-0.132335
2.752,0.590482,0.229773
2.71944,0.857957,-0.0497743
2.74248,0.578431,-0.0815699
2.74497,0.578957,-0.357087
2.73125,0.861684,0.0166453
2.75533,0.581142,-0.0163664
2.74617,0.720957,0.0660673
2.76449,0.443295,0.032595
2.73636,0.718382,-0.197829
2.75887,0.581889,0.0492158
2.76395,0.443208,-0.163022
2.74999,0.72196,0.16558
2.76092,0.58232,0.114957
2.7176,0.857377,-0.116097
2.72241,0.84846,-0.0497743
2.74448,0.568855,-0.0815699
2.76602,0.433643,-0.032595
2.74698,0.569373,-0.357087
2.7266,0.849765,0.0165988
2.76126,0.572333,-0.0163896
2.76211,0.433029,-0.260987
2.74867,0.711367,0.0660673
2.76207,0.433024,0.0325485
2.72727,0.705828,-0.196992
2.73695,0.852989,0.0834316
2.76089,0.572256,0.0492158
2.7409,0.709356,0.164882
2.75902,0.571869,0.114795
2.73483,0.707786,-0.13159
2.75606,0.571255,0.229773
2.72536,0.838951,-0.0497743
2.76752,0.423985,-0.032595
2.74506,0.558988,-0.356581
2.73338,0.841418,0.0166221
2.75932,0.561892,-0.0163664
2.73606,0.69792,-0.304156
2.75967,0.422781,-0.260615
2.74726,0.700779,0.0659743
2.76357,0.423379,0.0325485
2.72971,0.696303,-0.196992
2.73226,0.841076,0.0831989
2.7511,0.701757,0.165347
2.761,0.562234,0.114795
2.74503,0.70021,-0.131962
2.75413,0.560834,0.229448
2.7321,0.830597,-0.0498441
2.74446,0.548897,-0.0814535
2.76898,0.414322,-0.032595
2.76127,0.552258,-0.0163664
2.73847,0.688366,-0.304156
2.76506,0.413736,-0.260987
2.75357,0.692161,0.0660673
2.76503,0.413731,0.0325485
2.72753,0.829209,0.0829662
2.76482,0.552967,0.0492158
2.75353,0.692151,0.165347
2.76686,0.553377,0.114957
2.74358,0.68965,-0.131776
2.72703,0.819706,-0.0497045
2.7501,0.541043,-0.0815699
2.76631,0.405041,-0.0325485
2.74871,0.54077,-0.356581
2.73123,0.820969,0.0165756
2.74062,0.679759,-0.304156
2.77423,0.4062,0.0326416
2.7304,0.677223,-0.196713
2.73012,0.820635,0.0829662
2.76262,0.543506,0.049146
2.75957,0.684457,0.16558
2.76467,0.54391,0.114795
2.74574,0.681027,-0.131776
2.75779,0.542556,0.229448
2.74814,0.530203,-0.0814535
2.77174,0.395465,-0.032595
2.75067,0.530692,-0.356581
2.73039,0.809816,0.0165523
2.76496,0.53345,-0.0163664
2.7431,0.66971,-0.304156
2.77174,0.395465,0.032595
2.73674,0.668158,-0.196992
2.72928,0.809487,0.0828498
2.72102,0.807036,-0.181895
2.77119,0.395387,-0.163022
2.75042,0.671498,0.164882
2.76664,0.533774,0.114795
2.72515,0.797923,-0.0495648
2.76914,0.385235,-0.0325485
2.74861,0.520348,-0.356076
2.73704,0.801403,0.0165756
2.75895,0.522306,-0.0163199
2.74155,0.6592,-0.303727
2.76129,0.384143,-0.260243
2.75666,0.662834,0.0659743
2.76914,0.385235,0.0325485
2.73517,0.657667,-0.196713
2.73593,0.801078,0.0829662
2.75663,0.662826,0.165115
2.75671,0.521882,0.114306
2.73888,0.658559,-0.131218
2.72331,0.797383,-0.115609
2.77437,0.376588,-0.032595
2.75422,0.511955,-0.356581
2.732,0.790099,0.0165291
2.7646,0.513884,-0.0163431
2.73985,0.649188,-0.303299
2.75496,0.652766,0.0658812
2.7704,0.37605,0.0325485
2.73346,0.647673,-0.196434
2.73473,0.790889,0.0828498
2.75493,0.652759,0.164882
2.76235,0.513467,0.114469
2.73716,0.648551,-0.131032
2.7594,0.512918,0.229122
2.7221,0.787237,-0.115446
2.73066,0.778879,-0.0495648
2.7496,0.500679,-0.0813371
2.7678,0.36537,-0.0325019
2.73872,0.781178,0.0165523
2.76253,0.503032,-0.0163199
2.74221,0.639142,-0.303299
2.76785,0.365377,-0.260615
2.75733,0.642665,0.0658812
2.7678,0.36537,0.0325019
2.73193,0.636744,-0.196155
2.73376,0.779764,0.0827335
2.76609,0.503681,0.0490762
2.72164,0.776307,-0.181384
2.7573,0.642658,0.164882
2.76422,0.50334,0.114469
2.74341,0.639422,-0.131218
2.72497,0.777255,-0.115446
2.72951,0.76826,-0.049495
2.75133,0.49108,-0.0813371
2.74538,0.490018,-0.557758
2.76906,0.355709,-0.0325019
2.75,0.490842,-0.355571
2.73373,0.769448,0.0165058
2.7682,0.494091,-0.0163431
2.74055,0.628678,-0.30287
2.76911,0.355715,-0.260615
2.76906,0.355709,0.0325019
2.73647,0.770219,0.0827335
2.76783,0.494024,0.0490762
2.75563,0.632138,0.16465
2.76989,0.494392,0.114632
2.75342,0.63163,-0.13159
2.74909,0.480783,-0.0812208
2.74708,0.480431,-0.557758
2.77028,0.34604,-0.0325019
2.75561,0.481922,-0.356076
2.7364,0.7599,0.0165058
2.76597,0.483735,-0.0163199
2.73497,0.617356,-0.302014
2.76243,0.345059,-0.259872
2.75785,0.62252,0.0657882
2.77425,0.346536,0.0325485
2.73631,0.617658,-0.196155
2.73914,0.760661,0.0827335
2.7656,0.48367,0.0490064
2.727,0.757289,-0.181384
2.75782,0.622515,0.16465
2.76766,0.484031,0.114469
2.75171,0.621135,-0.131404
2.76077,0.482826,0.228797
2.74857,0.471797,-0.557758
2.77533,0.337818,-0.0325485
2.75711,0.473262,-0.356076
2.73877,0.751299,0.0165058
2.76354,0.474366,-0.0162966
2.7369,0.60876,-0.302014
2.76745,0.336859,-0.260243
2.75979,0.613853,0.0657882
2.76739,0.336851,0.0324553
2.73823,0.609057,-0.196155
2.76228,0.47415,-0.228797
2.74152,0.752052,0.0827335
2.7671,0.474978,0.0490064
2.75587,0.61298,0.164417
2.76129,0.473981,0.114143
2.73805,0.609016,-0.130659
2.76228,0.47415,0.228797
2.74255,0.460421,-0.556189
2.77655,0.327642,-0.0325485
2.74537,0.742299,0.0165291
2.76526,0.464233,-0.0162966
2.73911,0.598724,-0.302014
2.76471,0.326246,-0.259872
2.76202,0.603733,0.0657882
2.77257,0.327174,0.0325019
2.73655,0.598165,-0.195876
2.74039,0.740954,0.0826171
2.76883,0.464832,0.0490064
2.72823,0.737666,-0.181128
2.776,0.327578,-0.162789
2.7581,0.602874,0.164417
2.76301,0.463856,0.114143
2.74026,0.598976,-0.130659
2.76007,0.463362,0.228471
2.72771,0.737524,-0.11512
2.73211,0.728491,-0.0493554
2.74995,0.451801,-0.0811044
2.74801,0.451481,-0.556973
2.76575,0.316585,-0.0324088
2.73586,0.588016,-0.435356
2.75651,0.452877,-0.355571
2.74794,0.732712,0.0165291
2.77081,0.455227,-0.0163199
2.73729,0.588324,-0.301585
2.76979,0.317047,-0.260243
2.7737,0.317494,0.0325019
2.74252,0.589448,-0.196155
2.7391,0.730354,0.0825008
2.73079,0.728139,-0.181128
2.76018,0.593244,0.164417
2.76856,0.454857,0.114306
2.75405,0.591926,-0.131218
2.73027,0.727998,-0.11512
2.73065,0.71841,-0.0492856
2.75538,0.443315,-0.0812208
2.74949,0.442366,-0.556973
2.77076,0.307853,-0.0324553
2.73393,0.578123,-0.434741
2.75016,0.442474,-0.354561
2.73875,0.720543,0.0164593
2.7723,0.446036,-0.0163199
2.74312,0.580067,-0.302014
2.76687,0.307421,-0.259872
2.77871,0.308737,0.0325485
2.74056,0.579525,-0.195876
2.73764,0.72025,0.0823844
2.77192,0.445976,0.0490064
2.72933,0.718064,-0.180872
2.76214,0.584088,0.164417
2.774,0.446309,0.114469
2.74818,0.581137,-0.130846
2.76316,0.444565,0.228471
2.7288,0.717924,-0.114957
2.73603,0.568099,-0.434741
2.75568,0.433008,-0.355066
2.74138,0.710501,0.0164593
2.76601,0.434631,-0.0162734
2.73355,0.567584,-0.300729
2.77194,0.297704,-0.260243
2.76428,0.573965,0.0656951
2.77585,0.298124,0.0325019
2.73875,0.568666,-0.195597
2.74026,0.710212,0.0823844
2.77354,0.435814,0.0490064
2.72808,0.707055,-0.180616
2.76035,0.573149,0.164185
2.77166,0.435519,0.114306
2.75029,0.571061,-0.130846
2.76477,0.434435,0.228471
2.73141,0.707918,-0.114957
2.7356,0.699329,-0.0492856
2.74732,0.560946,0
2.77682,0.288916,-0.0325019
2.73402,0.558232,-0.434126
2.76102,0.424469,-0.355571
2.73984,0.700415,0.0164361
2.77139,0.426063,-0.0162966
2.73541,0.558516,-0.300729
2.76895,0.288097,-0.259872
2.77682,0.288916,0.0325019
2.74454,0.560378,-0.195876
2.76225,0.424658,-0.228146
2.73873,0.70013,0.082268
2.77497,0.426613,0.0490064
2.73041,0.698004,-0.180616
2.77628,0.28886,-0.162557
2.76615,0.56479,0.164417
2.76519,0.42511,0.11398
2.74434,0.560339,-0.130473
2.73374,0.698856,-0.114957
2.73426,0.688321,-0.0492158
2.75016,0.412487,-0.556189
2.77786,0.278736,-0.0325019
2.73993,0.548983,-0.434741
2.76256,0.414346,-0.355571
2.74239,0.690367,0.0164361
2.77294,0.415902,-0.0162966
2.74134,0.549267,-0.301157
2.76602,0.277548,-0.2595
2.77786,0.278736,0.0325019
2.73875,0.548746,-0.195318
2.74515,0.691063,0.0823844
2.77652,0.416439,0.0490064
2.73682,0.688965,-0.180872
2.76428,0.553863,0.164185
2.76673,0.414972,0.11398
2.7503,0.551061,-0.130659
2.77168,0.555346,0.347084
2.73241,0.687855,-0.114795
2.74053,0.679736,-0.0492856
2.75742,0.403739,-0.0811044
2.74771,0.402317,-0.555404
2.77484,0.268653,-0.0324553
2.74183,0.539416,-0.434741
2.74478,0.680791,0.0164361
2.74324,0.539695,-0.301157
2.77094,0.268276,-0.259872
2.76621,0.544214,0.0656021
2.77484,0.268653,0.0324553
2.74848,0.540724,-0.195876
2.76127,0.404303,-0.227821
2.74367,0.680514,0.082268
2.774,0.406166,0.0489365
2.73534,0.678448,-0.180616
2.77828,0.268986,-0.162557
2.7662,0.544211,0.164185
2.77212,0.405891,0.114143
2.7522,0.541457,-0.130659
2.77062,0.405671,-0.14675
2.75802,0.542603,0.345134
2.73092,0.677352,-0.114632
2.739,0.669216,-0.0492158
2.75485,0.393545,-0.080988
2.75298,0.393277,-0.556189
2.77576,0.258965,-0.0324553
2.73593,0.528343,-0.433511
2.76146,0.394488,-0.355066
2.74326,0.670256,0.0164128
2.7412,0.529361,-0.300729
2.76393,0.257861,-0.259128
2.77576,0.258965,0.0324553
2.74251,0.529613,-0.195318
2.76267,0.394661,-0.227821
2.74214,0.669983,0.0821517
2.7754,0.39648,0.0489365
2.73381,0.667947,-0.18036
2.7792,0.259286,-0.162557
2.77747,0.396776,0.114306
2.75408,0.531846,-0.130659
2.7638,0.533724,0.345621
2.73327,0.667814,-0.114632
2.7601,0.38496,-0.0811044
2.75427,0.384146,-0.556189
2.77262,0.249401,-0.0324088
2.75882,0.384781,-0.354561
2.74547,0.661155,0.0164128
2.77311,0.386774,-0.0162734
2.73904,0.519527,-0.3003
2.76477,0.248695,-0.259128
2.7766,0.249759,0.0324553
2.75212,0.662759,0.0823844
2.73213,0.657944,-0.180104
2.78005,0.250069,-0.162557
2.76592,0.524625,0.163952
2.77086,0.38646,0.11398
2.75582,0.522711,-0.130659
2.76945,0.525296,0.346109
2.73547,0.658747,-0.114632
2.73571,0.648712,-0.0490762
2.75747,0.374785,-0.080988
2.78144,0.24041,-0.0325019
2.76408,0.375684,-0.355066
2.75554,0.653414,0.0164593
2.74474,0.510691,-0.300729
2.77356,0.239729,-0.259872
2.76774,0.514969,0.065509
2.78144,0.24041,0.0325019
2.74605,0.510934,-0.195318
2.76924,0.376386,-0.228146
2.74664,0.651304,0.0821517
2.77803,0.37758,0.0489365
2.73829,0.649325,-0.18036
2.7809,0.240364,-0.162557
2.76773,0.514968,0.163952
2.77219,0.376786,0.11398
2.7537,0.512358,-0.130473
2.77127,0.515627,0.346109
2.74164,0.650117,-0.114795
2.73796,0.639158,-0.0490762
2.75876,0.365157,-0.080988
2.74512,0.500852,-0.434126
2.76537,0.366032,-0.355066
2.7578,0.643791,0.0164593
2.74651,0.501106,-0.300729
2.77041,0.229716,-0.2595
2.76952,0.505304,0.065509
2.77828,0.230369,0.0324553
2.74389,0.500629,-0.195039
2.75279,0.64262,0.082268
2.77537,0.367355,0.0488667
2.74054,0.639761,-0.18036
2.76558,0.504586,0.16372
2.76953,0.366582,0.113818
2.75154,0.502025,-0.130287
2.76915,0.505237,0.345621
2.74,0.639634,-0.114632
2.78539,0.368681,0.512277
2.74396,0.630972,-0.049146
2.75419,0.355263,-0.555404
2.77903,0.221155,-0.0324553
2.75213,0.63285,0.0164128
2.74816,0.491996,-0.300729
2.77115,0.220528,-0.2595
2.77118,0.496118,0.065509
2.77903,0.221155,0.0324553
2.74554,0.491528,-0.195039
2.76383,0.356507,-0.227495
2.75101,0.632593,0.0821517
2.78054,0.358662,0.0489365
2.73876,0.629776,-0.180104
2.77117,0.496117,0.163952
2.77073,0.357397,0.113818
2.74533,0.49149,-0.129915
2.76299,0.494652,0.344647
2.73821,0.629649,-0.114469
2.78659,0.359443,0.512277
2.74224,0.620508,-0.0490762
2.76118,0.346372,-0.080988
2.75541,0.345647,-0.555404
2.77579,0.21115,-0.0324088
2.73678,0.480107,-0.432282
2.7678,0.347202,-0.355066
2.74262,0.620592,0.0163431
2.78377,0.211757,0.0325019
2.74724,0.481941,-0.195039
2.76902,0.347354,-0.227821
2.7493,0.622104,0.0820353
2.7778,0.348457,0.0488667
2.73705,0.619332,-0.179849
2.77289,0.486441,0.163952
2.77592,0.348221,0.11398
2.7549,0.483285,-0.130287
2.76861,0.485691,0.345134
2.74039,0.620088,-0.114469
2.79174,0.350205,0.512995
2.7406,0.609584,-0.0490064
2.76055,0.336019,-0.556189
2.75176,0.472344,0
2.78054,0.201263,-0.0324553
2.73852,0.470073,-0.432282
2.76512,0.336575,-0.354561
2.74878,0.611403,0.0163664
2.77944,0.338318,-0.0162734
2.78852,0.20184,0.0325485
2.75292,0.472543,-0.195318
2.75547,0.612891,0.0821517
2.78303,0.338756,0.0489365
2.74709,0.611028,-0.18036
2.78399,0.201513,-0.162557
2.76678,0.474923,0.163487
2.77321,0.337561,0.113818
2.75665,0.473184,-0.130287
2.77037,0.47554,0.345134
2.74264,0.610039,-0.114469
2.78519,0.339018,0.51156
2.74661,0.600869,-0.0490762
2.76171,0.326382,-0.556189
2.7892,0.192106,-0.0325485
2.74405,0.461166,-0.432897
2.74699,0.60095,0.0163431
2.77663,0.328145,-0.0162501
2.7454,0.461393,-0.299872
2.77732,0.191287,-0.259872
2.78122,0.191556,0.0324553
2.75062,0.46227,-0.195039
2.77143,0.327531,-0.227821
2.75368,0.602415,0.0820353
2.78023,0.32857,0.0488667
2.74921,0.601436,-0.18036
2.7763,0.466586,0.163952
2.75435,0.462897,-0.130101
2.77202,0.465867,0.345134
2.74476,0.600462,-0.114469
2.79026,0.329757,0.512277
2.74077,0.590073,-0.0489365
2.75498,0.316326,-0.55462
2.78982,0.182855,-0.0325485
2.73776,0.450779,-0.431667
2.7607,0.594362,0.0164128
2.74691,0.452286,-0.299872
2.77396,0.181815,-0.2595
2.78184,0.182332,0.0324553
2.7482,0.452497,-0.19476
2.75567,0.593279,0.0820353
2.7813,0.319348,0.0488667
2.74338,0.590635,-0.179849
2.78529,0.182558,-0.162557
2.77783,0.457376,0.163952
2.77148,0.31822,0.113655
2.75587,0.45376,-0.130101
2.76571,0.455381,0.344159
2.74673,0.591356,-0.114469
2.78743,0.320052,0.51156
2.74683,0.580852,-0.0490064
2.76002,0.30666,-0.555404
2.7785,0.171888,-0.0324088
2.75503,0.582585,0.0163664
2.78283,0.309194,-0.0162734
2.74462,0.441584,-0.299443
2.78256,0.172139,-0.260243
2.78648,0.172382,0.0325019
2.75378,0.443056,-0.195039
2.76969,0.307734,-0.227495
2.75391,0.582349,0.0819189
2.78245,0.309153,0.0488667
2.74943,0.581402,-0.180104
2.7766,0.308502,0.113818
2.75356,0.443022,-0.129915
2.74888,0.581285,-0.114469
2.7925,0.310269,0.512277
2.74884,0.571259,-0.0490064
2.76686,0.297646,-0.080988
2.76107,0.297023,-0.555404
2.75413,0.433255,0
2.78707,0.162654,-0.0325019
2.76955,0.297935,-0.354561
2.74921,0.571337,0.0163199
2.78389,0.299478,-0.0162734
2.75008,0.432618,-0.299872
2.77519,0.161961,-0.2595
2.78707,0.162654,0.0325019
2.75531,0.43344,-0.195039
2.77074,0.298064,-0.227495
2.75201,0.571918,0.0818026
2.77954,0.29901,0.0487969
2.74363,0.570176,-0.179593
2.78254,0.16239,-0.162324
2.77368,0.29838,0.113655
2.76299,0.434649,-0.130287
2.74307,0.570059,-0.114143
2.78965,0.300098,0.51156
2.7468,0.56134,-0.0489365
2.76385,0.288055,-0.0808717
2.76204,0.287866,-0.555404
2.76741,0.425946,0
2.78759,0.153411,-0.0325019
2.76657,0.288338,-0.354056
2.75109,0.562217,0.0163199
2.7836,0.153191,0.0324553
2.75673,0.424301,-0.195039
2.77172,0.288874,-0.227495
2.75389,0.562789,0.0818026
2.78051,0.289791,0.0487969
2.74551,0.561076,-0.179593
2.78307,0.153162,-0.162324
2.77457,0.427048,0.163487
2.77068,0.288767,0.113492
2.75652,0.424269,-0.129915
2.77033,0.426395,0.344159
2.74886,0.561761,-0.114306
2.79063,0.290846,0.51156
2.75267,0.552535,-0.0490064
2.76303,0.278222,-0.555404
2.76097,0.415093,0
2.79211,0.143885,-0.0325485
2.74379,0.41251,-0.431667
2.77151,0.279076,-0.354561
2.76088,0.554184,0.0163664
2.78419,0.143477,-0.260243
2.79211,0.143885,0.0325485
2.7503,0.413489,-0.194481
2.75976,0.553959,0.0819189
2.78151,0.280083,0.0487969
2.74745,0.551488,-0.179593
2.77605,0.41736,0.163487
2.77167,0.279093,0.113492
2.7718,0.416721,0.344159
2.7508,0.552161,-0.114306
2.79554,0.281496,0.512277
2.75458,0.542924,-0.0490064
2.7658,0.268753,-0.0808717
2.76008,0.268197,-0.55462
2.76636,0.406035,0
2.79659,0.13433,-0.032595
2.74521,0.40293,-0.431667
2.77247,0.269401,-0.354561
2.7628,0.544544,0.0163664
2.77886,0.270022,-0.0162269
2.74652,0.403122,-0.299015
2.77748,0.407667,0.0653229
2.7886,0.133946,0.0325019
2.75173,0.403887,-0.194481
2.76168,0.544323,0.0819189
2.78247,0.270373,0.0487969
2.74544,0.541123,-0.179337
2.79204,0.134112,-0.162789
2.77749,0.407667,0.163487
2.77263,0.269417,0.113492
2.75546,0.404434,-0.129729
2.77324,0.407044,0.344159
2.75271,0.542556,-0.114306
2.79651,0.271737,0.512277
2.75253,0.532545,-0.0489365
2.7707,0.259469,-0.080988
2.761,0.25856,-0.55462
2.7638,0.395808,0
2.79304,0.124389,-0.0325485
2.74269,0.392784,-0.431052
2.76076,0.534136,0.0163431
2.78377,0.260693,-0.0162501
2.74791,0.393531,-0.299015
2.78512,0.124036,-0.260243
2.77889,0.397968,0.0653229
2.78505,0.124033,0.0324553
2.75312,0.394278,-0.194481
2.77459,0.259833,-0.227495
2.75571,0.53316,0.0816862
2.78738,0.26103,0.0488667
2.74731,0.531535,-0.179337
2.78851,0.124187,-0.162557
2.77753,0.260109,0.113655
2.7529,0.394246,-0.129543
2.77464,0.39736,0.344159
2.74674,0.531425,-0.11398
2.79352,0.261606,0.51156
2.75044,0.522188,-0.0488667
2.77159,0.249796,-0.080988
2.76579,0.249274,-0.555404
2.76913,0.386712,0
2.78946,0.114475,-0.0325019
2.74404,0.383208,-0.431052
2.75081,0.522259,0.0162734
2.78467,0.250975,-0.0162501
2.74926,0.383938,-0.299015
2.78951,0.114477,-0.260615
2.79346,0.114639,0.0325485
2.75448,0.384666,-0.194481
2.77548,0.250147,-0.227495
2.75755,0.523538,0.0816862
2.78429,0.250941,0.0487969
2.74915,0.521943,-0.179337
2.77842,0.250412,0.113655
2.75821,0.385188,-0.129729
2.77601,0.387673,0.344159
2.75251,0.52258,-0.114143
2.79442,0.251854,0.51156
2.75225,0.512585,-0.0488667
2.77244,0.24012,-0.080988
2.77046,0.377044,0
2.78985,0.104738,-0.0325019
2.74536,0.373628,-0.431052
2.77514,0.240354,-0.354561
2.75655,0.513386,0.0162966
2.77755,0.240563,-0.0162036
2.78985,0.104738,0.0325019
2.7558,0.375049,-0.194481
2.78031,0.240802,-0.227821
2.76329,0.514642,0.0818026
2.78515,0.241221,0.0487969
2.75488,0.513075,-0.179593
2.78931,0.104717,-0.162557
2.77369,0.377483,0.163022
2.77928,0.240713,0.113655
2.7635,0.376097,-0.129915
2.77341,0.377446,0.343672
2.75431,0.512969,-0.114143
2.79528,0.242098,0.51156
2.75009,0.502255,-0.0487969
2.76747,0.229959,-0.555404
2.77573,0.367896,0
2.79019,0.094998,-0.0325019
2.75057,0.364561,-0.431667
2.77596,0.230664,-0.354561
2.75833,0.50376,0.0162966
2.77838,0.230865,-0.0162036
2.78627,0.0948643,-0.260243
2.79819,0.0952702,0.032595
2.76105,0.365951,-0.19476
2.77716,0.230764,-0.227495
2.76114,0.504274,0.0816862
2.78597,0.231497,0.0487969
2.7488,0.50202,-0.179081
2.78965,0.0949796,-0.162557
2.77895,0.368323,0.163254
2.77612,0.230678,0.113492
2.75688,0.365397,-0.129543
2.77471,0.367762,0.343672
2.75609,0.503351,-0.114143
2.79611,0.232339,0.51156
2.75576,0.493358,-0.0488667
2.77007,0.220442,-0.0808717
2.76825,0.220298,-0.555404
2.76509,0.35667,0
2.79451,0.0853806,-0.0325485
2.75182,0.354959,-0.431667
2.76007,0.49413,0.0162966
2.78714,0.221801,-0.0162501
2.79056,0.08526,-0.260615
2.77624,0.358108,0.0651368
2.79451,0.0853806,0.0325485
2.75836,0.355801,-0.194481
2.77397,0.220753,-0.22717
2.75895,0.493929,0.0815699
2.79075,0.222088,0.0488667
2.75447,0.493126,-0.179337
2.78418,0.359132,0.163487
2.77691,0.220987,0.113492
2.7621,0.356284,-0.129729
2.77992,0.358583,0.344159
2.75783,0.493728,-0.114143
2.79298,0.222266,0.510843
2.76132,0.484908,-0.0489365
2.76897,0.211116,-0.555404
2.76626,0.347498,0
2.78678,0.0758946,-0.0324553
2.76169,0.484973,0.0162966
2.78387,0.212252,-0.0162269
2.75824,0.346491,-0.299443
2.79083,0.0760049,-0.260615
2.78138,0.349398,0.0652298
2.79877,0.0762213,0.032595
2.75556,0.346154,-0.194202
2.78264,0.212158,-0.227821
2.76057,0.484776,0.0815699
2.75609,0.483988,-0.179337
2.78535,0.349896,0.163487
2.78161,0.21208,0.113655
2.76326,0.347121,-0.129729
2.75551,0.483888,-0.11398
2.79763,0.213301,0.51156
2.75914,0.474107,-0.0488667
2.77154,0.201098,-0.0808717
2.76972,0.200966,-0.555404
2.76751,0.337357,0
2.78704,0.0656807,-0.0324553
2.77822,0.201583,-0.354561
2.75951,0.474171,0.0162734
2.78862,0.202338,-0.0162501
2.79109,0.0657761,-0.260615
2.78264,0.339201,0.0652298
2.79503,0.0658691,0.0325485
2.76077,0.336535,-0.194481
2.77942,0.20167,-0.227495
2.76233,0.474656,0.0815699
2.78027,0.201731,0.0486573
2.75391,0.473208,-0.179081
2.77839,0.201595,0.113492
2.76452,0.336992,-0.129729
2.78485,0.202064,-0.146331
2.77841,0.338686,0.343672
2.75727,0.473786,-0.11398
2.79839,0.203046,0.51156
2.75683,0.463809,-0.0487969
2.77222,0.191422,-0.0808717
2.77041,0.191296,-0.555404
2.76868,0.327694,0
2.79525,0.0561115,-0.0325485
2.74754,0.325193,-0.430437
2.77891,0.191883,-0.354561
2.7572,0.463871,0.0162501
2.78532,0.192326,-0.0162269
2.79125,0.0560312,0.0325019
2.76193,0.326896,-0.194481
2.78409,0.192241,-0.227821
2.76397,0.46501,0.0815699
2.78494,0.1923,0.0487271
2.75161,0.46293,-0.178825
2.7947,0.0561005,-0.162789
2.78382,0.329487,0.163254
2.78306,0.19217,0.113655
2.76171,0.326869,-0.129543
2.77564,0.328518,0.343184
2.75891,0.464158,-0.11398
2.79516,0.193005,0.510843
2.7623,0.455315,-0.0488667
2.77284,0.182228,-0.0808717
2.76577,0.318055,0
2.79542,0.0468424,-0.0325485
2.76267,0.455377,0.0162734
2.78594,0.183089,-0.0162269
2.79147,0.0467762,-0.260615
2.78092,0.319796,0.0651368
2.79542,0.0468424,0.0325485
2.763,0.317736,-0.194481
2.78471,0.183008,-0.227821
2.76155,0.455192,0.0814535
2.79355,0.183589,0.0488667
2.75706,0.454452,-0.179081
2.79886,0.0469001,-0.163022
2.77969,0.182678,0.113492
2.76278,0.31771,-0.129543
2.77671,0.319312,0.343184
2.76437,0.455657,-0.114143
2.79185,0.183477,0.510125
2.75985,0.445514,-0.0487969
2.77343,0.173031,-0.0808717
2.77162,0.172918,-0.555404
2.79556,0.0375714,-0.0325485
2.74964,0.306963,-0.430437
2.77207,0.447487,0.0163199
2.78654,0.173849,-0.0162269
2.7588,0.307986,-0.299015
2.79161,0.0375184,-0.260615
2.78196,0.310572,0.0651368
2.79156,0.0375177,0.0325019
2.76404,0.308571,-0.194481
2.7853,0.173772,-0.227821
2.76305,0.446031,0.0814535
2.79414,0.174323,0.0488667
2.75856,0.445306,-0.179081
2.799,0.0376177,-0.163022
2.78028,0.173459,0.113492
2.76779,0.308989,-0.129729
2.7817,0.310542,0.343672
2.76192,0.44585,-0.11398
2.75743,0.435256,-0.0487271
2.77801,0.163586,-0.080988
2.7722,0.163244,-0.555404
2.79567,0.0278148,-0.0325485
2.76966,0.437186,0.0162966
2.75591,0.297929,-0.298587
2.79571,0.0278151,-0.260987
2.79967,0.0278546,0.032595
2.76113,0.298494,-0.194202
2.78191,0.163816,-0.227495
2.76459,0.436385,0.0814535
2.79473,0.164571,0.0488667
2.76404,0.436298,-0.179337
2.78701,0.301291,0.163254
2.78087,0.163755,0.113492
2.76488,0.298898,-0.129543
2.78734,0.164135,-0.146331
2.77882,0.300406,0.343184
2.75952,0.435585,-0.113818
2.80482,0.165165,0.512277
2.76296,0.425754,-0.0487969
2.7746,0.153181,-0.0808717
2.7767,0.153296,-0.556189
2.78776,0.0175156,-0.0324553
2.75176,0.287279,-0.430437
2.77733,0.153331,-0.354056
2.76729,0.426421,0.0162734
2.7917,0.154125,-0.0162501
2.75698,0.287824,-0.298587
2.79579,0.0175661,-0.260987
2.78411,0.290656,0.0651368
2.79576,0.0175659,0.0325485
2.77014,0.289198,-0.19476
2.77851,0.153397,-0.22717
2.75826,0.42503,0.0812208
2.79132,0.154104,0.0487969
2.75773,0.424947,-0.178825
2.7881,0.291072,0.163254
2.78145,0.153559,0.113492
2.76993,0.289175,-0.129729
2.7799,0.290217,0.343184
2.75714,0.424857,-0.113655
2.80541,0.154882,0.512277
2.76041,0.415994,-0.0487271
2.77908,0.144187,-0.080988
2.77719,0.144088,-0.556189
2.7699,0.27989,0
2.7918,0.00828345,-0.0325019
2.78178,0.144327,-0.354561
2.76078,0.41605,0.0162269
2.78421,0.144452,-0.0162036
2.79583,0.00829542,-0.260987
2.78506,0.281423,0.0651368
2.8038,0.00831905,0.0326416
2.76315,0.279209,-0.194202
2.78697,0.144596,-0.227821
2.76757,0.417073,0.0814535
2.78783,0.14464,0.0487271
2.75912,0.4158,-0.178825
2.78905,0.281826,0.163254
2.78594,0.144542,0.113655
2.76689,0.279587,-0.129543
2.78085,0.280997,0.343184
2.76249,0.416308,-0.113818
2.80591,0.145578,0.512277
2.75795,0.405293,-0.0486573
2.7756,0.133808,-0.0808717
2.7777,0.133909,-0.556189
2.7709,0.269737,0
2.79581,-0.00195125,-0.0325485
2.7537,0.268063,-0.430437
2.76624,0.406511,0.0162501
2.78871,0.13444,-0.0162269
2.75892,0.268571,-0.298587
2.78209,0.270826,0.0650437
2.79981,-0.00195404,0.032595
2.76415,0.26908,-0.194202
2.76908,0.406927,0.0814535
2.79233,0.134614,0.0487969
2.76063,0.405685,-0.178825
2.78609,0.271215,0.163022
2.78246,0.134138,0.113492
2.7679,0.269445,-0.129543
2.78581,0.271188,0.343672
2.764,0.406181,-0.113818
2.76727,0.396799,-0.0487969
2.77605,0.124119,-0.0808717
2.77423,0.124038,-0.555404
2.79979,-0.0117266,-0.032595
2.76765,0.396853,0.0162501
2.79716,0.125063,-0.0162734
2.7998,-0.0117267,-0.261359
2.787,0.261488,0.0651368
2.79579,-0.0117098,0.0325485
2.76507,0.25943,-0.194202
2.77048,0.397259,0.0814535
2.79278,0.124867,0.0487969
2.76598,0.396614,-0.179081
2.80323,-0.011741,-0.163254
2.7869,0.124604,0.113655
2.76882,0.259782,-0.129543
2.7654,0.396531,-0.113818
2.80688,0.125497,0.512277
2.7685,0.388103,-0.0487969
2.78042,0.115562,-0.080988
2.77853,0.115484,-0.556189
2.77263,0.251354,0
2.79574,-0.0204938,-0.0325485
2.75542,0.249793,-0.430437
2.77284,0.388711,0.0162734
2.78954,0.115941,-0.0162269
2.76064,0.250267,-0.298587
2.78781,0.25273,0.0651368
2.79974,-0.0205231,0.032595
2.7619,0.250381,-0.193923
2.78831,0.11589,-0.227821
2.76379,0.387443,0.0812208
2.79316,0.116092,0.0487969
2.76326,0.387367,-0.178825
2.78728,0.115847,0.113655
2.76963,0.251081,-0.129543
2.76267,0.387285,-0.113655
2.80333,0.116514,0.51156
2.76588,0.377896,-0.0487271
2.7888,0.106161,-0.0812208
2.77499,0.105635,-0.555404
2.79965,-0.0302953,-0.032595
2.75627,0.240174,-0.430437
2.78351,0.10596,-0.354561
2.77022,0.378488,0.0162501
2.78993,0.106204,-0.0162269
2.7615,0.24063,-0.298587
2.79965,-0.0302953,0.032595
2.76673,0.241086,-0.194202
2.7887,0.106157,-0.227821
2.76909,0.378335,0.0813371
2.79355,0.106342,0.0487969
2.76459,0.37772,-0.178825
2.79267,0.243346,0.163254
2.78767,0.106118,0.113655
2.77447,0.24176,-0.129729
2.76005,0.377099,-0.113492
2.80372,0.106729,0.51156
2.75938,0.36622,-0.0485875
2.7793,0.0951129,-0.556189
2.77838,0.231355,0
2.79551,-0.040987,-0.0325485
2.7839,0.0952702,-0.354561
2.77165,0.367848,0.0162501
2.79032,0.0954901,-0.0162269
2.80351,-0.0411042,0.0326416
2.76366,0.230129,-0.193923
2.77052,0.367699,0.0813371
2.78994,0.0954771,0.0487271
2.76206,0.366576,-0.178569
2.80295,-0.041096,-0.163254
2.79358,0.23262,0.163254
2.78805,0.0954125,0.113655
2.78537,0.231936,0.343184
2.76148,0.366498,-0.113492
2.8041,0.0959618,0.51156
2.76448,0.358063,-0.0486573
2.77958,0.0863816,-0.556189
2.77112,0.221987,0
2.79937,-0.0498398,-0.032595
2.78815,0.0866477,-0.355066
2.76486,0.358112,0.0162036
2.79061,0.0867241,-0.0162269
2.79938,-0.0498401,-0.261359
2.78632,0.223204,0.0650437
2.80337,-0.049911,0.0326416
2.77233,0.222083,-0.194481
2.7677,0.35848,0.0812208
2.79423,0.0868366,0.0487969
2.75924,0.357385,-0.178314
2.78634,0.223205,0.162789
2.7721,0.222065,-0.129543
2.78609,0.223185,0.343184
2.76658,0.358334,-0.113655
2.80439,0.0871525,0.51156
2.76572,0.348411,-0.0486573
2.77203,0.0764614,-0.55462
2.80717,-0.0597822,-0.0326882
2.75864,0.211297,-0.430437
2.76609,0.348458,0.0162036
2.79089,0.0769818,-0.0162269
2.76387,0.211698,-0.298587
2.79919,-0.0596122,-0.261359
2.79107,0.213781,0.0651368
2.79918,-0.0596118,0.032595
2.76513,0.211794,-0.193923
2.79364,0.0770576,-0.228146
2.76893,0.348816,0.0812208
2.79451,0.0770816,0.0487969
2.76443,0.348249,-0.178569
2.78863,0.0769193,0.113655
2.77685,0.212692,-0.129729
2.78685,0.213458,0.343184
2.77178,0.349174,-0.113818
2.80861,0.0774706,0.512277
2.76703,0.337789,-0.0486573
2.78604,0.0661438,-0.0811044
2.78014,0.0660039,-0.556189
2.77667,0.201957,0
2.79493,-0.0702583,-0.0325485
2.76741,0.337835,0.0162036
2.79517,0.0663606,-0.0162501
2.76466,0.201084,-0.298587
2.79187,0.203063,0.0651368
2.80292,-0.0704593,0.0326416
2.7699,0.201466,-0.194202
2.79392,0.0663309,-0.228146
2.77025,0.338182,0.0812208
2.80278,0.0665414,0.0489365
2.76971,0.338116,-0.178825
2.80636,-0.0705456,-0.163487
2.79586,0.203354,0.163254
2.7889,0.0662118,0.113655
2.77764,0.202029,-0.129729
2.78765,0.202756,0.343184
2.76119,0.337076,-0.113329
2.76411,0.328623,-0.0485875
2.78223,0.0573091,-0.080988
2.78034,0.0572701,-0.556189
2.77729,0.193234,0
2.79869,-0.079151,-0.032595
2.7889,0.0574465,-0.355066
2.76448,0.328667,0.0161804
2.79536,0.0575795,-0.0162501
2.80269,-0.0792641,-0.261731
2.79249,0.194292,0.0651368
2.80269,-0.0792641,0.0326416
2.76654,0.192486,-0.193923
2.76733,0.329006,0.0811044
2.79498,0.0575717,0.0487969
2.7668,0.328942,-0.178569
2.79649,0.19457,0.163254
2.79309,0.0575328,0.113818
2.77826,0.193302,-0.129729
2.76621,0.328872,-0.113492
2.76524,0.318972,-0.0485875
2.78241,0.0475962,-0.080988
2.78052,0.0475638,-0.556189
2.8024,-0.0890475,-0.0326416
2.7607,0.182398,-0.430437
2.76959,0.319473,0.0162036
2.79154,0.0477524,-0.0162269
2.8024,-0.0890475,0.0326416
2.77516,0.183353,-0.194481
2.78038,0.320718,0.0814535
2.79517,0.0478143,0.0487969
2.7719,0.319739,-0.178825
2.79317,0.184543,0.163022
2.80127,0.0479187,0.114143
2.77892,0.183602,-0.129729
2.78893,0.184263,0.343184
2.77131,0.319672,-0.113655
2.76639,0.308835,-0.0485875
2.78068,0.037373,-0.556189
2.80605,-0.0994593,-0.0326882
2.76529,0.172525,-0.431052
2.76677,0.308877,0.0161804
2.7917,0.0375212,-0.0162269
2.76659,0.172606,-0.298587
2.80603,-0.0994587,-0.262102
2.78982,0.174055,0.0650437
2.80605,-0.0994593,0.0326882
2.77581,0.173181,-0.194481
2.76961,0.309195,0.0811044
2.79532,0.0375698,0.0487969
2.76908,0.309135,-0.178569
2.80947,-0.0995807,-0.16372
2.79382,0.174305,0.163022
2.7716,0.172919,-0.129357
2.78959,0.174041,0.343184
2.76849,0.309069,-0.113492
2.7674,0.299659,-0.0485875
2.77686,0.0281112,-0.555404
2.77916,0.164139,0
2.8097,-0.10892,-0.0327347
2.7698,0.163586,-0.431667
2.79181,0.0282626,-0.0162269
2.77111,0.163664,-0.299015
2.80569,-0.108764,-0.262102
2.79038,0.164802,0.0650437
2.77239,0.163739,-0.194202
2.77857,0.300869,0.0813371
2.80343,0.0283802,0.0489365
2.77009,0.29995,-0.178569
2.80913,-0.108897,-0.16372
2.79837,0.165274,0.163254
2.78014,0.164197,-0.129729
2.76553,0.299456,-0.113329
2.77643,0.290346,-0.0487271
2.78479,0.0179846,-0.556973
2.80528,-0.119047,-0.0326882
2.76885,0.289554,0.0161804
2.79189,0.0180305,-0.0162269
2.77169,0.153507,-0.299015
2.80928,-0.119216,0.0327347
2.77695,0.153798,-0.194481
2.79863,0.018074,-0.228471
2.80351,0.0181055,0.0489365
2.77514,0.290211,-0.178825
2.79896,0.155017,0.163254
2.79362,0.0180417,0.113818
2.78072,0.154007,-0.129729
2.76263,0.288903,-0.113166
2.77345,0.28025,-0.0486573
2.7948,0.0082926,-0.0813371
2.78026,0.144248,0
2.80885,-0.129023,-0.0327347
2.763,0.143352,-0.430437
2.79345,0.00828857,-0.355571
2.76985,0.279886,0.0161804
2.79194,0.0082841,-0.0162269
2.77619,0.144036,-0.299443
2.80885,-0.129023,0.0327347
2.78146,0.14431,-0.19476
2.7727,0.280174,0.0811044
2.79956,0.00830671,0.0488667
2.7682,0.279719,-0.178314
2.79767,0.00830109,0.11398
2.78124,0.144299,-0.129729
2.77034,0.271147,-0.0485875
2.80281,-0.000488423,-0.0815699
2.7847,0.135708,0
2.80843,-0.137846,-0.0327347
2.76344,0.134672,-0.430437
2.79346,-0.000486793,-0.355571
2.77071,0.271183,0.0161804
2.78795,-0.000485833,-0.0162036
2.76868,0.134927,-0.298587
2.80843,-0.137846,0.0327347
2.7819,0.135572,-0.19476
2.79957,-0.000487858,0.0488667
2.76906,0.271022,-0.178314
2.79993,0.13645,0.163254
2.79768,-0.000487528,0.11398
2.78168,0.135561,-0.129729
2.77642,0.271742,-0.113655
2.78515,0.125986,0
2.81192,-0.147859,-0.0327813
2.76784,0.125203,-0.431052
2.79344,-0.0102385,-0.355571
2.77961,0.262261,0.0162269
2.79193,-0.010233,-0.0162269
2.77311,0.125441,-0.299015
2.79239,0.126313,0.0650437
2.80793,-0.147649,0.0327347
2.77837,0.125679,-0.194481
2.7745,0.261779,0.0811044
2.80355,-0.0102756,0.0489365
2.76999,0.261353,-0.178314
2.7964,0.126495,0.163022
2.79366,-0.0102394,0.113818
2.78214,0.125849,-0.129729
2.79216,0.126303,0.343184
2.77735,0.262048,-0.113655
2.76822,0.250955,-0.0485177
2.7816,0.115611,0
2.81536,-0.158388,-0.0328279
2.76828,0.115058,-0.431052
2.79735,-0.0205054,-0.356076
2.77258,0.25135,0.0161804
2.79988,-0.0205239,-0.0162734
2.76957,0.115112,-0.298587
2.79683,0.116244,0.0651368
2.81136,-0.158163,0.0327813
2.77482,0.11533,-0.194202
2.77544,0.251609,0.0811044
2.8115,-0.0206091,0.0490762
2.7749,0.25156,-0.178569
2.80083,0.116411,0.163254
2.78258,0.115652,-0.129729
2.79657,0.116234,0.343672
2.77829,0.251867,-0.113655
2.78099,0.242816,-0.0487271
2.80683,-0.167248,-0.0327347
2.7726,0.106028,-0.431667
2.78137,0.242849,0.0162269
2.79579,-0.0297667,-0.0162501
2.77391,0.106078,-0.299015
2.80119,0.107121,0.0652298
2.81082,-0.167486,0.0327813
2.77519,0.106127,-0.194202
2.80252,-0.0298383,-0.228797
2.80741,-0.0298904,0.0490064
2.7797,0.242703,-0.178825
2.8012,0.107122,0.163254
2.80152,-0.0298277,0.114143
2.78694,0.106576,-0.129915
2.79297,0.106807,0.343184
2.77513,0.242304,-0.113492
2.78183,0.233108,-0.0487271
2.79854,-0.0395656,-0.0814535
2.78232,0.096675,0
2.80623,-0.177044,-0.0327347
2.77295,0.0963494,-0.431667
2.79715,-0.039546,-0.356076
2.79967,-0.0395816,-0.0162734
2.77427,0.0963952,-0.299015
2.80155,0.0973432,0.0652298
2.81022,-0.177296,0.0327813
2.77953,0.0965781,-0.194481
2.7731,0.232377,0.080988
2.79929,-0.0395763,0.0488667
2.77257,0.232333,-0.178314
2.80156,0.0973435,0.163254
2.8014,-0.039606,0.114143
2.79332,0.0970574,0.343184
2.77994,0.23295,-0.113655
2.77469,0.222271,-0.0485875
2.79038,-0.0496808,-0.0812208
2.78665,0.0866002,0
2.81354,-0.187862,-0.0328279
2.77723,0.0863074,-0.432282
2.80189,0.0870736,0.0652298
2.81753,-0.188129,0.0328744
2.77987,0.0863893,-0.194481
2.78191,0.222849,0.0812208
2.79913,-0.0498367,0.0488667
2.77341,0.222168,-0.178314
2.81694,-0.188089,-0.164417
2.79791,0.0869499,0.163022
2.80123,-0.0498741,0.114143
2.77964,0.0863823,-0.129543
2.79763,0.0869413,0.343672
2.78078,0.222759,-0.113655
2.77943,0.212892,-0.0486573
2.79418,-0.0595039,-0.0813371
2.79094,0.0769846,0
2.80888,-0.1974,-0.0327813
2.77752,0.0766145,-0.432282
2.7838,0.213226,0.0162269
2.79932,-0.0596133,-0.0162734
2.77489,0.0765419,-0.299015
2.79818,0.0771843,0.0651368
2.80888,-0.1974,0.0327813
2.78414,0.0767971,-0.19476
2.78267,0.213139,0.0812208
2.81093,-0.0598607,0.0490762
2.77019,0.212183,-0.178058
2.80218,0.0772949,0.163254
2.77993,0.0766809,-0.129543
2.79792,0.0771771,0.343672
2.78154,0.213053,-0.113655
2.79818,0.0771843,-0.0651368
2.78016,0.203187,-0.0486573
2.79396,-0.0692587,-0.0813371
2.78719,0.067144,0
2.81216,-0.207499,-0.0328279
2.76987,0.0667266,-0.431052
2.77655,0.202923,0.0161804
2.79509,-0.0692869,-0.0162501
2.79443,0.0673185,0.0650437
2.7804,0.0669805,-0.194481
2.77941,0.203131,0.0811044
2.81071,-0.0696739,0.0490762
2.77489,0.202801,-0.178314
2.80244,0.0675113,0.163254
2.80481,-0.0695278,0.114306
2.78018,0.066975,-0.129543
2.77828,0.203049,-0.113492
2.78082,0.193966,-0.0486573
2.79771,-0.0786358,-0.0814535
2.80747,-0.216516,-0.0327813
2.77007,0.0575411,-0.431052
2.79632,-0.0785969,-0.356076
2.77721,0.193714,0.0161804
2.80285,-0.0787802,-0.0162966
2.77932,0.0577332,-0.299443
2.80264,0.0582175,0.0652298
2.81146,-0.216824,0.0328279
2.78061,0.0577599,-0.194481
2.80157,-0.0787443,-0.228797
2.80646,-0.0788818,0.0490064
2.77953,0.193876,-0.178569
2.80664,0.0583006,0.163487
2.80057,-0.0787162,0.114143
2.78438,0.0578383,-0.129729
2.77495,0.193557,-0.113329
2.78547,0.184522,-0.0487271
2.80541,-0.0886537,-0.0816862
2.79558,0.048309,0
2.8067,-0.226315,-0.0327813
2.77816,0.0480079,-0.432282
2.8,-0.0884827,-0.356581
2.81055,-0.0888161,-0.0163431
2.77553,0.0479624,-0.299015
2.80282,0.0484341,0.0652298
2.82663,-0.227922,0.0330141
2.78478,0.0481224,-0.19476
2.78073,0.184208,0.0811044
2.81017,-0.0888041,0.0490762
2.77621,0.183909,-0.178314
2.80682,0.0485033,0.163487
2.80427,-0.0886177,0.114306
2.78456,0.0481186,-0.129729
2.78358,0.184398,-0.113655
2.79012,0.174562,-0.0487969
2.80107,-0.0987945,-0.0815699
2.79574,0.0380624,0
2.77041,0.0377175,-0.431052
2.80362,-0.0988845,-0.357087
2.77852,0.173836,0.0161804
2.77569,0.0377893,-0.299015
2.80698,0.0382154,0.0653229
2.81781,-0.237609,0.032921
2.78494,0.0379153,-0.19476
2.78138,0.174015,0.0811044
2.80982,-0.0991033,0.0490762
2.77686,0.173732,-0.178314
2.80299,0.0381611,0.163254
2.80792,-0.0990362,0.114469
2.78872,0.0379667,-0.129915
2.79872,0.0381029,0.343672
2.78823,0.174444,-0.113818
2.80298,0.0381609,-0.0652298
2.78672,0.164585,-0.0487271
2.79586,0.0283032,0
2.81696,-0.247443,-0.032921
2.78238,0.0281668,-0.432897
2.80326,-0.10867,-0.357087
2.7871,0.164608,0.0162269
2.81686,-0.247434,-0.263961
2.8031,0.0283765,0.0652298
2.81696,-0.247443,0.032921
2.78107,0.0281534,-0.194481
2.80854,-0.108875,-0.229448
2.78596,0.164541,0.0812208
2.81346,-0.109066,0.049146
2.78542,0.164509,-0.178825
2.80311,0.0283766,0.163254
2.78484,0.0281916,-0.129729
2.78882,0.16471,-0.113818
2.79124,0.155566,-0.0487969
2.80033,-0.117858,-0.0815699
2.81613,-0.256783,-0.032921
2.78246,0.0189399,-0.432897
2.77964,0.154919,0.0161804
2.79748,-0.117738,-0.0162734
2.77985,0.0189222,-0.299443
2.80718,0.0191081,0.0653229
2.82011,-0.257146,0.0329675
2.79311,0.0190124,-0.195318
2.78649,0.155301,0.0812208
2.80909,-0.118227,0.0490762
2.77798,0.154827,-0.178314
2.80718,0.0191082,0.163487
2.80718,-0.118147,0.114469
2.78891,0.0189838,-0.129915
2.78536,0.155238,-0.113655
2.78777,0.145613,-0.0487271
2.79991,-0.127633,-0.0815699
2.79998,0.00928514,0
2.81123,-0.266234,-0.0328744
2.77461,0.00920098,-0.431667
2.78416,0.145424,0.0162036
2.80104,-0.127685,-0.0162966
2.7799,0.00921855,-0.299443
2.80323,0.00929589,0.0652298
2.81521,-0.266612,0.032921
2.78518,0.00923606,-0.19476
2.80773,-0.12799,-0.229448
2.78303,0.145365,0.0811044
2.80866,-0.128031,0.0490762
2.78249,0.145337,-0.178569
2.82257,-0.267308,-0.165115
2.80723,0.00930916,0.163487
2.78896,0.00924858,-0.129915
2.7819,0.145306,-0.113492
2.78028,0.135492,-0.0485875
2.79944,-0.137405,-0.0815699
2.81426,-0.276437,-0.032921
2.77462,-0.00048426,-0.431667
2.80199,-0.13753,-0.357087
2.80058,-0.137461,-0.0162966
2.78787,-0.000486572,-0.3003
2.80324,-0.000489254,0.0652298
2.81824,-0.276828,0.0329675
2.7852,-0.000486106,-0.19476
2.78352,0.13565,0.0811044
2.81219,-0.138031,0.049146
2.77899,0.135429,-0.178314
2.81124,-0.00049065,0.16372
2.81428,-0.138133,0.114795
2.79697,-0.00048816,-0.130287
2.78239,0.135595,-0.113492
2.78071,0.126271,-0.0485875
2.80297,-0.146897,-0.0816862
2.82129,-0.286576,-0.0330141
2.78646,-0.00972662,-0.433511
2.80152,-0.146821,-0.357087
2.8081,-0.147166,-0.0163431
2.78388,-0.00971761,-0.299872
2.80722,-0.00979909,0.0653229
2.82129,-0.286576,0.0330141
2.78917,-0.00973608,-0.195039
2.78795,0.1266,0.0812208
2.81171,-0.147356,0.049146
2.78342,0.126394,-0.178569
2.81122,-0.00981304,0.16372
2.8138,-0.147465,0.114795
2.79695,-0.00976323,-0.130287
2.80293,-0.00978412,0.344159
2.79081,0.12673,-0.113818
2.78115,0.116079,-0.0485875
2.80241,-0.15717,-0.0816862
2.79593,-0.0200076,0
2.8242,-0.297334,-0.0330607
2.79036,-0.0199677,-0.434126
2.80493,-0.157311,-0.357592
2.78153,0.116094,0.0161804
2.80355,-0.157233,-0.0163199
2.7878,-0.0199494,-0.3003
2.79917,-0.0200308,0.0651368
2.83215,-0.298171,0.0331538
2.79311,-0.0199874,-0.195318
2.78839,0.116381,0.0812208
2.81515,-0.157884,0.0492158
2.78386,0.116192,-0.178569
2.80717,-0.020088,0.163487
2.81324,-0.157777,0.114795
2.7929,-0.0199859,-0.130101
2.79125,0.1165,-0.113818
2.80717,-0.020088,-0.0653229
2.78554,0.106523,-0.0486573
2.82712,-0.307623,-0.0331072
2.79027,-0.0297078,-0.434126
2.80832,-0.167337,-0.358097
2.78592,0.106537,0.0162036
2.81097,-0.167495,-0.0163664
2.78771,-0.0296806,-0.3003
2.80708,-0.0298868,0.0653229
2.81519,-0.306325,0.0329675
2.78903,-0.0296946,-0.195039
2.79677,0.106952,0.0814535
2.81458,-0.16771,0.0492158
2.78824,0.106626,-0.178825
2.8265,-0.307555,-0.16558
2.80708,-0.0298868,0.163487
2.80868,-0.167359,0.114632
2.79281,-0.0297348,-0.130101
2.79164,0.106756,-0.113818
2.78188,0.0971454,-0.0485875
2.80925,-0.176743,-0.0819189
2.79173,-0.0389824,0
2.81416,-0.315659,-0.0329675
2.78621,-0.0389053,-0.433511
2.80775,-0.176649,-0.358097
2.79025,0.0974378,0.0162269
2.8104,-0.176815,-0.0163664
2.7876,-0.0389248,-0.3003
2.80297,-0.0391394,0.0652298
2.82211,-0.31655,0.0330607
2.79291,-0.0389989,-0.195318
2.81306,-0.176983,-0.230099
2.78912,0.0973982,0.0812208
2.81401,-0.177042,0.0492158
2.78858,0.0973792,-0.178825
2.80697,-0.0391952,0.163487
2.80811,-0.176672,0.114632
2.7927,-0.038996,-0.130101
2.78399,0.0972192,-0.113492
2.78622,0.0870736,-0.0486573
2.82093,-0.326892,-0.0330607
2.78605,-0.049117,-0.433511
2.80312,-0.186675,-0.357592
2.78659,0.0870854,0.0162036
2.81771,-0.187646,-0.0164128
2.78744,-0.0491416,-0.3003
2.8108,-0.0495535,0.0654159
2.79674,-0.0493055,-0.195597
2.78946,0.0871749,0.0812208
2.80935,-0.187089,0.049146
2.78492,0.0870332,-0.178569
2.81479,-0.0496238,0.163952
2.81542,-0.187494,0.114957
2.79653,-0.0493019,-0.130287
2.78433,0.0870147,-0.113492
2.7865,0.0773473,-0.0486573
2.80393,-0.196562,-0.0818026
2.79538,-0.0590429,0
2.82374,-0.337211,-0.0331072
2.78981,-0.0589253,-0.434126
2.81037,-0.197013,-0.358602
2.78288,0.0772468,0.0161804
2.80906,-0.196921,-0.0163664
2.78328,-0.0587873,-0.299872
2.80661,-0.0592802,0.0653229
2.81977,-0.336737,0.0330607
2.8157,-0.197387,-0.230424
2.79374,0.0775483,0.0813371
2.80868,-0.196895,0.049146
2.78521,0.0773115,-0.178569
2.80662,-0.0592803,0.163487
2.81475,-0.19732,0.114957
2.79634,-0.0590633,-0.130287
2.79261,0.0775168,-0.113818
2.78275,0.0680088,-0.0485875
2.80725,-0.206152,-0.0819189
2.79517,-0.0683124,0
2.82261,-0.346573,-0.0331072
2.79355,-0.0682729,-0.434741
2.78712,0.0681158,0.0162036
2.81238,-0.206528,-0.0163896
2.79102,-0.068211,-0.300729
2.8024,-0.0684893,0.0652298
2.83055,-0.347548,0.0332004
2.79633,-0.068341,-0.195597
2.79798,0.0683811,0.0814535
2.81998,-0.207086,0.0493554
2.78944,0.0681725,-0.178825
2.8104,-0.0686846,0.16372
2.8101,-0.206361,0.114795
2.80412,-0.0685313,-0.130659
2.79684,0.0683534,-0.11398
2.78297,0.0582948,-0.0485875
2.82535,-0.356925,-0.0331538
2.79725,-0.0781342,-0.435356
2.79134,0.0584702,0.0162269
2.80765,-0.216037,-0.0163664
2.79474,-0.0780641,-0.301157
2.80615,-0.0783828,0.0653229
2.79209,-0.0779902,-0.195318
2.8022,0.0586977,0.0815699
2.81525,-0.216622,0.0492856
2.79365,0.0585187,-0.179081
2.82869,-0.357346,-0.166045
2.81413,-0.0786058,0.163952
2.79588,-0.0780959,-0.130287
2.79115,0.0487197,-0.0487271
2.79862,-0.0879501,0
2.82805,-0.3673,-0.0332004
2.78906,-0.0876496,-0.434126
2.79553,0.0487961,0.0162501
2.81486,-0.226478,-0.0164128
2.79445,-0.087819,-0.301157
2.80586,-0.0881775,0.0653229
2.79039,0.0487065,0.0812208
2.81448,-0.226447,0.0492856
2.78985,0.048697,-0.178825
2.81384,-0.0884285,0.163952
2.79958,-0.0879804,-0.130473
2.79725,0.0488262,-0.11398
2.80985,-0.0883031,-0.0654159
2.7953,0.0390323,-0.0487969
2.80494,-0.235537,-0.0819189
2.83072,-0.377699,-0.0332469
2.79663,-0.0976605,-0.435356
2.78768,0.0389259,0.0162036
2.81405,-0.236302,-0.0164128
2.80953,-0.0981108,0.0654159
2.79148,-0.0974806,-0.195318
2.81668,-0.236524,-0.23075
2.79454,0.0390217,0.0813371
2.81765,-0.236605,0.0493554
2.79,0.0389583,-0.178825
2.81751,-0.0983895,0.164185
2.81575,-0.236445,0.11512
2.80325,-0.0978916,-0.130659
2.79341,0.0390059,-0.113818
2.83335,-0.38812,-0.0332935
2.80022,-0.107574,-0.435971
2.7918,0.0292367,0.0162269
2.81321,-0.246124,-0.0164128
2.79377,-0.107326,-0.301157
2.81316,-0.108071,0.065509
2.7991,-0.10753,-0.195876
2.79466,0.0292667,0.0813371
2.81681,-0.246439,0.0493554
2.78613,0.0291774,-0.178569
2.82875,-0.38749,-0.166278
2.81715,-0.108224,0.164185
2.8149,-0.246272,0.11512
2.80289,-0.107676,-0.130659
2.79753,0.0292967,-0.11398
2.78751,0.0194608,-0.0486573
2.80721,-0.255476,-0.0820353
2.83197,-0.398008,-0.0332935
2.79988,0.0195472,0.0162734
2.81631,-0.256305,-0.0164361
2.79735,-0.117244,-0.301585
2.80877,-0.117722,0.0654159
2.7987,-0.1173,-0.195876
2.79475,0.0195113,0.0813371
2.8239,-0.256995,0.049495
2.79021,0.0194796,-0.178825
2.81675,-0.118057,0.164185
2.81403,-0.256097,0.11512
2.79451,-0.117125,-0.130287
2.79761,0.0195313,-0.11398
2.78756,0.00973047,-0.0486573
2.80111,-0.127198,0
2.80394,0.00978764,0.0162966
2.81938,-0.26651,-0.0164593
2.80089,-0.127188,-0.302014
2.81234,-0.127708,0.065509
2.79429,-0.126888,-0.195597
2.7988,0.0097697,0.0814535
2.819,-0.266474,0.0494252
2.79425,0.00975383,-0.179081
2.80834,-0.127526,0.16372
2.79808,-0.12706,-0.130473
2.80166,0.00977969,-0.114143
2.79957,0.000977239,-0.0488667
