2.61782,0.514071,0.0310584
2.46503,0.740014,-0.179972
2.54248,0.62967,-0.213826
2.41953,0.857275,0.0747045
2.56219,0.634552,0.0460744
2.4156,0.855882,-0.164243
2.60182,0.510927,-0.154417
2.49365,0.748604,0.151627
2.56434,0.635084,0.10763
2.47603,0.743315,-0.120423
2.54744,0.630898,-0.137539
2.51347,0.754556,0.322223
2.56182,0.634462,0.215453
2.41478,0.855593,-0.104373
2.41561,0.84641,-0.0446782
2.4813,0.735465,0
2.61567,0.504173,-0.0310118
2.52883,0.616931,-0.331328
2.41972,0.847847,0.0149017
2.55697,0.623794,-0.015297
2.46703,0.731235,-0.277167
2.61626,0.504286,-0.248718
2.49596,0.739812,0.0605772
2.62745,0.506444,0.0311515
2.47143,0.73254,-0.180251
2.54466,0.620791,-0.213826
2.43005,0.851469,0.0749372
2.56439,0.625605,0.0460744
2.6075,0.502599,-0.15465
2.5039,0.742165,0.152092
2.57042,0.627077,0.107793
2.47861,0.734669,-0.120423
2.54186,0.62011,-0.13712
2.50848,0.743522,0.321248
2.5679,0.626461,0.215779
2.41775,0.847159,-0.104373
2.42219,0.839705,-0.044748
2.53858,0.610397,-0.332338
2.42252,0.839819,0.0149017
2.5668,0.617182,-0.0153435
2.46944,0.723051,-0.277167
2.62183,0.496349,-0.24909
2.4984,0.731531,0.0605772
2.62519,0.496985,0.031105
2.54283,0.611418,-0.2135
2.42909,0.842097,0.0748209
2.56645,0.617099,0.0460744
2.60916,0.493949,-0.15465
2.51018,0.73498,0.152324
2.5686,0.617615,0.10763
2.4772,0.725323,-0.120236
2.55167,0.613545,-0.137539
2.51093,0.7352,0.321248
2.41677,0.837828,-0.104211
2.4984,0.731531,-0.0605772
2.42132,0.829948,-0.0446782
2.62298,0.487087,-0.0310584
2.5407,0.601532,-0.332338
2.42543,0.831357,0.0149017
2.47577,0.71553,-0.277596
2.62746,0.48792,-0.249462
2.50862,0.725026,0.0607633
2.63477,0.489278,0.0311981
2.54882,0.603456,-0.213826
2.43579,0.834909,0.0749372
2.56859,0.608136,0.0460744
2.62264,0.487025,-0.155347
2.50889,0.725104,0.152092
2.48355,0.71778,-0.120423
2.55769,0.605554,-0.137748
2.5173,0.727533,0.321735
2.42724,0.831978,-0.104536
2.42813,0.822351,-0.044748
2.49656,0.711635,0
2.54288,0.592216,-0.332338
2.43225,0.823745,0.014925
2.57115,0.598799,-0.0153435
2.4822,0.707542,-0.278024
2.63315,0.479,-0.249834
2.51126,0.715827,0.0607633
2.63655,0.479618,0.0311981
2.55878,0.595919,-0.214477
2.44262,0.827259,0.0750536
2.5747,0.599625,0.0461442
2.42353,0.820792,-0.163987
2.51537,0.716999,0.152324
2.58463,0.601939,0.108119
2.49385,0.710864,-0.120795
2.55989,0.596176,-0.137748
2.52376,0.71939,0.322223
2.57432,0.599536,0.215779
2.43028,0.823077,-0.104536
2.60231,0.606056,0.487166
2.50357,0.713634,-0.0605772
2.50288,0.703998,0
2.5488,0.584222,-0.332843
2.43511,0.81525,0.014925
2.57712,0.590713,-0.0153667
2.5176,0.708139,0.0608564
2.64215,0.471114,0.0312447
2.56473,0.587874,-0.214802
2.4455,0.818726,0.0750536
2.58067,0.591527,0.046214
2.43395,0.814862,-0.164499
2.62999,0.468947,-0.15558
2.51786,0.708214,0.152324
2.58282,0.592019,0.107956
2.49632,0.702154,-0.120795
2.56974,0.589021,-0.138167
2.53008,0.711651,0.32271
2.58416,0.592327,0.21643
2.43692,0.815856,-0.104699
2.60825,0.597847,0.487883
2.5099,0.705973,-0.0606703
2.43733,0.807487,-0.0448178
2.5545,0.577087,-0.333348
2.44905,0.81137,0.0149947
2.58677,0.584377,-0.0154132
2.48684,0.691064,-0.278024
2.51596,0.699156,0.0607633
2.64361,0.462811,0.0312447
2.57435,0.581571,-0.215453
2.45185,0.812298,0.0751699
2.58642,0.584298,0.0462838
2.4365,0.807212,-0.164499
2.63539,0.461371,-0.155813
2.52392,0.70137,0.152557
2.59636,0.586545,0.108444
2.50236,0.695378,-0.120981
2.57547,0.581826,-0.138376
2.52848,0.702636,0.322223
2.5899,0.585085,0.216755
2.44327,0.809454,-0.104862
2.61395,0.590518,0.488601
2.44802,0.800608,-0.0449574
2.56057,0.568133,-0.333853
2.45595,0.803203,0.015018
2.58899,0.57444,-0.0154132
2.49331,0.682559,-0.278452
2.52634,0.691601,0.0609494
2.64931,0.453331,0.0312912
2.56878,0.569954,-0.214802
2.44735,0.800391,0.0749372
2.58864,0.574362,0.0462838
2.43958,0.79785,-0.164499
2.64107,0.451921,-0.156045
2.5266,0.691673,0.152557
2.5986,0.576571,0.108444
2.50887,0.686819,-0.121167
2.57379,0.571067,-0.138167
2.53499,0.69397,0.32271
2.59213,0.575136,0.216755
2.44636,0.800066,-0.104862
2.62004,0.581329,0.489318
2.44699,0.790828,-0.0448876
2.64693,0.44342,-0.0312447
2.56253,0.559192,-0.333853
2.45493,0.793396,0.0149947
2.59489,0.566253,-0.0154364
2.50335,0.675926,-0.279309
2.64744,0.443505,-0.250577
2.5326,0.683821,0.0610425
2.65088,0.444081,0.0312912
2.57854,0.562685,-0.215453
2.45774,0.794303,0.0751699
2.59454,0.566176,0.0463536
2.44235,0.789329,-0.164499
2.64657,0.44336,-0.156278
2.53671,0.684931,0.153022
2.60059,0.567497,0.108444
2.51125,0.678058,-0.121167
2.58357,0.563783,-0.138586
2.5374,0.685118,0.32271
2.59412,0.566085,0.216755
2.44533,0.790293,-0.104699
2.6259,0.573019,0.490036
2.45327,0.784354,-0.0449574
2.57997,0.55451,-0.076799
2.65621,0.436399,-0.0313378
2.56428,0.551138,-0.333853
2.4536,0.784461,0.0149715
2.59666,0.558097,-0.0154364
2.65668,0.436476,-0.251321
2.53473,0.675861,0.0610425
2.6641,0.437695,0.0314309
2.58419,0.555418,-0.215779
2.46022,0.786577,0.0751699
2.5924,0.557181,0.0462838
2.44862,0.782868,-0.164755
2.65189,0.43569,-0.15651
2.53499,0.675929,0.152789
2.60236,0.559323,0.108444
2.51723,0.671194,-0.121353
2.59314,0.557342,-0.139004
2.53954,0.677142,0.32271
2.59978,0.558769,0.21708
2.45542,0.785041,-0.105025
2.63153,0.565593,0.490753
2.53087,0.674831,-0.0609494
2.46008,0.776133,-0.0450272
2.58599,0.545425,-0.0769154
2.56371,0.540726,-0.524025
2.52252,0.662241,0
2.66181,0.42683,-0.0313844
2.504,0.65738,-0.402766
2.57026,0.542107,-0.334358
2.46804,0.778645,0.0150412
2.59878,0.548123,-0.0154364
2.66227,0.426903,-0.251693
2.53731,0.666124,0.0610425
2.66971,0.428097,0.0314775
2.59021,0.546315,-0.216104
2.47085,0.779531,0.0754027
2.60626,0.549699,0.0464932
2.45161,0.77346,-0.164755
2.65355,0.425505,-0.15651
2.53756,0.666191,0.152789
2.6084,0.550152,0.108607
2.52752,0.663553,-0.121725
2.59526,0.547381,-0.139004
2.55748,0.671419,0.32466
2.45842,0.775607,-0.105025
2.63368,0.555485,0.490753
2.53731,0.666124,-0.0610425
2.45896,0.766351,-0.0449574
2.56558,0.531774,-0.524025
2.67514,0.419395,-0.0315241
2.57991,0.534743,-0.335368
2.47074,0.770025,0.0150412
2.60459,0.539861,-0.0154597
2.66768,0.418225,-0.252064
2.54349,0.658265,0.0611355
2.66724,0.418156,0.0314309
2.59991,0.538889,-0.216755
2.47738,0.772092,0.075519
2.61207,0.541411,0.046563
2.45811,0.766086,-0.16501
2.66291,0.417477,-0.156975
2.54761,0.659331,0.153254
2.61813,0.542667,0.108933
2.52208,0.652725,-0.121353
2.59716,0.538319,-0.139004
2.55212,0.660499,0.323685
2.61162,0.541316,0.217731
2.46492,0.768211,-0.105188
2.53962,0.657263,-0.0610425
2.46899,0.760977,-0.045097
2.56724,0.523711,-0.524025
2.53461,0.647477,0
2.58935,0.528221,-0.336379
2.47697,0.763437,0.0150645
2.61804,0.534073,-0.0155294
2.52003,0.643753,-0.280166
2.67291,0.410446,-0.252436
2.54554,0.650271,0.0611355
2.60159,0.530718,-0.216755
2.47215,0.761949,0.0752863
2.61768,0.534001,0.0466328
2.46432,0.759535,-0.165266
2.67605,0.410927,-0.157673
2.54966,0.651323,0.153254
2.62374,0.535237,0.109096
2.53573,0.647764,-0.121912
2.60275,0.530955,-0.139214
2.55803,0.65346,0.324172
2.61331,0.533108,0.217731
2.46732,0.760463,-0.105188
2.64502,0.539578,0.492188
2.54554,0.650271,-0.0611355
2.46794,0.750758,-0.0450272
2.57683,0.515837,-0.525594
2.53696,0.638182,0
2.67398,0.400582,-0.0314775
2.51447,0.632525,-0.403381
2.58738,0.517948,-0.335873
2.47593,0.753188,0.0150412
2.61998,0.524473,-0.0155294
2.52623,0.635482,-0.280594
2.67834,0.401236,-0.252808
2.55567,0.642887,0.0613216
2.67793,0.401175,0.0315241
2.52691,0.635654,-0.182204
2.60742,0.521961,-0.21708
2.48257,0.75521,0.075519
2.6157,0.523617,0.046563
2.46326,0.749336,-0.16501
2.67753,0.401115,-0.157673
2.55203,0.641973,0.153254
2.61785,0.524047,0.10877
2.54196,0.63944,-0.122098
2.6086,0.522195,-0.139423
2.56426,0.645047,0.32466
2.46627,0.75025,-0.105025
2.6547,0.531424,0.493623
2.58631,0.508354,-0.527163
2.54306,0.630286,0
2.68328,0.392405,-0.0315706
2.52434,0.625647,-0.404611
2.58917,0.508915,-0.335873
2.48237,0.745694,0.0150645
2.62179,0.515326,-0.0155294
2.52457,0.625705,-0.280166
2.55401,0.633002,0.0612286
2.68723,0.392984,0.0316172
2.53299,0.627791,-0.182483
2.60923,0.512858,-0.21708
2.48902,0.747691,0.0756354
2.62536,0.516028,0.0467026
2.47351,0.743031,-0.165522
2.67892,0.391768,-0.157673
2.55814,0.634023,0.153487
2.6275,0.51645,0.109096
2.54418,0.630565,-0.122098
2.61824,0.514629,-0.139842
2.57034,0.637049,0.325147
2.47653,0.743938,-0.10535
2.55401,0.633002,-0.0612286
2.48066,0.736219,-0.0451668
2.58413,0.49903,-0.526379
2.69248,0.384636,-0.0316637
2.52256,0.616334,-0.403996
2.59863,0.50183,-0.336884
2.48867,0.738595,0.0150877
2.62741,0.507387,-0.0155527
2.5305,0.618273,-0.280594
2.68495,0.38356,-0.25318
2.56387,0.626427,0.0614147
2.69248,0.384636,0.0316637
2.53506,0.619387,-0.182483
2.61092,0.504202,-0.21708
2.49149,0.739433,0.0756354
2.62706,0.507318,0.0467026
2.47596,0.734824,-0.165522
2.68416,0.383446,-0.157906
2.56022,0.625536,0.153487
2.6292,0.507733,0.109096
2.54626,0.622124,-0.122098
2.61993,0.505943,-0.139842
2.57244,0.628522,0.325147
2.48665,0.737995,-0.105676
2.65439,0.512597,0.492906
2.55221,0.623579,-0.0611355
2.48334,0.727122,-0.0451668
2.58595,0.489554,-0.526379
2.68991,0.374213,-0.0316172
2.52864,0.608007,-0.404611
2.60436,0.493039,-0.337389
2.49136,0.729468,0.0150877
2.63318,0.498497,-0.0155759
2.53661,0.609923,-0.281023
2.57003,0.61796,0.0615077
2.69387,0.374764,0.0316637
2.49802,0.731419,0.0757518
2.63676,0.499174,0.0468423
2.47864,0.725743,-0.165522
2.6895,0.374155,-0.158138
2.56638,0.617081,0.15372
2.63497,0.498836,0.109258
2.54852,0.612787,-0.122098
2.62569,0.497079,-0.140051
2.58245,0.620945,0.326122
2.49317,0.729999,-0.105839
2.66399,0.504328,0.494341
2.55837,0.615155,-0.0612286
2.48971,0.71956,-0.0452366
2.59535,0.481958,-0.527948
2.69913,0.365896,-0.0317103
2.53075,0.599177,-0.404611
2.60996,0.484671,-0.337894
2.50542,0.724099,0.0151575
2.63098,0.488573,-0.0155527
2.53872,0.601065,-0.281023
2.69552,0.365407,-0.253923
2.57607,0.609907,0.0616008
2.69913,0.365896,0.0317103
2.6223,0.486961,-0.217731
2.49672,0.721585,0.0756354
2.63848,0.489967,0.0468423
2.48116,0.717087,-0.165522
2.70266,0.366375,-0.158836
2.57241,0.60904,0.153952
2.64063,0.490365,0.109421
2.55842,0.605729,-0.12247
2.62349,0.487182,-0.139842
2.58074,0.611012,0.325635
2.48802,0.719073,-0.105513
2.67347,0.496464,0.495776
2.49965,0.713932,-0.0453763
2.63143,0.48011,-0.0778463
2.61229,0.476618,-0.531086
2.56309,0.598337,0
2.70819,0.358465,-0.0318034
2.53647,0.592123,-0.405226
2.60757,0.475757,-0.337389
2.49999,0.714028,0.015111
2.54835,0.594895,-0.281879
2.7006,0.35746,-0.254295
2.57408,0.600902,0.0615077
2.70423,0.35794,0.0317569
2.63166,0.480152,-0.218382
2.50666,0.715934,0.0758681
2.64788,0.483112,0.0469819
2.4834,0.70929,-0.165522
2.7038,0.357883,-0.158836
2.5782,0.601864,0.154185
2.64609,0.482785,0.109584
2.56809,0.599505,-0.122842
2.63286,0.480372,-0.14026
2.59038,0.604707,0.32661
2.49411,0.712351,-0.105676
2.67114,0.487356,0.495058
2.62923,0.469759,-0.0777299
2.61016,0.46635,-0.530301
2.56916,0.589833,0
2.71346,0.349046,-0.03185
2.6132,0.466894,-0.337894
2.51029,0.707029,0.0151575
2.63818,0.471357,-0.0155759
2.55051,0.585551,-0.281879
2.58406,0.593252,0.0616939
2.63732,0.471204,-0.218708
2.50927,0.706741,0.0758681
2.64963,0.473403,0.0469819
2.48982,0.701264,-0.165778
2.70509,0.34797,-0.158836
2.58038,0.592409,0.154185
2.64784,0.473083,0.109584
2.56638,0.589194,-0.122656
2.59645,0.596097,0.327097
2.49671,0.703204,-0.105676
2.68453,0.479639,0.49721
2.57236,0.590568,-0.0614147
2.50084,0.694955,-0.0453064
2.6195,0.458589,-0.53187
2.57121,0.580862,0
2.71863,0.340069,-0.0318966
2.5445,0.574828,-0.40584
2.62263,0.459138,-0.338904
2.51274,0.698262,0.0151575
2.64769,0.463525,-0.0156224
2.55642,0.577521,-0.282308
2.70704,0.33862,-0.254667
2.58221,0.583348,0.0616008
2.7226,0.340566,0.0319431
2.56105,0.578568,-0.183599
2.64288,0.462683,-0.219033
2.51557,0.699049,0.0759845
2.65521,0.464841,0.0470517
2.49995,0.694707,-0.16629
2.71818,0.340013,-0.159533
2.59412,0.586039,0.154882
2.64947,0.463838,0.109584
2.56452,0.579352,-0.12247
2.64804,0.463586,-0.140888
2.60626,0.58878,0.328072
2.503,0.695555,-0.105839
2.68231,0.469587,0.496493
2.57441,0.581586,-0.0614147
2.50711,0.687278,-0.0453763
2.62108,0.449442,-0.53187
2.72774,0.331542,-0.0319897
2.55035,0.566799,-0.406455
2.62813,0.450651,-0.339409
2.52674,0.692659,0.0152272
2.64929,0.454279,-0.0156224
2.55842,0.568593,-0.282308
2.58814,0.575198,0.0616939
2.7198,0.330577,0.0318966
2.56305,0.569624,-0.183599
2.64841,0.454128,-0.219359
2.52571,0.692377,0.0762172
2.66076,0.456245,0.0471215
2.50621,0.687031,-0.166545
2.72331,0.331004,-0.159766
2.58836,0.575247,0.154417
2.65502,0.455261,0.109747
2.57043,0.571263,-0.122656
2.64964,0.454339,-0.140888
2.60054,0.577956,0.327097
2.51312,0.688927,-0.106165
2.69169,0.46155,0.497928
2.58814,0.575198,-0.0616939
2.51323,0.680006,-0.0454461
2.62642,0.441398,-0.532655
2.72485,0.322026,-0.0319431
2.64135,0.443906,-0.340924
2.52902,0.684277,0.0152272
2.66261,0.447481,-0.0156922
2.72115,0.321588,-0.255782
2.59394,0.567467,0.0617869
2.72485,0.322026,0.0319431
2.56883,0.561974,-0.183878
2.65383,0.446004,-0.219684
2.52413,0.682954,0.0761008
2.67014,0.448746,0.0472611
2.50847,0.678717,-0.166545
2.72439,0.321972,-0.159766
2.59025,0.566661,0.154417
2.66834,0.448442,0.110235
2.58012,0.564444,-0.123028
2.65113,0.445551,-0.140888
2.6102,0.571026,0.328072
2.50768,0.678502,-0.105839
2.70097,0.453927,0.499363
2.59394,0.567467,-0.0617869
2.51571,0.670789,-0.0454461
2.65132,0.435595,-0.0781954
2.63189,0.432404,-0.533439
2.58888,0.556426,0
2.73396,0.312946,-0.0320363
2.64296,0.434222,-0.340924
2.52764,0.673972,0.015204
2.66424,0.437718,-0.0156922
2.5701,0.55239,-0.283165
2.72627,0.312065,-0.256154
2.59991,0.558796,0.06188
2.73793,0.3134,0.0320828
2.65938,0.43692,-0.22001
2.52662,0.673698,0.0761008
2.67177,0.438955,0.0472611
2.51094,0.669518,-0.166545
2.72952,0.312437,-0.159999
2.60402,0.55968,0.155115
2.66996,0.438658,0.110235
2.58608,0.555823,-0.123214
2.65669,0.436478,-0.141098
2.61616,0.562289,0.32856
2.51787,0.671365,-0.106165
2.7065,0.444661,0.50008
2.596,0.557956,-0.0617869
2.65677,0.426973,-0.0783117
2.64113,0.42446,-0.535008
2.59472,0.548213,0
2.74299,0.304283,-0.0321294
2.64054,0.424364,-0.340419
2.52998,0.665145,0.015204
2.6697,0.429051,-0.0157154
2.5798,0.54506,-0.284021
2.60967,0.551371,0.0620661
2.74299,0.304283,0.0321294
2.53669,0.666908,0.0763336
2.67328,0.429627,0.0472611
2.51326,0.660749,-0.166545
2.7306,0.302908,-0.159999
2.60205,0.549762,0.154882
2.67542,0.429971,0.110398
2.59973,0.549271,-0.123773
2.62588,0.554796,0.329535
2.5202,0.662572,-0.106165
2.70415,0.434587,0.499363
2.59793,0.548891,-0.0617869
2.66212,0.418781,-0.0784281
2.60436,0.541232,0
2.74796,0.295612,-0.032176
2.64977,0.416838,-0.341429
2.53217,0.656751,0.015204
2.67111,0.420195,-0.0157154
2.58159,0.536501,-0.284021
2.60757,0.541899,0.061973
2.74796,0.295612,0.032176
2.58629,0.537478,-0.184715
2.53889,0.658491,0.0763336
2.68655,0.422624,0.0474705
2.5193,0.653413,-0.166801
2.73556,0.294278,-0.160231
2.60777,0.541942,0.155115
2.67289,0.420474,0.110235
2.59762,0.539833,-0.123587
2.63159,0.546892,0.330022
2.52238,0.654211,-0.106165
2.70946,0.426229,0.50008
2.60365,0.541086,-0.06188
2.53035,0.646389,-0.0455857
2.66364,0.409022,-0.0784281
2.64403,0.406011,-0.535008
2.6024,0.530884,0
2.753,0.285952,-0.0322225
2.57921,0.526154,-0.40953
2.6552,0.407726,-0.341934
2.53844,0.648456,0.0152272
2.67658,0.411009,-0.0157387
2.58744,0.527831,-0.28445
2.73731,0.284322,-0.256897
2.61345,0.533139,0.0620661
2.74902,0.285539,0.032176
2.54516,0.650172,0.0764499
2.68808,0.412775,0.0474705
2.52555,0.645163,-0.167057
2.74456,0.285075,-0.160696
2.61365,0.533179,0.155347
2.68231,0.411889,0.110561
2.59958,0.530309,-0.123587
2.62969,0.53645,0.329535
2.68351,0.412074,0.221637
2.53638,0.647929,-0.106653
2.71879,0.41749,0.501515
2.60953,0.532339,-0.061973
2.53646,0.638528,-0.0456555
2.67296,0.400907,-0.0786608
2.64931,0.39736,-0.535792
2.75,0.275941,-0.032176
2.66053,0.399043,-0.342439
2.55232,0.64252,0.015297
2.68987,0.403443,-0.0158084
2.59706,0.520358,-0.285307
2.74621,0.27556,-0.257641
2.62314,0.525583,0.0622522
2.75398,0.27634,0.0322225
2.54741,0.641283,0.0764499
2.69741,0.404575,0.0476102
2.53553,0.638292,-0.167569
2.75348,0.27629,-0.161161
2.62724,0.526405,0.156045
2.69164,0.403708,0.110887
2.63543,0.528047,0.330022
2.53475,0.638096,-0.10649
2.72412,0.40858,0.502233
2.6153,0.524012,-0.0620661
2.53857,0.630115,-0.0456555
2.67823,0.392622,-0.0787772
2.66226,0.390281,-0.538146
2.6138,0.514705,0
2.76683,0.268366,-0.0323622
2.66184,0.39022,-0.342439
2.55056,0.633091,0.0152737
2.69515,0.395103,-0.0158317
2.60658,0.513281,-0.286163
2.75504,0.267223,-0.258385
2.62487,0.516883,0.0622522
2.77081,0.268752,0.0324088
2.60352,0.51268,-0.185552
2.5534,0.633797,0.0765663
2.53763,0.629882,-0.167569
2.75836,0.267545,-0.161394
2.63289,0.518463,0.156278
2.69296,0.394782,0.110887
2.61881,0.515691,-0.124331
2.64496,0.52084,0.330997
2.53685,0.629688,-0.10649
2.72935,0.400117,0.50295
2.62094,0.516111,-0.0621591
2.6875,0.384403,-0.0790099
2.66749,0.381541,-0.53893
2.61951,0.506336,0
2.76775,0.258706,-0.0323622
2.66712,0.381488,-0.342945
2.55275,0.624183,0.0152737
2.68859,0.384559,-0.0157852
2.59664,0.501915,-0.284878
2.75992,0.257974,-0.258756
2.63451,0.509235,0.0624383
2.77173,0.259078,0.0324088
2.60921,0.504346,-0.185831
2.55948,0.625829,0.0766826
2.53594,0.620071,-0.167313
2.7553,0.257543,-0.161161
2.63076,0.508511,0.156045
2.70619,0.387076,0.111375
2.6206,0.506546,-0.124331
2.64287,0.51085,0.33051
2.5468,0.622727,-0.106816
2.73073,0.390587,0.50295
2.62273,0.506958,-0.0621591
2.68486,0.374466,-0.0788935
2.6688,0.372226,-0.53893
2.62519,0.497934,0
2.78058,0.250117,-0.0325019
2.68022,0.373819,-0.34446
2.56269,0.617141,0.0153202
2.69784,0.376276,-0.0158317
2.60619,0.494329,-0.285735
2.75684,0.247981,-0.258385
2.63234,0.49929,0.0623452
2.78058,0.250117,0.0325019
2.61096,0.495234,-0.185831
2.55777,0.615954,0.0765663
2.54585,0.613084,-0.167825
2.76016,0.24828,-0.161394
2.64037,0.500813,0.15651
2.69961,0.376523,0.111049
2.62235,0.497395,-0.124331
2.65634,0.503841,0.331972
2.54896,0.613833,-0.106816
2.73208,0.381052,0.50295
2.62448,0.497799,-0.0621591
2.55271,0.605786,-0.0457951
2.69402,0.366639,-0.0791263
2.67391,0.363902,-0.539715
2.62683,0.489225,0
2.7814,0.240894,-0.0325019
2.59949,0.484134,-0.411375
2.68145,0.364928,-0.34446
2.56473,0.608639,0.0153202
2.707,0.368406,-0.0158782
2.61172,0.486411,-0.286163
2.76558,0.239524,-0.259128
2.63398,0.490557,0.0623452
2.78538,0.24124,0.0325485
2.61259,0.486572,-0.185831
2.56757,0.609315,0.076799
2.54787,0.604638,-0.167825
2.76893,0.239814,-0.161859
2.63809,0.491322,0.156278
2.70876,0.368646,0.111375
2.62791,0.489427,-0.124517
2.69938,0.367369,-0.142773
2.65409,0.494302,0.331485
2.55487,0.606299,-0.106979
2.73723,0.37252,0.503668
2.63398,0.490557,-0.0623452
2.5588,0.597335,-0.0458649
2.69534,0.356763,-0.0791263
2.683,0.355129,-0.541284
2.64041,0.481748,0
2.78226,0.230699,-0.0325019
2.69457,0.35666,-0.345975
2.57083,0.600144,0.0153435
2.71626,0.359532,-0.0159246
2.62131,0.478264,-0.28702
2.77438,0.230045,-0.259872
2.64363,0.482336,0.0625313
2.78226,0.230699,0.0325019
2.6222,0.478426,-0.186389
2.56979,0.5999,0.076799
2.55395,0.596203,-0.16808
2.77377,0.229995,-0.162092
2.65166,0.483801,0.156975
2.71802,0.359764,0.111701
2.63362,0.48051,-0.124703
2.65979,0.485284,0.331972
2.55707,0.596931,-0.106979
2.74638,0.363518,0.505103
2.63576,0.4809,-0.0623452
2.7045,0.348374,-0.079359
2.68033,0.345261,-0.540499
2.64208,0.472529,0
2.78704,0.221303,-0.0325485
2.69186,0.346746,-0.34547
2.57291,0.591167,0.0153435
2.62688,0.469812,-0.287448
2.77516,0.22036,-0.259872
2.64924,0.47381,0.0626244
2.79501,0.221936,0.0326416
2.62386,0.469271,-0.186389
2.57187,0.590927,0.076799
2.72507,0.351023,0.0479592
2.78649,0.22126,-0.162789
2.66119,0.475948,0.15744
2.73115,0.351807,0.112189
2.64315,0.472721,-0.125076
2.67319,0.478094,0.333435
2.56303,0.588897,-0.107142
2.75153,0.354432,0.50582
2.64924,0.47381,-0.0626244
2.70967,0.339429,-0.0794753
2.65159,0.464685,0
2.79178,0.211876,-0.032595
2.69699,0.337841,-0.345975
2.57886,0.583065,0.0153667
2.72664,0.341556,-0.0159711
2.62851,0.46064,-0.287448
2.78386,0.211275,-0.260615
2.66269,0.466631,0.0629035
2.79976,0.212482,0.0326882
2.63334,0.461487,-0.186947
2.57782,0.582828,0.0769154
2.73024,0.342007,0.048029
2.78725,0.211532,-0.162789
2.65497,0.465278,0.156975
2.7284,0.341775,0.112026
2.64872,0.464182,-0.125262
2.66702,0.46739,0.33246
2.72556,0.34142,0.22424
2.56507,0.579947,-0.107142
2.75666,0.345315,0.506538
2.64693,0.463869,-0.0625313
2.71084,0.329968,-0.0794753
2.69825,0.328436,-0.543637
2.64925,0.454749,0
2.80048,0.202707,-0.0326882
2.61776,0.449344,-0.413219
2.70997,0.329863,-0.34749
2.58869,0.575796,0.0154132
2.72782,0.332035,-0.0159711
2.6301,0.451461,-0.287448
2.78458,0.201555,-0.260615
2.66036,0.456656,0.0628105
2.80846,0.203284,0.0327813
2.6428,0.453642,-0.187505
2.57983,0.573826,0.0769154
2.56785,0.57116,-0.168592
2.78399,0.201513,-0.162557
2.66445,0.457358,0.15744
2.72957,0.332249,0.112026
2.65032,0.454933,-0.125262
2.68038,0.460091,0.333922
2.73069,0.332385,0.224566
2.57489,0.572725,-0.107467
2.76175,0.336165,0.507255
2.65248,0.455303,-0.0626244
2.71986,0.321916,-0.0797081
2.69933,0.319486,-0.543637
2.65469,0.446625,0
2.80912,0.193969,-0.0327813
2.71499,0.32134,-0.347995
2.58668,0.566352,0.0153899
2.73288,0.323457,-0.0159944
2.64335,0.444716,-0.288734
2.79715,0.193143,-0.261731
2.66975,0.449157,0.0629966
2.80912,0.193969,0.0327813
2.64429,0.444875,-0.187505
2.58953,0.566977,0.0771481
2.74045,0.324353,0.0481686
2.56973,0.562641,-0.168592
2.79261,0.192829,-0.163022
2.66989,0.449182,0.157673
2.74257,0.324604,0.112515
2.6597,0.447467,-0.125634
2.67797,0.450541,0.333435
2.73574,0.323796,0.224891
2.58068,0.565037,-0.10763
2.75894,0.326542,0.506538
2.65397,0.446504,-0.0626244
2.72102,0.311945,-0.0797081
2.70438,0.310038,-0.544422
2.66421,0.438191,0
2.80582,0.183412,-0.0327347
2.71615,0.311387,-0.347995
2.59656,0.558551,0.0154364
2.73802,0.313895,-0.0160176
2.64888,0.43567,-0.289162
2.79784,0.18289,-0.261731
2.66743,0.438721,0.0629035
2.81779,0.184194,0.0328744
2.6459,0.43518,-0.187505
2.5916,0.557483,0.0771481
2.74957,0.315219,0.0483083
2.79728,0.182853,-0.163254
2.67546,0.440042,0.157906
2.75168,0.315461,0.112841
2.66526,0.438364,-0.12582
2.73431,0.31347,-0.144238
2.6796,0.440723,0.333435
2.74483,0.314675,0.225542
2.58273,0.555575,-0.10763
2.77185,0.317773,0.50869
2.65954,0.437423,-0.0627174
2.73004,0.303329,-0.0799408
2.70934,0.30103,-0.545206
2.66967,0.429524,0
2.81044,0.173864,-0.0327813
2.72116,0.302343,-0.3485
2.59849,0.549484,0.0154364
2.65431,0.427054,-0.28959
2.80244,0.173369,-0.262102
2.68079,0.431313,0.0631827
2.81842,0.174358,0.0328744
2.65922,0.427844,-0.188342
2.59353,0.548434,0.0771481
2.75065,0.305619,0.0483083
2.80986,0.173828,-0.163952
2.68881,0.432603,0.158603
2.74879,0.305413,0.112678
2.67072,0.429694,-0.126006
2.69289,0.43326,0.334897
2.74591,0.305093,0.225542
2.58465,0.546557,-0.10763
2.78076,0.308965,0.510125
2.67289,0.430043,-0.0629966
2.735,0.294703,-0.0800572
2.67503,0.421292,0
2.81898,0.165011,-0.0328744
2.60422,0.541679,0.0154597
2.75202,0.296537,-0.0160874
2.65179,0.417631,-0.289162
2.81095,0.164541,-0.262846
2.83096,0.165712,0.0330141
2.66457,0.419645,-0.188622
2.73898,0.295132,-0.224891
2.60316,0.541459,0.0773808
2.7596,0.297354,0.0484479
2.5833,0.537328,-0.169104
2.80643,0.164277,-0.16372
2.69417,0.424306,0.158836
2.76171,0.297581,0.113166
2.67213,0.420835,-0.126006
2.69823,0.424945,0.335384
2.75484,0.29684,0.226193
2.59428,0.539611,-0.107956
2.78177,0.299743,0.510125
2.67035,0.420555,-0.0629035
2.73999,0.285568,-0.0801735
2.72303,0.2838,-0.547559
2.68439,0.413168,0
2.82354,0.155389,-0.032921
2.60217,0.531784,0.0154364
2.75702,0.287343,-0.0161106
2.65323,0.408371,-0.289162
2.81548,0.154946,-0.263218
2.68762,0.413664,0.0632757
2.83152,0.155829,0.0330141
2.66996,0.410947,-0.188901
2.74396,0.285982,-0.225217
2.60895,0.533169,0.0774972
2.7646,0.288133,0.0485177
2.81496,0.154917,-0.164185
2.69169,0.414291,0.158603
2.75876,0.287524,0.113003
2.70362,0.416128,0.335872
2.76379,0.288048,0.226844
2.60006,0.531352,-0.108119
2.79063,0.290846,0.51156
2.60366,0.522626,-0.0463536
2.72791,0.274686,-0.548344
2.68186,0.403199,0
2.82806,0.145737,-0.0329675
2.73993,0.275896,-0.350521
2.60794,0.523484,0.0154597
2.76199,0.278117,-0.0161339
2.66644,0.400881,-0.290447
2.81998,0.145321,-0.263589
2.693,0.404874,0.0633688
2.83604,0.146149,0.0330607
2.66744,0.401031,-0.188622
2.61472,0.524845,0.0776135
2.76957,0.278881,0.0485875
2.59873,0.521635,-0.169871
2.81549,0.14509,-0.164185
2.69707,0.405486,0.158836
2.68291,0.403357,-0.126379
2.75427,0.277341,-0.145075
2.70506,0.406687,0.335872
2.76874,0.278797,0.22717
2.60582,0.523059,-0.108281
2.79163,0.281102,0.51156
2.68509,0.403685,-0.0631827
2.74988,0.267206,-0.0804062
2.68325,0.393836,0
2.74877,0.267098,-0.351531
2.61367,0.515151,0.0154829
2.76294,0.268475,-0.0161339
2.66782,0.391571,-0.290447
2.69835,0.396052,0.0634618
2.84053,0.136441,0.0331072
2.67277,0.392297,-0.188901
2.75383,0.267589,-0.225868
2.77451,0.269599,0.0486573
2.82395,0.135645,-0.16465
2.70637,0.397229,0.159301
2.77661,0.269803,0.113655
2.6843,0.39399,-0.126379
2.75522,0.267725,-0.145075
2.71039,0.397819,0.336359
2.7697,0.269132,0.22717
2.60371,0.513187,-0.108119
2.79651,0.271737,0.512277
2.69044,0.394891,-0.0632757
2.61117,0.505196,-0.0464234
2.75876,0.25835,-0.080639
2.73757,0.256366,-0.549913
2.69649,0.386168,0
2.833,0.126168,-0.0330141
2.74969,0.257501,-0.351531
2.61938,0.506784,0.0155062
2.77581,0.259947,-0.0162036
2.67704,0.383383,-0.291304
2.83684,0.126339,-0.265077
2.70368,0.387197,0.0635549
2.84898,0.12688,0.0332004
2.68202,0.384096,-0.189459
2.75871,0.258346,-0.226193
2.61832,0.506578,0.0776135
2.77941,0.260285,0.0487271
2.83239,0.126141,-0.165115
2.71169,0.388345,0.159533
2.78549,0.260854,0.11398
2.68961,0.385183,-0.126565
2.76807,0.259223,-0.145703
2.71176,0.388355,0.336359
2.77459,0.259833,0.227495
2.61333,0.505613,-0.108444
2.80528,0.262707,0.513712
2.69386,0.3762,0
2.75847,0.248614,-0.352541
2.62506,0.498384,0.0155294
2.78068,0.250616,-0.0162269
2.6823,0.374587,-0.291732
2.71293,0.378864,0.063741
2.8574,0.117263,0.0332935
2.6873,0.375284,-0.189738
2.76754,0.249431,-0.226844
2.62792,0.498927,0.0778463
2.78031,0.250582,0.0487271
2.60797,0.495138,-0.170127
2.8368,0.116418,-0.165347
2.71303,0.378878,0.159533
2.78639,0.25113,0.11398
2.77294,0.249918,-0.145913
2.72883,0.381084,0.338309
2.78342,0.250863,0.228146
2.61901,0.497234,-0.108607
2.80618,0.252913,0.513712
2.70105,0.377205,-0.0634618
2.69912,0.367335,0
2.75932,0.238984,-0.352541
2.63072,0.489951,0.0155527
2.78154,0.240908,-0.0162269
2.68359,0.365222,-0.291732
2.71028,0.368853,0.0636479
2.86579,0.107589,0.0333866
2.6965,0.366978,-0.190296
2.77236,0.240114,-0.22717
2.62965,0.489752,0.0778463
2.62145,0.488225,-0.170895
2.84517,0.106815,-0.165813
2.72225,0.370483,0.159999
2.78725,0.241402,0.11398
2.70015,0.367476,-0.126937
2.72621,0.371021,0.337822
2.79222,0.241834,0.228797
2.62465,0.488821,-0.10877
2.81488,0.243796,0.515147
2.69839,0.367235,-0.0633688
2.76928,0.230109,-0.0808717
2.70435,0.358436,0
2.85415,0.0971756,-0.0332469
2.7641,0.229679,-0.353046
2.63241,0.480764,0.0155527
2.78635,0.231528,-0.0162501
2.6888,0.356374,-0.292161
2.71948,0.36044,0.0638341
2.86215,0.0974478,0.0333401
2.69776,0.357563,-0.190296
2.64708,0.483442,0.0783117
2.78996,0.231828,0.0488667
2.62707,0.479788,-0.17115
2.84952,0.0970178,-0.166045
2.72749,0.361502,0.160231
2.80002,0.232664,0.114469
2.70934,0.359097,-0.127309
2.7786,0.230884,-0.146122
2.73142,0.362024,0.338309
2.79702,0.232415,0.229122
2.63028,0.480374,-0.108933
2.82356,0.23462,0.516582
2.71155,0.35939,-0.0636479
2.63372,0.471509,-0.0467026
2.77405,0.220759,-0.080988
2.71352,0.350018,0
2.85447,0.0872128,-0.0332469
2.77279,0.220659,-0.354056
2.63801,0.472278,0.0155759
2.69791,0.348004,-0.293018
2.85823,0.0873277,-0.266935
2.72072,0.350946,0.0638341
2.87047,0.0877014,0.0334332
2.70295,0.348654,-0.190575
2.77795,0.221069,-0.227495
2.64088,0.472791,0.078079
2.79872,0.222723,0.0490064
2.63266,0.471319,-0.171406
2.86181,0.087437,-0.166743
2.73269,0.352491,0.160464
2.8048,0.223206,0.114632
2.71058,0.349638,-0.127309
2.78337,0.221501,-0.146331
2.73267,0.352488,0.338309
2.80179,0.222967,0.229448
2.63194,0.47119,-0.108933
2.82044,0.224451,0.515865
2.72072,0.350946,-0.0638341
2.63929,0.463003,-0.0467725
2.71472,0.340543,0
2.87075,0.0776803,-0.0334332
2.7775,0.211279,-0.354561
2.63965,0.463066,0.0155759
2.79986,0.21298,-0.0163199
2.707,0.339574,-0.293874
2.72986,0.342442,0.0640202
2.87075,0.0776803,0.0334332
2.70811,0.339713,-0.190854
2.7787,0.21137,-0.227495
2.80347,0.213255,0.0490762
2.8621,0.0774461,-0.166743
2.80955,0.213717,0.114795
2.79209,0.212389,-0.14675
2.7457,0.344428,0.339772
2.80653,0.213487,0.229773
2.6375,0.46269,-0.109096
2.64089,0.453788,-0.0467725
2.78749,0.202255,-0.0813371
2.71987,0.331549,0
2.86701,0.0675653,-0.0333866
2.78218,0.20187,-0.355066
2.64913,0.455204,0.0156224
2.69633,0.32868,-0.292589
2.73501,0.333395,0.0641132
2.87901,0.067848,0.0335263
2.71324,0.330741,-0.191133
2.79135,0.202536,-0.228471
2.65199,0.455696,0.0783117
2.80819,0.203757,0.049146
2.63588,0.452928,-0.171406
2.87034,0.0676438,-0.167208
2.73905,0.333887,0.160696
2.81426,0.204198,0.114957
2.72485,0.332157,-0.127868
2.79282,0.202642,-0.14675
2.74689,0.334843,0.339772
2.81521,0.204267,0.230424
2.65092,0.455511,-0.109584
2.73104,0.332911,-0.0640202
2.64632,0.445693,-0.0468423
2.73287,0.323941,0
2.87522,0.0582201,-0.0334798
2.79075,0.193192,-0.356076
2.65851,0.447746,0.0156689
2.80923,0.194471,-0.0163664
2.7132,0.32161,-0.294303
2.7361,0.324324,0.0641132
2.88321,0.0583821,0.0335729
2.72225,0.322682,-0.191691
2.79599,0.193554,-0.228797
2.65743,0.447564,0.0784281
2.81683,0.194997,0.0492856
2.64131,0.444848,-0.171662
2.87454,0.0582064,-0.16744
2.74807,0.325743,0.161161
2.81492,0.194865,0.114957
2.72594,0.32312,-0.127868
2.80144,0.193932,-0.147169
2.74798,0.325732,0.339772
2.81587,0.194931,0.230424
2.64847,0.446055,-0.109421
2.65962,0.438867,-0.0470517
2.79675,0.184289,-0.0815699
2.73393,0.314876,0
2.88739,0.0488876,-0.0336195
2.6975,0.310681,-0.422443
2.65604,0.438276,0.0156457
2.80986,0.185153,-0.0163664
2.71425,0.31261,-0.294303
2.74511,0.316163,0.0642993
2.88739,0.0488876,0.0336195
2.71934,0.313196,-0.191412
2.80457,0.184805,-0.229448
2.66285,0.4394,0.0785444
2.64671,0.436736,-0.171918
2.88669,0.0488758,-0.168138
2.82353,0.186054,0.115283
2.73097,0.314535,-0.128054
2.80606,0.184903,-0.147378
2.75693,0.317526,0.340747
2.82446,0.186115,0.231075
2.65388,0.43792,-0.109584
2.74113,0.315706,-0.0642063
2.65727,0.42848,-0.0469819
2.80539,0.174535,-0.0818026
2.73904,0.305297,0
2.88755,0.0383051,-0.0336195
2.66552,0.429812,0.0156922
2.8185,0.175351,-0.0164128
2.71538,0.30266,-0.294303
2.75022,0.306543,0.0643924
2.89555,0.0384112,0.0337126
2.73237,0.304553,-0.192249
2.80125,0.174277,-0.229122
2.66444,0.429637,0.0785444
2.8261,0.175824,0.0494252
2.65617,0.428304,-0.17243
2.89085,0.0383488,-0.168371
2.75425,0.306993,0.161394
2.82818,0.175953,0.115446
2.73607,0.304966,-0.12824
2.80671,0.174617,-0.147378
2.76203,0.307859,0.341234
2.82114,0.175515,0.23075
2.66336,0.429463,-0.10991
2.66665,0.420447,-0.0471215
2.80598,0.16474,-0.0818026
2.74406,0.296163,0
2.89967,0.0283419,-0.0337591
2.80054,0.164421,-0.357087
2.67096,0.421127,0.0157154
2.83108,0.166214,-0.0164826
2.72828,0.294459,-0.295588
2.75525,0.29737,0.0644854
2.90366,0.028381,0.0338057
2.72945,0.294585,-0.19197
2.8098,0.164964,-0.229773
2.66987,0.420956,0.0786608
2.83069,0.166191,0.049495
2.65765,0.419029,-0.17243
2.89096,0.0282569,-0.168371
2.76324,0.298233,0.161859
2.73712,0.295413,-0.12824
2.81129,0.165052,-0.147587
2.76703,0.298641,0.341722
2.66879,0.420785,-0.110073
2.6681,0.411136,-0.0471215
2.75304,0.287412,0
2.89975,0.0182193,-0.0337591
2.80902,0.155081,-0.358097
2.83164,0.15633,-0.0164826
2.72929,0.284933,-0.295588
2.76423,0.28858,0.0646715
2.90375,0.0182444,0.0338057
2.74236,0.286298,-0.192807
2.81832,0.155594,-0.230424
2.67528,0.412242,0.0787772
2.83924,0.156749,0.0496346
2.6591,0.409749,-0.17243
2.89903,0.0182148,-0.168836
2.76824,0.288999,0.162092
2.8453,0.157084,0.116097
2.75006,0.287101,-0.128798
2.82382,0.155898,-0.148215
2.772,0.289392,0.342209
2.83822,0.156693,0.232052
2.67024,0.411466,-0.110073
2.75627,0.28775,-0.0644854
2.67736,0.403478,-0.0472611
2.75,0.27788,0
2.91179,0.00863947,-0.0338988
2.81745,0.146177,-0.359107
2.67376,0.402937,0.0157154
2.73022,0.275882,-0.295588
2.76517,0.279413,0.0646715
2.91179,0.00863947,0.0338988
2.74727,0.277604,-0.193086
2.82678,0.146661,-0.231075
2.68454,0.404561,0.0790099
2.83975,0.147334,0.0496346
2.66833,0.402119,-0.172941
2.77316,0.28022,0.162324
2.84581,0.147648,0.116097
2.74702,0.277579,-0.128612
2.82831,0.14674,-0.148425
2.78085,0.280997,0.343184
2.84271,0.147487,0.232377
2.67159,0.40261,-0.110073
2.68264,0.395181,-0.0473309
2.82348,0.137104,-0.082268
2.75488,0.269148,0
2.9158,-0.00101722,-0.0339454
2.82188,0.137026,-0.359612
2.68696,0.395817,0.0157852
2.73904,0.2676,-0.296445
2.77006,0.270631,0.0647646
2.9198,-0.00101862,0.033992
2.75214,0.268881,-0.193365
2.69378,0.396822,0.0792426
2.84821,0.138305,0.0497743
2.67755,0.394432,-0.173453
2.77804,0.271411,0.162557
2.85427,0.138599,0.116423
2.75985,0.269634,-0.12917
2.83277,0.137555,-0.148634
2.78177,0.271775,0.343184
2.85114,0.138447,0.233028
2.68477,0.395496,-0.110561
2.69192,0.386953,-0.0474705
2.75979,0.259906,0
2.91978,-0.01121,-0.033992
2.68832,0.386436,0.0157852
2.74392,0.258411,-0.296873
2.77895,0.26171,0.0649507
2.92378,-0.0112254,0.0340385
2.75307,0.259273,-0.193365
2.83568,0.127777,-0.231726
2.69119,0.386848,0.0791263
2.84868,0.128362,0.0497743
2.68286,0.385652,-0.173709
2.78693,0.262462,0.163022
2.85074,0.128455,0.11626
2.76078,0.259999,-0.12917
2.83722,0.127846,-0.148843
2.7906,0.262808,0.344159
2.68614,0.386123,-0.110561
2.68929,0.376998,-0.0474007
2.76466,0.250631,0
2.93172,-0.0214907,-0.0341317
2.82277,0.117322,-0.359612
2.68965,0.377049,0.0157852
2.85749,0.118765,-0.0166221
2.75272,0.249549,-0.29773
2.92772,-0.0214613,0.0340851
2.75793,0.250021,-0.193644
2.84408,0.118208,-0.232377
2.70044,0.378561,0.079359
2.8531,0.118583,0.0498441
2.68815,0.376838,-0.173965
2.78782,0.252731,0.163022
2.86315,0.119001,0.116748
2.76963,0.251081,-0.129543
2.84563,0.118273,-0.149262
2.79546,0.253423,0.344647
2.69539,0.377853,-0.110887
2.69864,0.367749,-0.0475404
2.76959,0.240359,0
2.93162,-0.0327482,-0.0341317
2.83113,0.106781,-0.360622
2.69901,0.367798,0.0158317
2.7497,0.238633,-0.297301
2.78876,0.242023,0.0651368
2.93962,-0.0328375,0.0342248
2.76682,0.240119,-0.194202
2.84849,0.107436,-0.232702
2.70584,0.368729,0.0794753
2.86153,0.107928,0.0499837
2.68562,0.365974,-0.173709
2.93085,-0.0327396,-0.170696
2.78877,0.242024,0.163022
2.87157,0.108307,0.117074
2.77455,0.24079,-0.129729
2.85006,0.107495,-0.149472
2.79641,0.242687,0.344647
2.86443,0.108037,0.234004
2.69682,0.3675,-0.110887
2.70388,0.358853,-0.0476102
2.78237,0.231686,0
2.94748,-0.0432151,-0.0343179
2.74536,0.228604,-0.428592
2.83941,0.0971702,-0.361632
2.70424,0.358902,0.0158549
2.86228,0.0979526,-0.0166453
2.75448,0.229364,-0.29773
2.78959,0.232287,0.0651368
2.94348,-0.0431565,0.0342714
2.77162,0.230791,-0.194481
2.85283,0.0976294,-0.233028
2.719,0.36086,0.0798244
2.86589,0.0980761,0.0500535
2.69084,0.357123,-0.173965
2.79756,0.232951,0.163487
2.87194,0.0982831,0.117074
2.77936,0.231435,-0.129915
2.80515,0.233583,0.345621
2.70997,0.359662,-0.111375
2.70896,0.350871,-0.04768
2.78308,0.222945,0
2.95133,-0.0525454,-0.0343645
2.75394,0.22061,-0.429822
2.84764,0.0884965,-0.362642
2.70536,0.350405,0.0158549
2.87456,0.0893333,-0.0167151
2.76311,0.221345,-0.298587
2.79828,0.224162,0.0653229
2.95133,-0.0525454,0.0343645
2.77631,0.222402,-0.19476
2.72012,0.352317,0.0798244
2.87817,0.0894454,0.0502629
2.70382,0.350206,-0.174732
2.80226,0.224481,0.16372
2.88022,0.089509,0.1174
2.78804,0.223341,-0.130287
2.86269,0.0889642,-0.1501
2.80191,0.224453,0.345134
2.87704,0.0894101,0.234981
2.71425,0.340966,-0.0477498
2.85773,0.0778285,-0.0831989
2.95111,-0.0638766,-0.0343645
2.75871,0.210335,-0.430437
2.72256,0.342009,0.0159479
2.87888,0.0784047,-0.0167383
2.77187,0.211339,-0.299443
2.8031,0.21372,0.0654159
2.95511,-0.0639631,0.034411
2.77714,0.21174,-0.19476
2.71748,0.341372,0.0797081
2.88649,0.0786118,0.0504026
2.71703,0.341315,-0.1755
2.80708,0.214024,0.163952
2.88054,0.0784498,0.1174
2.78887,0.212635,-0.130287
2.867,0.078081,-0.150309
2.81067,0.214297,0.346109
2.71638,0.341234,-0.111538
2.72733,0.332943,-0.0479592
2.79262,0.203118,0
2.95886,-0.0743793,-0.0344576
2.76337,0.20099,-0.431052
2.71976,0.332018,0.0159246
2.88314,0.0684492,-0.0167616
2.7726,0.201661,-0.299443
2.80782,0.204224,0.065509
2.96686,-0.0745803,0.0345507
2.78582,0.202623,-0.195318
2.7266,0.332852,0.0799408
2.88675,0.0685348,0.0504026
2.71028,0.33086,-0.174988
2.8118,0.204513,0.164185
2.88879,0.0685833,0.117725
2.79757,0.203478,-0.130659
2.87524,0.0682617,-0.150728
2.81536,0.204772,0.346596
2.71755,0.331749,-0.111538
2.7244,0.323901,-0.0478894
2.87417,0.0592029,-0.0836644
2.80123,0.1949,0
2.97061,-0.0840131,-0.0345973
2.76793,0.192583,-0.431667
2.72476,0.323945,0.0159479
2.89134,0.0595565,-0.0168081
2.78908,0.194055,-0.301157
2.81643,0.195957,0.0656951
2.97461,-0.0841262,0.0346439
2.78644,0.193871,-0.195318
2.72763,0.324286,0.0799408
2.88695,0.0594661,0.0504026
2.7113,0.322345,-0.174988
2.96579,-0.0838767,-0.172789
2.81641,0.195956,0.164417
2.89299,0.0595904,0.117888
2.79819,0.194689,-0.130659
2.81995,0.196203,0.347084
2.72652,0.324154,-0.111864
2.80845,0.195402,-0.065509
2.72551,0.314389,-0.0478894
2.80588,0.185383,0
2.9783,-0.0946368,-0.0346904
2.77647,0.18344,-0.432897
2.72588,0.314431,0.0159479
2.88753,0.0493943,-0.0167848
2.78974,0.184317,-0.301157
2.8131,0.18586,0.0656021
2.98229,-0.0947638,0.034737
2.79507,0.184669,-0.195876
2.73669,0.315678,0.0801735
2.90313,0.0496612,0.0506818
2.72431,0.31425,-0.175755
2.82106,0.186386,0.16465
2.89318,0.0494909,0.117888
2.80683,0.185446,-0.131032
2.82855,0.186881,0.348059
2.73161,0.315092,-0.112026
2.8131,0.18586,-0.0656021
2.73857,0.305729,-0.0480988
2.88252,0.0387418,-0.0838971
2.80654,0.175099,0
2.98592,-0.105835,-0.0347836
2.79291,0.174248,-0.435356
2.73496,0.305326,0.0159944
2.89569,0.0389188,-0.0168313
2.7904,0.174092,-0.301157
2.82175,0.176047,0.0657882
2.98592,-0.105835,0.0347836
2.80369,0.174921,-0.196434
2.74577,0.306533,0.0804062
2.90729,0.0390748,0.0507516
2.72941,0.304706,-0.176011
2.82571,0.176294,0.164882
2.90133,0.0389946,0.118214
2.80749,0.175158,-0.131032
2.83317,0.17676,0.348546
2.90208,0.0390047,0.236933
2.73671,0.305522,-0.112189
2.74752,0.297506,-0.0482385
2.89063,0.0292629,-0.0841298
2.8111,0.166026,0
2.98556,-0.115737,-0.0347836
2.79347,0.164984,-0.435356
2.74391,0.297116,0.0160409
2.8998,0.0293558,-0.0168546
2.79493,0.165071,-0.301585
2.82631,0.166924,0.0658812
2.98955,-0.115892,0.0348301
2.80027,0.165386,-0.196155
2.74677,0.297425,0.0804062
2.74231,0.296942,-0.176779
2.83026,0.167158,0.165115
2.90544,0.0294129,0.118377
2.81603,0.166317,-0.131404
2.89987,0.0293565,-0.151984
2.83374,0.167363,0.348546
2.74169,0.296874,-0.112352
2.82631,0.166924,-0.0658812
2.74859,0.287435,-0.0482385
2.89871,0.0187203,-0.0843626
2.82767,0.156607,0
2.9931,-0.127017,-0.0348767
2.79405,0.154745,-0.435356
2.74101,0.286641,0.0160176
2.91189,0.0188054,-0.0169243
2.81537,0.155926,-0.303727
2.83089,0.156786,0.0659743
3.0011,-0.127356,0.0349698
2.80883,0.155563,-0.196713
2.75978,0.288604,0.0807553
2.91949,0.0188545,0.050961
2.73544,0.286059,-0.176267
2.83883,0.157225,0.16558
2.91352,0.018816,0.118702
2.82859,0.156658,-0.131962
2.84623,0.157635,0.350009
2.75071,0.287656,-0.112678
2.75356,0.27824,-0.0483083
2.90276,0.00861291,-0.0844789
2.8242,0.146528,0
2.99664,-0.137649,-0.0349233
2.74995,0.277875,0.0160641
2.90794,0.00862828,-0.016901
2.81193,0.145891,-0.303299
2.83941,0.147317,0.0661604
3.00463,-0.138016,0.0350164
2.81334,0.145964,-0.196992
2.76474,0.27937,0.0808717
2.92354,0.00867458,0.0510308
2.74437,0.277311,-0.176779
2.83936,0.147314,0.16558
2.91757,0.00865685,0.118865
2.83311,0.14699,-0.132148
2.85073,0.147904,0.350496
2.75169,0.278051,-0.112678
2.83542,0.14711,-0.0660673
2.75442,0.269588,-0.0483083
2.90277,-0.000505842,-0.0844789
2.83663,0.138239,0
3.00817,-0.14765,-0.0350629
2.75877,0.270014,0.0161106
2.92395,-0.000509532,-0.016994
2.8084,0.136863,-0.30287
2.84385,0.138591,0.0662534
3.01217,-0.147846,0.0351095
2.82972,0.137902,-0.198108
2.76561,0.270684,0.0808717
2.75317,0.269466,-0.17729
2.84779,0.138783,0.166045
2.92557,-0.000509815,0.119191
2.82957,0.137895,-0.131962
2.85514,0.139141,0.350984
2.75653,0.269795,-0.112841
2.83986,0.138396,-0.0661604
2.75937,0.259867,-0.0483781
2.91075,-0.0111751,-0.0847116
2.84112,0.128022,0
3.01161,-0.158884,-0.0351095
2.77169,0.261027,0.0161804
2.93193,-0.0112564,-0.0170405
2.82875,0.127465,-0.305012
2.84434,0.128167,0.0662534
3.00761,-0.158674,0.0350629
2.82622,0.127351,-0.197829
2.77852,0.261671,0.0812208
2.93953,-0.0112856,0.0513101
2.76209,0.260123,-0.177802
2.85227,0.128524,0.166278
2.93355,-0.0112626,0.119517
2.84203,0.128063,-0.132521
2.86357,0.129034,0.351959
2.76546,0.26044,-0.113166
2.84834,0.128347,-0.0663465
2.76827,0.250471,-0.0485177
2.92668,-0.0219642,-0.0851771
2.84556,0.117773,0
3.01899,-0.170373,-0.0352026
2.77263,0.250866,0.0161804
2.93587,-0.0220332,-0.0170638
2.8292,0.117095,-0.305012
2.85279,0.118071,0.0664395
3.01899,-0.170373,0.0352026
2.83863,0.117486,-0.198666
2.77946,0.251484,0.0812208
2.767,0.250356,-0.178058
2.85671,0.118234,0.16651
2.94148,-0.0220753,0.119842
2.85047,0.117976,-0.132893
2.86799,0.118701,0.352446
2.7664,0.250302,-0.113166
2.85279,0.118071,-0.0664395
2.77303,0.242121,-0.0485875
2.93059,-0.0312019,-0.0852934
2.84992,0.108984,0
3.02243,-0.180095,-0.0352492
2.77739,0.242501,0.0162036
2.94378,-0.0313424,-0.0171103
2.8375,0.10851,-0.305869
2.85714,0.109261,0.0665326
2.84696,0.108871,-0.199224
2.78024,0.24275,0.0812208
2.76777,0.241662,-0.178058
2.87303,0.109868,0.16744
2.94939,-0.031402,0.120168
2.85482,0.109172,-0.133079
2.87231,0.109841,0.352934
2.76717,0.241609,-0.113166
2.85714,0.109261,-0.0665326
2.77784,0.232774,-0.0486573
2.93446,-0.0414873,-0.0854098
2.86227,0.0994531,0
3.02578,-0.190896,-0.0352958
2.77822,0.232805,0.0162036
2.94366,-0.0416173,-0.0171103
2.83786,0.0986049,-0.305869
2.86549,0.099565,0.0667187
2.8553,0.0992108,-0.199783
2.78904,0.233712,0.0814535
2.95525,-0.0417812,0.0515893
2.77257,0.232333,-0.178314
2.86541,0.0995622,0.166975
2.96125,-0.041866,0.120656
2.88062,0.10009,0.353909
2.77596,0.232616,-0.113492
2.8575,0.0992873,-0.0665326
2.77867,0.22259,-0.0486573
2.93429,-0.0522431,-0.0854098
2.86262,0.0889609,0
2.79101,0.223579,0.0162734
2.95548,-0.0526204,-0.01718
2.85013,0.0885728,-0.307154
2.86984,0.0891853,0.0668117
2.79785,0.224126,0.0816862
2.77739,0.222487,-0.178569
2.88172,0.0895546,0.167906
2.95308,-0.0525777,0.120331
2.8889,0.0897777,0.354884
2.78078,0.222759,-0.113655
2.86584,0.089061,-0.0667187
2.78342,0.213197,-0.0487271
2.94209,-0.0626536,-0.0856425
2.87491,0.0793008,0
2.79975,0.214448,0.0163199
2.96328,-0.0631049,-0.0172265
2.87013,0.0791691,0.0668117
2.86391,0.0789976,-0.200341
2.8026,0.214666,0.0818026
2.78213,0.213098,-0.178825
2.88202,0.079497,0.167906
2.96087,-0.0630537,0.120656
2.8892,0.0796949,0.354884
2.78951,0.213663,-0.11398
2.87413,0.0792793,-0.0669048
2.79612,0.204353,-0.0489365
2.95384,-0.073222,-0.0859916
2.87517,0.0692633,0
2.80447,0.204963,0.0163431
2.96704,-0.0735492,-0.0172498
2.86658,0.0690565,-0.308868
2.89038,0.0696298,0.067277
2.86417,0.0689985,-0.200341
2.80333,0.20488,0.0818026
2.79082,0.203965,-0.179337
2.89026,0.069627,0.168371
2.96463,-0.0734895,0.120819
2.87605,0.0692845,-0.13401
2.78625,0.203632,-0.113818
2.87839,0.0693409,-0.0669978
2.79678,0.195079,-0.0489365
2.95758,-0.0831293,-0.086108
2.88738,0.0599778,0
2.80913,0.195941,0.0163664
2.97478,-0.0836126,-0.0172963
2.89059,0.0600446,0.067277
2.87635,0.0597488,-0.201178
2.80799,0.195861,0.0819189
2.78749,0.194432,-0.179081
2.90245,0.060291,0.169068
2.97635,-0.083657,0.121308
2.79489,0.194947,-0.114143
2.8866,0.0599615,-0.067184
2.80143,0.18558,-0.0490064
2.96127,-0.0935789,-0.0862243
2.88757,0.0498986,0
2.81379,0.186398,0.0163896
2.97047,-0.0938697,-0.017273
2.87494,0.0496803,-0.309725
2.90278,0.0501614,0.0675562
2.88452,0.049846,-0.201736
2.81264,0.186322,0.0820353
2.79612,0.185228,-0.179593
2.89865,0.0500902,0.168836
2.98803,-0.0944246,0.121796
2.79954,0.185454,-0.114306
2.89079,0.0499542,-0.067277
2.80609,0.175561,-0.0490762
2.9689,-0.104714,-0.0864571
2.89173,0.0393692,0
2.81046,0.175834,0.0163664
2.9821,-0.105179,-0.0173428
2.88305,0.0392511,-0.310581
2.90694,0.0395763,0.0676492
2.88469,0.0392733,-0.201736
2.8173,0.176262,0.0821517
2.99368,-0.105588,0.0522874
2.80475,0.175477,-0.180104
2.9108,0.0396288,0.169533
2.80818,0.175691,-0.114632
2.89495,0.039413,-0.0673701
2.80668,0.165764,-0.0490762
2.97251,-0.115231,-0.0865734
2.90385,0.0293964,0
2.82703,0.166966,0.0164593
2.90307,0.0293885,0.0675562
2.8888,0.029244,-0.202015
2.82588,0.166898,0.0823844
2.80933,0.165921,-0.18036
2.9189,0.0295488,0.169998
2.81276,0.166124,-0.114795
2.90307,0.0293885,-0.0675562
2.8152,0.156901,-0.0492158
2.9761,-0.125256,-0.0866898
2.90793,0.019794,0
2.82756,0.15759,0.0164593
2.9933,-0.12598,-0.0174125
2.91514,0.0198431,0.0678353
2.89686,0.0197186,-0.202573
2.83041,0.157749,0.0825008
2.81784,0.157048,-0.180872
2.92697,0.0199236,0.170464
2.81729,0.157018,-0.114957
2.90715,0.0197886,-0.0676492
2.82771,0.147699,-0.0494252
2.98364,-0.136008,-0.0869225
2.91198,0.00965655,0
2.8281,0.147719,0.0164593
2.90888,0.00964625,-0.20341
2.83094,0.147868,0.0825008
3.01241,-0.13732,0.0526365
2.8104,0.146795,-0.18036
2.93102,0.00971966,0.170696
2.81782,0.147182,-0.114957
2.91519,0.00966719,-0.0678353
2.82424,0.13714,-0.0493554
2.99111,-0.147336,-0.0871552
2.92,-0.00101927,0
2.84061,0.137935,0.0165291
3.0083,-0.148183,-0.0175055
2.83945,0.137879,0.0827335
3.01189,-0.14836,0.0526365
2.82288,0.137074,-0.181128
2.93103,-0.00102312,0.170696
2.82632,0.137241,-0.115283
2.92321,-0.00102039,-0.0680214
2.82868,0.127955,-0.0494252
2.99459,-0.157464,-0.0872716
2.93198,-0.0107463,0
2.84105,0.128514,0.0165291
3.01179,-0.158368,-0.0175287
2.93918,-0.0107727,0.0683936
2.83989,0.128462,0.0827335
2.83129,0.128073,-0.181639
2.93501,-0.0107574,0.170929
2.92481,-0.01072,-0.136243
2.82676,0.127868,-0.115283
2.92319,-0.0107141,-0.0680214
2.99802,-0.16814,-0.087388
2.92793,-0.0209522,0
2.84547,0.118763,0.0165523
3.0192,-0.169328,-0.0175752
2.94313,-0.0210609,0.0684867
2.92478,-0.0209297,-0.204526
2.84831,0.118882,0.0829662
2.83571,0.118356,-0.181895
2.94693,-0.0210882,0.171626
2.83917,0.1185,-0.115772
2.93513,-0.0210037,-0.0683006
2.84149,0.108662,-0.0496346
2.93583,-0.0312576,0
2.85387,0.109136,0.0165988
3.03057,-0.18058,-0.017645
2.94704,-0.0313768,0.0685797
2.93267,-0.0312239,-0.205084
2.85271,0.109091,0.0830826
2.84009,0.108609,-0.182151
2.95483,-0.0314598,0.172092
2.84356,0.108742,-0.115934
2.93904,-0.0312917,-0.0683936
2.84983,0.0995182,-0.0497743
2.94771,-0.0411605,0
2.85821,0.0998109,0.0166221
3.03794,-0.191131,-0.0176915
2.85705,0.0997703,0.0831989
2.85241,0.0996082,-0.182919
2.96269,-0.0413697,0.172557
2.85988,0.0998693,-0.116586
2.85417,0.0891973,-0.0498441
2.95954,-0.0521757,0
2.87055,0.0897092,0.0166918
2.86938,0.0896727,0.083548
2.85275,0.089153,-0.182919
2.96252,-0.0522282,0.172557
2.86023,0.0893867,-0.116586
2.86246,0.0794558,-0.0499837
2.95934,-0.0625061,0
2.87085,0.0796886,0.0166918
2.96654,-0.062658,0.069045
2.94415,-0.0621853,-0.205921
2.87368,0.0797671,0.0836644
2.85704,0.0793052,-0.183174
2.96631,-0.0626533,0.172789
2.95214,-0.062354,-0.137546
2.86851,0.0796238,-0.116911
2.86672,0.0695605,-0.0500535
2.95511,-0.0727373,0
2.87511,0.069764,0.0167151
2.97429,-0.0732096,0.0692311
2.87793,0.0698326,0.0837807
2.86528,0.0695255,-0.183686
2.9559,-0.0727568,-0.137732
2.87677,0.0698043,-0.117237
2.95885,-0.0826481,0
2.88332,0.0603969,0.0167616
2.98203,-0.0832956,0.0694172
2.88215,0.0603724,0.0838971
2.87347,0.0601907,-0.184198
2.96363,-0.0827817,-0.138104
