2.86698,0.714818,-0.0859916
2.93874,0.581886,-0.0348767
2.92305,0.578779,0.0346904
2.94964,0.584044,-0.175115
2.86921,0.705808,-0.0859916
2.94448,0.573416,-0.0349233
2.95148,0.574779,-0.280691
2.9327,0.571122,0.0347836
2.95538,0.575538,-0.175347
2.96129,0.565969,-0.281435
2.93468,0.560883,0.0347836
2.96129,0.565969,-0.17558
2.88209,0.686611,-0.0862243
2.95647,0.55329,-0.0350164
2.88326,0.68689,-0.0172265
2.96736,0.555328,-0.281806
2.93288,0.548875,0.034737
2.96344,0.554595,-0.17558
2.88447,0.676546,-0.0862243
2.96232,0.543687,-0.0350629
2.88953,0.677734,-0.0172498
2.97711,0.546403,-0.28255
2.94265,0.540077,0.0348301
2.96929,0.544967,-0.175812
2.89047,0.668382,-0.0863407
2.96007,0.533669,-0.0350164
2.9749,0.536342,-0.282178
2.94826,0.53154,0.0348767
2.97099,0.535637,-0.175812
2.89669,0.659175,-0.0864571
2.9698,0.524724,-0.0351095
2.89787,0.659443,-0.017273
2.98459,0.527339,-0.282922
2.9501,0.521245,0.0348767
2.97284,0.525262,-0.175812
2.97161,0.514355,-0.0351095
2.90405,0.650198,-0.0172963
2.98642,0.516918,-0.282922
2.95979,0.512309,0.0349698
2.97859,0.515563,-0.176045
2.89731,0.638076,-0.0863407
2.98127,0.505315,-0.0352026
2.9063,0.640056,-0.0172963
2.99606,0.507821,-0.283665
2.9655,0.502642,0.0350164
2.98037,0.505162,-0.176045
2.90734,0.629651,-0.0865734
2.97907,0.49425,-0.0351561
2.99781,0.497359,-0.283665
2.97118,0.492941,0.0350629
2.98999,0.496062,-0.17651
2.91343,0.620332,-0.0866898
2.98868,0.485131,-0.0352492
2.91853,0.621417,-0.0173428
3.00739,0.488169,-0.284409
2.97683,0.483208,0.0351095
2.99171,0.485623,-0.17651
2.91949,0.610978,-0.0868062
2.99825,0.47595,-0.0353423
2.91676,0.610407,-0.0173195
3.00514,0.477044,-0.284037
2.98245,0.473442,0.0351561
2.99338,0.475177,-0.17651
2.99981,0.466004,-0.0353423
3.01064,0.467686,-0.284409
2.98401,0.463548,0.0351561
2.86197,0.736427,-0.0687658
2.9275,0.591884,-0.0869225
3.00538,0.456131,-0.0353889
3.0162,0.457773,-0.284781
2.98956,0.45373,0.0352026
3.00445,0.455989,-0.176975
2.91456,0.589267,0.121145
2.8684,0.727416,-0.0688589
2.93347,0.582439,-0.0870389
3.01091,0.446223,-0.0354355
3.02566,0.448408,-0.285524
2.99508,0.443877,0.0352492
2.96018,0.587741,-0.246372
3.01392,0.446669,-0.17744
2.93941,0.572961,-0.0871552
3.00849,0.435138,-0.0353889
3.0272,0.437845,-0.285524
3.00453,0.434566,0.0353423
3.01941,0.436718,-0.177673
2.95623,0.576239,-0.157845
2.94139,0.562698,-0.0871552
3.01791,0.425752,-0.035482
2.94259,0.562927,-0.0174125
3.04449,0.429501,-0.287011
3.01395,0.425193,0.0354355
2.97204,0.568561,-0.247023
2.93627,0.561719,0.121796
2.88517,0.699597,-0.13829
2.94334,0.552426,-0.0871552
3.01938,0.415214,-0.035482
2.9524,0.554127,-0.017459
3.03413,0.417243,-0.285896
3.00749,0.413579,0.0353423
3.02634,0.416172,-0.177905
2.8876,0.689521,-0.13829
2.96411,0.556324,-0.158055
2.88995,0.690082,-0.0691381
3.02874,0.405735,-0.0355752
2.95825,0.544542,-0.0174822
3.04346,0.407707,-0.28664
3.02081,0.404673,0.035482
3.03173,0.406136,-0.178138
2.94012,0.541206,0.121796
2.88999,0.679438,-0.13829
2.97389,0.547421,-0.158473
2.95499,0.533285,-0.087388
2.88379,0.667365,0
3.02617,0.394642,-0.0355286
2.96013,0.534212,-0.0174822
3.05277,0.398111,-0.287383
3.03014,0.395159,0.0355752
2.98568,0.538822,-0.247673
2.90013,0.671147,-0.138663
2.96077,0.523662,-0.0875043
2.89,0.658182,0
3.03546,0.385082,-0.0356217
2.96592,0.524572,-0.0175055
3.06204,0.388454,-0.288127
3.02753,0.384075,0.0355286
2.99147,0.52909,-0.247999
3.04242,0.385965,-0.178603
2.89856,0.660131,-0.138477
2.96267,0.512808,-0.0875043
2.89239,0.647586,0
3.03685,0.373955,-0.0356217
2.96782,0.513698,-0.0175055
3.06344,0.377229,-0.288127
3.04082,0.374444,0.0356683
2.99731,0.518803,-0.248324
2.90486,0.650377,-0.138663
2.90722,0.650906,-0.0693242
2.89843,0.638853,0
3.04205,0.364358,-0.0356683
2.97345,0.504523,-0.0175287
3.06863,0.367542,-0.288498
3.04205,0.364358,0.0356683
3.00295,0.509528,-0.24865
2.96316,0.502777,0.122448
2.9109,0.641601,-0.138849
2.90936,0.641262,-0.0693242
2.90064,0.628732,0
3.04728,0.3542,-0.0357148
2.98308,0.495452,-0.0175752
3.0699,0.356829,-0.288498
3.04728,0.3542,0.0357148
2.92477,0.633963,-0.209269
3.00471,0.499044,-0.24865
3.06216,0.35593,-0.179533
2.91702,0.632283,-0.139035
2.99875,0.498054,-0.159311
2.90673,0.619436,0
3.04849,0.34356,-0.0357148
2.98874,0.485677,-0.0175985
3.083,0.347448,-0.289614
3.04849,0.34356,0.0357148
2.92307,0.622917,-0.20899
3.0025,0.487912,-0.248324
3.06735,0.345685,-0.179766
2.97448,0.48336,0.122773
2.92312,0.622929,-0.139221
3.00047,0.487583,-0.159311
2.91268,0.610615,0
3.05757,0.334319,-0.035808
3.08413,0.337223,-0.289614
3.05757,0.334319,0.035808
2.92902,0.61404,-0.209269
3.01197,0.479206,-0.248975
3.07642,0.33638,-0.180231
2.98002,0.474122,0.122936
2.92517,0.613233,-0.139221
3.00996,0.478886,-0.159729
2.9148,0.600444,0
3.07065,0.324907,-0.0359477
2.99198,0.465324,-0.0175985
3.09717,0.327714,-0.290729
3.05872,0.323645,0.035808
3.01757,0.469303,-0.249301
2.9856,0.464332,0.123099
2.92729,0.603019,-0.139221
3.01161,0.468377,-0.159729
2.93359,0.604316,-0.0696964
2.92472,0.591852,0
3.07176,0.314186,-0.0359477
3.03244,0.46078,-0.390421
3.0015,0.456078,-0.017645
3.09433,0.316494,-0.290357
3.06381,0.313372,0.0358545
2.93715,0.594368,-0.209548
3.02707,0.459964,-0.249952
2.98721,0.453906,0.123099
2.86667,0.72751,-0.120494
2.9396,0.594865,-0.0697894
2.92677,0.581639,0
3.07682,0.303854,-0.0359942
3.03403,0.450192,-0.390421
3.00703,0.446184,-0.0176682
3.10731,0.306865,-0.291473
3.06488,0.302675,0.0358545
2.94312,0.584888,-0.209827
3.02471,0.448808,-0.249626
3.08375,0.304538,-0.180464
2.93535,0.583345,-0.139407
3.02271,0.448512,-0.160148
2.96556,0.440031,0.244744
2.87307,0.718468,-0.120656
2.87751,0.708915,-0.0517289
2.92878,0.571419,0
3.08185,0.293492,-0.0360408
3.03951,0.440167,-0.390926
3.01648,0.436832,-0.0177147
3.11233,0.296394,-0.291844
2.93583,0.572796,0.0696033
3.07787,0.293113,0.0359942
3.03021,0.438819,-0.249952
3.08877,0.294151,-0.180696
2.94521,0.574626,-0.139779
3.02821,0.438531,-0.160357
2.87168,0.707479,-0.120494
2.93478,0.561432,0
3.07892,0.281829,-0.0359942
3.04111,0.429023,-0.390926
3.01806,0.425773,-0.0177147
3.11736,0.285347,-0.292216
2.94184,0.562783,0.0696964
3.07494,0.281464,0.0359477
2.95507,0.565313,-0.210386
3.03574,0.428266,-0.250277
3.10573,0.284283,-0.181626
3.00374,0.423752,0.123587
2.95515,0.565328,-0.140152
2.88202,0.698832,-0.120819
2.88628,0.68974,-0.0517987
2.94056,0.552437,0
3.08781,0.272322,-0.0360874
2.86722,0.685185,0.0171335
3.0155,0.415218,-0.0176915
3.11829,0.27501,-0.292216
3.07984,0.271619,0.0359942
2.96085,0.556249,-0.210665
3.04504,0.419287,-0.250928
3.01905,0.415708,0.0531949
3.01305,0.414881,0.123913
2.95701,0.555528,-0.140152
3.03516,0.417926,-0.160567
2.9858,0.41113,0.246046
2.88821,0.690202,-0.120982
2.88867,0.67966,-0.0517987
2.9464,0.542893,0
3.09272,0.261879,-0.0361339
3.05182,0.40937,-0.391937
3.02089,0.405221,-0.0177147
3.12717,0.264795,-0.29296
2.94954,0.543471,0.0697894
3.08475,0.261204,0.0360408
2.96669,0.546632,-0.210944
3.05044,0.409184,-0.251254
3.02445,0.405698,0.0532647
3.10759,0.263138,-0.181626
3.01448,0.40436,0.123913
2.955,0.544478,-0.139966
3.04056,0.407859,-0.160776
2.98722,0.400704,0.246046
2.8906,0.680115,-0.120982
2.96134,0.545645,-0.0700686
2.89492,0.670474,-0.0518686
2.94828,0.532604,0
3.0976,0.251404,-0.0361805
3.0611,0.399741,-0.392947
3.03022,0.395709,-0.0177612
3.13204,0.254199,-0.293332
2.95142,0.533171,0.0697894
3.08963,0.250757,0.0360874
3.05185,0.398533,-0.251254
3.11645,0.252934,-0.182091
3.0238,0.39487,0.124239
2.96081,0.534869,-0.140152
3.04196,0.397242,-0.160776
2.99651,0.391306,0.246697
2.89685,0.670922,-0.121145
2.95021,0.521796,0
3.10249,0.240359,-0.0362271
3.06255,0.38852,-0.392947
2.88605,0.657284,0.0172033
3.03959,0.385607,-0.0178077
3.13692,0.243026,-0.293703
2.96123,0.523744,0.0699755
3.09452,0.239741,0.0361339
2.97053,0.525389,-0.210944
3.05725,0.387847,-0.251579
2.91133,0.663041,-0.191361
3.11736,0.241511,-0.182091
3.02919,0.384288,0.124401
2.97849,0.526798,-0.140896
3.04736,0.386593,-0.160985
2.89929,0.660301,-0.121145
2.90733,0.651998,-0.0520082
2.95981,0.513376,0
3.11125,0.23066,-0.0363202
2.88431,0.646834,0.01718
2.99764,0.519938,-0.327717
3.14168,0.232916,-0.294075
2.96689,0.514604,0.0700686
3.09928,0.229773,0.0361805
2.98012,0.516899,-0.211502
3.06643,0.378683,-0.25223
3.04044,0.375474,0.0534742
2.91351,0.653382,-0.191361
3.13009,0.232057,-0.182789
2.98022,0.516917,-0.140896
3.05259,0.376974,-0.161195
3.00312,0.370865,0.247023
2.90147,0.650682,-0.121145
2.90569,0.640984,-0.0519384
2.96947,0.504381,0
2.89046,0.637625,0.0172033
3.04214,0.364908,-0.0178077
2.99552,0.508806,-0.327289
3.14645,0.222229,-0.294447
3.10406,0.219235,0.0362271
2.9819,0.506494,-0.211502
3.07565,0.368927,-0.252881
3.04173,0.364859,0.0534742
2.91577,0.643209,-0.191361
3.13487,0.221411,-0.183022
2.95657,0.502191,0.17465
3.03967,0.364612,0.124727
2.98595,0.507181,-0.141082
3.05785,0.366793,-0.161404
2.90762,0.641412,-0.121308
2.91572,0.632533,-0.052078
2.97516,0.494668,0
3.12077,0.209469,-0.0364133
3.07821,0.358339,-0.394462
2.89657,0.628378,0.0172265
3.05134,0.355211,-0.0178542
3.00512,0.49965,-0.328145
3.14323,0.210977,-0.294075
2.97041,0.493878,0.0700686
3.11278,0.208934,0.0363202
2.99153,0.49739,-0.21206
3.07692,0.358188,-0.252881
3.04696,0.354701,0.053544
2.9219,0.633873,-0.191617
3.13562,0.210466,-0.183022
2.96225,0.492521,0.174882
3.04093,0.353998,0.124727
2.98376,0.496098,-0.140896
3.07102,0.357502,-0.162032
3.01356,0.350812,0.247673
2.91766,0.632952,-0.121633
2.97283,0.484157,0
3.12544,0.199375,-0.0364599
3.08727,0.349021,-0.395472
2.90255,0.619605,0.0172498
3.05648,0.345541,-0.0178774
3.00676,0.489683,-0.328145
3.14789,0.200807,-0.294447
2.97992,0.485312,0.0702547
2.99316,0.487468,-0.21206
3.08205,0.348431,-0.253206
3.05209,0.345044,0.0536138
2.92399,0.62418,-0.191617
3.14427,0.200576,-0.183487
2.97175,0.48398,0.175347
3.04208,0.343913,0.124727
2.99722,0.488129,-0.141455
3.06028,0.34597,-0.161404
3.01867,0.341266,0.247999
2.91974,0.623274,-0.121633
2.91996,0.612671,-0.052078
2.97846,0.474405,0
3.09635,0.339106,-0.396482
2.90861,0.61029,0.017273
3.06562,0.335739,-0.0179239
3.01238,0.479809,-0.328574
3.15652,0.190296,-0.29519
2.9816,0.474906,0.0702547
3.12212,0.188222,0.0364133
2.99878,0.477643,-0.212339
3.08721,0.338104,-0.253532
2.90352,0.609221,0.0863407
3.05328,0.334388,0.0536138
2.93396,0.615609,-0.192128
3.15292,0.190079,-0.183952
2.97342,0.473603,0.175347
3.05518,0.334597,0.125216
2.9989,0.477663,-0.141455
3.06941,0.336155,-0.161823
2.9219,0.613077,-0.121633
2.92208,0.602476,-0.052078
2.988,0.465237,0
3.14272,0.178457,-0.0366461
3.09357,0.327878,-0.395977
2.90681,0.599326,0.0172498
3.07075,0.325459,-0.0179472
3.0219,0.470516,-0.329431
3.16512,0.179729,-0.295934
2.99114,0.465727,0.0704408
3.12675,0.17755,0.0364599
3.01226,0.469015,-0.213176
3.0963,0.328167,-0.254183
2.91346,0.600698,0.0865734
3.05045,0.323307,0.053544
2.93218,0.604558,-0.191873
3.15755,0.179299,-0.184184
2.97505,0.463222,0.175347
3.06031,0.324352,0.125378
3.00845,0.468422,-0.141827
3.08248,0.326702,-0.162451
2.92793,0.603682,-0.121796
2.92809,0.593065,-0.0521478
2.9896,0.454803,0
3.14333,0.167485,-0.0366461
3.10654,0.31829,-0.397492
2.91672,0.590763,0.0172963
3.07187,0.314737,-0.0179472
3.02352,0.459963,-0.329431
3.17368,0.169102,-0.296678
2.99275,0.455282,0.0704408
3.13135,0.166847,0.0365064
3.00994,0.457897,-0.212897
2.91554,0.590523,0.0865734
3.05951,0.313471,0.0536836
2.93819,0.595111,-0.192128
3.15816,0.168275,-0.184184
2.98455,0.454034,0.175812
3.06142,0.313667,0.125378
3.01007,0.457916,-0.141827
2.92611,0.592664,-0.121633
3.00856,0.457688,-0.070813
2.93798,0.584403,-0.0522874
3.00304,0.44613,0
3.14789,0.156713,-0.0366927
3.11158,0.307837,-0.397997
2.92269,0.581361,0.0173195
3.07295,0.304014,-0.0179472
3.02511,0.449409,-0.329431
3.17027,0.157827,-0.296306
2.99432,0.444834,0.0704408
3.1399,0.156315,0.0365996
3.01546,0.447976,-0.213176
2.92542,0.581905,0.0868062
3.07253,0.303973,0.053893
2.94416,0.585632,-0.192384
3.16671,0.15765,-0.18465
2.98611,0.443615,0.175812
3.06647,0.303374,0.125541
3.01955,0.448583,-0.142199
3.09264,0.305962,-0.16287
3.04297,0.301049,0.249626
2.936,0.584008,-0.121959
3.0141,0.447773,-0.0709061
2.94001,0.574143,-0.0522874
2.99666,0.434496,0
3.15641,0.146093,-0.0367858
3.12054,0.297726,-0.399008
2.93255,0.572688,0.017366
3.08195,0.294045,-0.0179937
3.0424,0.441128,-0.331144
3.18274,0.147312,-0.297421
2.99981,0.434953,0.0705338
3.02096,0.438019,-0.213455
2.92744,0.571689,0.0868062
3.08154,0.294005,0.0540326
2.95402,0.576881,-0.192896
3.17123,0.146779,-0.184882
2.99555,0.434334,0.176278
3.07149,0.293047,0.125704
3.01714,0.437466,-0.142013
3.09766,0.295544,-0.163079
2.94194,0.574521,-0.122122
3.0196,0.437822,-0.0709991
3.01004,0.425713,0
3.1569,0.135073,-0.0367858
3.12156,0.286831,-0.399008
2.93061,0.561694,0.0173428
3.09093,0.284016,-0.0180402
3.04392,0.430505,-0.331144
3.19119,0.13654,-0.298165
3.00131,0.424478,0.0705338
3.03037,0.428588,-0.214013
3.11646,0.286362,-0.255484
2.92942,0.561466,0.0868062
3.08254,0.283246,0.0540326
2.95602,0.566565,-0.192896
3.18369,0.136219,-0.18558
2.99705,0.423875,0.176278
3.07648,0.282688,0.125867
3.03448,0.429169,-0.142757
3.10663,0.285459,-0.163498
2.94,0.563495,-0.121959
3.02507,0.427838,-0.0710922
2.94797,0.553829,-0.0523572
3.16137,0.123659,-0.0368324
2.93658,0.551688,0.017366
3.09593,0.273038,-0.0180634
3.05336,0.420431,-0.332001
3.19565,0.125,-0.298536
3.00681,0.414021,0.0706269
3.03983,0.418567,-0.214571
3.12146,0.275289,-0.25581
2.93538,0.551464,0.0869225
3.07958,0.271595,0.0539628
2.95415,0.55499,-0.19264
3.18417,0.12455,-0.18558
3.00253,0.413432,0.17651
3.08545,0.272114,0.126193
3.11164,0.274423,-0.163707
2.9499,0.554192,-0.122285
2.95372,0.544775,-0.052427
3.17375,0.113603,-0.0369721
3.13139,0.265702,-0.400018
2.94232,0.542672,0.0173892
3.09283,0.26243,-0.0180402
3.04686,0.409244,-0.331144
3.20401,0.114686,-0.29928
3.0412,0.408484,-0.214571
3.12633,0.265273,-0.256135
2.94113,0.542451,0.0870389
3.09242,0.262395,0.0541723
2.96775,0.547362,-0.193408
3.18456,0.11399,-0.18558
3.00389,0.403473,0.17651
3.08634,0.26188,0.126193
3.04136,0.408506,-0.142944
3.12049,0.264777,-0.164126
2.95566,0.545131,-0.122448
3.03194,0.407241,-0.0711852
2.95561,0.534461,-0.052427
3.16271,0.257244,-0.634636
3.0183,0.394688,0
3.18212,0.102782,-0.0370652
3.14416,0.255736,-0.401533
2.94814,0.53311,0.0174125
3.09772,0.251958,-0.0180634
3.0601,0.400153,-0.332429
3.20041,0.103373,-0.298908
3.01352,0.394063,0.0707199
3.04656,0.398383,-0.21485
2.94694,0.532894,0.0871552
3.0973,0.251924,0.0542421
2.96572,0.53629,-0.193152
3.18893,0.103002,-0.185812
3.00528,0.392985,0.17651
3.08724,0.251105,0.126193
3.04277,0.397887,-0.142944
3.12538,0.254207,-0.164335
2.96147,0.535522,-0.12261
3.03731,0.397174,-0.0712783
2.96139,0.52484,-0.0524968
3.1675,0.246508,-0.63542
3.18646,0.09179,-0.0371118
3.14899,0.245067,-0.402038
2.95392,0.523515,0.0174357
3.10655,0.241765,-0.0181099
3.06147,0.38947,-0.332429
3.21269,0.0925457,-0.300023
3.02281,0.384551,0.0709061
3.04793,0.387747,-0.21485
2.95665,0.524,0.087388
3.10215,0.241422,0.0543119
2.97543,0.527328,-0.193663
3.19725,0.0921009,-0.186277
3.01456,0.383501,0.176975
3.08809,0.240328,0.126193
3.04414,0.387264,-0.142944
3.12624,0.243297,-0.164335
3.00109,0.381788,0.371458
3.07246,0.239111,0.251579
2.96333,0.525182,-0.12261
3.04265,0.387075,-0.0713713
2.95927,0.513814,-0.052427
3.17226,0.23574,-0.636205
3.15774,0.234661,-0.403048
2.95967,0.513884,0.017459
3.11137,0.231215,-0.0181332
3.07071,0.379756,-0.333286
3.21698,0.0814306,-0.300395
3.03207,0.374978,0.0710922
3.05719,0.378084,-0.215408
2.94665,0.511623,0.0870389
3.11095,0.231184,0.0544515
2.97726,0.516938,-0.193663
3.20554,0.081141,-0.186743
3.01588,0.372975,0.176975
3.09688,0.230139,0.126518
3.05737,0.378106,-0.143502
3.13106,0.232678,-0.164544
3.07725,0.228679,0.251904
2.96908,0.515518,-0.122773
3.04795,0.376942,-0.0714644
2.97287,0.505493,-0.0526365
3.18088,0.22522,-0.637773
3.19502,0.0697166,-0.0372049
3.08053,0.370058,-0.482704
3.15459,0.223358,-0.402543
2.96144,0.50355,0.017459
3.11615,0.220636,-0.0181564
3.07596,0.36951,-0.333714
3.22919,0.0704621,-0.301511
3.03733,0.36487,0.0711852
3.18303,0.0694548,0.0370652
3.06245,0.367887,-0.215687
3.15359,0.223287,-0.258088
2.96812,0.504686,0.0876207
3.11173,0.220324,0.0544515
2.97904,0.506543,-0.193663
3.21379,0.0701261,-0.187208
3.02509,0.363399,0.17744
3.10564,0.219892,0.126844
3.05867,0.367433,-0.143502
3.1438,0.222594,-0.165172
3.08201,0.218219,0.25223
2.97086,0.505151,-0.122773
3.05719,0.367254,-0.0716505
2.97839,0.49681,-0.0527063
3.18549,0.215491,-0.638558
3.03929,0.355423,0
3.20322,0.0598288,-0.037298
3.15923,0.213714,-0.403048
2.9709,0.495561,0.0175055
3.11682,0.210846,-0.0181564
3.07711,0.359845,-0.333714
3.22939,0.0603176,-0.301511
3.04641,0.356255,0.0713713
3.19123,0.0596047,0.0371583
3.07548,0.359655,-0.216524
2.96969,0.49536,0.0876207
3.12039,0.211087,0.0545911
2.98849,0.498495,-0.194175
3.21399,0.0600299,-0.187208
3.02225,0.35343,0.177208
3.11429,0.210675,0.12717
3.06378,0.358286,-0.143688
3.14847,0.212987,-0.165382
3.01269,0.352312,0.372433
2.98032,0.497131,-0.123099
3.05847,0.206899,0.558913
3.05435,0.357184,-0.0715574
2.98019,0.485888,-0.0527063
3.19409,0.204312,-0.640127
3.0525,0.345629,0
3.20742,0.0481457,-0.0373446
3.17187,0.202891,-0.404563
2.9727,0.484667,0.0175055
3.12955,0.200184,-0.0182262
3.09026,0.349905,-0.335
3.23358,0.0485383,-0.301882
3.0477,0.345085,0.0713713
3.19542,0.0479656,0.0372049
3.08074,0.348827,-0.216803
2.97149,0.48447,0.0876207
3.12115,0.199647,0.0545911
3.21818,0.0483072,-0.18744
3.03146,0.343247,0.177673
3.10707,0.198746,0.126844
3.06904,0.347502,-0.143874
3.14923,0.201443,-0.165382
3.01396,0.341266,0.372433
2.98212,0.486202,-0.123099
3.06707,0.196187,0.560348
3.05962,0.346435,-0.0716505
2.98195,0.474962,-0.0527063
3.19481,0.192605,-0.640127
3.21558,0.036481,-0.0374377
3.17656,0.191504,-0.405068
2.98236,0.475027,0.017552
3.13026,0.188713,-0.0182262
3.09153,0.338577,-0.335
3.23771,0.0367322,-0.302254
3.04496,0.333478,0.0712783
3.07803,0.3371,-0.216524
2.97719,0.474205,0.087737
3.13383,0.188928,0.0548006
3.22633,0.0366029,-0.187905
3.04064,0.333004,0.178138
3.11176,0.187598,0.127007
3.07029,0.336252,-0.143874
3.14995,0.1899,-0.165382
3.01914,0.330649,0.37292
3.07955,0.185656,0.562501
3.06484,0.335654,-0.0717435
3.19938,0.181673,-0.640911
3.05489,0.323777,0
3.21568,0.0252555,-0.0374377
3.18117,0.180639,-0.405574
2.98795,0.465228,0.0175752
3.1349,0.178011,-0.0182494
3.1006,0.328621,-0.335856
3.24977,0.0255232,-0.303369
3.05406,0.323689,0.0714644
3.21168,0.0252241,0.0373912
3.0911,0.327614,-0.217361
3.1763,0.180362,-0.259715
2.97883,0.463809,0.087737
3.13447,0.177987,0.0548006
3.00555,0.467968,-0.194943
3.23043,0.0253713,-0.188138
3.04178,0.322387,0.178138
3.11639,0.176961,0.12717
3.08337,0.326795,-0.144433
3.15857,0.179356,-0.1658
3.08411,0.175127,0.563218
3.06997,0.325375,-0.0718366
2.99294,0.456381,-0.0528459
3.21169,0.172252,-0.643265
3.05987,0.314587,0
3.22375,0.0151913,-0.0375309
3.18172,0.170645,-0.405574
2.99335,0.456443,0.0175985
3.13944,0.168377,-0.0182727
3.10161,0.318879,-0.335856
3.26178,0.0153705,-0.304485
3.067,0.31532,0.0717435
3.21175,0.0151348,0.0373912
3.09211,0.317902,-0.217361
2.98818,0.455654,0.0879698
3.13502,0.16814,0.0548006
3.00306,0.457923,-0.194687
3.24247,0.0152795,-0.188836
3.04675,0.313239,0.178371
3.1289,0.167812,0.127658
3.1671,0.16986,-0.166219
3.08464,0.165438,0.563218
3.07893,0.316547,-0.0720227
2.9946,0.445409,-0.0528459
3.22405,0.161067,-0.645618
3.06498,0.303766,0
3.22778,0.0033805,-0.0375774
3.19025,0.159379,-0.406584
2.995,0.445469,0.0175985
3.14403,0.157069,-0.0182959
3.0988,0.307117,-0.335428
3.27377,0.00342866,-0.3056
3.06415,0.303683,0.0716505
3.22378,0.00337631,0.0375309
3.09723,0.306961,-0.21764
2.98983,0.4447,0.0879698
3.1436,0.157048,0.0549402
3.00866,0.447501,-0.194943
3.2425,0.00339592,-0.188836
3.04788,0.30207,0.178371
3.13748,0.156742,0.127984
3.17169,0.158451,-0.166428
3.03029,0.300327,0.373895
3.08523,0.154132,0.563218
3.07211,0.304472,-0.0718366
3.00001,0.436052,-0.0529157
3.22457,0.150376,-0.645618
3.07394,0.294363,0
3.23577,-0.00734076,-0.0376705
3.19472,0.148984,-0.407089
3.00042,0.436111,0.0176217
3.15252,0.147016,-0.0183424
3.11168,0.297978,-0.336713
3.26978,-0.0074179,-0.305228
3.22777,-0.00732261,0.0375774
3.10617,0.29745,-0.218198
2.9992,0.435933,0.0882025
3.15609,0.147182,0.0551496
3.01803,0.43867,-0.195454
3.25048,-0.00737413,-0.189301
3.05284,0.292343,0.178603
3.09845,0.296711,-0.144991
3.18018,0.148305,-0.166847
3.03917,0.291034,0.37487
3.00589,0.436906,-0.12375
3.08965,0.144084,0.563936
3.08107,0.295046,-0.0720227
3.00548,0.426138,-0.0529855
3.22507,0.139118,-0.645618
3.24773,-0.0187056,-0.0378102
3.19919,0.138001,-0.407594
3.00985,0.426757,0.0176682
3.15301,0.13601,-0.0183424
3.11666,0.287479,-0.337142
3.27371,-0.0188553,-0.3056
3.06615,0.282819,0.0716505
3.23573,-0.0186365,0.0376705
3.10719,0.286605,-0.218198
3.00466,0.426022,0.0883189
3.16457,0.136508,0.0552892
3.02349,0.428692,-0.19571
3.26242,-0.0187903,-0.189998
3.06577,0.282784,0.179301
3.13848,0.135383,0.127984
3.10743,0.286626,-0.145363
3.18466,0.137375,-0.167056
3.01136,0.426971,-0.123913
3.098,0.133637,0.565371
3.08606,0.284656,-0.0721157
3.2334,0.127607,-0.647187
3.08393,0.273065,0
3.24764,-0.0306083,-0.0378102
3.20364,0.126432,-0.408099
3.01535,0.41627,0.0176915
3.16149,0.124769,-0.0183889
3.12562,0.276756,-0.337998
3.28955,-0.0310033,-0.307087
3.07513,0.272285,0.0718366
3.23964,-0.0305329,0.0377171
3.11617,0.275919,-0.218756
3.19886,0.126244,-0.261343
3.0062,0.415007,0.0883189
3.16905,0.125067,0.055359
3.029,0.418154,-0.195966
3.26632,-0.0307844,-0.190231
3.07076,0.271898,0.179533
3.14694,0.124194,0.128309
3.11243,0.275588,-0.145549
3.18914,0.12586,-0.167266
3.04117,0.269278,0.37487
3.1024,0.122437,0.566088
3.09505,0.274049,-0.0723018
3.02027,0.406746,-0.0531949
3.17258,0.11467,-0.0923915
3.24164,0.117166,-0.648756
3.08881,0.263175,0
3.25152,-0.0414295,-0.0378568
3.21594,0.116237,-0.409614
3.01275,0.405734,0.0176682
3.16988,0.114572,-0.0184354
3.12652,0.266388,-0.337998
3.29341,-0.0419634,-0.307459
3.08399,0.262764,0.0720227
3.24352,-0.0413276,0.0377637
3.12104,0.265922,-0.219035
3.00756,0.405035,0.0883189
3.16545,0.114412,0.0552892
3.03433,0.408639,-0.196222
3.27019,-0.0416675,-0.190463
3.06767,0.261374,0.179301
3.15532,0.114046,0.128635
3.05392,0.260202,0.376333
3.11065,0.112432,0.567523
3.10391,0.264462,-0.072488
3.25379,0.106235,-0.651109
3.0937,0.252718,0
3.25935,-0.0529083,-0.0379499
3.21236,0.104882,-0.409109
3.01415,0.395215,0.0176682
3.17026,0.103507,-0.0184354
3.12347,0.25515,-0.33757
3.30121,-0.0535879,-0.308203
3.09684,0.252975,0.0723018
3.24735,-0.0527136,0.0378102
3.12593,0.255351,-0.219314
3.21558,0.104987,-0.262645
3.01292,0.395055,0.0884352
3.17782,0.103754,0.0554987
3.03969,0.398565,-0.196478
3.27003,-0.0530817,-0.190463
3.07254,0.25099,0.179533
3.15969,0.103162,0.128798
3.06272,0.250188,0.377308
3.03152,0.397492,-0.124564
3.11103,0.101573,0.567523
3.10083,0.253301,-0.0723949
3.25808,0.0944209,-0.651894
3.10656,0.24231,0
3.26313,-0.0649345,-0.0379965
3.23255,0.093681,-0.411634
3.02351,0.385175,0.0177147
3.17861,0.0921178,-0.0184819
3.30497,-0.0657671,-0.308574
3.09376,0.241311,0.0722088
3.25513,-0.0647754,0.0379034
3.1348,0.244512,-0.219872
3.21595,0.0931998,-0.262645
3.01832,0.384514,0.0885516
3.04905,0.388429,-0.196989
3.28179,-0.0653058,-0.191161
3.0814,0.240347,0.179998
3.16005,0.0915799,0.128798
3.12312,0.243601,-0.145922
3.21024,0.0930346,-0.168312
3.05966,0.238651,0.37682
3.03692,0.386883,-0.124727
3.11531,0.0902834,0.568241
3.1137,0.242866,-0.0726741
3.03224,0.376611,-0.0533346
3.26228,0.0842868,-0.652678
3.10332,0.232251,0
3.27091,-0.0753693,-0.0380896
3.23283,0.0835258,-0.411634
3.02868,0.376169,0.017738
3.18288,0.0822354,-0.0185051
3.30873,-0.0762408,-0.308946
3.25891,-0.0750929,0.0379499
3.13953,0.234961,-0.220151
3.2242,0.0833027,-0.263295
3.02348,0.375523,0.0886679
3.19045,0.0824308,0.0557081
3.05818,0.379833,-0.197501
3.28955,-0.0757988,-0.191626
3.08214,0.230666,0.179998
3.13184,0.234385,-0.146294
3.20653,0.0828463,-0.168103
3.04208,0.377834,-0.12489
3.12345,0.0806998,0.569676
3.11843,0.233382,-0.0727671
3.0375,0.366504,-0.0534044
3.2704,0.0730747,-0.654247
3.11209,0.221987,0
3.23707,0.0723299,-0.41214
3.03791,0.366553,0.0177845
3.19115,0.0713039,-0.0185516
3.32039,-0.0881062,-0.310061
3.10726,0.221642,0.072488
3.14033,0.224001,-0.220151
3.22845,0.0721374,-0.263621
3.02477,0.364967,0.0886679
3.19072,0.0712943,0.0557081
3.05156,0.3682,-0.196989
3.29725,-0.0874922,-0.192091
3.09488,0.220759,0.180696
3.17258,0.0708889,0.129286
3.13264,0.223452,-0.146294
3.12765,0.069885,0.570393
3.12322,0.22278,-0.0728602
3.04286,0.355302,-0.0534742
3.2785,0.0606627,-0.655816
3.1249,0.210844,0
3.27827,-0.0995855,-0.0381828
3.23732,0.0599007,-0.41214
3.1954,0.059125,-0.0185749
3.1466,0.212309,-0.339712
3.32799,-0.101096,-0.310805
3.10809,0.20971,0.072488
3.27027,-0.0993426,0.0380896
3.14515,0.212211,-0.22043
3.22871,0.0597413,-0.263621
3.19897,0.059191,0.0558477
3.05692,0.356944,-0.197245
3.30886,-0.100515,-0.192789
3.0957,0.208875,0.180696
3.18082,0.0588552,0.129612
3.14543,0.21223,-0.146852
3.22702,0.0597101,-0.16915
3.04874,0.355989,-0.125053
3.13969,0.0580943,0.572545
3.13602,0.211595,-0.0731393
3.12155,0.200767,0
3.28593,-0.110154,-0.0382759
3.2494,0.0499104,-0.413655
3.0404,0.345334,0.0177845
3.33164,-0.111687,-0.311177
3.11671,0.200456,0.0726741
3.28593,-0.110154,0.0382759
3.14978,0.202583,-0.220709
3.24084,0.049779,-0.264597
3.03519,0.344743,0.0889007
3.20313,0.0491999,0.0559175
3.06992,0.348687,-0.198013
3.30853,-0.110912,-0.192789
3.10033,0.199402,0.180929
3.18498,0.048921,0.129775
3.15007,0.202601,-0.147038
3.23518,0.0496921,-0.169569
3.09036,0.198761,0.380232
3.06176,0.34776,-0.125541
3.13593,0.0481676,0.571828
3.12869,0.201226,-0.0729532
3.0531,0.335988,-0.0536138
3.12622,0.190114,0
3.29752,-0.122065,-0.0384156
3.25352,0.038617,-0.41416
3.04954,0.335596,0.017831
3.20372,0.0380259,-0.0186214
3.33123,-0.123313,-0.311177
3.1174,0.189577,0.0726741
3.28553,-0.121622,0.0382759
3.15844,0.192073,-0.221268
3.24896,0.0385629,-0.265248
3.21528,0.0381632,0.0561269
3.06715,0.337535,-0.197757
3.3201,-0.122901,-0.193487
3.11296,0.189308,0.181626
3.18913,0.0378527,0.129938
3.15076,0.191606,-0.147038
3.09103,0.187974,0.380232
3.06295,0.337072,-0.125541
3.15575,0.0374565,0.575415
3.14135,0.191034,-0.0732324
3.29464,0.0264525,-0.658954
3.13093,0.178336,0
3.30102,-0.13489,-0.0384621
3.26555,0.0262189,-0.415675
3.06274,0.32515,0.0179007
3.21984,0.0258519,-0.0187144
3.33869,-0.136429,-0.31192
3.13008,0.178288,0.0729532
3.28903,-0.1344,0.0383224
3.15119,0.17949,-0.220709
3.25706,0.0261507,-0.265899
3.04559,0.32333,0.0891334
3.21541,0.0258163,0.0561269
3.0843,0.32744,-0.19878
3.32758,-0.135975,-0.193952
3.12164,0.177807,0.182091
3.15546,0.179733,-0.147224
3.24344,0.0260414,-0.169987
3.0957,0.176329,0.38072
3.07217,0.326152,-0.125867
3.13946,0.168929,0
3.30458,-0.145435,-0.0385087
3.18897,0.171593,-0.496847
3.27355,0.0159991,-0.416685
3.05579,0.314708,0.0178542
3.22391,0.0157565,-0.0187376
3.35416,-0.147617,-0.313407
3.13462,0.168669,0.0730463
3.29659,-0.145083,0.0384156
3.1597,0.170019,-0.221268
3.25314,0.0158994,-0.265574
3.21947,0.0157349,0.0561968
3.08532,0.31775,-0.19878
3.33113,-0.146604,-0.194184
3.12219,0.168,0.182091
3.20131,0.0156461,0.130426
3.16399,0.170249,-0.147597
3.2515,0.0158914,-0.170406
3.09624,0.166604,0.38072
3.06921,0.31609,-0.125704
3.15857,0.169958,-0.0736046
3.06839,0.305185,-0.0538232
3.14402,0.15817,0
3.30804,-0.15716,-0.0385553
3.1935,0.160659,-0.497462
3.26565,0.00456028,-0.415675
3.23194,0.00451321,-0.0187841
3.3576,-0.159514,-0.313779
3.14717,0.158328,0.0733254
3.30405,-0.15697,0.0385087
3.17223,0.159589,-0.222105
3.26514,0.00455956,-0.26655
3.22751,0.00450702,0.0563364
3.09435,0.307767,-0.199292
3.33857,-0.15861,-0.194649
3.13871,0.157902,0.183022
3.21733,0.0044928,0.131077
3.16855,0.159404,-0.147783
3.25952,0.00455173,-0.170825
3.10473,0.156193,0.381695
3.07825,0.306165,-0.12603
3.16714,0.159332,-0.0737907
3.14858,0.146832,0
3.32342,-0.170101,-0.0387415
3.28151,-0.00744424,-0.417695
3.22794,-0.00732269,-0.0187609
3.36097,-0.172022,-0.314151
3.15172,0.146979,0.0734185
3.30745,-0.169283,0.0385553
3.1728,0.147962,-0.222105
3.2731,-0.00742515,-0.267201
3.0607,0.293095,0.0894825
3.2235,-0.00731263,0.0562666
3.09546,0.296424,-0.199292
3.34196,-0.171049,-0.194882
3.13129,0.146026,0.182557
3.22532,-0.00731675,0.131403
3.16512,0.147604,-0.147597
3.26351,-0.0074034,-0.171034
3.11321,0.145183,0.38267
3.08333,0.295262,-0.126193
3.1637,0.147538,-0.0736976
3.07841,0.284492,-0.0539628
3.16104,0.136909,0
3.32684,-0.181339,-0.0387881
3.20639,0.138873,-0.499307
3.28941,-0.0183713,-0.418705
3.2399,-0.0180948,-0.0188306
3.36436,-0.183385,-0.314523
3.15619,0.136699,0.0735115
3.31485,-0.180686,0.0386484
3.17726,0.137611,-0.222384
3.28103,-0.0183246,-0.267852
3.23546,-0.01807,0.056476
3.10835,0.287259,-0.200059
3.35732,-0.183001,-0.195812
3.13973,0.135986,0.183022
3.22128,-0.0179908,0.13124
3.16959,0.137279,-0.147783
3.27146,-0.0182711,-0.171453
3.12558,0.135373,0.384132
3.09623,0.286139,-0.126681
3.17217,0.137391,-0.0738837
3.08735,0.274452,-0.0541025
3.1575,0.125714,0
3.33816,-0.193647,-0.0389278
3.2108,0.127836,-0.499922
3.29726,-0.0299263,-0.419716
3.24781,-0.0294775,-0.0188771
3.37165,-0.195589,-0.315266
3.15664,0.12568,0.0735115
3.3182,-0.192489,0.038695
3.07059,0.272962,0.0897152
3.24737,-0.0294735,0.0566854
3.11331,0.27676,-0.200315
3.36463,-0.195182,-0.196277
3.14817,0.125342,0.183487
3.22919,-0.0293085,0.131566
3.17803,0.126531,-0.148155
3.26339,-0.0296189,-0.171034
3.10119,0.275682,-0.126844
3.09232,0.263475,-0.0541723
3.16194,0.114285,0
3.33344,-0.205633,-0.0388812
3.08876,0.263171,0.0180169
3.25968,-0.0415333,-0.0189468
3.37488,-0.20819,-0.315638
3.16508,0.114399,0.0736976
3.29278,-0.041955,-0.268828
3.07555,0.262046,0.0898316
3.25124,-0.0414257,0.0567552
3.12226,0.266025,-0.200827
3.36788,-0.207758,-0.19651
3.15659,0.114092,0.183952
3.24105,-0.0412959,0.132054
3.18247,0.115028,-0.148341
3.27524,-0.0417315,-0.171662
3.1225,0.11286,0.383645
3.10616,0.264654,-0.127007
3.09721,0.253004,-0.0542421
3.17431,0.103638,0
3.34866,-0.21831,-0.0390675
3.21953,0.105115,-0.501152
3.3049,-0.053649,-0.420726
3.26751,-0.0530422,-0.0189933
3.37811,-0.22023,-0.31601
3.17345,0.10361,0.0738837
3.3327,-0.217269,0.0388812
3.19449,0.104297,-0.2235
3.2966,-0.0535143,-0.269154
3.25108,-0.0527753,0.0567552
3.11521,0.254474,-0.200315
3.3751,-0.220034,-0.196975
3.15697,0.103072,0.183952
3.24088,-0.0526099,0.132054
3.19883,0.104439,-0.149086
3.28706,-0.0533594,-0.17229
3.13478,0.102347,0.385107
3.11105,0.254134,-0.12717
3.19343,0.104263,-0.074349
3.35594,-0.229374,-0.0391606
3.2317,0.0953501,-0.502996
3.30868,-0.0641076,-0.421231
3.26333,-0.063229,-0.0189701
3.38932,-0.231655,-0.317125
3.17376,0.0936406,0.0738837
3.20677,0.0946146,-0.224337
3.30439,-0.0640244,-0.269805
3.25489,-0.0630654,0.056825
3.12793,0.245624,-0.201083
3.38236,-0.23118,-0.19744
3.16127,0.0932719,0.184184
3.25269,-0.0630228,0.132543
3.19514,0.0942715,-0.1489
3.29087,-0.0637624,-0.172499
3.14302,0.0927336,0.386082
3.1198,0.244986,-0.127495
3.19375,0.0942302,-0.074349
3.1068,0.233055,-0.0543817
3.17892,0.082687,0
3.3631,-0.241661,-0.0392537
3.23596,0.0841707,-0.503611
3.32033,-0.0759296,-0.422746
3.26709,-0.0747121,-0.0189933
3.38452,-0.2432,-0.316753
3.17407,0.0825607,0.0738837
3.34714,-0.240514,0.0390675
3.20708,0.0834194,-0.224337
3.26665,-0.0747019,0.0570345
3.13673,0.235301,-0.201594
3.38552,-0.243272,-0.197673
3.16956,0.0824433,0.18465
3.25245,-0.0743773,0.132543
3.29861,-0.0754328,-0.172918
3.14729,0.0818642,0.38657
3.12861,0.234691,-0.127821
3.20605,0.0833925,-0.0746282
3.11162,0.221952,-0.0544515
3.37017,-0.254587,-0.0393469
3.24415,0.0724872,-0.504841
3.10805,0.221697,0.0181099
3.27879,-0.0870035,-0.0190631
3.39949,-0.256803,-0.318241
3.18634,0.0711954,0.0741629
3.27035,-0.0867795,0.0571043
3.14554,0.224371,-0.202106
3.38461,-0.255678,-0.197673
3.17383,0.0709158,0.184882
3.25615,-0.0864027,0.132706
3.3063,-0.0877334,-0.173337
3.13343,0.223508,-0.127984
3.12039,0.211086,-0.0545911
3.3732,-0.267254,-0.0393934
3.2444,0.0605963,-0.504841
3.28645,-0.0992618,-0.0191096
3.40647,-0.26989,-0.318984
3.19058,0.0595911,0.0742559
3.35725,-0.26599,0.0392072
3.21559,0.0600581,-0.224895
3.27801,-0.0990068,0.0572439
3.15032,0.21311,-0.202362
3.39957,-0.269343,-0.198603
3.18205,0.0594318,0.185347
3.2638,-0.0985779,0.133031
3.30995,-0.0999716,-0.173546
3.15178,0.0588664,0.387057
3.13822,0.212292,-0.128147
3.21857,0.0601138,-0.0749073
3.12909,0.200704,-0.0547307
3.37623,-0.279357,-0.03944
3.25249,0.0493909,-0.506071
3.34311,-0.112655,-0.425776
3.28208,-0.110598,-0.0190863
3.2369,0.0491541,-0.348708
3.20276,0.0486357,0.0745351
3.36427,-0.278367,0.0393003
3.22775,0.049015,-0.225732
3.27364,-0.110314,0.0571741
3.15503,0.202368,-0.202618
3.41055,-0.282196,-0.199301
3.19422,0.0485059,0.186045
3.27143,-0.110239,0.133357
3.21614,0.0488388,-0.14983
3.16387,0.0480451,0.388519
3.13495,0.20108,-0.127984
3.1337,0.191116,-0.0548006
3.38331,-0.290647,-0.0395331
3.26054,0.0392678,-0.507301
3.34671,-0.123303,-0.426282
3.28971,-0.121203,-0.0191328
3.2069,0.0386218,0.0746282
3.37534,-0.289962,0.03944
3.23187,0.0389226,-0.226011
3.28127,-0.120892,0.0573137
3.15964,0.192698,-0.202873
3.40566,-0.292567,-0.199068
3.19036,0.0384227,0.185812
3.27905,-0.120811,0.133683
3.32518,-0.12251,-0.174383
3.16798,0.0381531,0.389007
3.14754,0.19196,-0.128472
3.23089,0.0389108,-0.0751865
3.13438,0.179629,-0.0548006
3.39816,-0.304473,-0.0397194
3.26461,0.0273502,-0.507915
3.35813,-0.13605,-0.427797
3.29324,-0.133422,-0.0191561
3.20302,0.0268342,0.0745351
3.3862,-0.303402,0.0395797
3.24396,0.0271772,-0.226848
3.12155,0.178894,0.0909952
3.2888,-0.133242,0.0574533
3.16431,0.181345,-0.203129
3.40855,-0.305404,-0.199301
3.19847,0.0267961,0.186277
3.28258,-0.13299,0.133846
3.17604,0.0266081,0.389982
3.16019,0.181109,-0.128961
3.23501,0.0271022,-0.0752795
3.14297,0.169117,-0.0549402
3.40105,-0.316704,-0.0397659
3.26864,0.0159737,-0.50853
3.3616,-0.147946,-0.428302
3.30874,-0.14562,-0.0192491
3.25314,0.015898,-0.350422
3.21109,0.0156925,0.0747212
3.24005,0.015834,-0.226569
3.12615,0.168212,0.0911116
3.3043,-0.145424,0.0577326
3.16891,0.170512,-0.203385
3.42336,-0.318781,-0.200231
3.19854,0.0156311,0.186277
3.28609,-0.144623,0.134008
3.17611,0.0155215,0.389982
3.24308,0.0158488,-0.0754656
3.14751,0.158895,-0.05501
3.40397,-0.328364,-0.0398125
3.27658,0.00514685,-0.50976
3.32023,-0.157159,-0.0193188
3.26511,0.00512883,-0.351707
3.21912,0.0050566,0.0749073
3.396,-0.327596,0.0397194
3.25605,0.00511459,-0.227685
3.30779,-0.15657,0.0578024
3.17743,0.160406,-0.203897
3.43024,-0.330899,-0.200696
3.20656,0.00503686,0.186743
3.29757,-0.156086,0.134497
3.18011,0.00499532,0.390469
3.16135,0.159594,-0.128961
3.15604,0.148283,-0.0551496
3.3263,-0.169085,-0.0969297
3.41474,-0.341438,-0.0399522
3.3724,-0.171429,-0.429817
3.31966,-0.168747,-0.0193188
3.26908,-0.00627619,-0.352135
3.22712,-0.00619563,0.0750934
3.4028,-0.340244,0.0398125
3.26003,-0.00625882,-0.227964
3.13921,0.147492,0.0914606
3.31521,-0.168522,0.057942
3.17797,0.149313,-0.203897
3.43701,-0.343665,-0.201161
3.21455,-0.00617149,0.187208
3.30499,-0.168002,0.134823
3.24448,-0.00622895,-0.151133
3.18408,-0.006113,0.390957
3.16987,0.148933,-0.129286
3.15656,0.136714,-0.0551496
3.32965,-0.181493,-0.097046
3.4254,-0.355189,-0.0400919
3.29234,-0.0183881,-0.51222
3.36779,-0.183572,-0.429312
3.32301,-0.181131,-0.019342
3.26904,-0.0182579,-0.352135
3.22708,-0.0180236,0.0750934
3.40949,-0.353539,0.0399056
3.27196,-0.0182743,-0.228801
3.32256,-0.181107,0.0580816
3.18647,0.13801,-0.204408
3.43573,-0.35626,-0.201161
3.2145,-0.0179534,0.187208
3.30435,-0.180114,0.134823
3.25242,-0.0181651,-0.151505
3.17439,0.137487,-0.129449
3.25907,-0.0182022,-0.0758378
3.33302,-0.192764,-0.0971624
3.42023,-0.366121,-0.0400453
3.29622,-0.029341,-0.512835
3.33038,-0.192612,-0.0193885
3.28487,-0.02924,-0.353849
3.231,-0.0287604,0.0751865
3.41625,-0.365695,0.0399988
3.27986,-0.0291954,-0.229359
3.15215,0.126052,0.0918097
3.32594,-0.192355,0.0581514
3.18691,0.127442,-0.204408
3.44247,-0.368501,-0.201626
3.22241,-0.028684,0.187673
3.30772,-0.191301,0.134985
3.26433,-0.0290572,-0.152064
3.19587,-0.0284478,0.392419
3.17882,0.127119,-0.129612
3.26299,-0.0290452,-0.0759309
3.1774,0.115955,-0.0554987
3.34031,-0.204887,-0.0973951
3.42688,-0.378936,-0.0401385
3.30005,-0.0408957,-0.51345
3.16184,0.115387,0.0183889
3.33368,-0.204481,-0.0194118
3.28475,-0.0407061,-0.353849
3.23488,-0.0400881,0.0752795
3.41495,-0.377618,0.0399988
3.27176,-0.0405452,-0.228801
3.15656,0.115194,0.0919261
3.33323,-0.204453,0.058291
3.19531,0.116608,-0.20492
3.22629,-0.0399817,0.187905
3.31501,-0.203336,0.135311
3.26021,-0.0404021,-0.151878
3.36505,-0.206405,-0.176686
3.18324,0.116168,-0.129775
3.17777,0.105417,-0.0554987
3.34759,-0.216479,-0.0976278
3.43753,-0.391657,-0.0402782
3.30384,-0.0519009,-0.514065
3.1662,0.105034,0.0184121
3.34097,-0.216051,-0.0194583
3.29255,-0.0517234,-0.354705
3.4256,-0.390298,0.0401385
3.28757,-0.0516452,-0.229917
3.15693,0.104726,0.0919261
3.3445,-0.216279,0.0585005
3.19967,0.106144,-0.205176
3.23013,-0.0507429,0.188138
3.3223,-0.214843,0.135637
3.28004,-0.051527,-0.152808
3.3763,-0.218336,-0.177314
3.1916,0.105876,-0.1301
3.27471,-0.0514432,-0.0762101
3.18611,0.0945616,-0.0556383
3.35479,-0.228707,-0.0978606
3.44408,-0.404587,-0.0403713
3.17055,0.0940997,0.0184354
3.35216,-0.228528,-0.019528
3.3003,-0.0633689,-0.355562
3.25052,-0.0624132,0.0756517
3.43614,-0.403653,0.0402782
3.29534,-0.0632738,-0.230475
3.33974,-0.227681,0.0584307
3.20002,0.0949745,-0.205176
3.33748,-0.227526,0.136288
3.28783,-0.0631295,-0.15318
3.19195,0.0947347,-0.1301
3.28251,-0.0630273,-0.0763962
3.36191,-0.241574,-0.0980933
3.45052,-0.41817,-0.0404644
3.31919,-0.0759026,-0.516524
3.3513,-0.240812,-0.019528
3.30799,-0.0756465,-0.356419
3.25427,-0.0744179,0.0757448
3.43861,-0.416726,0.0403247
3.30307,-0.0755339,-0.231033
3.16959,0.082445,0.0922752
3.35085,-0.24078,0.0586401
3.20434,0.083349,-0.205432
3.33662,-0.239757,0.136288
3.29157,-0.075271,-0.153367
3.20026,0.0832429,-0.130426
3.27826,-0.0749665,-0.0763031
3.1947,0.0719401,-0.0557779
3.36503,-0.253608,-0.0982096
3.45698,-0.431202,-0.0405575
3.32681,-0.0876966,-0.517754
3.18314,0.0716797,0.0185051
3.36241,-0.253411,-0.0195978
3.31169,-0.0872979,-0.356847
3.44904,-0.430212,0.0404644
3.31076,-0.0872736,-0.231591
3.18185,0.0716506,0.0926243
3.36195,-0.253377,0.0588495
3.21658,0.0724328,-0.206199
3.33975,-0.251703,0.136451
3.29928,-0.0869708,-0.153739
3.20852,0.0722513,-0.130752
3.28997,-0.0867254,-0.0765823
3.19893,0.0608642,-0.0558477
3.37209,-0.265982,-0.0984424
3.46338,-0.444284,-0.0406507
3.34229,-0.0997806,-0.520214
3.19537,0.0607963,0.0185749
3.36948,-0.265775,-0.0196443
3.32329,-0.0992134,-0.358133
3.31443,-0.0989489,-0.231871
3.19007,0.0606955,0.092857
3.36902,-0.265739,0.0589891
3.21682,0.0612044,-0.206199
3.34682,-0.263988,0.136776
3.30694,-0.0987253,-0.154111
3.39677,-0.267928,-0.17857
3.20876,0.0610511,-0.130752
3.29364,-0.0983283,-0.0766753
3.20712,0.0503814,-0.0559873
3.37916,-0.277818,-0.0986751
3.46586,-0.456289,-0.0406972
3.19955,0.0502626,0.0185981
3.38054,-0.277931,-0.019714
3.32691,-0.110365,-0.358561
3.27331,-0.108587,0.0762101
3.45793,-0.455245,0.0406041
3.32206,-0.110204,-0.232429
3.41707,-0.280934,-0.279894
3.18626,0.0500537,0.0927406
3.37211,-0.277238,0.0590589
3.22099,0.0505994,-0.206455
3.26467,-0.1083,0.190231
3.35788,-0.276068,0.137265
3.31458,-0.109956,-0.154483
3.21294,0.0504729,-0.130915
3.30129,-0.109515,-0.0768614
3.20727,0.0391862,-0.0559873
3.38614,-0.290295,-0.0989078
3.28579,-0.120485,0
3.47613,-0.469992,-0.0408369
3.21171,0.0392403,0.0186679
3.38353,-0.290071,-0.0197373
3.33843,-0.122415,-0.359846
3.2849,-0.120452,0.0764892
3.42401,-0.293541,-0.280545
3.19841,0.0390778,0.0930897
3.38307,-0.290032,0.0592684
3.22913,0.0394533,-0.206967
3.26826,-0.119842,0.190463
3.36486,-0.28847,0.137591
3.31817,-0.121672,-0.154669
3.21709,0.0393061,-0.131077
3.30888,-0.121331,-0.0770475
3.4824,-0.483222,-0.0409301
3.21182,0.0280292,0.0186679
3.3825,-0.30188,-0.0197373
3.33401,-0.133908,-0.359418
3.28846,-0.132078,0.0765823
3.33715,-0.134034,-0.233545
3.20252,0.027948,0.0932061
3.38602,-0.302195,0.0593382
3.22925,0.0281813,-0.206967
3.37577,-0.30128,0.138079
3.3297,-0.133735,-0.155228
3.24896,-0.130492,0.399244
3.22121,0.0281111,-0.13124
3.30444,-0.13272,-0.0769545
3.30083,-0.144695,0
3.2119,0.0162571,0.0186679
3.3973,-0.315756,-0.0198303
3.34542,-0.146649,-0.360703
3.29195,-0.144305,0.0766753
3.34461,-0.146614,-0.234103
3.39286,-0.315343,0.0594778
3.23732,0.0163857,-0.207478
3.37464,-0.31365,0.138079
3.24127,0.0164057,-0.132054
3.31192,-0.145181,-0.0771406
3.2315,0.00564004,-0.0564062
3.30832,-0.156017,0
3.22794,0.00563382,0.0187609
3.4042,-0.327787,-0.0198767
3.35286,-0.158117,-0.36156
3.29944,-0.155598,0.0768614
3.34012,-0.157516,-0.233824
3.21064,0.00560362,0.0934388
3.40374,-0.327743,0.0596872
3.25731,0.00568509,-0.208757
3.28677,-0.155,0.191626
3.38154,-0.325605,0.138405
3.33268,-0.157165,-0.155414
3.43537,-0.330789,-0.180873
3.24131,0.00565715,-0.132054
3.32341,-0.156728,-0.0774197
3.2315,-0.00564004,-0.0564062
3.41756,-0.341118,-0.0999551
3.31575,-0.167969,0
3.23594,-0.00564779,0.0188074
3.41497,-0.34086,-0.0199465
3.35626,-0.170021,-0.361988
3.30287,-0.167316,0.0769545
3.35549,-0.169982,-0.23494
3.21463,-0.0056106,0.0935552
3.40655,-0.340019,0.059757
3.25332,-0.00567812,-0.208502
3.2902,-0.166674,0.191859
3.39232,-0.338598,0.138893
3.34009,-0.169202,-0.155786
3.43817,-0.343175,-0.181082
3.24131,-0.00565715,-0.132054
3.33083,-0.168732,-0.0776058
3.23946,-0.016962,-0.0565458
3.31914,-0.179758,0
3.2399,-0.0169643,0.0188306
3.40978,-0.352367,-0.0199232
3.36358,-0.182165,-0.362845
3.31824,-0.179709,0.0773267
3.35886,-0.18191,-0.235219
3.4133,-0.35273,0.0598967
3.25328,-0.0170343,-0.208502
3.30555,-0.179022,0.192789
3.40304,-0.35167,0.139382
3.34347,-0.181076,-0.155972
3.44887,-0.356407,-0.18171
3.3422,-0.181007,-0.077885
3.42703,-0.366244,-0.100304
3.32648,-0.191803,0
3.23582,-0.0282386,0.0188074
3.42046,-0.365542,-0.019993
3.36293,-0.193905,-0.362845
3.32558,-0.191751,0.0775128
3.36618,-0.194092,-0.235777
3.42,-0.365493,0.0600363
3.30092,-0.19033,0.192556
3.3508,-0.193206,-0.156345
3.44761,-0.368443,-0.18171
3.25717,-0.0284249,-0.132706
3.34154,-0.192672,-0.077885
3.33377,-0.203902,0
3.2517,-0.039729,0.0189003
3.42314,-0.377919,-0.0200162
3.37017,-0.206128,-0.363702
3.32089,-0.203115,0.0774197
3.36946,-0.206085,-0.236056
3.23839,-0.0395663,0.0942533
3.42666,-0.378306,0.0601759
3.27304,-0.0399897,-0.209781
3.31219,-0.202582,0.193254
3.35409,-0.205145,-0.156531
3.45821,-0.38179,-0.182338
3.35283,-0.205068,-0.0781642
3.33703,-0.215796,0
3.25154,-0.0510793,0.0189003
3.4377,-0.391677,-0.0201092
3.37737,-0.218405,-0.364558
3.32815,-0.215222,0.0776058
3.36872,-0.217845,-0.236056
3.23823,-0.0508702,0.0942533
3.43326,-0.391171,0.0603155
3.28086,-0.0515399,-0.210292
3.31545,-0.2144,0.193487
3.35734,-0.217109,-0.156717
3.4648,-0.394764,-0.182757
3.26489,-0.051289,-0.133031
3.36007,-0.217286,-0.0783503
3.34424,-0.227987,0
3.25934,-0.0625826,0.0189468
3.4522,-0.405541,-0.0202022
3.39642,-0.231545,-0.3667
3.34333,-0.227926,0.0779781
3.3759,-0.230146,-0.236614
3.43585,-0.403619,0.0603853
3.29663,-0.0632985,-0.211316
3.32663,-0.226787,0.194184
3.36453,-0.229371,-0.157089
3.26869,-0.062762,-0.133194
3.27066,-0.0742217,-0.0571043
3.3514,-0.240231,0
3.25911,-0.0739595,0.0189468
3.45474,-0.418069,-0.0202255
3.35049,-0.240166,0.0781642
3.38702,-0.242784,-0.237451
3.43442,-0.41561,0.0603853
3.28841,-0.0746244,-0.210804
3.33777,-0.239254,0.194882
3.37168,-0.241685,-0.157461
3.28443,-0.0745341,-0.133846
3.35856,-0.251942,0
3.26684,-0.0849747,0.0189933
3.4573,-0.430017,-0.0202487
3.34968,-0.251276,0.0781642
3.39813,-0.25491,-0.238288
3.30809,-0.0860477,-0.212083
3.34094,-0.25062,0.195115
3.38282,-0.253762,-0.15802
3.28816,-0.0855292,-0.134008
3.38158,-0.253669,-0.0789086
3.28209,-0.0962634,-0.0573137
3.36569,-0.263703,0
3.27054,-0.0959247,0.0190166
3.45982,-0.441986,-0.020272
3.36079,-0.263319,0.0784433
3.39727,-0.266178,-0.238288
3.31178,-0.0971342,-0.212339
3.34805,-0.262321,0.19558
3.29585,-0.096667,-0.134334
3.28971,-0.108556,-0.0574533
3.27816,-0.108175,0.0190631
3.46611,-0.455707,-0.0203185
3.36777,-0.276289,0.0786294
3.40422,-0.27928,-0.238846
3.32337,-0.109667,-0.213107
3.36298,-0.275897,0.19651
3.39291,-0.278352,-0.158578
3.3013,-0.120476,-0.0576628
3.28576,-0.119909,0.0191096
3.48828,-0.471015,-0.0204579
3.37077,-0.288384,0.0787225
3.41118,-0.291841,-0.239404
3.27643,-0.119569,0.095417
3.36598,-0.287974,0.196742
3.39988,-0.290875,-0.15895
3.31105,-0.120832,-0.134985
3.30086,-0.131999,-0.0576628
3.28932,-0.131538,0.0191328
3.49058,-0.483737,-0.0204812
3.38169,-0.301213,0.0790016
3.41809,-0.304455,-0.239962
3.33449,-0.133344,-0.213874
3.37291,-0.300431,0.197208
3.4068,-0.30345,-0.159323
3.3146,-0.132549,-0.135148
3.31236,-0.144042,-0.0578722
3.38858,-0.313753,0.0791877
3.42892,-0.317488,-0.240799
3.33799,-0.145156,-0.21413
3.37184,-0.312203,0.197208
3.42164,-0.316813,-0.160067
3.33009,-0.144812,-0.135799
3.31184,-0.155603,-0.0578722
3.39237,-0.32605,0
3.38747,-0.325579,0.0791877
3.43574,-0.330219,-0.241357
3.29896,-0.154998,0.0961151
3.41256,-0.327991,-0.159695
3.33755,-0.156811,-0.136125
3.32326,-0.167768,-0.0580816
3.30773,-0.166984,0.0192491
3.39427,-0.338195,0.0793738
3.30239,-0.166714,0.0962315
3.4273,-0.341485,-0.160439
3.34496,-0.168863,-0.136451
3.43008,-0.341763,-0.0802113
3.3307,-0.178636,-0.0582212
3.31518,-0.177803,0.0192956
3.40115,-0.349675,0.0795599
3.30585,-0.177302,0.0963479
3.36027,-0.180221,-0.215665
3.43813,-0.353477,-0.160998
3.34442,-0.179371,-0.136451
3.33798,-0.191882,-0.0583608
3.40773,-0.36358,0.079746
3.36354,-0.193351,-0.215921
3.45264,-0.368371,-0.161742
3.34527,-0.20402,-0.0585005
3.42724,-0.377766,0
3.32976,-0.203073,0.0193885
3.32042,-0.202504,0.0968133
3.45928,-0.381296,-0.162114
3.44222,-0.379416,-0.0805835
3.35659,-0.215296,-0.0587099
3.33309,-0.213789,0.0194118
3.41717,-0.387525,0.0800252
3.33174,-0.213702,0.0971624
3.37811,-0.216677,-0.216944
3.45806,-0.392162,-0.162114
3.44895,-0.391129,-0.0807696
3.35574,-0.228183,-0.0587099
3.34821,-0.227671,0.0195048
3.4236,-0.401574,0.0802113
3.34286,-0.227307,0.0975115
3.38522,-0.230188,-0.217456
3.45934,-0.405767,-0.0810488
3.36689,-0.240751,-0.0589193
3.43898,-0.415554,0
3.35538,-0.239928,0.0195513
3.43408,-0.414962,0.0804905
3.33806,-0.23869,0.0973951
3.39236,-0.242572,-0.217967
3.37657,-0.241443,-0.137916
3.46981,-0.419279,-0.0813279
3.37409,-0.251923,-0.0590589
3.4456,-0.42734,0
3.35062,-0.25017,0.019528
3.35324,-0.250366,0.0978606
3.39954,-0.253823,-0.218479
3.47245,-0.43067,-0.081421
3.37315,-0.264288,-0.0590589
3.45988,-0.441994,0
3.36563,-0.263699,0.019621
3.3523,-0.262654,0.0978606
3.39859,-0.266281,-0.218479
3.47878,-0.444408,-0.0816071
3.38018,-0.276713,-0.0591986
3.46625,-0.45511,0
3.38063,-0.276751,0.019714
3.36731,-0.27566,0.098326
3.4056,-0.278794,-0.218991
3.48514,-0.457589,-0.0817932
3.39119,-0.288939,-0.059408
3.47265,-0.467669,0
3.38767,-0.288639,0.0197605
3.37036,-0.287164,0.0984424
3.41261,-0.290764,-0.219502
3.40881,-0.29044,-0.139382
3.39808,-0.302075,-0.0595476
3.47488,-0.480943,0
3.39057,-0.301408,0.0197838
3.38123,-0.300577,0.0987915
3.41947,-0.303977,-0.220014
3.41171,-0.303286,-0.139545
3.40099,-0.314303,-0.0596174
3.39747,-0.313977,0.0198303
3.38016,-0.312378,0.0987915
3.42237,-0.316278,-0.22027
3.41858,-0.315929,-0.13987
3.39987,-0.326172,-0.0596174
3.40033,-0.326217,0.0198535
3.39099,-0.32532,0.0991405
3.42521,-0.328604,-0.220526
3.41746,-0.32786,-0.13987
3.41077,-0.338035,-0.0598269
3.41521,-0.338475,0.0199465
3.39791,-0.336761,0.0993733
3.44403,-0.341331,-0.221805
3.4363,-0.340566,-0.140684
3.4174,-0.351949,-0.0599665
3.42184,-0.352406,0.019993
3.40454,-0.350624,0.099606
3.44292,-0.354576,-0.14101
3.42411,-0.364723,-0.0601061
3.43252,-0.365619,0.0200627
3.4033,-0.362506,0.099606
3.44166,-0.366592,-0.14101
