3.61746,1.3772,0.158578
3.60619,1.34763,0.157719
3.60595,1.32238,0.15735
3.59049,1.29178,0.156327
3.57074,1.18916,0.429733
3.61437,1.34958,0.262005
3.56233,1.18374,0.153789
3.55311,1.17744,-0.118548
3.55193,1.17279,-0.391761
3.57324,1.16569,0.429166
3.55759,1.15942,0.290343
3.61415,1.32429,0.261395
3.55054,1.14821,-0.390823
3.55194,1.13467,0.425763
3.60719,1.29669,0.260311
3.5477,1.12882,0.017869
3.5452,1.1225,-0.389469
3.5416,1.10808,0.560558
3.59061,1.26591,0.25855
3.54215,1.10316,0.0178067
3.62883,1.42502,-0.0554592
3.53505,1.09967,-0.11725
3.53112,1.09425,-0.387177
3.54266,1.08459,0.559662
3.58322,1.23864,0.257466
3.53163,1.07616,0.0177203
3.61978,1.39589,-0.0551889
3.53695,1.0765,-0.117092
3.52188,1.06889,-0.250073
3.53205,1.07084,-0.386552
3.5228,1.06461,-0.52206
3.54546,1.0617,0.559065
3.52939,1.05628,0.420658
3.56899,1.20988,0.393756
3.57564,1.2115,0.256382
3.6233,1.37495,0.226034
3.52092,1.04933,0.0176339
3.66247,1.53952,-0.0941119
3.53391,1.05193,-0.116775
3.51881,1.04442,-0.249395
3.52521,1.04519,-0.385094
3.51788,1.03961,-0.520375
3.53198,1.03409,0.555928
3.51673,1.02903,0.418389
3.56691,1.18482,0.392717
3.56785,1.18451,0.255297
3.5114,1.02494,0.149859
3.65168,1.51033,0.0491782
3.60759,1.34057,-0.054748
3.65891,1.51168,-0.0937803
3.52782,1.02659,-0.116364
3.50695,1.01753,-0.248107
3.5507,1.17084,-0.290111
3.52105,1.02049,-0.383948
3.50612,1.01278,-0.517706
3.52014,1.00681,0.69141
3.5221,1.00778,0.553389
3.51725,1.00579,0.417708
3.56749,1.16076,0.39199
3.50678,1.00167,0.282993
3.56746,1.16013,0.254755
3.5061,1.00009,0.149368
3.6544,1.48526,0.0490911
3.59414,1.31053,-0.0544209
3.64589,1.48017,-0.093212
3.5206,1.0011,-0.115921
3.50641,0.994088,-0.247633
3.54359,1.14444,-0.28895
3.54681,1.1439,-0.426186
3.50178,0.98829,-0.516161
3.52814,0.985726,0.691782
3.51203,0.98162,0.55085
3.55147,1.13327,0.52724
3.51378,0.981516,0.416574
3.55654,1.13311,0.390015
3.50038,0.976653,0.281988
3.56216,1.13428,0.253875
3.49773,0.974532,0.148754
3.64301,1.45465,0.0488173
3.49628,0.972288,0.0174179
3.58611,1.28273,-0.054179
3.63912,1.45148,-0.0928094
3.50741,0.97413,-0.115287
3.49417,0.967496,-0.246345
3.53438,1.11756,-0.287635
3.50359,0.968986,-0.380719
3.53955,1.11763,-0.424482
3.50205,0.965206,-0.515318
3.50844,0.957449,0.549356
3.54796,1.10821,0.5257
3.5044,0.955755,0.414759
3.54728,1.10623,0.388249
3.49284,0.951488,0.280905
3.54714,1.10558,0.252316
3.637,1.42812,0.190964
3.49497,0.950692,0.148386
3.49543,0.948983,0.0173843
3.53131,1.0976,-0.01762
3.58542,1.25772,-0.054051
3.62934,1.42183,-0.0923357
3.50657,0.950759,-0.115066
3.5715,1.25074,-0.1913
3.4933,0.944216,-0.24587
3.52166,1.08827,-0.421528
3.51053,0.93452,0.686029
3.49992,0.932087,0.547116
3.53765,1.08121,0.523179
3.5006,0.931679,0.413624
3.53308,1.07806,0.385962
3.59299,1.23876,0.221667
3.48625,0.925384,0.147772
3.62233,1.3951,0.0483071
3.48572,0.92342,0.0173075
3.58267,1.23212,-0.0538946
3.61653,1.39128,-0.0917911
3.49881,0.925647,-0.114623
3.49034,0.920474,-0.24526
3.52493,1.06717,-0.285778
3.56022,1.22093,-0.327829
3.52732,1.06635,-0.421414
3.48957,0.906047,0.680833
3.49505,0.90786,0.545473
3.53378,1.05636,0.521639
3.5024,0.909184,0.41317
3.532,1.05408,0.385131
3.58256,1.21062,0.220561
3.48219,0.901471,0.147362
3.56815,1.20484,0.083557
3.62428,1.37038,0.04822
3.60817,1.3627,-0.0913648
3.49088,0.900665,-0.11418
3.51446,1.04284,-0.150379
3.55912,1.19758,-0.189836
3.46984,0.892331,-0.24343
3.51994,1.04213,-0.28485
3.48423,0.89493,-0.376761
3.51855,1.04018,-0.419596
3.51081,1.03549,-0.553899
3.53071,1.03309,0.657272
3.48809,0.883242,0.543531
3.52974,1.0316,0.520098
3.49058,0.883289,0.411128
3.5174,1.02626,0.382845
3.51421,1.02474,0.24859
3.47409,0.876665,0.146789
3.56788,1.18042,0.0833796
3.61668,1.3422,0.0480085
3.56618,1.17772,-0.0534252
3.61271,1.33915,-0.0912701
3.47598,0.87411,-0.113515
3.5064,1.01708,-0.149764
3.55502,1.17197,-0.18923
3.4646,0.868356,-0.242684
3.54844,1.16842,-0.3254
3.51819,1.01664,-0.418801
3.49999,1.009,-0.551206
3.51994,1.00654,0.654106
3.48288,0.859218,0.541888
3.51411,1.00367,0.516877
3.47664,0.857098,0.408859
3.51119,1.00112,0.381494
3.50892,0.999873,0.247777
3.47067,0.853185,0.146421
3.56269,1.1545,0.0830912
3.5929,1.30835,0.0475854
3.55622,1.15027,-0.0531691
3.60113,1.30978,-0.0907727
3.45701,0.84682,-0.112723
3.50392,0.993095,-0.149395
3.54884,1.14583,-0.188524
3.4689,0.846844,-0.242617
3.50176,0.990172,-0.282375
3.55364,1.14602,-0.325226
3.50524,0.989636,-0.416529
3.46748,0.842139,-0.506189
3.4947,0.98429,-0.549411
3.52321,0.984124,0.653578
3.46982,0.833443,0.53905
3.50685,0.978367,0.514917
3.46251,0.831112,0.40659
3.50481,0.976085,0.380143
3.56617,1.13416,0.355255
3.50249,0.974846,0.246896
3.56046,1.13057,0.217882
3.45544,0.82699,0.145561
3.54969,1.12626,0.0826254
3.59709,1.28493,0.0475356
3.45481,0.825055,0.0170483
3.54129,1.12149,-0.052842
3.59686,1.28329,-0.0904649
3.45047,0.82281,-0.112344
3.49647,0.967845,-0.148821
3.552,1.12283,-0.188322
3.44782,0.819316,-0.240786
3.502,0.967075,-0.28191
3.54636,1.11969,-0.323924
3.46044,0.821229,-0.37249
3.50358,0.965997,-0.41562
3.45427,0.816519,-0.50352
3.52063,0.960156,0.651995
3.50514,0.954749,0.513797
3.49922,0.95143,0.378896
3.59771,1.26363,0.325027
3.49782,0.950459,0.246151
3.54827,1.10278,0.216718
3.44877,0.803053,0.14507
3.53553,1.09794,0.0821374
3.58887,1.25722,0.0473241
3.45396,0.802483,0.0170195
3.53759,1.09648,-0.0526855
3.58768,1.25525,-0.0900386
3.45351,0.801171,-0.11228
3.5426,1.096,-0.187463
3.49632,0.942455,-0.280982
3.53603,1.09261,-0.322363
3.57118,1.24605,-0.366128
3.52578,1.08776,-0.457361
3.45343,0.793978,-0.502678
3.50553,0.932966,0.648126
3.49754,0.929663,0.511836
3.49105,0.925655,0.24527
3.53395,1.07459,0.215437
3.44194,0.779229,0.144579
3.52498,1.07099,0.0817382
3.58706,1.23192,0.0471996
3.44419,0.77797,0.0169475
3.48237,0.920428,-0.0171626
3.5299,1.0704,-0.0524722
3.5764,1.22673,-0.089565
3.45056,0.778207,-0.112027
3.47813,0.916969,-0.147551
3.52918,1.06817,-0.186403
3.43522,0.771913,-0.239227
3.53408,1.0683,-0.321582
3.56369,1.21896,-0.364587
3.45181,0.774565,-0.370511
3.49211,0.916874,-0.412893
3.52574,1.0641,-0.4565
3.48927,0.90575,0.644081
3.54663,1.05971,0.625275
3.48401,0.903216,0.509035
3.44424,0.759959,0.402733
3.49908,0.905428,0.377649
3.5416,1.05497,0.350814
3.48314,0.90072,0.244321
3.53474,1.05118,0.215087
3.52095,1.04621,0.0814942
3.56328,1.19937,0.046789
3.4362,0.754036,0.0168851
3.53161,1.0473,-0.0524011
3.57249,1.20094,-0.0892808
3.42989,0.751458,-0.111204
3.47208,0.892625,-0.147059
3.51652,1.04082,-0.185393
3.43015,0.748693,-0.238549
3.48638,0.89403,-0.27928
3.53006,1.04349,-0.320627
3.556,1.19201,-0.363045
3.44484,0.750829,-0.369261
3.48419,0.89198,-0.411302
3.52649,1.04076,-0.455762
3.43969,0.7465,-0.499307
3.48713,0.882392,0.642674
3.53129,1.03157,0.621444
3.43606,0.736639,0.530835
3.48276,0.880123,0.508055
3.58337,1.18774,0.459977
3.44106,0.737146,0.401826
3.48721,0.879562,0.375778
3.52411,1.02626,0.348451
3.47409,0.875673,0.243305
3.51098,1.01985,0.0811171
3.56202,1.17466,0.046677
3.57124,1.17618,-0.0890676
3.42661,0.728735,-0.110951
3.51037,1.01562,-0.184737
3.42296,0.725151,-0.237736
3.47342,0.868029,-0.27781
3.54528,1.16427,-0.361214
3.43479,0.72659,-0.367699
3.50611,1.0114,-0.452317
3.43258,0.722931,-0.497621
3.49678,1.00752,-0.586528
3.47241,0.85603,0.63898
3.48329,0.857553,0.507355
3.43482,0.713795,0.400578
3.48095,0.855301,0.374531
3.47358,0.852912,0.242898
3.51856,0.999543,0.213341
3.46094,0.847631,0.112477
3.50467,0.994736,0.0808287
3.56155,1.15032,0.0465774
3.56127,1.14872,-0.0886414
3.4271,0.706889,-0.110824
3.50884,0.991886,-0.184333
3.42735,0.704134,-0.237736
3.46608,0.843635,-0.276804
3.51288,0.991703,-0.317937
3.55141,1.14219,-0.361118
3.42846,0.703303,-0.366553
3.46881,0.842823,-0.408234
3.49601,0.985294,-0.450226
3.49244,0.983104,-0.584777
3.45837,0.835876,-0.672796
3.5057,0.977559,0.614781
3.46249,0.829932,0.503574
3.47162,0.830455,0.372972
3.56355,1.13009,0.318657
3.4739,0.830423,0.24256
3.5102,0.973931,0.212467
3.41496,0.68548,0.142696
3.50011,0.970275,0.0805847
3.54947,1.12242,0.0463286
3.50596,0.969855,-0.0517467
3.55109,1.12143,-0.0882151
3.42549,0.684672,-0.110634
3.4539,0.820482,-0.145624
3.49754,0.965553,-0.183424
3.41791,0.680364,-0.236787
3.46149,0.820053,-0.276031
3.50642,0.966688,-0.316809
3.46425,0.819237,-0.407098
3.48572,0.959347,-0.448135
3.54747,1.11593,-0.497654
3.50222,0.962703,-0.585414
3.50592,0.954476,0.613782
3.4534,0.803727,0.370478
3.45172,0.802764,0.240663
3.41224,0.663179,0.142409
3.48766,0.943819,0.0801633
3.54579,1.09737,0.0461917
3.49543,0.943893,-0.0515049
3.53403,1.09224,-0.0876231
3.41197,0.660222,-0.110064
3.44621,0.796349,-0.145092
3.48604,0.939397,-0.182515
3.52484,1.0892,-0.222545
3.40242,0.655604,-0.235431
3.45577,0.796336,-0.27518
3.54233,1.09149,-0.358806
3.48388,0.935882,-0.447151
3.50027,0.929908,0.611783
3.5538,1.08332,0.59123
3.50917,0.931354,0.47805
3.40053,0.639276,0.141754
3.48372,0.919849,0.0799415
3.54288,1.07269,0.0460672
3.48666,0.918607,-0.0512916
3.53683,1.06938,-0.0875283
3.41301,0.638723,-0.109969
3.43934,0.772561,-0.1446
3.48497,0.916212,-0.182162
3.51809,1.06351,-0.221702
3.43822,0.770104,-0.2734
3.53276,1.06485,-0.357168
3.47996,0.911971,-0.445921
3.4414,0.767097,-0.533551
3.49446,0.905445,0.609784
3.54808,1.05782,0.589187
3.44844,0.758085,0.368919
3.42937,0.748248,-0.143985
3.48763,0.894067,-0.182011
3.38763,0.609737,-0.233872
3.43021,0.746238,-0.272395
3.47922,0.890618,-0.312817
3.44379,0.747743,-0.403008
3.47779,0.888636,-0.444937
3.52462,1.03785,-0.491685
3.48108,0.888311,-0.579049
3.48848,0.881089,0.607786
3.53839,1.03133,0.586515
3.44038,0.734213,0.367568
3.53126,1.02357,0.179688
3.46565,0.869729,0.079276
3.52792,1.02107,0.0457064
3.50498,1.01277,-0.220076
3.38639,0.588085,-0.233533
3.42595,0.723323,-0.271698
3.47592,0.867083,-0.312037
3.38669,0.587102,-0.359991
3.43276,0.723321,-0.40119
3.46777,0.863444,-0.442968
3.51092,1.01044,-0.4889
3.48041,0.856369,0.605454
3.52755,1.00473,0.583686
3.42534,0.709057,0.36549
3.48564,0.854559,0.340701
3.47384,0.84916,0.0793426
3.51007,0.992604,0.0453953
3.37933,0.569402,0.0164484
3.47577,0.84764,-0.0508933
3.41676,0.701686,-0.143083
3.46631,0.84341,-0.180344
3.4948,0.986639,-0.219052
3.38895,0.567131,-0.233465
3.41567,0.699289,-0.270538
3.47053,0.843152,-0.311082
3.37551,0.563853,-0.358428
3.43032,0.700852,-0.400395
3.45468,0.837706,-0.440631
3.50274,0.984857,-0.48691
3.46677,0.839485,-0.574912
3.47122,0.831552,0.602955
3.52128,0.979628,0.581643
3.37673,0.549372,0.140158
3.50356,0.967588,0.0452335
3.37486,0.547375,0.01641
3.46632,0.822833,-0.0506799
3.38523,0.547905,-0.108608
3.41708,0.679928,-0.142919
3.46268,0.820054,-0.17989
3.38252,0.54474,-0.232787
3.40719,0.675796,-0.269532
3.506,0.963586,-0.351965
3.44817,0.813758,-0.439155
3.4963,0.959935,-0.485186
3.46089,0.806656,0.60029
3.5177,0.955415,0.580072
3.41526,0.662816,0.236259
3.37412,0.527717,0.139912
3.50557,0.945031,0.0451837
3.46156,0.799299,-0.0505377
3.37174,0.524511,-0.10807
3.40745,0.656303,-0.142345
3.45986,0.796998,-0.179486
3.48447,0.937712,-0.217668
3.37594,0.522449,-0.232109
3.44536,0.790809,-0.438171
3.48776,0.934616,-0.483197
3.49963,0.927488,0.576143
3.46565,0.784487,0.467868
3.41338,0.640744,0.235852
3.44597,0.775417,0.0783666
3.36402,0.502189,-0.107722
3.45006,0.77248,-0.178729
3.47471,0.912258,-0.216704
3.37513,0.501139,-0.231838
3.44754,0.770652,-0.307698
3.39867,0.629451,-0.395282
3.43271,0.765764,-0.435957
3.48576,0.911192,-0.482135
3.44406,0.76716,-0.568706
3.49951,0.904515,0.5752
3.45103,0.758948,0.465257
3.40449,0.617473,0.234971
3.45328,0.755653,0.206179
3.36155,0.483568,0.139135
3.43991,0.75191,0.0781226
3.47816,0.892005,0.044686
3.36209,0.480831,-0.107564
3.44498,0.749174,-0.178224
3.47541,0.889683,-0.216403
3.34851,0.476206,-0.229804
3.39844,0.609271,-0.267908
3.43663,0.746102,-0.306309
3.38291,0.605086,-0.393009
3.42473,0.741955,-0.434357
3.48072,0.887094,-0.480676
3.47393,0.88472,-0.61386
3.49542,0.880612,0.573628
3.35752,0.46198,0.138848
3.43566,0.728921,0.077923
3.35161,0.459497,0.0162372
3.43949,0.727789,-0.0500114
3.36299,0.459922,-0.1075
3.38942,0.588345,-0.141116
3.43583,0.725135,-0.177517
3.47499,0.866892,-0.216042
3.3972,0.587558,-0.267521
3.42847,0.722331,-0.305181
3.47257,0.863326,-0.346377
3.42145,0.719294,-0.433373
3.4707,0.861898,-0.478554
3.4659,0.860064,-0.611497
3.48254,0.854676,0.570642
3.44164,0.712722,0.462777
3.47678,0.849341,0.305069
3.3823,0.570668,0.232939
3.42538,0.704804,0.0775902
3.47622,0.846181,0.0445242
3.34544,0.437756,0.016194
3.43116,0.704058,-0.0498265
3.391,0.567208,-0.141034
3.43336,0.702638,-0.177164
3.41624,0.697891,-0.303706
3.47006,0.840129,-0.345606
3.42775,0.698683,-0.433619
3.45962,0.836003,-0.609471
3.46946,0.828931,0.567656
3.43817,0.69003,0.461732
3.47514,0.826378,0.304474
3.37589,0.548305,0.232261
3.4343,0.685512,0.204257
3.41984,0.681819,0.0773684
3.45702,0.819072,0.0442131
3.33616,0.415736,0.0161364
3.42953,0.681821,-0.0497412
3.3416,0.41529,-0.106646
3.38356,0.544643,-0.140583
3.42586,0.679227,-0.176558
3.46497,0.819359,-0.214777
3.37462,0.54109,-0.2652
3.45674,0.814484,-0.343775
3.42029,0.675331,-0.432143
3.45317,0.812052,-0.607446
3.46294,0.804944,0.56577
3.43358,0.667219,0.460557
3.46753,0.804671,0.433731
3.42668,0.662154,0.203559
3.41807,0.659685,0.0772353
3.44834,0.794701,0.0440389
3.33416,0.393606,-0.106329
3.37104,0.521428,-0.139927
3.41329,0.654994,-0.175699
3.44561,0.79249,-0.213272
3.36408,0.518248,-0.264117
3.45488,0.791702,-0.343101
3.44079,0.786893,-0.604408
3.46175,0.780977,0.4324
3.42086,0.639282,0.202976
3.32813,0.374968,0.137211
3.40338,0.635215,0.0768139
3.44339,0.771342,0.0439144
3.32213,0.372647,0.0160452
3.45274,0.772045,-0.0838103
3.32559,0.371919,-0.105981
3.3643,0.499267,-0.139517
3.40251,0.631305,-0.174942
3.43677,0.768284,-0.212429
3.36424,0.497159,-0.263885
3.44147,0.765488,-0.47179
3.45775,0.757809,0.431312
3.41589,0.618286,0.329549
3.35677,0.481961,0.230296
3.40721,0.61432,0.0768139
3.4422,0.748924,0.0438398
3.40016,0.61115,-0.0491438
3.35246,0.476506,-0.138903
3.39747,0.60883,-0.174488
3.43167,0.745064,-0.211827
3.4371,0.743354,-0.340403
3.43157,0.741218,-0.4698
3.45069,0.734099,0.42986
3.40785,0.595259,0.328415
3.44759,0.730925,0.300397
3.40008,0.591517,0.0765699
3.4389,0.726136,0.0437402
3.36225,0.456868,-0.139189
3.39721,0.587292,-0.174286
3.43129,0.722965,-0.211526
3.43672,0.721229,-0.339921
3.42441,0.717708,-0.468209
3.44249,0.710305,0.428288
3.3466,0.438657,0.229212
3.34299,0.436166,0.106419
3.37998,0.566676,0.0760376
3.42076,0.700408,0.043454
3.43503,0.701955,-0.0830524
3.43077,0.700898,-0.211225
3.43036,0.697945,-0.338861
3.42001,0.694907,-0.467015
3.43121,0.686055,0.426353
3.33667,0.414537,0.106135
3.38043,0.545449,0.075971
3.42303,0.679017,0.0434291
3.41836,0.67654,-0.210201
3.41797,0.673612,-0.337223
3.41837,0.672761,-0.466219
3.43048,0.664045,0.425748
3.38774,0.527681,0.325485
3.38066,0.525008,0.199541
3.38273,0.524543,0.0759488
3.41535,0.655738,0.0432798
3.33932,0.391298,-0.137919
3.40774,0.652736,-0.209298
3.3976,0.647965,-0.334815
3.40199,0.647879,-0.463434
3.4179,0.639878,0.423692
3.42237,0.638242,0.296745
3.36907,0.501276,0.0755717
3.41341,0.633674,0.0432051
3.39598,0.628906,-0.208335
3.40347,0.627466,-0.335007
3.40613,0.616068,0.421757
3.40661,0.613698,0.295047
3.37104,0.481226,0.198609
3.36021,0.478902,0.0753056
3.41133,0.611659,0.0431305
3.36788,0.478137,-0.0483899
3.39388,0.607002,-0.207973
3.40933,0.592613,0.294962
3.36008,0.458642,0.197794
3.35912,0.457735,0.0752168
3.4032,0.588671,0.0429812
3.31072,0.328393,-0.0158523
3.3549,0.455311,-0.0481623
3.39557,0.585827,-0.207853
3.34699,0.435953,0.196863
3.35592,0.436342,0.0750838
3.39787,0.566299,0.0428692
3.35267,0.434075,-0.0480912
3.3559,0.432706,-0.171055
3.39319,0.563999,-0.207492
3.34069,0.414302,0.196339
3.34663,0.414268,0.0748176
3.38943,0.543539,0.0427198
3.34461,0.410404,-0.170348
3.38378,0.541119,-0.206709
3.38126,0.523809,0.29165
3.34217,0.39368,0.19628
3.34315,0.393025,0.0746845
3.37195,0.519535,0.0424585
3.33888,0.390692,-0.0478209
3.37026,0.51777,-0.205685
3.3716,0.501148,0.290546
3.32568,0.371062,0.195174
3.32861,0.370624,0.0743074
3.33724,0.369757,-0.047764
3.36251,0.49548,-0.205023
3.36869,0.479608,0.290036
3.32187,0.349252,0.0741078
3.36322,0.476014,0.0422718
3.36154,0.47428,-0.204782
3.31997,0.328469,0.0740191
3.31665,0.326329,-0.0474084
3.36358,0.453717,-0.0804001
3.35053,0.451778,-0.203939
3.30799,0.3068,0.0737085
3.35691,0.433171,0.0421225
3.30764,0.304962,-0.047252
3.34334,0.429938,-0.203337
3.30084,0.285721,0.0735089
3.34958,0.411347,0.0419981
3.34814,0.391695,0.16475
3.29655,0.264981,0.0733758
3.33912,0.389281,0.0418363
3.3386,0.38792,-0.0796186
3.33648,0.368237,0.0417741
3.33793,0.3671,-0.0795475
3.3378,0.34902,0.164018
3.32376,0.346204,0.0415874
3.31502,0.326089,0.162798
3.32483,0.325705,0.041575
3.31481,0.304202,0.0414257
3.30665,0.283004,0.0413012
3.28794,0.240798,0.0410275
