2.81717,0.706085,-0.197334
2.80002,0.70156,-0.118409
2.80832,0.683537,-0.224275
2.81537,0.666983,-0.224507
2.81553,0.6488,-0.224198
2.82043,0.63173,-0.224275
2.81525,0.721702,-0.146921
2.81646,0.612716,-0.223656
2.81769,0.70393,-0.14682
2.82212,0.595835,-0.223811
2.82223,0.594676,-0.329837
2.81714,0.687019,-0.0412495
2.81614,0.685211,-0.146517
2.81998,0.576155,-0.329155
2.81352,0.667873,-0.0411357
2.81543,0.666768,-0.146265
2.82335,0.559995,-0.223347
2.80571,0.663433,-0.251122
2.82639,0.559419,-0.329496
2.80685,0.648123,-0.0409792
2.80779,0.64679,-0.145659
2.82967,0.543225,-0.223579
2.81362,0.647098,-0.251469
2.82977,0.542066,-0.329496
2.83248,0.432374,-0.513844
2.81277,0.526271,0.0903286
2.82053,0.633078,-0.0411214
2.80975,0.629113,-0.145558
2.83001,0.525306,-0.223347
2.82045,0.630474,-0.251729
2.83011,0.52415,-0.329155
2.81791,0.509358,0.0903917
2.81655,0.614055,-0.0410077
2.80868,0.6108,-0.145305
2.81108,0.719618,-0.175037
2.82238,0.505996,-0.222496
2.82134,0.612522,-0.251469
2.82838,0.505901,-0.328587
2.82774,0.503953,-0.434651
2.81409,0.490856,0.0901708
2.81733,0.596141,-0.040965
2.80712,0.700437,-0.0685354
2.8274,0.489009,-0.22265
2.82213,0.594583,-0.251209
2.83241,0.488705,-0.328701
2.82688,0.485922,-0.434052
2.84093,0.380295,-0.51402
2.81897,0.578441,-0.0409365
2.80845,0.682491,-0.0684644
2.81873,0.684832,-0.174977
2.82936,0.471487,-0.222573
2.82377,0.576857,-0.251035
2.82164,0.469036,-0.32711
2.82201,0.467276,-0.432855
2.82924,0.355024,0.221258
2.81595,0.455647,0.0900446
2.82443,0.561523,-0.040965
2.80967,0.664556,-0.0683933
2.81705,0.666146,-0.174616
2.82531,0.453012,-0.222031
2.8253,0.559133,-0.250861
2.80983,0.554798,-0.355014
2.81799,0.448863,-0.431808
2.81043,0.542412,0.0635051
2.81899,0.542481,-0.040837
2.81233,0.646834,-0.174074
2.82015,0.434454,-0.221413
2.82281,0.540662,-0.250341
2.8097,0.643855,-0.279028
2.82718,0.434375,-0.32711
2.84343,0.325212,-0.623067
2.82546,0.319382,0.220639
2.8196,0.526258,0.0636382
2.80845,0.627824,-0.173592
2.82019,0.522243,-0.24982
2.82234,0.628551,-0.279895
2.82095,0.415716,-0.326088
2.8272,0.414822,-0.432407
2.83963,0.309394,-0.512255
2.81755,0.404541,0.193302
2.82278,0.508947,0.0636382
2.80677,0.609544,-0.0680381
2.80737,0.609521,-0.173291
2.82034,0.399115,-0.221026
2.81942,0.504228,-0.249473
2.81468,0.502113,-0.354399
2.83459,0.398154,-0.433155
2.83176,0.396094,-0.540689
2.8269,0.388195,0.193777
2.82388,0.491275,0.0635938
2.80654,0.591486,-0.0679434
2.81952,0.48641,-0.249213
2.81718,0.591211,-0.278643
2.82288,0.380669,-0.325747
2.81869,0.485001,-0.354522
2.83012,0.379833,-0.432107
2.82342,0.37728,-0.538645
2.8322,0.371231,0.19398
2.83012,0.266205,0.116457
2.82092,0.472947,0.0634607
2.81557,0.468967,-0.144296
2.82107,0.363965,-0.220716
2.8254,0.469591,-0.249473
2.8188,0.573517,-0.27845
2.82812,0.363721,-0.326088
2.8177,0.467048,-0.35403
2.83337,0.362587,-0.432257
2.81687,0.466001,-0.460184
2.83046,0.353352,0.193709
2.8209,0.350458,0.0897291
2.81489,0.454196,0.0632611
2.82622,0.347013,-0.220948
2.83019,0.45256,-0.249647
2.81934,0.555633,-0.278161
2.84213,0.347809,-0.327451
2.81757,0.449281,-0.353661
2.82942,0.45026,-0.461775
2.84931,0.239861,-0.512784
2.82697,0.231991,0.220097
2.83555,0.33633,0.193912
2.83119,0.439677,0.167109
2.82399,0.33326,0.0897607
2.8196,0.437222,0.0633055
2.82631,0.329434,-0.220794
2.82799,0.43443,-0.249213
2.81389,0.536646,-0.277294
2.81929,0.431834,-0.353538
2.82363,0.537736,-0.384647
2.8214,0.431249,-0.460025
2.82891,0.325134,-0.538459
2.84125,0.216468,0.325363
2.8353,0.215169,0.220639
2.83557,0.318703,0.193777
2.83285,0.42215,0.167051
2.8163,0.41903,0.0631724
2.83522,0.312851,-0.221335
2.82765,0.416634,-0.248952
2.81713,0.51937,-0.277294
2.83434,0.311603,-0.326088
2.82287,0.414671,-0.353661
2.83662,0.31005,-0.431808
2.82204,0.413643,-0.459707
2.83867,0.30862,-0.539946
2.83153,0.301117,0.297526
2.83856,0.197906,0.220794
2.83648,0.301193,0.193709
2.82277,0.402306,0.0632611
2.83609,0.295346,-0.221258
2.82621,0.398719,-0.248605
2.82027,0.502074,-0.277294
2.83422,0.294001,-0.32586
2.82831,0.397757,-0.35403
2.82941,0.397006,-0.460502
2.83465,0.290595,-0.538831
2.83927,0.283882,0.193777
2.81825,0.384033,0.0631058
2.82269,0.381577,-0.143993
2.83587,0.277744,-0.221103
2.82663,0.381104,-0.248432
2.82624,0.485265,-0.277583
2.833,0.276315,-0.32552
2.82775,0.379999,-0.353661
2.82914,0.485001,-0.384117
2.83833,0.273385,-0.539203
2.83001,0.377488,-0.567858
2.83181,0.162544,0.220097
2.83897,0.266269,0.193641
2.81261,0.469919,0.139367
2.83454,0.260065,-0.220871
2.82595,0.363372,-0.248171
2.82916,0.467915,-0.277583
2.83206,0.467633,-0.384117
2.83994,0.363006,-0.461457
2.84093,0.256052,-0.539388
2.82936,0.359745,-0.567273
2.85509,0.150085,-0.622429
2.83956,0.248757,0.193573
2.82077,0.349174,0.0630615
2.84403,0.243347,-0.22149
2.83109,0.346388,-0.248432
2.82707,0.449765,-0.277101
2.83519,0.241445,-0.325406
2.82901,0.449314,-0.383321
2.84337,0.240342,-0.431808
2.83574,0.449877,-0.491662
2.84245,0.238616,-0.539388
2.83638,0.342966,-0.568248
2.83266,0.128581,0.323775
2.846,0.232184,0.298357
2.83857,0.128005,0.220484
2.84004,0.231248,0.193506
2.82508,0.436436,0.139708
2.82485,0.332093,0.0631058
2.82742,0.330845,-0.0404956
2.82328,0.328862,-0.14369
2.83019,0.328666,-0.248171
2.82485,0.431658,-0.27662
2.83959,0.224279,-0.325747
2.82539,0.326859,-0.352554
2.82681,0.4312,-0.382658
2.84479,0.222891,-0.431808
2.83553,0.432023,-0.491155
2.83603,0.220561,-0.537902
2.84427,0.326227,-0.569419
2.84793,0.114683,-0.620514
2.83363,0.111652,0.428372
2.8384,0.317998,0.271143
2.8413,0.110663,0.220639
2.83742,0.213518,0.193235
2.82572,0.418801,0.139611
2.8337,0.211547,0.0896976
2.82642,0.31316,-0.0404529
2.83487,0.207555,-0.220562
2.83315,0.311403,-0.248258
2.82745,0.414317,-0.27662
2.84091,0.206851,-0.325747
2.8303,0.30984,-0.352923
2.83529,0.414707,-0.383454
2.83032,0.413477,-0.489805
2.85151,0.0973066,-0.621152
2.83426,0.0942635,0.428372
2.84991,0.0943359,0.32559
2.84665,0.197104,0.298149
2.8403,0.300576,0.271143
2.83893,0.0931293,0.220407
2.84465,0.196517,0.193641
2.83615,0.402577,0.140001
2.83195,0.193951,0.0896029
2.82828,0.295811,-0.0404529
2.83599,0.294116,-0.248345
2.82304,0.395992,-0.275945
2.84213,0.189416,-0.325747
2.83511,0.292774,-0.353292
2.83385,0.396753,-0.382923
2.84041,0.187508,-0.430761
2.83671,0.396648,-0.49048
2.83754,0.185677,-0.537716
2.85498,0.0798902,-0.621791
2.84094,0.180495,0.402607
2.84483,0.179446,0.297837
2.8458,0.179058,0.193641
2.83204,0.278647,-0.0404814
2.83973,0.276902,-0.248519
2.83331,0.379721,-0.276716
2.84125,0.171853,-0.32552
2.8329,0.274989,-0.3528
2.83034,0.378569,-0.382127
2.84249,0.170135,-0.43091
2.83909,0.379235,-0.49048
2.8347,0.168031,-0.536973
2.8495,0.0586593,-0.733586
2.83718,0.0595172,0.428671
2.8429,0.161817,0.297526
2.84486,0.16148,0.193506
2.83494,0.366974,0.139708
2.83015,0.262483,0.0630615
2.84435,0.259745,-0.248779
2.82966,0.361572,-0.276138
2.8363,0.154093,-0.324838
2.83355,0.257512,-0.352677
2.82769,0.360568,-0.381464
2.84546,0.152797,-0.43121
2.83843,0.361434,-0.489974
2.83709,0.361414,-0.598636
2.85575,0.0448492,-0.621791
2.85755,0.0412859,-0.73558
2.84582,0.144471,0.297733
2.84779,0.144123,0.193641
2.84533,0.0398893,0.11658
2.82972,0.24494,0.0630171
2.84022,0.244301,-0.0405525
2.83596,0.241442,-0.247911
2.83084,0.344082,-0.276042
2.8331,0.239953,-0.352431
2.85029,0.135523,-0.431808
2.83655,0.133232,-0.536973
2.83731,0.343764,-0.598226
2.85597,0.0273258,-0.621791
2.85189,0.131807,-0.650039
2.85388,0.0237193,-0.734583
2.85743,0.130364,-0.765265
2.85648,0.0248596,0.431509
2.84666,0.127007,0.297733
2.83319,0.332655,0.243155
2.84962,0.12669,0.193709
2.83923,0.332157,0.139708
2.85052,0.0224692,0.116785
2.83786,0.12448,0.089666
2.83017,0.227493,0.0629949
2.82971,0.225915,-0.0403818
2.84335,0.224507,-0.248432
2.83388,0.32682,-0.276138
2.8365,0.22272,-0.352677
2.83683,0.326407,-0.382127
2.84514,0.117786,-0.43091
2.84132,0.326572,-0.598636
2.85901,0.00981147,-0.622429
2.84972,0.114189,-0.649373
2.84526,0.00618877,-0.73234
2.85528,0.112715,-0.76449
2.83242,0.213819,0.374007
2.84341,0.109385,0.297318
2.83221,0.314934,0.2429
2.84735,0.109089,0.193506
2.84861,0.00497487,0.116703
2.83451,0.210345,0.0630615
2.82383,0.31041,-0.171364
2.84766,0.207273,-0.248692
2.82693,0.308454,-0.275271
2.83682,0.20524,-0.352554
2.84173,0.309316,-0.382525
2.84384,0.100256,-0.430611
2.84679,0.205062,-0.460025
2.85077,0.203449,-0.568443
2.84327,0.309132,-0.598636
2.85609,-0.00772337,-0.621791
2.85134,0.0967342,-0.649595
2.85105,-0.0112925,-0.733835
2.85592,0.0951927,-0.76449
2.83706,0.297862,0.243155
2.85096,0.0917118,0.193709
2.82976,0.192541,0.0629284
2.82702,0.293366,-0.0673277
2.84689,0.189664,-0.248519
2.82877,0.291102,-0.275271
2.83824,0.0844105,-0.324724
2.83802,0.18783,-0.352554
2.82879,0.290356,-0.380536
2.83946,0.0826611,-0.429863
2.84602,0.187461,-0.459707
2.84315,0.185378,-0.566688
2.84024,0.291181,-0.597611
2.85599,-0.0252479,-0.621791
2.85675,0.0793722,-0.650706
2.85336,0.184793,-0.67966
2.84996,-0.0287763,-0.733586
2.85934,0.0777461,-0.765265
2.85349,-0.0276944,0.431061
2.83983,0.280546,0.24324
2.85446,0.0742948,0.193912
2.83388,0.17536,0.0629949
2.83706,0.171531,-0.247564
2.84239,0.27489,-0.276427
2.84764,0.0672047,-0.325747
2.83912,0.170412,-0.352554
2.83446,0.273374,-0.381066
2.84515,0.169877,-0.459388
2.84622,0.274007,-0.489636
2.84718,0.168103,-0.567273
2.86164,-0.0428592,-0.623067
2.85426,0.0617787,-0.650039
2.85152,0.167111,-0.678966
2.84973,-0.0462627,-0.733586
2.85494,0.0600984,-0.763973
2.84338,-0.0450459,0.429567
2.8519,0.057168,0.298045
2.8405,0.263024,0.243155
2.84607,-0.0463803,0.220871
2.84887,0.0566597,0.193506
2.8359,0.158024,0.0630171
2.8334,0.258925,-0.0673987
2.83905,0.154174,-0.247651
2.83213,0.256367,-0.275271
2.84204,0.0496266,-0.325065
2.84309,0.153149,-0.352923
2.83609,0.255977,-0.381066
2.84712,0.152469,-0.459547
2.84392,0.256184,-0.488961
2.84522,0.150475,-0.566688
2.84652,0.256568,-0.598226
2.86328,-0.0604583,-0.623492
2.85849,0.0443246,-0.650927
2.85346,0.149662,-0.679197
2.8523,-0.0638125,-0.734334
2.85718,0.0426085,-0.76449
2.84701,-0.0625786,0.430165
2.86071,-0.0633294,0.326724
2.84623,0.0395851,0.297422
2.84461,0.142947,0.270387
2.84917,0.0391783,0.193506
2.84034,0.0373711,0.089666
2.83882,0.140719,0.0630615
2.83493,0.241535,-0.0673987
2.83994,0.136751,-0.247651
2.82869,0.238566,-0.274789
2.84726,0.0322435,-0.325633
2.83803,0.135417,-0.352185
2.84254,0.238985,-0.381729
2.84544,0.0304348,-0.430611
2.84505,0.134856,-0.45907
2.84348,0.238564,-0.488623
2.84217,0.132831,-0.565907
2.84804,0.239098,-0.598226
2.85211,-0.0777331,-0.621152
2.85871,0.0267844,-0.650927
2.8485,0.131881,-0.67781
2.84895,0.238423,-0.711006
2.85282,-0.0813402,-0.734583
2.85546,0.0250594,-0.763973
2.83173,0.229191,0.346162
2.84537,-0.0804599,0.325023
2.84443,0.0221047,0.297214
2.84841,0.125622,0.270671
2.85027,-0.0814448,0.221258
2.84935,0.0216954,0.193506
2.84654,0.22719,0.139562
2.84861,0.123688,0.0632611
2.83038,0.223663,-0.0672566
2.84201,0.222136,-0.275945
2.8388,0.118001,-0.352185
2.83803,0.221078,-0.380933
2.85398,-0.0905748,-0.405063
2.85052,0.0129975,-0.431359
2.84385,0.117316,-0.458752
2.8439,0.221036,-0.488455
2.84489,0.115469,-0.566298
2.84068,0.220935,-0.596382
2.85841,-0.0954602,-0.622642
2.86077,0.00924953,-0.651372
2.84148,0.114088,-0.67596
2.8513,-0.0988097,-0.734334
2.8517,0.00752796,-0.762939
2.83605,0.212034,0.346525
2.84681,-0.0979856,0.32525
2.8465,0.00465447,0.297422
2.85211,0.108255,0.270954
2.85569,-0.0991397,0.221722
2.84644,0.00420726,0.193302
2.84788,0.209719,0.139562
2.86483,-0.100508,0.11744
2.85132,0.106282,0.0633055
2.83637,0.204193,-0.275271
2.85241,-0.00270389,-0.326201
2.83834,0.203589,-0.380801
2.84461,-0.00448382,-0.430461
2.84353,0.0998292,-0.458593
2.84521,0.203582,-0.488455
2.8475,0.098078,-0.566688
2.83807,0.203221,-0.595563
2.8607,-0.113113,-0.62328
2.85589,-0.00828983,-0.650261
2.84407,0.0967173,-0.676422
2.85169,-0.00996987,-0.762939
2.84023,0.0927375,0.480032
2.85723,-0.115451,0.431957
2.84423,0.195103,0.347372
2.85344,-0.0128427,0.298149
2.83914,0.192763,0.24256
2.85901,-0.116823,0.222031
2.84342,-0.0132443,0.193099
2.84513,0.191972,0.139367
2.84754,-0.0149533,0.0898869
2.84392,0.0885354,0.063128
2.83459,0.18659,-0.274982
2.84646,0.186623,-0.381729
2.84507,0.0824084,-0.458752
2.84149,0.185799,-0.487611
2.84805,0.0806042,-0.566688
2.83634,0.185611,-0.594948
2.86288,-0.130798,-0.623918
2.85189,-0.0257779,-0.649373
2.84655,0.0793188,-0.676885
2.85286,0.185943,-0.711006
2.85447,-0.0274952,-0.763714
2.84042,0.177339,0.346767
2.85927,-0.0304143,0.298773
2.83829,0.175216,0.24239
2.86621,-0.134738,0.22265
2.85326,-0.0307986,0.193777
2.84226,0.174267,0.139171
2.8494,-0.032448,0.08995
2.83742,0.0709089,0.0629728
2.83568,0.169194,-0.274982
2.84458,0.168978,-0.381331
2.84651,0.0649723,-0.458911
2.84159,0.168302,-0.487442
2.85241,0.0632143,-0.567468
2.85617,-0.148058,-0.622642
2.85948,-0.0433946,-0.65115
2.85104,0.168263,-0.710281
2.85328,-0.0449942,-0.763456
2.8474,0.160241,0.347493
2.85306,-0.0478578,0.298149
2.8413,0.157908,0.24256
2.86334,-0.152216,0.222496
2.861,-0.0484405,0.194319
2.84827,0.157099,0.139415
2.8388,0.0535164,0.0629949
2.83468,0.151685,-0.274789
2.84161,0.15131,-0.380801
2.84355,0.150915,-0.487611
2.86356,-0.163808,-0.514373
2.85177,0.0456953,-0.567273
2.85814,-0.16575,-0.62328
2.85916,-0.0609392,-0.65115
2.85008,0.150663,-0.709799
2.85769,-0.0654769,0.298669
2.86733,-0.170077,0.222882
2.85766,-0.0659253,0.194116
2.84319,0.139326,0.139122
2.84107,0.0361223,0.0630393
2.84446,0.133964,-0.381066
2.83753,0.133141,-0.486429
2.8684,-0.181749,-0.515432
2.84709,0.0281478,-0.566298
2.85804,-0.183347,-0.623492
2.85678,-0.078428,-0.650706
2.84753,0.0269096,-0.676885
2.84708,0.132992,-0.708833
2.86028,0.0258818,-0.795678
2.86121,-0.0831257,0.299084
2.83506,0.122684,0.241881
2.87021,-0.187928,0.223192
2.8572,-0.0834583,0.194116
2.85907,0.0194552,0.16676
2.84499,0.12192,0.139171
2.84732,-0.0848608,0.0899184
2.84324,0.0187023,0.0630837
2.85004,-0.0890246,-0.221258
2.84226,0.116387,-0.380668
2.85302,-0.0920585,-0.431958
2.84525,0.0125576,-0.458593
2.83829,0.115728,-0.486429
2.87115,-0.199619,-0.516138
2.8543,-0.0958899,-0.650261
2.8457,0.00943051,-0.676422
2.85075,0.115638,-0.709557
2.86263,-0.10075,0.299292
2.84472,0.105619,0.242645
2.87,-0.205607,0.223269
2.85962,-0.101094,0.194319
2.84768,0.104535,0.139269
2.87015,-0.206676,0.11789
2.83691,0.102999,0.0353282
2.85243,-0.106622,-0.22149
2.83699,0.0994819,-0.274789
2.84589,0.0990482,-0.381066
2.85437,-0.109638,-0.432257
2.84191,0.0984129,-0.486936
2.87675,-0.217752,-0.517374
2.8624,-0.218927,-0.624981
2.85853,-0.113595,-0.651372
2.84558,0.0979435,-0.708109
2.86309,-0.117058,0.405268
2.85445,0.0904402,0.347977
2.84631,0.0881933,0.24273
2.86294,-0.118804,0.19459
2.84827,0.0870598,0.139269
2.85859,-0.125571,-0.327224
2.85239,0.0817547,-0.381862
2.84246,0.0809734,-0.486936
2.87241,-0.235159,-0.516844
2.861,-0.236486,-0.624981
2.86167,-0.131312,-0.65226
2.84613,0.0804815,-0.708109
2.85931,-0.026762,-0.79541
2.85737,-0.134391,0.404568
2.85495,0.0729239,0.347977
2.8468,0.070727,0.24273
2.86194,-0.0332091,0.166934
2.85075,0.0696303,0.139367
2.85226,-0.137593,0.0901393
2.8511,-0.0337302,0.0632611
2.8577,-0.24247,0.0137654
2.8529,-0.141717,-0.221645
2.85678,-0.143059,-0.32711
2.87126,-0.250284,-0.408856
2.84192,0.0635089,-0.486767
2.87288,-0.252952,-0.517197
2.85558,-0.146447,-0.540689
2.85886,-0.148767,-0.651816
2.85317,-0.0430685,-0.678272
2.86005,-0.0443208,-0.795678
2.84618,0.0532394,0.242645
2.87565,-0.259295,0.224043
2.86169,-0.050769,0.166934
2.85212,0.0521554,0.139415
2.85935,-0.155526,0.0903917
2.85384,-0.0512775,0.0633277
2.85684,-0.160641,-0.327224
2.87558,-0.268449,-0.409698
2.85582,-0.162384,-0.432855
2.84766,-0.0573318,-0.45907
2.87911,-0.271313,-0.518609
2.85757,-0.164134,-0.541247
2.85887,-0.166362,-0.652038
2.85975,-0.064594,0.483197
2.86923,-0.171566,0.300331
2.84446,0.0357495,0.242475
2.875,-0.277031,0.22412
2.86332,-0.0683747,0.167051
2.85538,0.0346905,0.139562
2.87217,-0.277821,0.118217
2.85535,-0.172887,0.090297
2.85047,-0.0687151,0.0632611
2.86274,-0.1786,-0.328019
2.87782,-0.286481,-0.41026
2.85872,-0.180153,-0.433454
2.85022,-0.0748814,-0.459547
2.88033,-0.289269,-0.519139
2.86239,-0.182039,-0.542361
2.86266,-0.184214,-0.653148
2.84422,0.0280512,-0.707385
2.86217,-0.188775,0.299708
2.86387,-0.0846724,0.271994
2.85459,0.0183597,0.243324
2.85854,0.0171876,0.139708
2.85423,-0.190403,0.090297
2.85599,-0.0863853,0.0633942
2.87463,-0.297293,0.013871
2.87147,-0.301069,-0.302388
2.86258,-0.19623,-0.328133
2.84971,-0.0923686,-0.459547
2.87654,-0.306728,-0.518786
2.85352,-0.0943866,-0.567858
2.86537,-0.20205,-0.654036
2.85786,0.00283999,0.348218
2.8679,-0.206834,0.300435
2.86528,-0.102314,0.272183
2.84468,0.000840932,0.242475
2.87287,-0.207647,0.195606
2.85401,-0.207986,0.0903286
2.8604,-0.104089,0.0635051
2.86679,-0.314272,0.0138422
2.86148,-0.212648,-0.22265
2.85315,-0.107865,-0.248692
2.85637,-0.213421,-0.327565
2.87754,-0.324704,-0.519316
2.85798,-0.217003,-0.54199
2.85582,-0.112009,-0.568443
2.86893,-0.22,-0.655146
2.8532,-0.113153,-0.678735
2.85683,-0.0146905,0.348097
2.84464,-0.0166137,0.242475
2.86153,-0.0179111,0.139855
2.85865,-0.225966,0.0905179
2.85871,-0.121596,0.0634829
2.85207,-0.122859,-0.0406094
2.86727,-0.333105,-0.0914196
2.86808,-0.230842,-0.223269
2.85542,-0.125501,-0.248952
2.86379,-0.233465,-0.4348
2.86247,-0.235017,-0.543105
2.85312,-0.129441,-0.568053
2.85925,-0.130969,-0.680354
2.84716,-0.0243312,-0.708109
2.85345,-0.0341752,0.24324
2.86037,-0.0354564,0.139806
2.86319,-0.244012,0.0907072
2.86091,-0.13928,0.0635495
2.85657,-0.243999,-0.0136605
2.87455,-0.249124,-0.223888
2.85957,-0.143268,-0.249386
2.85848,-0.248888,-0.328133
2.88171,-0.358486,-0.411946
2.87215,-0.251896,-0.436297
2.85837,-0.145358,-0.461298
2.86587,-0.253009,-0.544034
2.85423,-0.147046,-0.568443
2.85418,-0.051701,0.243324
2.8541,-0.0528955,0.139513
2.86562,-0.261939,0.0908334
2.859,-0.156777,0.0635273
2.87342,-0.368641,0.0139045
2.86298,-0.262252,-0.0136986
2.85334,-0.158015,-0.0406521
2.87793,-0.267218,-0.224275
2.85864,-0.160811,-0.249386
2.87273,-0.267898,-0.329951
2.88339,-0.376675,-0.412507
2.8735,-0.269792,-0.436746
2.86038,-0.163063,-0.461775
2.8672,-0.270866,-0.544591
2.86209,-0.165065,-0.570199
2.86402,-0.0674599,0.349065
2.85672,-0.0704809,0.139659
2.86993,-0.2801,0.0910227
2.86098,-0.174499,0.0635938
2.86132,-0.279814,-0.0136986
2.87029,-0.284282,-0.223811
2.86158,-0.178597,-0.249733
2.86906,-0.285324,-0.329723
2.882,-0.394494,-0.412648
2.87179,-0.287418,-0.436746
2.86031,-0.180673,-0.461934
2.86744,-0.28865,-0.544963
2.8669,-0.182998,-0.571369
2.8502,-0.0760942,-0.596792
2.86121,-0.183889,-0.68151
2.85011,-0.0768387,-0.709075
2.86775,-0.19062,0.272844
2.85233,-0.086692,0.24324
2.85623,-0.0880081,0.139659
2.87313,-0.29822,0.0911804
2.85586,-0.191783,0.0635051
2.86253,-0.297676,-0.0137129
2.85817,-0.193491,-0.0407516
2.87444,-0.302515,-0.224275
2.86341,-0.196356,-0.249994
2.88009,-0.304279,-0.331201
2.85828,-0.197257,-0.355137
2.85006,-0.0932451,-0.381597
2.88639,-0.413152,-0.413631
2.86899,-0.304929,-0.436596
2.8621,-0.198425,-0.462412
2.86561,-0.306239,-0.544963
2.86083,-0.200243,-0.570394
2.86071,-0.104519,0.244004
2.87422,-0.316172,0.0912751
2.85862,-0.209595,0.0635938
2.87802,-0.423215,0.0139621
2.86661,-0.315892,-0.0137415
2.86291,-0.211467,-0.040837
2.86404,-0.317429,-0.118204
2.87946,-0.320919,-0.224817
2.86712,-0.214293,-0.250428
2.88282,-0.430709,-0.413491
2.87002,-0.322859,-0.437045
2.86379,-0.216206,-0.462889
2.8615,-0.217942,-0.570784
2.85478,-0.112037,-0.710523
2.85902,-0.122028,0.243919
2.85993,-0.123267,0.139904
2.88017,-0.334725,0.0915275
2.86924,-0.228082,0.06386
2.8686,-0.333937,-0.0137605
2.86355,-0.229189,-0.0408654
2.86402,-0.335229,-0.118286
2.85708,-0.230177,-0.144902
2.88239,-0.339164,-0.225203
2.8727,-0.232444,-0.251035
2.88567,-0.446622,-0.305825
2.88206,-0.340299,-0.331882
2.8596,-0.23264,-0.355629
2.86553,-0.12897,-0.383851
2.88012,-0.448389,-0.413491
2.86896,-0.34058,-0.437194
2.86241,-0.233773,-0.462889
2.85253,-0.128884,-0.488961
2.86109,-0.235576,-0.570979
2.86518,-0.139908,0.244514
2.8681,-0.141255,0.140343
2.87509,-0.352026,0.0914328
2.86978,-0.245853,0.0639044
2.8655,-0.351411,-0.0137558
2.86508,-0.247013,-0.0409081
2.8596,-0.248048,-0.145104
2.87531,-0.356231,-0.224817
2.88387,-0.358467,-0.332337
2.86009,-0.250354,-0.355875
2.85875,-0.146247,-0.383056
2.8822,-0.466844,-0.414193
2.86485,-0.251678,-0.463526
2.85759,-0.146688,-0.489974
2.86447,-0.253559,-0.571955
2.87386,-0.369788,0.0914644
2.86523,-0.263183,0.0638378
2.8875,-0.479064,0.0140485
2.86726,-0.369498,-0.0137748
2.86849,-0.265048,-0.0409792
2.862,-0.265959,-0.145305
2.88295,-0.375153,-0.22559
2.8736,-0.268049,-0.251382
2.8826,-0.376283,-0.33245
2.86245,-0.268269,-0.356367
2.85582,-0.163671,-0.38279
2.87636,-0.484027,-0.413771
2.87406,-0.270268,-0.465276
2.86254,-0.164558,-0.490986
2.86872,-0.271685,-0.573125
2.87113,-0.176747,0.140587
2.87847,-0.388351,0.0916852
2.87351,-0.281734,0.0640596
2.87187,-0.388021,-0.0138082
2.87576,-0.283526,-0.0411072
2.878,-0.496635,-0.0924959
2.86429,-0.283909,-0.145507
2.88554,-0.393509,-0.225977
2.87884,-0.286366,-0.251989
2.85593,-0.180515,-0.277005
2.89166,-0.502215,-0.307388
2.87826,-0.393694,-0.332223
2.86273,-0.286025,-0.356614
2.86809,-0.394138,-0.438092
2.86646,-0.287308,-0.464321
2.86443,-0.182307,-0.491493
2.8709,-0.289676,-0.573905
2.87207,-0.193292,0.245363
2.86944,-0.405635,-0.0138082
2.87596,-0.301375,-0.0411357
2.86945,-0.302211,-0.145861
2.88099,-0.304444,-0.252337
2.85874,-0.19831,-0.27739
2.88852,-0.519949,-0.307388
2.87875,-0.41177,-0.332564
2.87178,-0.304737,-0.357967
2.86249,-0.199324,-0.383984
2.87149,-0.412572,-0.43899
2.87151,-0.305622,-0.465435
2.87014,-0.20036,-0.492674
2.86517,-0.306869,-0.573125
2.86685,-0.210619,0.245023
2.87481,-0.317524,0.0641705
2.85491,-0.212097,0.0356268
2.86986,-0.423672,-0.0138225
2.88002,-0.319678,-0.041221
2.88446,-0.534282,-0.0929074
2.86821,-0.425269,-0.118942
2.87448,-0.320587,-0.146214
2.87493,-0.534851,-0.198689
2.87556,-0.428155,-0.22559
2.87808,-0.322005,-0.25225
2.86243,-0.216222,-0.277872
2.88626,-0.537845,-0.307492
2.87518,-0.429279,-0.33245
2.87774,-0.323239,-0.358951
2.86319,-0.217034,-0.384249
2.87086,-0.430477,-0.439289
2.87449,-0.323788,-0.466231
2.87082,-0.218116,-0.493012
2.86749,-0.228364,0.245193
2.87181,-0.335042,0.0641484
2.86452,-0.230493,0.0357637
2.87017,-0.44173,-0.0138368
2.87602,-0.33711,-0.0411926
2.89291,-0.554227,-0.0932872
2.87346,-0.338335,-0.146265
2.87386,-0.445944,-0.225668
2.88001,-0.340126,-0.252597
2.86005,-0.233701,-0.277776
2.88486,-0.555921,-0.3077
2.88035,-0.448134,-0.333359
2.87767,-0.341124,-0.359197
2.87267,-0.235489,-0.385708
2.87833,-0.342118,-0.467185
2.87139,-0.235889,-0.493349
2.87169,-0.352901,0.0641927
2.86305,-0.248065,0.0357637
2.87531,-0.460598,-0.0138749
2.87886,-0.355363,-0.0412637
2.89436,-0.572938,-0.0934455
2.87628,-0.356574,-0.146517
2.88478,-0.573397,-0.199842
2.87993,-0.465,-0.226364
2.87984,-0.358036,-0.25277
2.86253,-0.251594,-0.278161
2.88724,-0.574776,-0.308325
2.89127,-0.468022,-0.33495
2.87553,-0.358774,-0.359197
2.87512,-0.253459,-0.386239
2.8878,-0.469322,-0.44273
2.8752,-0.359651,-0.467026
2.87185,-0.253676,-0.493687
2.87641,-0.371411,0.064348
2.87243,-0.266644,0.0359006
2.88131,-0.47971,-0.0139178
2.88158,-0.373664,-0.0413348
2.8588,-0.266486,-0.0680144
2.878,-0.374732,-0.146719
2.85937,-0.26669,-0.173231
2.8861,-0.59209,-0.200181
2.87703,-0.482662,-0.226364
2.88451,-0.376603,-0.253378
2.87481,-0.270459,-0.27951
2.88074,-0.591881,-0.308013
2.87855,-0.484106,-0.333814
2.88016,-0.377314,-0.360058
2.87783,-0.377928,-0.467822
2.87515,-0.271756,-0.494531
2.882,-0.390126,0.0645254
2.87273,-0.284461,0.0359255
2.88422,-0.498402,-0.0139464
2.88022,-0.391472,-0.041349
2.86507,-0.284814,-0.0682039
2.88158,-0.393194,-0.147022
2.86563,-0.28502,-0.173713
2.88241,-0.609787,-0.200181
2.8799,-0.501332,-0.226828
2.87012,-0.287795,-0.279221
2.87779,-0.394979,-0.360058
2.8787,-0.289416,-0.387167
2.87448,-0.395445,-0.467663
2.87049,-0.289097,-0.494024
2.86317,-0.288208,-0.602323
2.87391,-0.302396,0.0359628
2.88898,-0.517501,-0.0139845
2.8847,-0.410123,-0.0414486
2.87348,-0.516587,-0.119762
2.88307,-0.411432,-0.147224
2.8668,-0.302913,-0.173893
2.89031,-0.630012,-0.200994
2.88266,-0.520055,-0.227292
2.88558,-0.412818,-0.253898
2.87127,-0.305717,-0.27951
2.8763,-0.41277,-0.360181
2.86907,-0.412653,-0.467185
2.87748,-0.307647,-0.495543
2.87498,-0.320357,0.0360001
2.86335,-0.320173,-0.0682513
2.87951,-0.428968,-0.147174
2.8629,-0.320276,-0.173773
2.88834,-0.648172,-0.20113
2.87745,-0.537367,-0.227137
2.883,-0.430516,-0.253898
2.87923,-0.324443,-0.280474
2.87794,-0.538654,-0.334836
2.86978,-0.429823,-0.359689
2.87234,-0.431129,-0.46814
2.87098,-0.337758,0.0359752
2.86828,-0.338557,-0.068417
2.87386,-0.446168,-0.147022
2.86386,-0.338187,-0.173953
2.88528,-0.666106,-0.201198
2.88683,-0.55747,-0.228143
2.88424,-0.448811,-0.254246
2.88312,-0.342809,-0.281052
2.87396,-0.448495,-0.36055
2.88371,-0.343645,-0.388626
2.88132,-0.34387,-0.496894
2.87381,-0.355982,0.0360375
2.86714,-0.356273,-0.0684407
2.87501,-0.46443,-0.147224
2.87263,-0.357108,-0.174616
2.88922,-0.576343,-0.228607
2.88536,-0.467136,-0.254593
2.87504,-0.359751,-0.280474
2.87507,-0.466757,-0.361042
2.88306,-0.362034,-0.497569
2.87455,-0.373996,0.0360748
2.8649,-0.373859,-0.0684407
2.87605,-0.482724,-0.147426
2.87335,-0.375115,-0.174796
2.88661,-0.594261,-0.228685
2.88637,-0.485493,-0.25494
2.87672,-0.377904,-0.280859
2.88665,-0.38049,-0.498582
2.87517,-0.392032,0.0361121
2.88455,-0.500812,-0.0416477
2.87246,-0.392785,-0.0686775
2.87693,-0.39355,-0.175158
2.88193,-0.611755,-0.228607
2.88236,-0.503023,-0.254853
2.87829,-0.396091,-0.281244
2.88719,-0.398599,-0.499088
2.88162,-0.410936,0.0362241
2.87946,-0.518148,-0.0416193
2.8789,-0.411676,-0.0688907
2.87347,-0.411054,-0.175097
2.88202,-0.630279,-0.228917
2.8802,-0.520876,-0.25494
2.88271,-0.414737,-0.281919
2.88003,-0.428757,0.0362366
2.87426,-0.53544,-0.0415908
2.88225,-0.430219,-0.0690328
2.87386,-0.429119,-0.175278
2.87989,-0.539089,-0.2552
2.88404,-0.433008,-0.282304
2.88553,-0.434004,-0.390483
2.89436,-0.555959,0.0653905
2.87933,-0.446727,0.0362615
2.87758,-0.447588,-0.0689854
2.88822,-0.451773,-0.282979
2.88673,-0.452315,-0.391014
2.87577,-0.465396,-0.0690091
2.88735,-0.469806,-0.283171
2.8839,-0.470019,-0.391014
2.87384,-0.483199,-0.0690328
2.89129,-0.488674,-0.283846
2.87803,-0.487209,-0.390616
2.8804,-0.612712,-0.256502
2.8902,-0.50675,-0.284039
2.89095,-0.525186,-0.284424
2.88278,-0.541995,-0.283942
2.88331,-0.560433,-0.284328
2.88177,-0.578505,-0.28452
2.88098,-0.594349,-0.177446
