2.54465,0.910893,-0.18364
2.54642,0.893941,-0.183369
2.55469,0.879273,-0.183572
2.56287,0.864538,-0.183776
2.57097,0.849736,-0.183979
2.61245,0.847967,-0.0869879
2.58183,0.835788,-0.184386
2.61856,0.832224,-0.0870196
2.58786,0.820232,-0.184454
2.57901,0.816585,-0.283326
2.62648,0.817032,-0.0871145
2.59285,0.804338,-0.184454
2.54714,0.892227,-0.209421
2.63335,0.801483,-0.0871778
2.60442,0.790442,-0.184928
2.55257,0.876581,-0.209421
2.59074,0.785452,-0.283534
2.63918,0.785595,-0.0872095
2.61209,0.775298,-0.185132
2.5579,0.860902,-0.209421
2.59838,0.770389,-0.283847
2.64395,0.769386,-0.0872095
2.62063,0.760368,-0.185403
2.56408,0.845503,-0.209499
2.67563,0.76179,0.0133526
2.65535,0.755062,-0.0874311
2.63196,0.746179,-0.185877
2.6793,0.74509,0.0133478
2.6609,0.739023,-0.0874627
2.63938,0.730814,-0.186081
2.57901,0.815477,-0.209885
2.68768,0.729684,0.013367
2.66924,0.723728,-0.0875893
2.64381,0.714605,-0.186081
2.58683,0.800522,-0.210118
2.69694,0.71446,0.013391
2.67266,0.707081,-0.0875577
2.65104,0.699133,-0.186284
2.59932,0.786945,-0.210736
2.58486,0.781435,-0.308818
2.70514,0.698899,0.0134102
2.67985,0.691417,-0.0876527
2.65721,0.68335,-0.18642
2.60506,0.771264,-0.210814
2.55344,0.858194,-0.234635
2.58866,0.765278,-0.308704
2.71229,0.68302,0.0134246
2.68986,0.676424,-0.0878426
2.66523,0.668003,-0.186691
2.61262,0.756097,-0.211046
2.56055,0.843133,-0.234808
2.59998,0.75131,-0.309499
2.7517,0.676442,0.116089
2.69493,0.660144,-0.0878742
2.66831,0.6514,-0.186623
2.622,0.741408,-0.211433
2.57231,0.829546,-0.235416
2.6601,0.648561,-0.286763
2.60933,0.736693,-0.310067
2.63813,0.640717,-0.385119
2.70379,0.644755,-0.0880325
2.67905,0.63663,-0.187097
2.62842,0.725837,-0.211587
2.58021,0.814647,-0.235676
2.66597,0.632686,-0.286972
2.61667,0.721461,-0.310408
2.64587,0.625429,-0.385681
2.61656,0.616092,-0.48207
2.71062,0.62883,-0.0881275
2.68679,0.621079,-0.187369
2.63379,0.709955,-0.211665
2.58992,0.80027,-0.23611
2.67368,0.617211,-0.287388
2.62009,0.705133,-0.310295
2.65351,0.61007,-0.386243
2.59646,0.697025,-0.406821
2.62605,0.601343,-0.483129
2.71735,0.612846,-0.0882224
2.69542,0.605675,-0.187708
2.64196,0.694795,-0.211974
2.59668,0.78494,-0.236283
2.67838,0.601012,-0.287493
2.62533,0.689296,-0.310408
2.56711,0.774778,-0.33238
2.65721,0.593777,-0.386243
2.60547,0.682333,-0.407569
2.63257,0.58586,-0.483659
2.64391,0.784054,-0.0392297
2.7279,0.597658,-0.088444
2.56886,0.863406,-0.163476
2.65486,0.6808,-0.212671
2.60241,0.769275,-0.23637
2.68396,0.58499,-0.287701
2.63047,0.67342,-0.310522
2.58514,0.762944,-0.334102
2.66177,0.577671,-0.386383
2.61248,0.667067,-0.408018
2.63997,0.570528,-0.484365
2.78972,0.59568,0.116867
2.65252,0.76893,-0.0392866
2.73249,0.581117,-0.0884757
2.57885,0.849188,-0.163778
2.65802,0.664256,-0.212593
2.61378,0.755228,-0.236978
2.6875,0.568511,-0.287701
2.63841,0.65823,-0.310976
2.58405,0.745418,-0.333364
2.67011,0.562348,-0.387086
2.61653,0.651025,-0.408018
2.64534,0.554723,-0.484718
2.79821,0.579565,0.117071
2.58591,0.833962,-0.163898
2.62028,0.739717,-0.237151
2.69484,0.552809,-0.288117
2.64529,0.642732,-0.311317
2.5924,0.730625,-0.333856
2.6803,0.547341,-0.388069
2.61759,0.634259,-0.407569
2.65352,0.539461,-0.485601
2.83944,0.57104,0.224739
2.61684,0.826396,-0.0650068
2.59479,0.819281,-0.164139
2.67858,0.634576,-0.213599
2.62477,0.723626,-0.237151
2.70598,0.537815,-0.288951
2.65402,0.627632,-0.311885
2.60449,0.716811,-0.33484
2.68555,0.531269,-0.38835
2.66064,0.52393,-0.486307
2.64163,0.518031,-0.586053
2.84779,0.554559,0.225126
2.811,0.546327,0.117317
2.60453,0.804818,-0.16444
2.73428,0.526862,-0.189199
2.68631,0.619024,-0.213908
2.63012,0.707766,-0.237238
2.58921,0.797807,-0.262264
2.71607,0.522516,-0.28968
2.66073,0.612003,-0.312226
2.60788,0.700559,-0.334717
2.69556,0.516084,-0.389333
2.63096,0.603416,-0.408467
2.66381,0.507595,-0.486307
2.60822,0.596619,-0.505944
2.6438,0.50163,-0.58584
2.85015,0.536891,0.225049
2.82903,0.531837,0.117931
2.63253,0.795958,-0.0651489
2.60942,0.788822,-0.16444
2.69298,0.603183,-0.21414
2.63731,0.692373,-0.237498
2.59215,0.78133,-0.262071
2.72509,0.506932,-0.290305
2.66637,0.596099,-0.312453
2.61021,0.684042,-0.334471
2.70355,0.500435,-0.390035
2.63847,0.588122,-0.409066
2.58829,0.677429,-0.431224
2.67752,0.493202,-0.488248
2.61471,0.581244,-0.506501
2.65067,0.486104,-0.586691
2.85536,0.519749,0.225203
2.84404,0.516612,0.118422
2.64695,0.782624,-0.0653857
2.61517,0.773079,-0.1645
2.7015,0.587708,-0.214527
2.6444,0.676919,-0.237759
2.60453,0.767661,-0.262842
2.73011,0.490553,-0.290513
2.67775,0.581414,-0.313362
2.70754,0.484011,-0.390176
2.64396,0.57234,-0.409365
2.60483,0.664708,-0.433292
2.68631,0.477798,-0.489307
2.65264,0.46966,-0.586479
2.86733,0.503772,0.2259
2.82191,0.601761,0.195945
2.6517,0.766368,-0.0653857
2.62466,0.758403,-0.164801
2.70798,0.571738,-0.214759
2.6543,0.662127,-0.238279
2.61302,0.752768,-0.263227
2.73894,0.474812,-0.291138
2.67835,0.564358,-0.313021
2.71631,0.468399,-0.391018
2.65226,0.557122,-0.410113
2.60599,0.647998,-0.432815
2.69598,0.462471,-0.490543
2.62837,0.550523,-0.507802
2.65933,0.454033,-0.587329
2.87233,0.486502,0.226054
2.82261,0.583829,0.195742
2.86494,0.48417,0.119036
2.65924,0.750898,-0.0654568
2.63022,0.742556,-0.164861
2.71046,0.554912,-0.214682
2.65832,0.645828,-0.238279
2.62334,0.738338,-0.263805
2.74965,0.459308,-0.291972
2.68565,0.548709,-0.313476
2.725,0.452696,-0.391861
2.61087,0.632228,-0.432974
2.7046,0.446882,-0.491602
2.63844,0.535754,-0.509102
2.66688,0.438499,-0.588393
2.88412,0.470313,0.226751
2.82712,0.566695,0.195809
2.68623,0.741862,0.0346811
2.80606,0.454165,-0.0900268
2.63858,0.727464,-0.165102
2.67386,0.632256,-0.239321
2.62974,0.722756,-0.263998
2.75831,0.443375,-0.292597
2.73261,0.436749,-0.392563
2.71118,0.430897,-0.492308
2.6465,0.520503,-0.510031
2.67628,0.423196,-0.589882
2.83348,0.549907,0.196013
2.87856,0.450211,0.119364
2.80879,0.436939,-0.0900268
2.64589,0.712039,-0.165283
2.67381,0.614945,-0.238973
2.63797,0.707638,-0.264383
2.76295,0.426745,-0.292805
2.73818,0.420424,-0.392985
2.71669,0.414699,-0.492838
2.65447,0.505173,-0.510961
2.68655,0.40794,-0.591584
2.89855,0.43622,0.227447
2.84171,0.533432,0.196351
2.88423,0.432985,0.119486
2.81571,0.526822,0.0904232
2.81834,0.420729,-0.0902484
2.65407,0.696804,-0.165524
2.68434,0.600048,-0.239581
2.77043,0.410513,-0.293326
2.7456,0.404337,-0.393687
2.7221,0.39845,-0.493367
2.66042,0.48941,-0.511518
2.69191,0.39187,-0.592222
2.67424,0.385867,-0.695448
2.91992,0.421131,0.228917
2.85376,0.517587,0.196961
2.80963,0.614808,0.16775
2.82283,0.510247,0.0905494
2.71395,0.696017,0.0348677
2.8627,0.41038,0.0138806
2.8278,0.404419,-0.0904699
2.69576,0.585257,-0.240275
2.65321,0.676935,-0.265058
2.77979,0.394485,-0.294055
2.75784,0.388865,-0.395091
2.72937,0.382422,-0.49425
2.66918,0.474107,-0.512633
2.61548,0.563958,-0.53216
2.69233,0.375076,-0.591797
2.65768,0.470009,-0.614518
2.92837,0.404024,0.229381
2.85983,0.500583,0.197164
2.81726,0.598387,0.167982
2.90517,0.399738,0.120141
2.83477,0.494462,0.0908334
2.71914,0.679594,0.0348802
2.87309,0.393893,0.0139189
2.66021,0.661363,-0.265347
2.79004,0.37849,-0.294888
2.76508,0.372597,-0.395794
2.60015,0.645226,-0.458749
2.73752,0.366452,-0.495309
2.62273,0.548703,-0.53294
2.71201,0.360869,-0.595626
2.65956,0.453529,-0.614296
2.90483,0.490578,0.307814
2.93475,0.386569,0.22969
2.86875,0.484022,0.197571
2.8199,0.580887,0.167924
2.91054,0.382295,0.120264
2.84957,0.479048,0.091212
2.87843,0.376646,0.0139333
2.66228,0.644559,-0.265154
2.80119,0.362512,-0.295826
2.64355,0.639293,-0.363956
2.77026,0.356002,-0.396215
2.60597,0.629723,-0.459087
2.75046,0.351018,-0.497251
2.63086,0.533574,-0.533915
2.7132,0.344099,-0.595413
2.66999,0.438465,-0.616072
2.70107,0.339111,-0.700683
2.91564,0.474022,0.308645
2.94498,0.369548,0.230309
2.87561,0.467051,0.197842
2.82635,0.56416,0.168099
2.92076,0.365421,0.120592
2.85641,0.462193,0.0913382
2.89259,0.360461,0.0139909
2.66619,0.628212,-0.265154
2.80731,0.345804,-0.296242
2.64646,0.622833,-0.363823
2.78713,0.3408,-0.398322
2.71839,0.432998,-0.416547
2.6608,0.524503,-0.437111
2.61554,0.615075,-0.460099
2.7594,0.334966,-0.498486
2.64563,0.51969,-0.536256
2.72206,0.328263,-0.596902
2.67937,0.423139,-0.617626
2.92242,0.456738,0.309061
2.95412,0.352297,0.230851
2.89912,0.45263,0.199265
2.83662,0.548133,0.168506
2.76974,0.639484,0.138927
2.93287,0.348672,0.121001
2.85721,0.44435,0.0912751
2.86863,0.338649,-0.0914829
2.66805,0.611396,-0.264961
2.81136,0.328803,-0.296451
2.6483,0.606141,-0.363558
2.79605,0.324491,-0.399305
2.66881,0.509091,-0.437907
2.62119,0.599454,-0.460437
2.76434,0.318366,-0.499016
2.65359,0.504363,-0.537232
2.73276,0.312554,-0.598816
2.68673,0.407422,-0.618736
2.94189,0.441306,0.310827
2.96416,0.33506,0.23147
2.8517,0.532919,0.169205
2.79213,0.626633,0.139855
2.90872,0.326275,0.0140485
2.88456,0.322596,-0.0919261
2.67952,0.596744,-0.265732
2.81925,0.312204,-0.297076
2.65391,0.59031,-0.363823
2.73231,0.400899,-0.417893
2.62963,0.584429,-0.461281
2.76624,0.301398,-0.499016
2.6576,0.488248,-0.537427
2.74239,0.296621,-0.600518
2.69594,0.39191,-0.62029
2.94454,0.423246,0.310827
2.97409,0.317714,0.232089
2.85885,0.51612,0.169438
2.80276,0.610978,0.140196
2.87334,0.41081,0.0916221
2.81983,0.508415,0.0635717
2.91962,0.30937,0.0140917
2.84511,0.406218,-0.0136938
2.68411,0.580502,-0.265828
2.83101,0.295933,-0.298117
2.76344,0.389931,-0.319157
2.66717,0.576108,-0.36515
2.73765,0.384539,-0.418342
2.6428,0.570362,-0.462969
2.66344,0.472446,-0.538012
2.74708,0.280086,-0.601156
2.70505,0.376301,-0.621844
2.99064,0.412541,0.426974
2.953,0.405984,0.311451
2.88711,0.5043,0.278231
2.98987,0.300856,0.233172
2.86491,0.499083,0.169613
2.80743,0.593976,0.140245
2.88471,0.394391,0.0919061
2.82388,0.491275,0.0635938
2.92843,0.292145,0.0141253
2.85251,0.389429,-0.0137177
2.69054,0.564635,-0.266117
2.67744,0.561154,-0.366078
2.7478,0.368786,-0.419539
2.64818,0.554539,-0.463306
2.7903,0.269416,-0.502723
2.72019,0.363485,-0.51895
2.66629,0.456095,-0.538012
2.71118,0.36021,-0.622732
2.65557,0.453069,-0.640347
2.96036,0.388504,0.311971
2.89702,0.487733,0.278893
2.93804,0.385105,0.20123
2.81298,0.57714,0.140343
2.89501,0.377717,0.0921585
2.83473,0.475261,0.0637713
2.93813,0.274916,0.0141637
2.86178,0.372824,-0.013751
2.87707,0.265961,-0.196317
2.77984,0.357511,-0.32052
2.68569,0.545702,-0.366741
2.75982,0.353174,-0.421035
2.6554,0.539064,-0.463981
2.79484,0.252556,-0.503252
2.73309,0.348153,-0.520994
2.71721,0.344058,-0.62362
2.66214,0.437397,-0.641272
2.69227,0.339278,-0.725981
2.96861,0.371072,0.312594
2.90782,0.471222,0.279649
3.00923,0.265546,0.23441
2.94629,0.367812,0.201636
2.90322,0.360686,0.0923478
2.84647,0.459292,0.0639709
2.94275,0.257144,0.0141781
2.86898,0.355873,-0.0137748
2.89058,0.249331,-0.19713
2.79776,0.342378,-0.322338
2.68802,0.529021,-0.366609
2.77371,0.337667,-0.422831
2.65769,0.522571,-0.463813
2.73517,0.331377,-0.520994
2.77903,0.231747,-0.607113
2.66285,0.420751,-0.640809
2.75464,0.226228,-0.711401
2.98071,0.354023,0.313633
2.91656,0.45429,0.280216
2.86464,0.55244,0.248675
3.01775,0.247647,0.234951
2.83946,0.546351,0.141319
2.91332,0.343803,0.0926002
2.85517,0.442737,0.064104
2.95026,0.239568,0.0142069
2.71417,0.517626,-0.267466
2.80178,0.325434,-0.322565
2.70387,0.514929,-0.368333
2.82782,0.223069,-0.402395
2.77475,0.320528,-0.422681
2.66859,0.507727,-0.465163
2.80166,0.218546,-0.503958
2.74692,0.31571,-0.522852
2.7843,0.214992,-0.607964
2.67308,0.405571,-0.642659
3.04137,0.231715,0.348279
2.99567,0.337173,0.314984
2.93209,0.438299,0.281445
2.96546,0.333301,0.202653
2.91836,0.326254,0.0926948
2.86673,0.426534,0.0643036
2.96364,0.222359,0.0142645
2.86301,0.317688,-0.118164
2.72414,0.502226,-0.268141
2.81656,0.309648,-0.324043
2.70308,0.497611,-0.367802
2.78649,0.304571,-0.424177
2.67747,0.492413,-0.466175
2.75662,0.299699,-0.524338
2.68322,0.390282,-0.644509
3.0056,0.319627,0.315816
2.93965,0.421005,0.281917
2.88199,0.519188,0.249609
2.97439,0.315836,0.203127
2.8548,0.513056,0.141758
2.8683,0.408795,0.0642815
2.97293,0.20472,0.0143029
2.90289,0.305938,-0.0139083
2.84221,0.403507,-0.040837
2.87782,0.301468,-0.118696
2.73305,0.486548,-0.268719
2.82631,0.29318,-0.324951
2.70998,0.481709,-0.368333
2.79126,0.287772,-0.424626
2.68335,0.476492,-0.466682
2.76329,0.28328,-0.525267
2.70525,0.377755,-0.543279
2.69038,0.374482,-0.645665
2.94711,0.403636,0.28239
2.88218,0.500983,0.249355
2.94303,0.292492,0.0933574
2.88165,0.392672,0.0645254
2.98111,0.186913,0.0143365
2.91267,0.288911,-0.0139464
2.85256,0.387136,-0.0409508
2.8816,0.284,-0.118778
2.8217,0.381443,-0.143942
2.92769,0.18028,-0.199299
2.79404,0.376711,-0.245568
2.73795,0.470106,-0.268912
2.84091,0.277087,-0.326429
2.7168,0.465742,-0.368863
2.80084,0.271402,-0.425823
2.69303,0.461183,-0.467863
2.76987,0.26679,-0.526196
2.71724,0.362445,-0.54523
2.69745,0.358608,-0.646822
3.01623,0.283371,0.316543
2.95941,0.386835,0.283335
2.88814,0.483782,0.249609
3.05477,0.175341,0.237427
2.95671,0.275541,0.093736
2.88996,0.375757,0.0646585
2.99119,0.169125,0.0143797
2.91638,0.271218,-0.0139559
2.86579,0.371038,-0.0411072
2.96184,0.16648,-0.093952
2.88926,0.266865,-0.119024
2.83389,0.365399,-0.144447
2.87624,0.26389,-0.22412
2.81014,0.361339,-0.246783
2.74667,0.454272,-0.26949
2.72743,0.450355,-0.369925
2.81526,0.255373,-0.427768
2.74887,0.351364,-0.446658
2.77928,0.250495,-0.527683
2.72525,0.346508,-0.5464
2.70732,0.343028,-0.648672
2.64854,0.436285,-0.667563
3.02782,0.265728,0.317582
2.90483,0.468272,0.250798
2.96531,0.258001,0.0939569
2.90114,0.359122,0.0648582
2.92198,0.253665,-0.013975
2.87,0.353691,-0.0411357
2.90876,0.250676,-0.119762
2.845,0.349099,-0.144902
2.81329,0.344211,-0.24687
2.85499,0.243131,-0.327678
2.78196,0.339145,-0.347388
2.73014,0.433611,-0.369925
2.82761,0.23901,-0.429414
2.75686,0.335206,-0.447613
2.70335,0.428873,-0.468707
2.85915,0.134962,-0.513314
2.79154,0.234341,-0.529727
2.73414,0.330604,-0.547766
2.72,0.32769,-0.651216
2.66267,0.421848,-0.670459
2.79399,0.126169,-0.719876
3.03137,0.247307,0.31779
2.91651,0.451812,0.251563
2.97581,0.240526,0.0942408
2.9152,0.342715,0.0651243
2.93245,0.236454,-0.0140178
2.88006,0.337004,-0.0412495
2.91821,0.233461,-0.12009
2.82722,0.328321,-0.247911
2.76483,0.422486,-0.270742
2.73961,0.417898,-0.370853
2.83297,0.221964,-0.430013
2.76769,0.319302,-0.449045
2.71568,0.413762,-0.470395
2.7988,0.217665,-0.530842
2.75073,0.315498,-0.550692
2.66713,0.405794,-0.670942
3.03878,0.229151,0.318414
2.90937,0.432443,0.250713
2.9862,0.222932,0.0945247
2.92122,0.325264,0.0652131
2.85872,0.422518,0.0359628
2.9488,0.219571,-0.0140893
2.89201,0.320427,-0.0413917
2.92059,0.215625,-0.120131
2.86694,0.31613,-0.14581
2.96214,0.10952,-0.201401
2.84404,0.3126,-0.249213
2.77821,0.407101,-0.271802
2.80071,0.3066,-0.349233
2.74506,0.40151,-0.371251
2.83625,0.20472,-0.430312
2.77646,0.303064,-0.450159
2.72011,0.397376,-0.470733
2.80694,0.20098,-0.532142
2.75749,0.299143,-0.551667
2.67437,0.390121,-0.672149
3.06097,0.211943,0.320596
2.93268,0.417533,0.252497
3.09204,0.101432,0.240057
2.9905,0.204809,0.0946194
2.9341,0.308484,0.0654571
2.86324,0.40525,0.0359877
2.95907,0.202086,-0.0141322
2.90585,0.303924,-0.0415624
2.92584,0.19797,-0.120295
2.87677,0.29936,-0.146214
2.97074,0.0915881,-0.201943
2.85086,0.295657,-0.249647
2.78065,0.390047,-0.271802
2.88178,0.192058,-0.330292
2.81142,0.290327,-0.35034
2.75729,0.386034,-0.372577
2.85126,0.188225,-0.432407
2.78907,0.287134,-0.45191
2.72934,0.381634,-0.471914
2.81499,0.184202,-0.533443
2.68152,0.374375,-0.673356
2.94506,0.400874,0.253346
3.09858,0.0826173,0.240521
2.9937,0.18658,0.0946825
2.94191,0.291065,0.0655902
2.88153,0.389819,0.0361868
3.03995,0.0784525,0.0145957
2.96325,0.184112,-0.0141465
2.91762,0.287068,-0.0417046
2.93398,0.180443,-0.120582
2.88054,0.281897,-0.146315
2.97124,0.0733583,-0.201943
2.86154,0.279029,-0.250428
2.78891,0.373771,-0.27238
2.94998,0.0719576,-0.309054
2.89183,0.174912,-0.331314
2.81512,0.273263,-0.350586
2.7655,0.369896,-0.373373
2.79668,0.270586,-0.452864
2.73944,0.365924,-0.473264
2.81704,0.166984,-0.533629
2.77365,0.266501,-0.554203
2.7087,0.361962,-0.572002
2.85835,0.0624349,-0.622429
2.69242,0.359069,-0.675528
3.07625,0.175099,0.321947
2.9445,0.382411,0.253091
3.0708,0.0618979,0.125831
3.01175,0.169161,0.0952189
2.95061,0.273655,0.0657454
2.88981,0.372898,0.0362615
2.97431,0.166485,-0.0141941
2.91434,0.268701,-0.0416335
2.84872,0.366483,-0.0680381
2.94202,0.162823,-0.120869
2.88719,0.264673,-0.146568
2.98061,0.0552922,-0.202553
2.87015,0.2621,-0.251035
2.80596,0.358544,-0.273825
2.95832,0.0540007,-0.309888
2.89781,0.157434,-0.331882
2.82564,0.256793,-0.351693
2.77263,0.353547,-0.374036
2.80615,0.254133,-0.454137
2.7475,0.349855,-0.474277
2.82488,0.150061,-0.534929
2.78695,0.250531,-0.556544
2.71864,0.346325,-0.573641
2.86356,0.044972,-0.623492
2.70228,0.343521,-0.677458
3.02089,0.26356,0.287871
2.95965,0.365926,0.254196
3.01972,0.151027,0.0954397
2.89701,0.355769,0.0363237
2.98926,0.148929,-0.0142608
2.9269,0.251756,-0.04179
2.86183,0.350333,-0.0682986
3.02822,0.0399686,-0.0959146
2.95294,0.145259,-0.121278
2.90269,0.248144,-0.147275
2.82971,0.346251,-0.171966
2.98688,0.0370768,-0.20296
2.87766,0.244991,-0.251556
2.817,0.342401,-0.274693
2.96755,0.0359562,-0.310825
2.90269,0.139842,-0.332337
2.83903,0.240455,-0.353169
2.78164,0.337363,-0.374965
2.81356,0.237408,-0.455092
2.75938,0.334175,-0.475965
2.8444,0.133601,-0.538459
2.79528,0.233998,-0.557909
2.7246,0.330108,-0.574461
2.86965,0.0274567,-0.624769
2.76512,0.230259,-0.659541
2.71204,0.327866,-0.679389
3.02558,0.132715,0.0955975
2.9051,0.338681,0.0363983
2.99511,0.130802,-0.0142847
2.94035,0.234748,-0.0419607
2.87087,0.333574,-0.0684644
3.0334,0.0214224,-0.0960729
2.95977,0.127395,-0.121524
2.90814,0.230644,-0.147476
2.83674,0.329458,-0.172267
2.99404,0.0187927,-0.203435
2.94549,0.124978,-0.228762
2.88606,0.227879,-0.252163
2.824,0.32568,-0.275174
2.97368,0.0177826,-0.31145
2.90945,0.122279,-0.333018
2.84738,0.223575,-0.35403
2.79449,0.321536,-0.376424
2.82481,0.22091,-0.456683
2.85106,0.116386,-0.539574
2.79275,0.216539,-0.557129
2.74116,0.31506,-0.577534
2.88442,0.00989865,-0.62796
2.77521,0.213961,-0.661622
3.03533,0.114487,0.0958814
2.98306,0.221369,0.0663665
2.91905,0.322166,0.0365477
2.99985,0.112572,-0.0143037
2.94373,0.216848,-0.0419891
2.8828,0.317046,-0.0687012
2.96948,0.109564,-0.121893
2.92146,0.21367,-0.148082
2.86252,0.314663,-0.173713
2.99609,0.000421602,-0.20357
2.95616,0.107264,-0.229536
2.89237,0.210528,-0.252597
2.82792,0.308562,-0.275367
2.98269,-0.000465266,-0.312388
2.92206,0.104852,-0.334382
2.8576,0.206744,-0.355137
2.89818,0.102172,-0.43884
2.82906,0.203786,-0.457161
2.78287,0.302418,-0.47934
2.8635,0.0992983,-0.541804
2.80968,0.200516,-0.56025
2.74499,0.298446,-0.577944
2.88736,-0.00780792,-0.628598
2.78229,0.197342,-0.66301
3.04696,0.0962072,0.0962285
2.98736,0.203265,0.066433
2.92594,0.304767,0.0366099
3.08093,-0.0150295,0.0147877
3.00649,0.0943513,-0.0143323
2.89563,0.300486,-0.0689617
2.97809,0.0915871,-0.122221
2.92769,0.196074,-0.148335
2.87334,0.29802,-0.174254
2.96175,0.0892737,-0.229922
2.90156,0.193306,-0.253291
2.84659,0.292936,-0.277005
2.99357,-0.0188355,-0.313533
2.93258,0.0872163,-0.335518
2.86971,0.189927,-0.356491
2.96326,-0.0212826,-0.420373
2.90172,0.0844737,-0.439289
2.83519,0.186747,-0.457956
2.78173,0.285036,-0.478834
2.86897,0.0818664,-0.542733
2.81575,0.183592,-0.561226
2.74385,0.281298,-0.577329
2.89996,-0.0256366,-0.631363
2.79122,0.180769,-0.66486
2.73403,0.279569,-0.683492
3.12521,-0.0328953,0.128042
3.05749,0.0777637,0.096544
2.99254,0.185178,0.0665218
2.93572,0.287588,0.0367094
3.07978,-0.0339224,0.0147829
3.01301,0.0760535,-0.0143609
2.90439,0.283393,-0.0691275
2.99457,0.0737055,-0.122877
2.92286,0.177743,-0.148032
2.96623,0.0711948,-0.230232
2.90766,0.1758,-0.253725
3.00433,-0.0373393,-0.314679
2.93803,0.0693379,-0.336086
2.87875,0.172791,-0.357475
2.82558,0.272518,-0.379872
2.96604,-0.0395039,-0.420794
2.9091,0.0668264,-0.440336
2.85303,0.170348,-0.460661
2.79422,0.269001,-0.480691
2.94472,-0.0417902,-0.528141
2.87924,0.0644812,-0.544591
2.82368,0.166716,-0.562591
2.76403,0.26624,-0.581222
2.89974,-0.0434299,-0.631363
2.74342,0.26353,-0.685423
2.82693,0.0595088,-0.756478
3.0689,0.0592139,0.096891
3.0036,0.167369,0.0667436
3.02541,0.0577938,-0.0144181
2.91802,0.266658,-0.0694117
3.06699,-0.0536216,-0.0971492
2.99497,0.0553298,-0.122877
2.8887,0.263827,-0.174977
2.97259,0.0530998,-0.230696
2.91664,0.158387,-0.254419
2.85889,0.25879,-0.277872
3.01399,-0.0559575,-0.315721
2.94734,0.0514653,-0.337109
2.88471,0.155391,-0.35809
2.83016,0.255442,-0.38027
2.97564,-0.057895,-0.422199
2.91836,0.049125,-0.441683
2.8629,0.153314,-0.462093
2.80269,0.25247,-0.481872
2.95228,-0.060018,-0.529554
2.88548,0.0469092,-0.545706
2.83052,0.149698,-0.563762
2.76951,0.249627,-0.582041
2.86044,0.0443548,-0.651372
2.80586,0.147165,-0.667866
3.01755,0.149579,0.0670319
2.95497,0.252905,0.0369085
3.10912,-0.072412,0.0149269
3.03671,0.0393717,-0.0144705
2.99011,0.146597,-0.0425865
2.92558,0.249258,-0.0695538
3.06661,-0.0724393,-0.0971492
3.00325,0.0370505,-0.123205
2.88629,0.245758,-0.174736
2.98382,0.034988,-0.231547
2.92353,0.140776,-0.25494
2.87035,0.24208,-0.278836
3.02354,-0.0746955,-0.316763
2.95853,0.0335035,-0.338359
2.88957,0.137877,-0.358582
2.9275,0.0313126,-0.44303
2.80615,0.235433,-0.48221
2.9617,-0.0783921,-0.531319
2.89161,0.029263,-0.546821
2.83531,0.13251,-0.564542
2.77782,0.233202,-0.583475
2.86456,0.0268392,-0.65226
2.80865,0.130036,-0.668328
2.75902,0.230896,-0.68856
3.07617,0.135667,0.292313
3.02041,0.131148,0.0670763
2.95547,0.234689,0.0368961
3.04689,0.0208063,-0.0145181
2.99694,0.128504,-0.0426719
2.93303,0.231775,-0.0696958
2.8977,0.22883,-0.175338
2.99296,0.0167291,-0.232243
2.9323,0.123169,-0.255634
2.87277,0.224541,-0.278932
3.02898,-0.0934302,-0.317388
2.96563,0.0153858,-0.339154
2.89731,0.120433,-0.359443
2.85087,0.222078,-0.382658
2.93753,0.0133943,-0.444526
2.81049,0.218439,-0.482716
2.97002,-0.096852,-0.532907
2.8937,0.0115277,-0.547192
2.84783,0.115588,-0.566883
2.78505,0.216609,-0.584704
2.86272,0.00925583,-0.651816
2.82495,0.113425,-0.672029
2.76135,0.214038,-0.688802
3.03514,0.113134,0.0673868
2.96583,0.217208,0.0370081
3.06496,0.00212303,-0.0146039
2.99468,0.110003,-0.0426292
2.94537,0.214573,-0.0699563
3.10145,-0.111357,-0.0982887
2.96028,0.107187,-0.149748
2.908,0.211698,-0.17588
2.99799,-0.00163842,-0.23263
2.93997,0.105424,-0.256241
2.87707,0.207124,-0.279221
3.03531,-0.112271,-0.318117
2.96766,-0.00281314,-0.339381
2.90196,0.102793,-0.359935
3.0087,-0.113969,-0.427114
2.94744,-0.00464591,-0.446022
2.88497,0.101284,-0.465276
2.82751,0.202316,-0.485417
2.97527,-0.115303,-0.533967
2.90157,-0.0062448,-0.548679
2.86221,0.0985844,-0.569614
2.78926,0.199725,-0.585319
2.87637,-0.00834926,-0.654924
2.8324,0.0963205,-0.673647
2.76648,0.197367,-0.689767
3.04577,0.0948194,0.0676087
2.98307,0.200077,0.0372072
3.07092,-0.0167159,-0.0146325
3.00529,0.0919315,-0.0427714
2.94962,0.196696,-0.0700274
3.09671,-0.130217,-0.0981621
3.00291,-0.020067,-0.233017
2.94355,0.0874718,-0.256502
2.88723,0.190055,-0.280088
2.97354,-0.0210645,-0.340063
3.01783,-0.132863,-0.428519
2.95724,-0.0228072,-0.447518
2.82772,0.184898,-0.485248
2.9686,-0.133291,-0.532907
2.91032,-0.0241217,-0.550351
2.86864,0.0811869,-0.570784
2.80215,0.183374,-0.587777
2.88601,-0.0260863,-0.657144
2.83877,0.079102,-0.675035
2.77442,0.18083,-0.691457
3.0513,0.076254,0.0677196
2.98524,0.18183,0.0372196
3.08376,-0.035709,-0.0146944
3.01379,0.0736852,-0.0428852
2.96175,0.179258,-0.0702879
2.98433,0.0714014,-0.15091
2.92433,0.17684,-0.176723
2.95598,0.0696907,-0.257543
2.89927,0.172988,-0.281148
2.99124,-0.0395458,-0.342108
3.02685,-0.151874,-0.429923
2.95408,-0.040911,-0.447069
2.90475,0.0663015,-0.468299
2.83568,0.167952,-0.486429
2.917,-0.0420778,-0.551652
2.87203,0.0636489,-0.571369
2.81104,0.16664,-0.589416
2.84115,0.0617244,-0.675497
2.7842,0.164318,-0.693629
3.12197,-0.0547121,0.0985632
3.05471,0.0575867,0.0677861
3.00127,0.164329,0.0374063
3.09748,-0.0548779,-0.0147611
3.02719,0.0554294,-0.0430701
2.96579,0.161244,-0.0703589
2.9927,0.0532306,-0.151314
2.93533,0.159434,-0.177325
3.01938,-0.057237,-0.234332
2.96831,0.0517602,-0.258584
2.90922,0.155674,-0.282015
3.07047,-0.170214,-0.322075
2.9969,-0.0580144,-0.34279
2.9242,0.0497147,-0.362518
2.90905,0.048543,-0.468936
2.84847,0.151177,-0.488455
2.8753,0.0460724,-0.571955
2.81885,0.149753,-0.590851
2.8405,0.0442751,-0.675266
2.79484,0.147743,-0.696042
3.074,0.0390837,0.0682075
3.00922,0.146251,0.0374934
3.11008,-0.0741926,-0.0148231
3.03747,0.0369756,-0.0432124
2.9777,0.143573,-0.0706194
2.99997,0.0349481,-0.151667
2.94224,0.141709,-0.177687
3.0409,-0.0763128,-0.236034
2.97355,0.0336023,-0.259018
2.92305,0.138432,-0.283268
3.00146,-0.0765285,-0.343358
3.04255,-0.190118,-0.432452
2.96423,-0.0774431,-0.448715
2.91126,0.0307133,-0.469254
2.85821,0.134112,-0.489974
2.88044,0.0284775,-0.57293
2.82852,0.132867,-0.592694
2.84559,0.0268912,-0.676422
2.80054,0.130818,-0.697249
3.08417,0.0202871,0.0684294
3.01205,0.127868,0.0375183
2.98352,0.12551,-0.0707379
3.06698,-0.0939258,-0.125869
3.00312,0.0165565,-0.151818
3.04536,-0.0951256,-0.236421
2.98466,0.0154129,-0.259973
2.9308,0.120781,-0.283942
3.01086,-0.0952579,-0.344494
2.97951,-0.09614,-0.451109
2.92621,0.0129149,-0.471641
2.86981,0.117013,-0.49183
2.89036,0.0108397,-0.574881
2.82537,0.115349,-0.591875
2.85445,0.00945953,-0.678504
2.81002,0.113986,-0.699421
3.08767,0.11464,0.263368
3.02477,0.10982,0.0376676
2.99023,0.107416,-0.0708799
3.09331,-0.113734,-0.126976
3.01615,-0.00187865,-0.152475
2.94974,0.105807,-0.178048
3.06165,-0.114443,-0.237736
2.99068,-0.00290673,-0.260493
2.94044,0.10311,-0.284809
3.03107,-0.114518,-0.34688
2.99961,-0.115217,-0.454251
2.93018,-0.00504701,-0.472277
2.87934,0.0997091,-0.493349
2.89332,-0.00690245,-0.575466
2.83287,0.0982484,-0.593309
3.03438,0.0915294,0.0377796
3.07163,-0.0191524,-0.043696
3.00383,0.0894532,-0.0711878
3.02607,-0.0204529,-0.15298
2.96131,0.0880318,-0.17871
2.99558,-0.0212925,-0.260927
2.94699,0.0852381,-0.285387
3.03825,-0.133463,-0.347789
2.96621,-0.0223781,-0.367685
3.00774,-0.134016,-0.455598
2.94095,-0.0231115,-0.474028
2.88187,0.0820961,-0.493687
2.90303,-0.024739,-0.577417
3.03989,0.0730291,0.0378418
3.14328,-0.152237,-0.0149946
3.08345,-0.0381477,-0.0438667
3.01331,0.071233,-0.0714009
3.03687,-0.0391617,-0.153535
2.97476,0.0701659,-0.179493
3.00137,-0.0397518,-0.261448
2.94646,0.0671314,-0.285291
3.04829,-0.152649,-0.349039
3.00686,-0.152469,-0.455598
2.94372,-0.0411979,-0.474505
2.89217,0.0646319,-0.495375
2.90969,-0.0426518,-0.578782
2.85441,0.0639376,-0.597611
2.83202,0.0626943,-0.704489
3.04828,0.0545184,0.0379414
3.01469,0.0527598,-0.0714246
3.1276,-0.17269,-0.128492
3.04156,-0.0578899,-0.153788
2.98212,0.0520337,-0.179914
3.01502,-0.0584374,-0.262663
2.95677,0.0492167,-0.286255
3.0592,-0.17202,-0.350402
3.00982,-0.17114,-0.456196
2.95131,-0.0594184,-0.475778
2.90434,0.0470764,-0.4974
2.92114,-0.0607492,-0.581123
2.83041,0.0452851,-0.704006
3.13532,-0.0755818,0.0695828
3.06155,0.0359662,0.0381031
3.02096,0.0343292,-0.0715667
3.13546,-0.192429,-0.128861
3.05413,-0.0768782,-0.154444
2.98838,0.0338024,-0.180276
3.02655,-0.0772411,-0.263704
2.96299,0.0311361,-0.286833
3.06602,-0.191282,-0.351311
2.9647,-0.0778891,-0.478006
2.90654,0.0292747,-0.497738
3.06971,0.0172251,0.0382027
3.02811,0.0158289,-0.0717325
3.06259,-0.0958979,-0.154898
3.03598,-0.0961255,-0.264572
2.97208,0.0129942,-0.2877
2.977,-0.0964945,-0.480074
2.91751,0.0114826,-0.499594
3.10729,-0.000383017,0.151863
3.08476,-0.00161854,0.0383894
3.04115,-0.00276337,-0.0720403
3.0799,-0.115361,-0.155807
3.00653,-0.00288935,-0.18136
3.05425,-0.115467,-0.26622
2.97907,-0.00525471,-0.288374
2.9606,-0.00599722,-0.396187
2.9872,-0.115178,-0.481825
2.92246,-0.00643001,-0.500438
3.05507,-0.021522,-0.0723719
3.09311,-0.134865,-0.156514
3.01544,-0.0214008,-0.181901
3.06144,-0.134555,-0.266914
2.9959,-0.0236675,-0.290012
2.96447,-0.0241954,-0.396717
2.99334,-0.133813,-0.482939
2.93912,-0.0245014,-0.503307
3.10551,-0.0397419,0.0386507
3.06188,-0.0403594,-0.0725377
3.1726,-0.273002,-0.130623
3.10619,-0.154537,-0.157221
3.03522,-0.040167,-0.183106
3.07648,-0.154135,-0.268303
3.00167,-0.0421334,-0.29059
2.97121,-0.0424838,-0.397646
2.94778,-0.0426634,-0.504826
3.06857,-0.0592811,-0.0727035
3.04589,-0.0590026,-0.183768
3.00633,-0.0606509,-0.291072
3.03784,-0.172222,-0.377157
2.97783,-0.0608557,-0.398574
2.94943,-0.0607905,-0.505164
3.12578,-0.0783746,0.038912
3.1607,-0.194497,-0.0450473
3.07914,-0.0783883,-0.0729639
3.04946,-0.0777926,-0.184009
3.01983,-0.0794628,-0.292421
3.0496,-0.191667,-0.378756
2.99226,-0.0795212,-0.400564
2.95393,-0.0790185,-0.506008
3.09659,-0.0978483,-0.0733902
3.05192,-0.096597,-0.18419
3.02625,-0.0982167,-0.293095
3.06619,-0.211606,-0.38097
3.00162,-0.098204,-0.40189
2.97211,-0.0977577,-0.509215
3.07122,-0.116075,-0.185394
3.0435,-0.117475,-0.29483
3.0678,-0.230639,-0.381339
3.00889,-0.116928,-0.402951
2.98426,-0.116492,-0.511409
3.08341,-0.135487,-0.186177
3.05565,-0.136725,-0.296082
3.02396,-0.136101,-0.405073
2.97955,-0.134623,-0.510734
3.0915,-0.154854,-0.186718
3.18121,-0.295623,-0.161512
3.10444,-0.174605,-0.187561
3.07659,-0.175516,-0.298298
3.17636,-0.314842,-0.161361
3.05358,-0.193811,-0.40945
3.05728,-0.212888,-0.410114
3.06481,-0.232317,-0.411307
