2.10312,0.315816,-0.0742661
2.11291,0.287555,-0.124185
2.10999,0.279285,-0.123952
2.11491,0.272428,-0.124185
2.12718,0.266841,-0.0249585
2.12373,0.266407,-0.12465
2.12469,0.258621,-0.12465
2.12109,0.250673,-0.0248654
2.13748,0.252609,-0.125348
2.12986,0.24455,-0.0249585
2.14227,0.245975,-0.12558
2.1307,0.237114,-0.0249585
2.14312,0.238496,-0.12558
2.13152,0.229675,-0.0249585
2.14791,0.231441,-0.125813
2.14424,0.223477,-0.0250982
2.15887,0.225002,-0.202618
2.15267,0.224356,-0.126045
2.0964,0.322668,-0.111162
2.16139,0.217641,-0.126511
2.14575,0.208502,-0.0250982
2.15246,0.209154,-0.201875
2.15816,0.209708,-0.126278
2.0986,0.308024,-0.111162
2.15443,0.201757,-0.0251913
2.16111,0.202383,-0.202618
2.15443,0.201757,0.0251913
2.16286,0.202547,-0.126511
2.10362,0.301263,-0.111371
2.15505,0.194987,-0.0251913
2.15777,0.195233,-0.202246
2.15903,0.195348,0.0252379
2.16746,0.19611,-0.126743
2.1006,0.294099,-0.111162
2.16767,0.188504,-0.025331
2.1624,0.188045,-0.202618
2.1597,0.187811,0.0252379
2.17609,0.189235,-0.127208
2.10557,0.287305,-0.111371
2.16835,0.180558,-0.025331
2.16705,0.180449,-0.20299
2.17233,0.18089,0.0253776
2.18074,0.18159,-0.127441
2.11057,0.280112,-0.11158
2.16498,0.172669,-0.0252844
2.17163,0.1732,-0.203362
2.17295,0.173305,0.0253776
2.1155,0.273254,-0.11179
2.11448,0.265621,-0.062021
2.17753,0.166023,-0.0254241
2.18017,0.166223,-0.204105
2.18152,0.166327,0.0254707
2.18196,0.16636,-0.127441
2.12437,0.266863,-0.112208
2.18605,0.159383,-0.0255173
2.13209,0.260655,-0.012484
2.18071,0.158993,-0.204105
2.19004,0.159674,0.0255638
2.19046,0.159705,-0.127906
2.13317,0.260787,-0.112627
2.19457,0.152305,-0.0256104
2.18919,0.151932,-0.204849
2.19058,0.152029,0.0255638
2.19101,0.152058,-0.127906
2.1301,0.252869,-0.112418
2.18314,0.143474,-0.0254707
2.19371,0.144169,-0.205221
2.18713,0.143737,0.0255173
2.13478,0.245494,-0.175422
2.19952,0.144551,-0.128371
2.13895,0.245973,-0.112836
2.19558,0.136981,-0.0256104
2.14663,0.239645,-0.0125537
2.20213,0.137389,-0.205964
2.19159,0.136732,0.0255638
2.14351,0.239297,-0.176073
2.19999,0.137256,-0.128371
2.14372,0.239321,-0.113046
2.20004,0.12955,-0.0256569
2.13552,0.230861,-0.012484
2.20259,0.129701,-0.205964
2.20403,0.129786,0.0257035
2.1483,0.232241,-0.176398
2.20444,0.129809,-0.128604
2.14852,0.232265,-0.113255
2.2005,0.121486,-0.0256569
2.14431,0.223863,-0.0125305
2.20849,0.121927,0.0257501
2.14517,0.223952,-0.176073
2.21287,0.12217,-0.129069
2.15333,0.224804,-0.113464
2.21285,0.115196,-0.0257966
2.145,0.217125,-0.0125305
2.21138,0.115119,-0.206708
2.20886,0.114988,0.0257501
2.15776,0.218416,-0.177049
2.21325,0.115217,-0.129069
2.15402,0.218038,-0.113464
2.14488,0.209551,-0.0627192
2.20925,0.107277,-0.0257501
2.15371,0.210414,-0.012577
2.21972,0.107786,-0.207451
2.20525,0.107083,0.0257035
2.15851,0.210883,-0.177049
2.21364,0.107491,-0.129069
2.09905,0.309212,-0.0988321
2.15875,0.210906,-0.113674
2.2176,0.0999246,-0.0258432
2.15841,0.20327,-0.0126002
2.21611,0.0998573,-0.207079
2.2176,0.0999246,0.0258432
2.15923,0.203347,-0.177049
2.15812,0.203242,0.0378368
2.22597,0.100302,-0.129766
2.10011,0.301882,-0.0988321
2.16742,0.204118,-0.114092
2.15432,0.194542,-0.0629519
2.21397,0.0912447,-0.0257966
2.15918,0.194981,-0.0126002
2.22841,0.0918399,-0.208195
2.21797,0.0914094,0.0258432
2.16794,0.195772,-0.1777
2.16685,0.195674,0.0379764
2.21835,0.0914254,-0.129301
2.10521,0.29437,-0.0990182
2.17217,0.196154,-0.114302
2.21827,0.0836672,-0.0258432
2.16383,0.187789,-0.0126235
2.22474,0.0839111,-0.207823
2.23026,0.0841194,0.0259829
2.16861,0.188204,-0.1777
2.22265,0.0838323,-0.129534
2.17682,0.188916,-0.114511
2.22252,0.0768354,-0.0258898
2.16441,0.18099,-0.0126235
2.23693,0.0773336,-0.208938
2.22252,0.0768354,0.0258898
2.17713,0.182054,-0.178351
2.23488,0.0772625,-0.130231
2.16663,0.181176,0.0885791
2.18138,0.182409,-0.11472
2.22677,0.0692016,-0.0259363
2.17699,0.174392,-0.0126932
2.24117,0.069649,-0.20931
2.23477,0.0694501,0.0260295
2.17378,0.174135,-0.178025
2.23912,0.0695854,-0.130464
2.11601,0.274071,-0.0993905
2.18599,0.175113,-0.11493
2.12566,0.275322,-0.0498762
2.23502,0.0608681,-0.0260295
2.18163,0.166335,-0.0127165
2.2454,0.0611509,-0.209682
2.23502,0.0608681,0.0260295
2.11418,0.265584,-0.149
2.18238,0.166393,-0.178676
2.18931,0.166921,0.0383255
2.24337,0.0610954,-0.130697
2.12101,0.266442,-0.0995766
2.18664,0.166717,-0.11493
2.12274,0.266659,-0.0497831
2.18214,0.159481,-0.0127165
2.25753,0.0543846,-0.210797
2.2432,0.0540394,0.0261226
2.11897,0.259426,-0.149279
2.18687,0.159827,-0.179002
2.24754,0.054144,-0.130929
2.18436,0.159643,0.0892304
2.12581,0.260263,-0.0997627
2.19114,0.160139,-0.115139
2.1315,0.260961,-0.0499692
2.24338,0.0458168,-0.0261226
2.18903,0.15192,-0.279305
2.18271,0.151482,-0.0127165
2.26169,0.0461908,-0.211169
2.24738,0.0458984,0.0261692
2.12783,0.252598,-0.149837
2.1954,0.152362,-0.179653
2.25171,0.045987,-0.131162
2.17695,0.151082,0.0889047
2.12278,0.251998,-0.0995766
2.1957,0.152383,-0.115348
2.1245,0.252203,-0.0497831
2.19351,0.144539,-0.27981
2.18323,0.143862,-0.0127165
2.25388,0.0381613,-0.210425
2.25152,0.0381215,0.0262157
2.1999,0.14496,-0.179978
2.25585,0.0381948,-0.131394
2.18146,0.143745,0.0890675
2.19622,0.144718,-0.115348
2.13332,0.245701,-0.0499692
2.19397,0.137265,-0.27981
2.19966,0.137621,-0.0128095
2.26594,0.0308501,-0.211541
2.25164,0.0306554,0.0262157
2.25996,0.0307687,-0.131627
2.19788,0.137509,0.0897188
2.13636,0.238876,-0.100135
2.20067,0.137684,-0.115558
2.14604,0.239959,-0.0502484
2.13949,0.231668,0
2.1984,0.129839,-0.280315
2.20812,0.130413,-0.012856
2.27001,0.02298,-0.211912
2.25973,0.0228759,0.0263088
2.13428,0.231104,-0.150116
2.20083,0.129983,-0.179978
2.20382,0.130159,0.0385349
2.26804,0.02296,-0.132092
2.19834,0.129836,0.0897188
2.13718,0.231417,-0.100135
2.20911,0.130472,-0.115976
2.14687,0.232466,-0.0502484
2.13635,0.223409,0
2.2598,0.0145939,-0.0263088
2.20282,0.122001,-0.280821
2.20458,0.122098,-0.0128327
2.27805,0.0147118,-0.212656
2.2638,0.0146198,0.0263554
2.20925,0.122357,-0.180629
2.20828,0.122303,0.0386047
2.26811,0.0146476,-0.132092
2.20678,0.12222,0.0900445
2.14198,0.223998,-0.100321
2.20958,0.122375,-0.115976
2.14373,0.224181,-0.0501553
2.145,0.217504,0
2.20716,0.115287,-0.281326
2.20895,0.115381,-0.012856
2.2741,0.00754225,-0.212284
2.26383,0.0075082,0.0263554
2.14375,0.217377,-0.150674
2.21361,0.115624,-0.180955
2.26814,0.00752249,-0.132092
2.20317,0.115078,0.0898817
2.14268,0.217268,-0.100321
2.21394,0.115641,-0.116186
2.1484,0.217849,-0.0502484
2.27985,-0.000795361,-0.0265417
2.21549,0.107581,-0.282336
2.20936,0.107283,-0.012856
2.28606,-0.000797529,-0.2134
2.26785,-0.000791174,0.026402
2.218,0.107703,-0.18128
2.22104,0.10785,0.0388142
2.28413,-0.000796855,-0.133022
2.20757,0.107196,0.0900445
2.14744,0.209802,-0.100507
2.21435,0.107525,-0.116186
2.09563,0.308708,-0.0862994
2.15316,0.210361,-0.0503414
2.15048,0.202524,0
2.27183,-0.00872233,-0.0264485
2.21982,0.100026,-0.282841
2.20972,0.0995708,-0.012856
2.29401,-0.00880749,-0.214143
2.27583,-0.00873769,0.0264951
2.15319,0.202779,-0.151232
2.21438,0.0997807,-0.180955
2.2254,0.100277,0.038884
2.2921,-0.00880015,-0.133487
2.21192,0.0996699,0.0902073
2.15213,0.202679,-0.100693
2.22269,0.100155,-0.116605
2.09274,0.300823,-0.0861366
2.16583,0.203969,-0.0506206
2.15911,0.196115,0
2.27579,-0.0162852,-0.0264951
2.23002,0.093076,-0.0129722
2.29397,-0.0164153,-0.214143
2.28379,-0.0163424,0.0265882
2.15783,0.195998,-0.151511
2.22665,0.0929352,-0.181931
2.29605,-0.0164302,-0.13372
2.22022,0.092667,0.090533
2.15677,0.195902,-0.100879
2.23099,0.0931165,-0.117023
2.17048,0.197147,-0.0507136
2.1558,0.188228,0
2.28772,-0.0243574,-0.0266348
2.22441,0.0850642,-0.283346
2.23033,0.0852906,-0.0129722
2.29788,-0.0244656,-0.214515
2.28372,-0.0243148,0.0265882
2.23094,0.0853139,-0.182256
2.23003,0.085279,0.0389538
2.10405,0.287844,-0.136102
2.29598,-0.0244454,-0.13372
2.22453,0.0850686,0.0906958
2.1654,0.189067,-0.101252
2.2353,0.0854804,-0.117233
2.21899,0.0848569,0.18128
2.16445,0.180993,0
2.29161,-0.0327989,-0.0266814
2.23264,0.0771855,-0.284356
2.23863,0.0773923,-0.0130187
2.30176,-0.0329441,-0.214887
2.28761,-0.0327416,0.0266348
2.16713,0.181217,-0.152069
2.23522,0.0772748,-0.182582
2.23832,0.0773818,0.0390934
2.10509,0.280131,-0.136102
2.30785,-0.0330314,-0.134417
2.23281,0.0771914,0.0910215
2.16608,0.18113,-0.101252
2.23959,0.0774256,-0.117442
2.21929,0.0767238,0.18128
2.10766,0.280473,-0.0866251
2.1798,0.182277,-0.0508998
2.30349,-0.0406101,-0.0268211
2.23289,0.0697807,-0.284356
2.24287,0.0700927,-0.0130419
2.30562,-0.0406477,-0.215258
2.29149,-0.0403986,0.0266814
2.16772,0.174029,-0.152069
2.24344,0.0701105,-0.183233
2.23857,0.0699582,0.0390934
2.10996,0.273661,-0.136357
2.29975,-0.0405442,-0.133952
2.22507,0.0695364,0.0906958
2.16667,0.173945,-0.101252
2.23983,0.0699978,-0.117442
2.22351,0.0694879,0.181606
2.11254,0.273996,-0.0867879
2.29933,-0.0485645,-0.0267745
2.23708,0.0620977,-0.284861
2.2471,0.0623757,-0.0130652
2.18093,0.167432,-0.235614
2.30944,-0.048778,-0.21563
2.17229,0.166768,-0.152348
2.24765,0.0623912,-0.183558
2.24279,0.0622563,0.0391632
2.31556,-0.0489072,-0.134883
2.23728,0.0621033,0.0911843
2.17125,0.166688,-0.101438
2.24006,0.0621804,-0.117442
2.22773,0.0618381,0.181931
2.11348,0.266621,-0.0867879
2.12382,0.260019,-0.0373482
2.1742,0.1589,0
2.24126,0.0539919,-0.285366
2.25531,0.0543303,-0.0131117
2.18153,0.159435,-0.235614
2.31721,-0.0574413,-0.216374
2.30314,-0.0570924,0.0268211
2.17686,0.159094,-0.152627
2.25584,0.0543431,-0.184209
2.24301,0.054034,0.0391632
2.31936,-0.0574945,-0.135115
2.24149,0.0539974,0.0913472
2.1838,0.159601,-0.101996
2.24427,0.0540643,-0.117651
2.19355,0.160314,-0.0511789
2.24657,0.0462754,-0.0653955
2.18272,0.151866,0
2.31892,-0.0655822,-0.0270073
2.25148,0.0463766,-0.0130884
2.32496,-0.0657531,-0.217117
2.26,0.0465521,-0.184535
2.25118,0.0463703,0.0393028
2.12465,0.252598,-0.137125
2.31914,-0.0655886,-0.135115
2.24566,0.0462567,0.09151
2.18435,0.151979,-0.101996
2.25642,0.0464784,-0.118279
2.24007,0.0461415,0.182907
2.12724,0.252906,-0.0872764
2.19011,0.15238,-0.0510859
2.12554,0.245557,-0.0373482
2.18721,0.144891,0
2.31869,-0.0732723,-0.0270073
2.25745,0.0390101,-0.287386
2.25563,0.0389787,-0.0131117
2.32473,-0.0734633,-0.217117
2.19858,0.145645,0.051272
2.31469,-0.073146,0.0269608
2.26413,0.0391256,-0.18486
2.25532,0.0389734,0.0393726
2.12547,0.24555,-0.137125
2.33488,-0.073784,-0.136045
2.25379,0.038947,0.0918356
2.18484,0.144734,-0.101996
2.26056,0.0390639,-0.118489
2.2442,0.0387812,0.183233
2.13204,0.246309,-0.0874392
2.20257,0.145909,-0.051365
2.13036,0.238581,-0.037418
2.1877,0.137255,0
2.32241,-0.0815065,-0.0270539
2.26154,0.0311841,-0.287892
2.26375,0.0312145,-0.0131582
2.19099,0.137461,-0.23647
2.32844,-0.0817179,-0.217489
2.27222,0.0313314,-0.185511
2.25944,0.0311552,0.0394424
2.33061,-0.0817943,-0.135813
2.19595,0.137773,0.128138
2.25392,0.031079,0.0918356
2.18932,0.137356,-0.102182
2.26068,0.0311723,-0.118489
2.24831,0.0310016,0.183558
2.13289,0.238864,-0.0874392
2.20706,0.13847,-0.0514581
2.13511,0.231948,-0.0374878
2.26559,0.0237264,-0.288397
2.26784,0.0237498,-0.0131814
2.19938,0.130667,-0.237327
2.34009,-0.0898971,-0.218604
2.20751,0.13115,0.0514581
2.26833,0.023755,-0.185186
2.26753,0.0237466,0.0395821
2.139,0.23237,-0.137892
2.33831,-0.0898286,-0.136278
2.20437,0.130964,0.128604
2.258,0.0236469,0.0919985
2.19774,0.13057,-0.102555
2.26477,0.0237177,-0.118698
2.13367,0.231791,-0.0874392
2.13988,0.224912,-0.0375576
2.3258,-0.0974792,-0.0271004
2.26566,0.0158183,-0.288397
2.26791,0.0158339,-0.0131814
2.20776,0.123434,-0.238184
2.33976,-0.0980645,-0.218604
2.3298,-0.0976467,0.027147
2.19919,0.122954,-0.154022
2.27239,0.0158652,-0.185511
2.2676,0.0158318,0.0395821
2.34995,-0.0984914,-0.136976
2.2088,0.123492,0.128836
2.26606,0.0158211,0.0923241
2.19818,0.122898,-0.102555
2.27283,0.0158683,-0.119117
2.13844,0.224759,-0.0876021
2.26303,0.0078996,-0.065861
2.33344,-0.105961,-0.0271936
2.27364,0.00793665,-0.289407
2.14493,0.217874,0.0125305
2.26795,0.00791677,-0.0131814
2.34737,-0.106593,-0.219348
2.20359,0.115485,-0.154301
2.2804,0.00796024,-0.186162
2.27564,0.00794362,0.0397217
2.14454,0.217835,-0.138148
2.34959,-0.106694,-0.136976
2.2701,0.0079243,0.0924869
2.21456,0.11606,-0.103299
2.28086,0.00796183,-0.119535
2.14716,0.218101,-0.0879277
2.21236,0.115945,-0.0515511
2.14538,0.210356,-0.0376274
2.20536,0.10786,0
2.34104,-0.114497,-0.0272867
2.28159,-4.97226e-07,-0.290417
2.14965,0.210775,0.0125537
2.27596,-4.95999e-07,-0.0132279
2.343,-0.114592,-0.218976
2.22074,0.108612,0.0517372
2.33705,-0.114301,0.0272401
2.29237,-4.99576e-07,-0.187138
2.27965,-4.96804e-07,0.0397915
2.14926,0.210737,-0.138404
2.34921,-0.114896,-0.136976
2.2136,0.108263,0.129069
2.26612,-4.93854e-07,0.0923241
2.20697,0.107938,-0.102927
2.15189,0.210994,-0.0880906
2.22474,0.108807,-0.0518303
2.34063,-0.122667,-0.0272867
2.28951,-0.00799196,-0.291427
2.15436,0.203647,0.012577
2.27595,-0.0079446,-0.0132279
2.21688,0.100668,-0.239041
2.35054,-0.123187,-0.21972
2.2251,0.101041,0.0518303
2.29635,-0.00801581,-0.187464
2.28764,-0.00798541,0.0399311
2.16191,0.20436,-0.139172
2.35677,-0.123513,-0.137441
2.21396,0.100535,0.129069
2.2701,-0.0079242,0.0924869
2.21132,0.100415,-0.103113
2.28884,-0.00798962,-0.119954
2.15659,0.203858,-0.0882534
2.2291,0.101223,-0.0519233
2.16277,0.196447,-0.0379066
2.34815,-0.131693,-0.0273798
2.28947,-0.0163829,-0.291427
2.15908,0.196112,0.0126002
2.2799,-0.0163144,-0.0132512
2.22121,0.0927082,-0.239469
2.35405,-0.132023,-0.220092
2.22546,0.0928858,0.0518303
2.34815,-0.131693,0.0273798
2.21665,0.0925182,-0.155138
2.30029,-0.0164603,-0.187789
2.29159,-0.0163981,0.0400009
2.16264,0.196436,-0.139172
2.36029,-0.132373,-0.137673
2.22629,0.0929203,0.129766
2.28205,-0.0163298,0.0929754
2.21966,0.0926437,-0.103485
2.29279,-0.0164067,-0.120163
2.15334,0.195591,-0.0880906
2.23345,0.0932193,-0.0520164
2.35566,-0.140365,-0.027473
2.29337,-0.0244174,-0.291932
2.15576,0.188225,0.012577
2.29183,-0.024401,-0.0133209
2.22549,0.0851056,-0.239897
2.3655,-0.140951,-0.221207
2.23376,0.0854219,0.0520164
2.35167,-0.140127,0.0274264
2.22095,0.084932,-0.155417
2.3042,-0.0245328,-0.188115
2.16285,0.188845,0.0631846
2.28752,-0.0243552,0.0399311
2.15934,0.188538,-0.138916
2.3638,-0.140849,-0.137906
2.2266,0.0851479,0.129766
2.27798,-0.0242536,0.0928126
2.22396,0.0850471,-0.103671
2.30071,-0.0244956,-0.120582
2.16197,0.188768,-0.0884162
2.23376,0.0854219,-0.0520164
2.28681,-0.0319316,-0.0665591
2.22265,0.0776168,0
2.36716,-0.148929,-0.0276127
2.29327,-0.0320219,-0.291932
2.16435,0.181746,0.0126235
2.29174,-0.0320004,-0.0133209
2.36105,-0.148544,-0.220835
2.23803,0.078154,0.0521094
2.22919,0.0778455,-0.155975
2.3081,-0.0322289,-0.18844
2.16347,0.181672,0.0631846
2.29543,-0.0320519,0.0400707
2.16791,0.182045,-0.139427
2.3673,-0.148938,-0.138138
2.22687,0.0777643,0.129766
2.28588,-0.0319187,0.0931383
2.23222,0.0779511,-0.104044
2.30461,-0.0321802,-0.120791
2.16657,0.181932,-0.0885791
2.23803,0.078154,-0.0521094
2.16467,0.174165,-0.0379066
2.37062,-0.157456,-0.0276592
2.30902,-0.0403043,-0.293952
2.17294,0.17483,0.01267
2.29561,-0.0400703,-0.0133442
2.36449,-0.157049,-0.221207
2.24229,0.0704664,0.0522025
2.36263,-0.156926,0.0275661
2.23344,0.0701884,-0.156255
2.18003,0.175401,0.0636501
2.3033,-0.0402045,0.0402103
2.17649,0.175116,-0.139939
2.37473,-0.15773,-0.138603
2.23112,0.0701154,0.129999
2.28975,-0.039968,0.0933011
2.23248,0.0701581,-0.104044
2.17118,0.174688,-0.0887419
2.24229,0.0704664,-0.0522025
2.16926,0.166915,-0.0379764
2.23113,0.0623213,0
2.37005,-0.16573,-0.0276592
2.30489,-0.0482804,-0.293447
2.17354,0.167245,0.01267
2.30346,-0.0482503,-0.0133907
2.23817,0.0625181,-0.241183
2.24652,0.0627511,0.0522955
2.36606,-0.165451,0.0276127
2.18461,0.168097,0.0637664
2.30714,-0.0483275,0.0402802
2.17709,0.167518,-0.139939
2.38214,-0.166575,-0.139069
2.23135,0.0623274,0.129999
2.2367,0.0624769,-0.10423
2.31631,-0.0485196,-0.121419
2.17974,0.167722,-0.0890675
2.24652,0.0627511,-0.0522955
2.1778,0.159928,-0.0381161
2.23533,0.0546304,0
2.37744,-0.174588,-0.0277523
2.32058,-0.0567137,-0.295468
2.18608,0.160535,0.0127397
2.31127,-0.0564862,-0.0134371
2.25031,0.0549963,-0.242468
2.37922,-0.174719,-0.222694
2.25072,0.0550064,0.0523886
2.37345,-0.174295,0.0277058
2.23787,0.0546923,-0.156534
2.31959,-0.0566895,-0.189416
2.1812,0.160177,0.0636501
2.31895,-0.056674,0.0404896
2.17766,0.159917,-0.139939
2.38552,-0.175182,-0.139301
2.23954,0.0547331,0.130464
2.3014,-0.0562451,0.0937896
2.24889,0.0549617,-0.104788
2.32412,-0.0568002,-0.121838
2.18032,0.160112,-0.0890675
2.25072,0.0550064,-0.0523886
2.18234,0.152604,-0.0381859
2.30612,-0.0644159,-0.067141
2.3164,-0.0647029,-0.294963
2.18662,0.152904,0.0127397
2.32705,-0.0650005,-0.0135301
2.25446,0.0472242,-0.242896
2.38257,-0.183329,-0.223066
2.2509,0.0471496,0.0523886
2.3808,-0.183193,0.0277989
2.24203,0.0469639,-0.156813
2.33133,-0.06512,-0.190393
2.18175,0.152563,0.0636501
2.31474,-0.0646567,0.0404198
2.38888,-0.183814,-0.139534
2.2477,0.0470826,0.130929
2.30519,-0.0643897,0.0939524
2.25706,0.0472786,-0.10516
2.3279,-0.065024,-0.122047
2.18884,0.153058,-0.0893932
2.2509,0.0471496,-0.0523886
2.18685,0.14525,-0.0382557
2.38015,-0.191502,-0.0277989
2.32013,-0.0729129,-0.295468
2.19513,0.1458,0.0127862
2.31882,-0.0728717,-0.0134836
2.25859,0.0394238,-0.243325
2.38985,-0.192283,-0.223809
2.25505,0.039362,0.0524816
2.39211,-0.192464,0.0279386
2.25415,0.0393464,-0.15765
2.33508,-0.0733827,-0.190718
2.19423,0.145741,0.0639992
2.3265,-0.0731131,0.0406292
2.3922,-0.192472,-0.139766
2.23986,0.039097,0.130464
2.30894,-0.0725615,0.0941152
2.25721,0.0393997,-0.10516
2.33165,-0.073275,-0.122257
2.18936,0.145417,-0.0893932
2.25505,0.039362,-0.0524816
2.25178,0.0314428,0
2.39142,-0.200813,-0.0279386
2.33175,-0.0814266,-0.296983
2.19961,0.138388,0.0128095
2.32654,-0.0812447,-0.0135301
2.25871,0.0315396,-0.243325
2.39314,-0.200957,-0.224181
2.25917,0.031546,0.0525747
2.39142,-0.200813,0.0279386
2.33481,-0.0815332,-0.190718
2.19872,0.138332,0.0641155
2.33022,-0.0813732,0.040699
2.19116,0.137856,-0.140707
2.38754,-0.200487,-0.139534
2.24797,0.0313896,0.130929
2.31267,-0.0807602,0.0942781
2.26133,0.0315761,-0.105346
2.33936,-0.0816923,-0.122675
2.19384,0.138025,-0.089556
2.25517,0.0314902,-0.0524816
2.19579,0.130454,-0.0383953
2.33206,-0.0895888,-0.466759
2.25588,0.0236244,0
2.39867,-0.209857,-0.0280317
2.33939,-0.0898701,-0.297993
2.20807,0.131183,0.012856
2.33824,-0.089826,-0.0135999
2.26279,0.0236967,-0.243753
2.40036,-0.210004,-0.224925
2.25926,0.0236598,0.0525747
2.39071,-0.20916,0.0279386
2.25836,0.0236504,-0.157929
2.33849,-0.0898357,-0.191044
2.20318,0.130893,0.0642319
2.1996,0.13068,-0.141218
2.39876,-0.209864,-0.140231
2.25605,0.0236262,0.131394
2.32036,-0.0891393,0.0946037
2.26142,0.0236824,-0.105346
2.33906,-0.0898577,-0.122675
2.25097,0.023573,0.2764
2.1983,0.130603,-0.0897188
2.26726,0.0237436,-0.0527608
2.20023,0.123012,-0.0384651
2.32497,-0.0974453,-0.0677228
2.34699,-0.0983679,-0.299003
2.21251,0.123698,0.0128792
2.3419,-0.0981549,-0.0136231
2.27081,0.0158535,-0.24461
2.40754,-0.219103,-0.225668
2.27133,0.0158571,0.0528539
2.39793,-0.218228,0.0280317
2.26641,0.0158228,-0.158487
2.34215,-0.098165,-0.191369
2.20362,0.123202,0.0642319
2.34159,-0.0981416,0.0409084
2.20403,0.123224,-0.141474
2.39801,-0.218236,-0.140231
2.26411,0.0158067,0.131859
2.26549,0.0158163,-0.105533
2.34672,-0.0983566,-0.123094
2.25104,0.0157155,0.2764
2.20273,0.123152,-0.0898817
2.27133,0.0158571,-0.0528539
2.2006,0.116099,-0.0384651
2.26798,0.00870848,0
2.40519,-0.226511,-0.0281249
2.34667,-0.105741,-0.299003
2.21289,0.116747,0.0128792
2.34958,-0.105872,-0.0136696
2.27085,0.00871947,-0.24461
2.41081,-0.227039,-0.22604
2.27937,0.00875218,0.05304
2.40918,-0.226886,0.0281714
2.27443,0.00873323,-0.159045
2.34581,-0.105702,-0.191695
2.21199,0.1167,0.0644646
2.34526,-0.105677,0.0409782
2.40924,-0.226892,-0.140929
2.26814,0.00870908,0.132092
2.27751,0.00874507,-0.106091
2.35039,-0.105908,-0.123304
2.25505,0.00865881,0.276887
2.2071,0.116442,-0.0900445
2.27137,0.00872147,-0.0528539
2.33622,-0.11426,-0.0680718
2.34667,-0.114771,-0.469897
2.272,-0,0
2.41227,-0.236525,-0.028218
2.35021,-0.114944,-0.299508
2.20932,0.108054,0.012856
2.34116,-0.114502,-0.0136231
2.27484,-0,-0.245038
2.42181,-0.23746,-0.227155
2.28338,-0,0.053133
2.41227,-0.236525,0.028218
2.27445,-0,-0.159045
2.35335,-0.115098,-0.192346
2.21641,0.108401,0.064581
2.34883,-0.114877,0.0410481
2.40835,-0.236141,-0.140929
2.33128,-0.114018,0.0950922
2.28552,-0,-0.106463
2.26301,-0,0.277862
2.20753,0.107966,-0.0900445
2.27938,-0,-0.05304
2.20939,0.100328,-0.0386047
2.27999,-0.00795868,0
2.41143,-0.244944,-0.028218
2.35772,-0.123563,-0.300518
2.22167,0.100886,0.0129257
2.35273,-0.123301,-0.0136929
2.2788,-0.00795455,-0.245466
2.42096,-0.245912,-0.227155
2.27937,-0.00795653,0.05304
2.41939,-0.245752,0.0283111
2.2864,-0.00798108,-0.159882
2.35691,-0.123521,-0.192671
2.21678,0.100663,0.064581
2.35641,-0.123494,0.0411877
2.21317,0.1005,-0.141986
2.41943,-0.245757,-0.141627
2.27613,-0.00794522,0.132557
2.28551,-0.00797796,-0.106463
2.27093,-0.00792708,0.278837
2.21987,0.100804,-0.090533
2.27937,-0.00795653,-0.05304
2.21369,0.0935551,-0.0386745
2.4186,-0.253352,-0.0283111
2.36524,-0.131409,-0.301529
2.22997,0.0942433,0.0129722
2.36032,-0.131136,-0.0137394
2.28672,-0.0151663,-0.246323
2.42414,-0.253932,-0.227527
2.27933,-0.0151173,0.05304
2.4186,-0.253352,0.0283111
2.36448,-0.131367,-0.193322
2.22507,0.0940362,0.0648137
2.22146,0.0938834,-0.142497
2.41865,-0.253356,-0.141627
2.28009,-0.0151223,0.13279
2.34643,-0.130364,0.0957435
2.29346,-0.015211,-0.106835
2.36909,-0.131623,-0.12435
2.2709,-0.0150614,0.278837
2.22017,0.0938293,-0.090533
2.29133,-0.0151969,-0.0533191
2.35091,-0.138846,-0.0685373
2.27988,-0.0230798,0
2.36873,-0.139899,-0.302034
2.23428,0.0866136,0.0129954
2.35985,-0.139374,-0.0137394
2.29461,-0.0232289,-0.24718
2.43116,-0.26325,-0.228271
2.29526,-0.0232355,0.0534122
2.43361,-0.263515,0.0284974
2.29029,-0.0231852,-0.160161
2.36798,-0.139855,-0.193647
2.22139,0.0861138,0.0646974
2.22177,0.0861285,-0.142497
2.42569,-0.262657,-0.142092
2.28801,-0.0231621,0.133255
2.35394,-0.139025,0.0960692
2.2934,-0.0232166,-0.106835
2.2748,-0.0230284,0.279325
2.29926,-0.023276,-0.0535052
2.22228,0.0783804,-0.0388142
2.3544,-0.147301,-0.0686537
2.29179,-0.0312013,0
2.37218,-0.148414,-0.302539
2.23058,0.078673,0.0129722
2.37132,-0.14836,-0.0138091
2.29451,-0.0312384,-0.24718
2.44606,-0.273505,-0.229758
2.29916,-0.0313018,0.0535052
2.4287,-0.271564,0.0284508
2.29419,-0.031234,-0.16044
2.37544,-0.148617,-0.194298
2.22967,0.078641,0.0649301
2.37499,-0.14859,0.0415367
2.22605,0.0785132,-0.142753
2.43666,-0.272454,-0.142789
2.2919,-0.0312029,0.133487
2.35743,-0.147491,0.096232
2.30129,-0.0313307,-0.107208
2.28264,-0.0310769,0.2803
2.30316,-0.0313562,-0.0535983
2.29166,-0.039201,0
2.37165,-0.156693,-0.302539
2.23483,0.0710134,0.0129954
2.37478,-0.1569,-0.0138324
2.44904,-0.282498,-0.23013
2.30704,-0.039464,0.0536913
2.43966,-0.281415,0.0285905
2.30603,-0.0394467,-0.161277
2.3749,-0.156908,-0.194298
2.23393,0.0709845,0.0650464
2.43569,-0.280958,-0.142789
2.29178,-0.039203,0.133487
2.36488,-0.156246,0.0965577
2.30916,-0.0395002,-0.10758
2.29046,-0.0391804,0.281274
2.23302,0.0709557,-0.0910215
2.30704,-0.039464,-0.0536913
2.3035,-0.0478493,0
2.37502,-0.165661,-0.303044
2.24308,0.0630466,0.0130419
2.38217,-0.16616,-0.0138789
2.30218,-0.0478219,-0.248037
2.44404,-0.291001,-0.229758
2.30688,-0.0479194,0.0536913
2.44655,-0.291301,0.0286836
2.30587,-0.0478985,-0.161277
2.38227,-0.166167,-0.194949
2.23817,0.0629086,0.0651628
2.38185,-0.166137,0.0416763
2.23453,0.0628064,-0.143265
2.44258,-0.290828,-0.143255
2.29561,-0.0476854,0.13372
2.36828,-0.165191,0.0967205
2.31299,-0.0480464,-0.107766
2.2903,-0.0475751,0.281274
2.35841,-0.164502,0.192997
2.24126,0.0629954,-0.0913472
2.30288,-0.0478363,-0.0535983
2.30333,-0.0554877,0
2.38633,-0.174404,-0.304559
2.24727,0.0557071,0.0130652
2.3856,-0.17435,-0.0139021
2.30599,-0.0555517,-0.248465
2.47073,-0.302492,-0.23236
2.3187,-0.0558579,0.0539705
2.4416,-0.298926,0.0286371
2.3057,-0.0555448,-0.161277
2.3817,-0.174066,-0.194949
2.23836,0.0554863,0.0651628
2.38527,-0.174326,0.0417462
2.24271,0.0555939,-0.143777
2.44556,-0.299411,-0.143487
2.30742,-0.0555862,0.134417
2.36772,-0.173043,0.0967205
2.31282,-0.0557163,-0.107766
2.39034,-0.174696,-0.125606
2.2941,-0.0552654,0.281762
2.3658,-0.172903,0.193647
2.24545,0.0556618,-0.09151
2.3147,-0.0557616,-0.0538774
2.30312,-0.0635275,0
2.39758,-0.183642,-0.306074
2.25945,0.0481178,0.0131349
2.39295,-0.183287,-0.0139486
2.30976,-0.0637104,-0.248894
2.45245,-0.308947,0.0287768
2.31347,-0.0638129,-0.161835
2.38108,-0.182378,-0.194949
2.24254,0.0477577,0.0652792
2.38864,-0.182957,0.041816
2.24688,0.0478501,-0.144032
2.45639,-0.309443,-0.144185
2.30721,-0.0636403,0.134417
2.37507,-0.181918,0.0970462
2.32459,-0.0641197,-0.108324
2.39768,-0.183649,-0.126025
2.30183,-0.0634919,0.282737
2.24563,0.0478234,-0.09151
2.32249,-0.0640616,-0.0540635
2.31488,-0.0719393,0
2.39692,-0.19201,-0.306074
2.2556,0.0401593,0.0131117
2.39628,-0.191959,-0.0139718
2.31747,-0.0720197,-0.24975
2.32121,-0.0721359,-0.162393
2.39235,-0.191644,-0.195926
2.24669,0.0400007,0.0653955
2.39197,-0.191613,0.0418858
2.25102,0.0400778,-0.144288
2.46718,-0.319555,-0.144882
2.31895,-0.0720657,0.135115
2.3784,-0.190526,0.097209
2.32436,-0.0722337,-0.108324
2.401,-0.192337,-0.126234
2.30556,-0.0716497,0.283224
2.25377,0.0401267,-0.0918356
2.32625,-0.0722924,-0.0541566
2.32261,-0.0802957,0
2.39624,-0.200375,-0.306074
2.25573,0.0322856,0.0131117
2.3956,-0.200322,-0.0139718
2.32998,-0.0805503,0.0542496
2.45816,-0.327116,0.0288699
2.32493,-0.0803758,-0.162672
2.39564,-0.200326,-0.196251
2.25481,0.0322724,0.0656282
2.39926,-0.200628,0.0420254
2.25115,0.03222,-0.144288
2.31469,-0.0800219,0.134883
2.38967,-0.199826,0.0976975
2.33208,-0.0806229,-0.108697
2.4043,-0.201049,-0.126444
2.31324,-0.0799715,0.284199
2.26189,0.0323737,-0.0921613
2.32998,-0.0805503,-0.0542496
2.3263,-0.0889608,0
2.46487,-0.337207,-0.028963
2.26383,0.0241028,0.0131582
2.39883,-0.209449,-0.0139951
2.32967,-0.0890895,0.0542496
2.32861,-0.089049,-0.162951
2.40681,-0.210145,-0.197227
2.25892,0.0240505,0.0657446
2.40249,-0.209768,0.0420952
2.26323,0.0240964,-0.145056
2.46878,-0.337742,-0.145115
2.32636,-0.0889629,0.13558
2.32777,-0.0890171,-0.108511
2.40354,-0.20986,-0.126444
2.32086,-0.0887528,0.285174
2.26599,0.0241258,-0.0923241
2.32967,-0.0890895,-0.0542496
2.32599,-0.0966746,0
2.47166,-0.34649,-0.0290561
2.40663,-0.218174,-0.307589
2.2639,0.0165956,0.0131582
2.41406,-0.218847,-0.0140881
2.33735,-0.0971466,0.0544357
2.33229,-0.0969362,-0.16323
2.41007,-0.218485,-0.197553
2.25898,0.0165595,0.0657446
2.41373,-0.218817,0.0423046
2.26729,0.0166204,-0.145312
2.47556,-0.347036,-0.14558
2.33403,-0.0970086,0.136045
2.3922,-0.216865,0.0978603
2.33545,-0.0970677,-0.108883
2.41079,-0.218551,-0.126862
2.32055,-0.0964486,0.285174
2.27405,0.01667,-0.0926498
2.33735,-0.0971466,-0.0544357
2.33363,-0.105153,0
2.41376,-0.227317,-0.3086
2.27594,0.00873905,0.0132279
2.41328,-0.227272,-0.0140881
2.34898,-0.105845,0.0547149
2.33193,-0.105077,-0.16323
2.40929,-0.226896,-0.197553
2.26702,0.00870479,0.0659773
2.27532,0.00873663,-0.145823
2.33367,-0.105155,0.136045
2.40336,-0.226338,0.0983488
2.3351,-0.105219,-0.108883
2.41399,-0.227339,-0.127072
2.2701,0.0087166,-0.0924869
2.34099,-0.105485,-0.0545288
2.33727,-0.113085,0
2.27196,0.00118959,0.0132047
2.42048,-0.23605,-0.0141346
2.33954,-0.113195,-0.163788
2.41646,-0.235659,-0.198204
2.42015,-0.236018,0.0424443
2.27134,0.00118927,-0.145567
2.40658,-0.234695,0.0985116
2.34272,-0.113348,-0.109255
2.4172,-0.235731,-0.127281
2.27411,0.00119072,-0.0926498
2.34862,-0.113634,-0.0547149
2.27164,-0.00674013,-0.0396519
2.33686,-0.121243,0
2.27595,-0.00675291,0.0132279
2.41964,-0.244498,-0.0141346
2.35619,-0.122246,0.054901
2.3471,-0.121774,-0.164346
2.41959,-0.244493,-0.198529
2.41931,-0.244465,0.0424443
2.27931,-0.00676289,-0.146079
2.34487,-0.121658,0.136743
2.41767,-0.244299,0.0990001
2.35029,-0.121939,-0.109627
2.42829,-0.245372,-0.127909
2.28609,-0.00678301,-0.0931383
2.3522,-0.122039,-0.054808
2.28391,-0.0147491,0.0132744
2.42275,-0.253359,-0.0141578
2.35974,-0.130691,0.0549941
2.35463,-0.130408,-0.164904
2.42269,-0.253352,-0.198855
2.27899,-0.0147173,0.0663264
2.4264,-0.25374,0.0425839
2.27928,-0.0147191,-0.146079
2.3524,-0.130284,0.137208
2.41283,-0.252321,0.0988373
2.34985,-0.130143,-0.109627
2.43139,-0.254262,-0.128118
2.29005,-0.0147887,-0.0933011
2.35176,-0.130249,-0.054808
2.34793,-0.138259,0
2.28785,-0.0227611,0.0132977
2.43378,-0.263104,-0.0142276
2.35416,-0.138626,-0.164904
2.43764,-0.263521,-0.200157
2.28692,-0.0227519,0.0665591
2.43743,-0.263498,0.0427933
2.29119,-0.0227943,-0.146847
2.35592,-0.13873,0.137441
2.42386,-0.262031,0.0993258
2.35736,-0.138814,-0.11
2.43048,-0.262748,-0.128118
2.30198,-0.0229017,-0.0937896
2.36327,-0.139162,-0.0550871
2.28745,-0.0307429,-0.0399311
2.28775,-0.0307471,0.0132977
2.43682,-0.272041,-0.0142508
2.35765,-0.147091,-0.165183
2.44067,-0.272471,-0.200482
2.28283,-0.0306808,0.0664428
2.43649,-0.272005,0.0427933
2.29908,-0.0308992,-0.147358
2.36738,-0.147698,0.138138
2.36483,-0.14754,-0.110372
2.44146,-0.272559,-0.128746
2.30188,-0.0309369,-0.0937896
2.36676,-0.14766,-0.0551802
2.29132,-0.0387951,-0.0400009
2.36288,-0.155699,0
2.29163,-0.0388004,0.0133209
2.43983,-0.281003,-0.0142741
2.3782,-0.156709,0.0554593
2.36907,-0.156107,-0.16602
2.44366,-0.281445,-0.200808
2.2907,-0.0387846,0.0666755
2.4395,-0.280965,0.0428631
2.29496,-0.0388567,-0.147102
2.37083,-0.156224,0.138371
2.36829,-0.156056,-0.110558
2.44446,-0.281537,-0.128956
2.30576,-0.0390395,-0.0939524
2.3782,-0.156709,-0.0554593
2.29516,-0.0472753,-0.0400707
2.36229,-0.164359,0
2.44276,-0.290416,-0.0142973
2.36848,-0.164789,-0.16602
2.45449,-0.291811,-0.201784
2.29854,-0.0473448,0.0669082
2.4464,-0.290849,0.0430027
2.30678,-0.0475145,-0.14787
2.37423,-0.165189,0.138603
2.37567,-0.16529,-0.11093
2.44738,-0.290966,-0.129165
2.30959,-0.0475725,-0.0941152
2.37362,-0.165147,-0.0553663
2.29899,-0.0549817,-0.0401405
2.2993,-0.0549891,0.0133674
2.44972,-0.299486,-0.0143438
2.38103,-0.173599,0.0555524
2.37588,-0.173223,-0.166578
2.45747,-0.300433,-0.202109
2.30237,-0.0550624,0.0670246
2.45336,-0.299931,0.0431423
2.3106,-0.0552593,-0.148126
2.37367,-0.173062,0.138603
2.3791,-0.173458,-0.111116
2.4583,-0.300535,-0.129793
2.31342,-0.0553267,-0.0942781
2.38103,-0.173599,-0.0555524
2.3031,-0.0631245,0.0133907
2.45263,-0.308534,-0.0143671
2.38839,-0.182519,0.0557385
2.46432,-0.310005,-0.20276
2.30216,-0.0630988,0.0670246
2.45626,-0.308992,0.0432122
2.31837,-0.0635431,-0.148637
2.38499,-0.182259,0.139301
2.37848,-0.181761,-0.111116
2.46516,-0.310111,-0.130212
2.3252,-0.0637302,-0.0947666
2.3844,-0.182214,-0.0556454
2.31456,-0.0711204,-0.0404198
2.31487,-0.07113,0.0134604
2.45953,-0.317691,-0.0144135
2.38657,-0.190342,-0.25789
2.39574,-0.191074,0.0559246
2.3826,-0.190025,-0.167137
2.30993,-0.0709783,0.0672573
2.46316,-0.31816,0.0433518
2.31815,-0.0712308,-0.148637
2.39234,-0.190802,0.139766
2.38981,-0.190601,-0.111675
2.46016,-0.317772,-0.130003
2.32497,-0.0714405,-0.0947666
2.38378,-0.19012,-0.0556454
2.31829,-0.0793361,-0.0404896
2.31461,-0.07921,0.0134604
2.46633,-0.327327,-0.01446
2.38986,-0.199002,-0.258318
2.39905,-0.199767,0.0560176
2.31367,-0.0791778,0.0673737
2.32985,-0.0797318,-0.149405
2.39564,-0.199483,0.139999
2.39311,-0.199273,-0.111861
2.47883,-0.328986,-0.131049
2.3327,-0.0798292,-0.0950922
2.39905,-0.199767,-0.0560176
2.32229,-0.0879958,0.0135069
2.46908,-0.336905,-0.0144833
2.41025,-0.209598,0.0562968
2.39708,-0.208453,-0.168253
2.32135,-0.0879601,0.0676064
2.32556,-0.0881195,-0.149149
2.40285,-0.208954,0.140464
2.40033,-0.208735,-0.112233
2.48948,-0.339689,-0.131677
2.33638,-0.0885297,-0.095255
2.40228,-0.208905,-0.0561107
2.32998,-0.0960258,0.0135534
2.47191,-0.345645,-0.0145065
2.40556,-0.21723,0.0562037
2.40035,-0.216759,-0.168532
2.32904,-0.0959867,0.0678391
2.33722,-0.0963239,-0.149916
2.40612,-0.21728,0.140696
2.39962,-0.216694,-0.112233
2.4923,-0.348496,-0.131887
2.34406,-0.0966061,-0.0955807
2.40954,-0.217589,-0.0562968
2.32963,-0.104158,0.0135534
2.48257,-0.355974,-0.0145763
2.41275,-0.226372,0.0563898
2.32869,-0.104116,0.0678391
2.34085,-0.10466,-0.150172
2.40534,-0.225678,0.140696
2.40681,-0.225815,-0.112605
2.48711,-0.356626,-0.131677
2.34771,-0.104966,-0.0957435
2.42071,-0.22712,-0.056576
2.33693,-0.11266,-0.0408386
2.34124,-0.112867,0.0136231
2.48527,-0.365219,-0.0145995
2.41455,-0.235047,-0.261317
2.42388,-0.235955,0.056669
2.35244,-0.113407,-0.15094
2.42044,-0.23562,0.141627
2.41396,-0.234989,-0.112978
2.49376,-0.366467,-0.132096
2.35132,-0.113353,-0.0959064
2.42388,-0.235955,-0.056669
2.34451,-0.121229,-0.0409782
2.34083,-0.121039,0.0136231
2.42163,-0.244272,-0.262174
2.42304,-0.244415,0.056669
2.41383,-0.243485,-0.169648
2.33988,-0.12099,0.0681882
2.34405,-0.121206,-0.150428
2.42505,-0.244617,-0.113536
2.50431,-0.376954,-0.132724
2.3549,-0.121766,-0.0960692
2.42702,-0.244816,-0.0567621
2.35238,-0.129871,0.0136929
2.43013,-0.253702,0.0568551
2.42487,-0.253152,-0.170485
2.34743,-0.129598,0.0684209
2.35159,-0.129827,-0.15094
2.42816,-0.253496,-0.113722
2.36244,-0.130426,-0.0963948
2.42615,-0.253287,-0.0567621
2.35159,-0.138063,-0.0411179
2.3559,-0.138316,0.0137161
2.42778,-0.262026,-0.26303
2.42923,-0.262183,0.0568551
2.42794,-0.262044,-0.170764
2.35495,-0.13826,0.0686537
2.35909,-0.138503,-0.151451
2.4352,-0.262828,-0.114094
2.36995,-0.139141,-0.0967205
2.42923,-0.262183,-0.0568551
2.35908,-0.146767,-0.0412575
2.36339,-0.147035,0.0137626
2.43625,-0.271547,0.0570412
2.43097,-0.270959,-0.171043
2.36243,-0.146976,0.0688864
2.36258,-0.146985,-0.151707
2.4303,-0.270884,-0.113908
2.37344,-0.147661,-0.0968833
2.43625,-0.271547,-0.0570412
2.36254,-0.155263,-0.0413273
2.37484,-0.156071,0.0138324
2.43926,-0.280506,0.0571343
2.43794,-0.280355,-0.171601
2.3619,-0.155221,0.0688864
2.374,-0.156016,-0.152475
2.44125,-0.280735,-0.114467
2.37291,-0.155945,-0.0968833
2.43926,-0.280506,-0.0571343
2.3663,-0.163808,0.0137859
2.45415,-0.290902,0.0575065
2.36534,-0.163741,0.0690027
2.36946,-0.164026,-0.152219
2.45612,-0.291136,-0.115211
2.37235,-0.164227,-0.0968833
2.44621,-0.289961,-0.0573204
2.36938,-0.172333,-0.0414669
2.37369,-0.172647,0.0138324
2.45312,-0.299467,0.0575065
2.45969,-0.300269,-0.173275
2.3807,-0.173157,0.0694682
2.37683,-0.172875,-0.152731
2.45113,-0.299224,-0.115025
2.38771,-0.173666,-0.0975347
2.37278,-0.180493,-0.0415367
2.45278,-0.307683,0
2.38507,-0.181428,0.0139021
2.44815,-0.307102,0.0574134
2.46264,-0.308921,-0.173554
2.3841,-0.181354,0.0695846
2.38819,-0.181665,-0.153498
2.46201,-0.308842,-0.115583
2.3911,-0.181886,-0.0976975
2.44815,-0.307102,-0.0574134
2.38407,-0.190142,-0.0417462
2.4556,-0.317184,0
2.38439,-0.190168,0.0139021
2.46545,-0.318456,-0.173833
2.39139,-0.190727,0.0698173
2.38751,-0.190417,-0.153498
2.46879,-0.318888,-0.115956
2.39839,-0.191285,-0.0980231
2.4589,-0.31761,-0.0576926
2.38339,-0.198463,-0.0417462
2.39965,-0.199818,0.0139951
2.46432,-0.32706,-0.173833
2.38673,-0.198741,0.0697009
2.3908,-0.199081,-0.153754
2.47162,-0.328029,-0.116142
2.39372,-0.199324,-0.0978603
2.46967,-0.32777,-0.0579717
2.39065,-0.207473,-0.0418858
2.39894,-0.208193,0.0139951
2.38602,-0.207071,0.0697009
2.39805,-0.208115,-0.154266
2.48234,-0.338273,-0.1167
2.39699,-0.208024,-0.0980231
2.47247,-0.336928,-0.0580648
2.39393,-0.215759,-0.0419556
2.40621,-0.216865,0.0140416
2.40125,-0.216418,0.0701664
2.4053,-0.216783,-0.154777
2.48912,-0.347608,-0.117072
2.40823,-0.217048,-0.0985116
2.47134,-0.345126,-0.0580648
2.40113,-0.224859,-0.0420952
2.48663,-0.356114,0
2.4134,-0.226009,0.0140881
2.40844,-0.225544,0.0703991
2.4085,-0.22555,-0.155033
2.48394,-0.355728,-0.116886
2.41144,-0.225825,-0.0986745
2.482,-0.355451,-0.058344
2.42056,-0.235205,0.0141346
2.40764,-0.23395,0.0703991
2.41167,-0.234342,-0.155289
2.49849,-0.366718,-0.117631
2.41462,-0.234628,-0.0988373
2.42366,-0.244477,0.0141578
2.4187,-0.243976,0.0707482
2.42271,-0.244381,-0.156056
2.50503,-0.377062,-0.118003
2.41772,-0.243877,-0.0990001
2.49521,-0.375583,-0.0587162
2.41853,-0.252064,-0.0424443
2.42284,-0.252513,0.0141578
2.42185,-0.25241,0.0708645
2.41792,-0.252,-0.155801
2.42882,-0.253136,-0.0994886
2.50185,-0.385072,-0.0589023
2.42592,-0.261397,0.0141811
2.42493,-0.261291,0.0709809
2.42496,-0.261294,-0.156312
2.43587,-0.262469,-0.0998143
2.50445,-0.394425,-0.0589953
2.43294,-0.270748,0.0142276
2.42798,-0.270196,0.0710973
2.43891,-0.271413,-0.0999771
2.507,-0.403801,-0.0590884
2.4439,-0.280608,0.0142973
2.43496,-0.279582,0.07133
2.44291,-0.280494,-0.157591
2.44589,-0.280836,-0.100303
2.4386,-0.288628,-0.0428631
2.44688,-0.289607,0.0143206
2.44191,-0.28902,0.0715627
2.44191,-0.289019,-0.157591
2.44489,-0.289372,-0.100303
2.44552,-0.298106,-0.0430027
2.44585,-0.298147,0.0143206
2.44881,-0.298507,-0.158103
2.45577,-0.299355,-0.100791
2.45274,-0.307678,0.0143671
2.45172,-0.30755,-0.158359
2.45868,-0.308423,-0.100954
2.46355,-0.317773,0.0144368
2.4625,-0.317639,-0.159126
2.46948,-0.318538,-0.101443
2.46242,-0.326371,0.0144368
2.4693,-0.327281,-0.159638
2.47231,-0.327681,-0.101605
2.4649,-0.335458,-0.0434216
2.47316,-0.336582,0.0145065
2.47605,-0.336975,-0.16015
2.47511,-0.336848,-0.101768
2.47163,-0.345166,-0.0435612
2.47197,-0.345213,0.0145065
2.4858,-0.347144,-0.102257
2.49261,-0.356082,-0.102582
2.48116,-0.363289,-0.0437706
2.49926,-0.365939,-0.102908
2.48772,-0.373569,-0.0439103
2.5058,-0.376283,-0.103234
2.49438,-0.38303,-0.0440499
2.50481,-0.394035,-0.0442593
