4.56999,0.35405,-0.0533627
4.55404,0.352815,0.0531765
4.55552,0.273041,-0.0531299
4.53555,0.271844,0.0528971
4.55644,0.257136,-0.0531299
4.54047,0.256235,0.0529437
4.57385,0.483151,0.0802811
4.55332,0.241021,-0.0530833
4.54133,0.240387,0.0529437
4.57153,0.466779,0.0802113
4.53416,0.224137,0.0528505
4.56915,0.450425,0.0801414
4.53887,0.209283,0.0528971
4.55559,0.433838,0.186439
4.54756,0.193782,-0.0529902
4.52758,0.192931,0.0527574
4.53383,0.415804,0.371673
4.54022,0.177593,-0.0528971
4.52823,0.177124,0.0527574
4.55738,0.162335,-0.265579
4.52868,0.383469,0.371022
4.56491,0.370493,-0.0266186
4.52536,0.145378,0.0527108
4.54994,0.146168,-0.265114
4.52584,0.12958,0.0527108
4.55042,0.130284,-0.265114
4.52727,0.351533,0.370697
4.51827,0.113581,0.0526177
4.54686,0.114299,-0.264881
4.52663,0.0979802,-0.0527108
4.51864,0.0978071,0.0526177
4.54723,0.098426,-0.264881
4.54091,0.320717,0.185462
4.5137,0.318795,0.369395
4.52695,0.0821819,-0.0527108
4.51895,0.0820367,0.0526177
4.53956,0.0824108,-0.264416
4.51877,0.303307,0.36972
4.55287,0.289634,-0.132769
4.52721,0.0663782,-0.0527108
4.55072,0.289498,-0.0265023
4.57371,0.516258,0.107103
4.51521,0.0662023,0.0525711
4.53583,0.0665046,-0.264184
4.51582,0.287278,0.369395
4.52742,0.0497857,-0.0527108
4.56762,0.498625,0.106917
4.51542,0.0496537,0.0525711
4.53604,0.0498805,-0.264184
4.50888,0.270248,0.368744
4.54679,0.25739,-0.132536
4.50756,0.0346171,0.052478
4.53219,0.0348063,-0.263951
4.50975,0.255294,0.368744
4.54766,0.241516,-0.132536
4.51565,0.0189149,-0.0525711
4.55217,0.0190678,-0.42494
4.56295,0.466706,0.106731
4.50366,0.0188646,0.0524314
4.53228,0.0189845,-0.263951
4.50266,0.239126,0.368093
4.54045,0.226038,-0.132304
4.51569,0.00394122,-0.0525711
4.54629,0.226328,-0.0264558
4.49969,0.00392726,0.0523849
4.53232,0.00395573,-0.263951
4.52663,0.22535,0.184648
4.56807,0.227412,-0.239699
4.54521,0.210373,-0.13242
4.56328,0.435376,0
4.51568,-0.0118205,-0.0525711
4.53906,0.210089,-0.0264093
4.50768,-0.0117996,0.052478
4.52432,-0.0118431,-0.263486
4.54761,0.433881,0.266044
4.50418,0.208474,0.368093
4.56875,0.41981,0
4.50761,-0.0275355,-0.052478
4.53977,0.194242,-0.0264093
4.54416,-0.0277587,-0.424197
4.55955,0.418964,0.106545
4.49561,-0.0274622,0.0523383
4.52425,-0.0276371,-0.263486
4.56156,0.195174,-0.23928
4.49691,0.192408,0.367442
4.53458,0.178163,-0.132071
4.56621,0.403506,0
4.51149,-0.0433094,-0.0525246
4.54042,0.178393,-0.0264093
4.54005,-0.0435836,-0.423825
4.49549,-0.0431558,0.0523383
4.53211,-0.0435074,-0.263951
4.55822,0.179092,-0.239071
4.49756,0.176709,0.367442
4.53517,0.162334,-0.132071
4.55962,0.386889,0
4.49931,-0.0588992,-0.0523849
4.53589,-0.059378,-0.423453
4.55838,0.386784,0.106452
4.49131,-0.0587945,0.0522917
4.52395,-0.0592217,-0.263486
4.51736,0.161697,0.18416
4.55483,0.163038,-0.238861
4.49416,0.160866,0.367117
4.53172,0.146375,-0.131955
4.55695,0.370647,0
4.49908,-0.0746034,-0.0523849
4.53756,0.146563,-0.0263861
4.54362,-0.075342,-0.424197
4.55173,0.370223,0.106266
4.49508,-0.0745371,0.0523383
4.52371,-0.0750119,-0.263486
4.55537,0.147139,-0.238861
4.49071,0.14505,0.366791
4.5322,0.130556,-0.131955
4.55423,0.354429,0
4.50279,-0.0903869,-0.0524314
4.53004,0.130494,-0.0263396
4.53536,-0.0910409,-0.423453
4.49479,-0.0902264,0.0523383
4.51544,-0.0906409,-0.263021
4.51438,0.130043,0.183997
4.55186,0.131122,-0.238652
4.49518,0.129489,0.367117
4.52463,0.114531,-0.131722
4.50244,-0.106105,-0.0524314
4.52248,0.114477,-0.0262931
4.53502,-0.106873,-0.423453
4.49045,-0.105823,0.0522917
4.56726,0.564836,0.133933
4.51509,-0.106403,-0.263021
4.51081,0.114181,0.183834
4.55229,0.115231,-0.238652
4.48763,0.113595,0.366466
4.5526,0.322341,0
4.49405,-0.121606,-0.0523383
4.52285,0.0986884,-0.0262931
4.52666,-0.122488,-0.42271
4.54738,0.321971,0.10608
4.48206,-0.121281,0.0521986
4.57317,0.549365,0.134049
4.5147,-0.122165,-0.263021
4.50719,0.0983467,0.183671
4.54468,0.0991648,-0.238233
4.488,0.097928,0.366466
4.52133,0.0828674,-0.131606
4.5537,0.306449,0
4.4936,-0.137291,-0.0523383
4.52716,0.0829744,-0.0263163
4.53018,-0.138409,-0.423081
4.4856,-0.137047,0.0522452
4.56315,0.53201,0.1337
4.51823,-0.138044,-0.263254
4.5075,0.082614,0.183671
4.54899,0.0833745,-0.238443
4.48433,0.0821893,0.36614
4.56444,0.307171,-0.106452
4.52159,0.0670833,-0.131606
4.55474,0.29055,0
4.49309,-0.152977,-0.0523383
4.52743,0.0671699,-0.0263163
4.52569,-0.154087,-0.42271
4.4811,-0.152569,0.0521986
4.56498,0.516078,0.1337
4.51082,0.0669235,0.0787453
4.51373,-0.15368,-0.263021
4.54526,0.0674345,-0.238233
4.47661,0.0664161,0.365489
4.56548,0.291235,-0.106452
4.5178,0.0512574,-0.131489
4.54375,0.27393,0
4.49653,-0.168807,-0.0523849
4.51563,0.0512328,-0.0262466
4.53309,-0.17018,-0.423453
4.47654,-0.168057,0.0521521
4.54459,0.0515613,-0.371022
4.56278,0.499708,0.133584
4.51102,0.0511805,0.0787453
4.50918,-0.169282,-0.262788
4.52411,0.272746,0.263951
4.50397,0.0511005,0.183508
4.54547,0.0515713,-0.238233
4.48479,0.0508829,0.36614
4.5545,0.274578,-0.106173
4.54867,0.258294,0
4.49191,-0.184339,-0.0523383
4.51978,0.0355002,-0.0262699
4.52451,-0.185677,-0.42271
4.53946,0.25777,0.105801
4.48392,-0.184011,0.0522452
4.55271,0.0357589,-0.371673
4.56052,0.483355,0.133467
4.50856,-0.185022,-0.262788
4.50013,0.0353458,0.183346
4.53763,0.0356404,-0.237815
4.47697,0.0351639,0.365489
4.55543,0.258677,-0.106173
4.54147,0.243575,0
4.49131,-0.198449,-0.0523383
4.56784,0.469626,0.0266883
4.51587,0.0212827,-0.0262466
4.52788,-0.200065,-0.423081
4.53625,0.243295,0.105708
4.47533,-0.197743,0.0521521
4.5528,0.0214568,-0.371673
4.56201,0.469026,0.133467
4.50726,0.0212422,0.0786754
4.50796,-0.199184,-0.262788
4.50022,0.021209,0.183346
4.56448,0.244809,-0.212926
4.53373,0.0213669,-0.237605
4.48104,0.0211186,0.365815
4.55222,0.244151,-0.10608
4.54629,0.22792,0
4.4826,-0.213746,-0.0522452
4.55752,0.452491,0.0266186
4.50792,0.0055083,-0.0262001
4.52317,-0.21568,-0.42271
4.47461,-0.213365,0.0521521
4.5369,0.00554372,-0.370371
4.55168,0.451913,0.133118
4.50723,-0.21492,-0.262788
4.49627,0.00549406,0.183183
4.53777,0.00554478,-0.237815
4.47312,0.00546578,0.365164
4.54905,0.228058,-0.105987
4.51008,-0.0110184,-0.131256
4.5391,0.210885,0
4.48179,-0.230173,-0.0522452
4.55914,0.435785,0.0266186
4.51191,-0.0110229,-0.0262234
4.52235,-0.232256,-0.42271
4.53388,0.210642,0.105615
4.46981,-0.229557,0.0521055
4.54088,-0.0110936,-0.370697
4.54535,0.434467,0.132886
4.5033,-0.0110018,0.0786056
4.49844,-0.231028,-0.262323
4.56213,0.211954,-0.21274
4.52977,-0.0110665,-0.237396
4.46912,-0.0109183,0.364838
4.54586,0.211199,-0.105894
4.48499,-0.245253,-0.0522917
4.49985,-0.025917,-0.0261536
4.52156,-0.247253,-0.42271
4.46902,-0.24438,0.0521055
4.53683,-0.02613,-0.370371
4.54677,0.41939,0.132886
4.50324,-0.0259365,0.0786056
4.49765,-0.245945,-0.262323
4.51215,0.194638,0.263021
4.4922,-0.0258729,0.18302
4.55482,0.196479,-0.212368
4.5337,-0.026112,-0.237605
4.46507,-0.0257167,0.364513
4.53855,0.195777,-0.105708
4.53244,0.179664,0
4.48411,-0.260909,-0.0522917
4.51173,-0.0417364,-0.0262234
4.52722,0.179457,0.105429
4.46814,-0.259979,0.0521055
4.5407,-0.0420044,-0.370697
4.5482,0.403515,0.132886
4.49912,-0.0416198,0.0785358
4.49676,-0.261645,-0.262323
4.5128,0.178886,0.263021
4.55149,0.180419,-0.212182
4.52959,-0.0419016,-0.237396
4.46496,-0.0413037,0.364513
4.53921,0.179932,-0.105708
4.52907,0.162908,0
4.47913,-0.277094,-0.0522452
4.50355,-0.0581682,-0.0261769
4.46316,-0.276106,0.0520589
4.54052,-0.0586456,-0.370697
4.54567,0.386505,0.132769
4.49894,-0.0581086,0.0785358
4.4878,-0.27763,-0.261858
4.50545,0.162058,0.262556
4.54014,0.163306,-0.211624
4.52541,-0.0584505,-0.237187
4.46477,-0.0576673,0.364513
4.54383,0.163439,-0.105801
4.50149,-0.0738572,-0.131024
4.52961,0.147098,0
4.47415,-0.292466,-0.0521986
4.54485,0.370462,0.0265023
4.49532,-0.0737559,-0.0261304
4.46617,-0.291944,0.0521055
4.52832,-0.0742975,-0.36972
4.53503,0.369662,0.13242
4.49471,-0.0737459,0.078466
4.49079,-0.293553,-0.262091
4.50599,0.146331,0.262556
4.54467,0.147587,-0.21181
4.52518,-0.0742459,-0.237187
4.45657,-0.0731202,0.363862
4.54038,0.147448,-0.105708
4.56139,0.356588,-0.0798622
4.49722,-0.0887045,-0.130907
4.52608,0.131961,0
4.47315,-0.3073,-0.0521986
4.50305,-0.0888194,-0.0261769
4.51686,0.131692,0.105149
4.45719,-0.306203,0.0520124
4.53204,-0.0893912,-0.370046
4.53623,0.354622,0.13242
4.48644,-0.0884919,0.0783264
4.49378,-0.308717,-0.262323
4.54514,0.132517,-0.21181
4.52092,-0.0891718,-0.236977
4.46029,-0.0879761,0.364187
4.52485,0.131925,-0.105336
4.56659,0.34096,-0.079932
4.53051,0.116263,0
4.47604,-0.323201,-0.0522452
4.49871,-0.104446,-0.0261536
4.51729,0.115924,0.105149
4.46008,-0.322049,0.0520589
4.5317,-0.105212,-0.370046
4.54143,0.339082,0.132536
4.49011,-0.104246,0.0783962
4.48072,-0.323539,-0.261626
4.49091,0.115247,0.261626
4.54158,0.116547,-0.211624
4.52058,-0.104953,-0.236977
4.45597,-0.103454,0.363862
4.55579,0.324165,-0.0797226
4.51889,0.100181,0
4.4709,-0.338523,-0.0521986
4.54044,0.323074,0.0264558
4.49432,-0.120043,-0.0261304
4.51367,0.100065,0.105056
4.46292,-0.337919,0.0521055
4.54778,0.100821,-0.31809
4.52333,-0.120818,-0.369395
4.48572,-0.119813,0.0783264
4.48753,-0.339782,-0.262091
4.49128,0.0995687,0.261626
4.53796,0.100604,-0.211437
4.45558,-0.119008,0.363862
4.52566,0.100331,-0.105336
4.55295,0.307196,-0.0796528
4.51923,0.0836174,0
4.46963,-0.354907,-0.0521986
4.48985,-0.136393,-0.0261071
4.51401,0.0835208,0.105056
4.45767,-0.353957,0.0520589
4.53083,-0.137638,-0.370046
4.53177,0.305767,0.132187
4.48625,-0.356227,-0.262091
4.49162,0.0831066,0.261626
4.53431,0.0838965,-0.211251
4.50773,-0.136936,-0.236349
4.4591,-0.135459,0.364187
4.518,0.0835948,-0.105149
4.55001,0.291046,-0.079583
4.48753,-0.152003,-0.130675
4.51549,0.0677819,0
4.46438,-0.370176,-0.0521521
4.53466,0.290064,0.0264093
4.49335,-0.1522,-0.0261304
4.51427,0.0677635,0.105056
4.52235,-0.153183,-0.369395
4.48896,-0.372215,-0.262323
4.49188,0.0674275,0.261626
4.53457,0.0680683,-0.211251
4.51521,-0.152941,-0.236768
4.44267,-0.150483,0.362886
4.52227,0.0678836,-0.105242
4.55494,0.276198,-0.0796528
4.51969,0.0528544,0
4.46711,-0.385323,-0.0521986
4.48882,-0.166951,-0.0261071
4.51047,0.0527465,0.104963
4.45117,-0.383948,0.0520124
4.53661,0.0530522,-0.317252
4.52182,-0.168178,-0.369395
4.52178,0.274187,0.131838
4.48022,-0.166631,0.0782566
4.4877,-0.387099,-0.262323
4.49208,0.0525315,0.261626
4.53877,0.0530774,-0.211437
4.51468,-0.167913,-0.236768
4.44214,-0.165215,0.362886
4.52247,0.0528868,-0.105242
4.5439,0.259612,-0.0794434
4.50785,0.0369789,0
4.48421,-0.182456,-0.0260839
4.50263,0.0369361,0.104777
4.45378,-0.39984,0.0520589
4.53677,0.0372162,-0.317252
4.51722,-0.1838,-0.369069
4.51871,0.258174,0.131722
4.47961,-0.182269,0.0782566
4.48026,0.0367526,0.260928
4.53493,0.0372011,-0.211251
4.44552,-0.180882,0.363211
4.54082,0.242743,-0.0793735
4.51195,0.0204747,0
4.47952,-0.198713,-0.0260606
4.50274,0.0204329,0.104777
4.53688,0.0205878,-0.317252
4.5205,-0.200531,-0.369395
4.51963,0.24161,0.131722
4.47492,-0.198509,0.0781868
4.48036,0.0203314,0.260928
4.53104,0.0205614,-0.211065
4.50937,-0.200038,-0.236559
4.51073,0.0204692,-0.104963
4.54156,0.228476,-0.0793735
4.504,0.00628878,0
4.45892,-0.430916,-0.0521521
4.48287,-0.212975,-0.0260839
4.49878,0.00628149,0.104684
4.53293,0.00632917,-0.316973
4.51985,-0.214732,-0.369395
4.51637,0.227209,0.131606
4.47028,-0.212377,0.078117
4.47641,0.00625026,0.260695
4.52709,0.00632102,-0.210879
4.50473,-0.214014,-0.236349
4.4402,-0.210948,0.362886
4.51077,0.00629824,-0.104963
4.53434,0.212248,-0.0792339
4.50399,-0.00943314,0
4.45739,-0.446478,-0.0521521
4.4821,-0.228622,-0.0260839
4.49877,-0.00942221,0.104684
4.52893,-0.00948538,-0.316694
4.51111,-0.230102,-0.368744
4.47641,-0.00937537,0.260695
4.52309,-0.00947313,-0.210693
4.50396,-0.229737,-0.236349
4.43546,-0.226243,0.36256
4.51077,-0.00944734,-0.104963
4.54711,0.195351,-0.0794434
4.50392,-0.0267271,0
4.47719,-0.245611,-0.0260606
4.4987,-0.0266962,0.104684
4.44371,-0.462348,0.0520124
4.51019,-0.247421,-0.368744
4.4686,-0.24514,0.078117
4.47634,-0.0265634,0.260695
4.52302,-0.0268404,-0.210693
4.49905,-0.24681,-0.23614
4.43456,-0.243272,0.36256
4.5067,-0.0267436,-0.10487
4.53578,0.179004,-0.0792339
4.5038,-0.0424486,0
4.454,-0.47914,-0.0521521
4.47631,-0.261238,-0.0260606
4.49858,-0.0423994,0.104684
4.52874,-0.0426836,-0.316694
4.5093,-0.263163,-0.368744
4.46772,-0.260736,0.078117
4.46823,-0.0421133,0.26023
4.5229,-0.0426285,-0.210693
4.50215,-0.262746,-0.236349
4.43368,-0.25875,0.36256
4.50258,-0.0424371,-0.104777
4.53232,0.164608,-0.0791641
4.50364,-0.0565974,0
4.47147,-0.275054,-0.0260374
4.48643,-0.0563811,0.104405
4.52459,-0.0568607,-0.316415
4.50845,-0.277328,-0.368744
4.46288,-0.274525,0.0780472
4.47207,-0.0562006,0.260463
4.51874,-0.0567872,-0.210507
4.49732,-0.276643,-0.23614
4.43285,-0.272678,0.36256
4.49843,-0.0565319,-0.104684
4.52892,0.147075,-0.0790943
4.50339,-0.0738897,0
4.47038,-0.292221,-0.0260374
4.48618,-0.0736073,0.104405
4.51133,-0.294898,-0.369069
4.46579,-0.29192,0.078117
4.46383,-0.0732407,0.259998
4.45479,-0.291201,0.18188
4.5145,-0.0740719,-0.210321
4.49622,-0.29391,-0.23614
4.43575,-0.289957,0.362886
4.50218,-0.0738697,-0.104777
4.46763,-0.306139,-0.130326
4.49514,-0.0878808,0
4.51398,0.132395,0.0262466
4.46944,-0.306264,-0.0260374
4.48593,-0.0877007,0.104405
4.437,-0.522798,0.0520124
4.51611,-0.0882907,-0.315857
4.46086,-0.305675,0.0780472
4.54871,0.133413,-0.291646
4.46758,-0.0873419,0.26023
4.45385,-0.305195,0.18188
4.51025,-0.0881761,-0.210135
4.49528,-0.308034,-0.23614
4.42288,-0.303073,0.361909
4.49393,-0.087857,-0.104591
4.5218,0.116828,-0.0789547
4.46653,-0.321732,-0.130326
4.49481,-0.103571,0
4.46835,-0.321863,-0.0260374
4.4816,-0.103267,0.104312
4.51577,-0.104054,-0.315857
4.45179,-0.32067,0.0779075
4.46724,-0.102936,0.26023
4.44877,-0.320453,0.181717
4.50991,-0.103919,-0.210135
4.49417,-0.323723,-0.23614
4.42577,-0.318796,0.362235
4.49359,-0.103543,-0.104591
4.49442,-0.11926,0
4.46321,-0.337157,-0.0260141
4.48121,-0.11891,0.104312
4.45064,-0.336208,0.0779075
4.45488,-0.118211,0.259533
4.50553,-0.119555,-0.209948
4.42463,-0.334243,0.362235
4.52652,0.0845427,-0.0790245
4.48995,-0.135612,0
4.46593,-0.353829,-0.0260374
4.47275,-0.135092,0.104126
4.51491,-0.136366,-0.315857
4.44938,-0.352518,0.0779075
4.5379,0.0847552,-0.290879
4.4624,-0.13478,0.259998
4.44238,-0.351964,0.181554
4.50106,-0.135947,-0.209762
4.48776,-0.355559,-0.235931
4.42338,-0.350458,0.362235
4.48874,-0.135575,-0.104498
4.51879,0.0686202,-0.0788849
4.45887,-0.368936,-0.130209
4.48545,-0.151149,0
4.46467,-0.369416,-0.0260374
4.47625,-0.150839,0.104219
4.51441,-0.152125,-0.315857
4.49358,0.0682374,0.130791
4.44812,-0.368047,0.0779075
4.45791,-0.150221,0.259765
4.49657,-0.151524,-0.209576
4.48251,-0.370892,-0.235721
4.42213,-0.365896,0.362235
4.49623,-0.151512,-0.104684
4.51499,0.0535876,-0.0788151
4.48093,-0.165875,0
4.45943,-0.383876,-0.0260141
4.46773,-0.165386,0.104033
4.44687,-0.382795,0.0779075
4.46138,-0.165151,0.259998
4.44387,-0.382536,0.181717
4.50403,-0.16673,-0.209948
4.48126,-0.385755,-0.235721
4.40897,-0.379533,0.361258
4.49171,-0.166273,-0.104591
4.51115,0.0377934,-0.0787453
4.46024,-0.399635,-0.130326
4.48033,-0.181515,0
4.46205,-0.399797,-0.0260374
4.46313,-0.180818,0.10394
4.50529,-0.182527,-0.315299
4.44551,-0.398316,0.0779075
4.45679,-0.180561,0.259765
4.49943,-0.182289,-0.209762
4.41159,-0.395276,0.361584
4.4911,-0.181951,-0.104591
4.47963,-0.197935,0
4.45259,-0.415406,-0.0259909
4.52935,-0.200132,-0.488363
4.47043,-0.197528,0.104126
4.50858,-0.199214,-0.315578
4.44402,-0.414606,0.0779075
4.45211,-0.196719,0.259533
4.49873,-0.198779,-0.209762
4.41408,-0.411813,0.361909
4.48241,-0.198058,-0.104405
4.47499,-0.211818,0
4.49592,0.00706219,0.0261304
4.46579,-0.211383,0.104033
4.50793,-0.213377,-0.315578
4.4427,-0.428566,0.0779075
4.52671,0.00711055,-0.290111
4.45147,-0.210704,0.259533
4.4088,-0.425296,0.361584
4.48576,-0.212328,-0.104498
4.5033,-0.00943172,-0.0786056
4.46619,-0.227811,0
4.46499,-0.227749,0.104033
4.50314,-0.229695,-0.315299
4.4411,-0.444846,0.0779075
4.5267,-0.00948073,-0.290111
4.44668,-0.226815,0.2593
4.49727,-0.229396,-0.209762
4.41118,-0.441849,0.361909
4.48096,-0.228564,-0.104405
4.44627,-0.461046,-0.130093
4.46937,-0.243617,0
4.45205,-0.461646,-0.0260141
4.46017,-0.243116,0.10394
4.4121,-0.676723,0.0519658
4.49832,-0.245195,-0.31502
4.43554,-0.459933,0.0778377
4.44586,-0.242335,0.2593
4.49245,-0.244875,-0.209576
4.40564,-0.456833,0.361584
4.48413,-0.244422,-0.104498
4.50314,-0.0400843,-0.0786056
4.44472,-0.475788,-0.130093
4.46055,-0.257975,0
4.4505,-0.476407,-0.0260141
4.45934,-0.257905,0.10394
4.49748,-0.260111,-0.31502
4.42604,-0.473788,0.0776981
4.44503,-0.257077,0.2593
4.49162,-0.259771,-0.209576
4.40411,-0.471441,0.361584
4.4793,-0.259059,-0.104405
4.44303,-0.4913,-0.130093
4.4676,-0.274033,0
4.44483,-0.491499,-0.0259909
4.45841,-0.273469,0.10394
4.50053,-0.276053,-0.315299
4.47776,-0.0554905,0.130326
4.43231,-0.490114,0.0778377
4.44012,-0.272347,0.259068
4.49068,-0.275449,-0.209576
4.4064,-0.487249,0.361909
4.47837,-0.274693,-0.104405
4.50273,-0.0723068,-0.0786056
4.45859,-0.289887,0
4.49134,-0.0721239,0.0261071
4.44698,-0.508241,-0.0260141
4.4494,-0.289289,0.103754
4.49949,-0.292546,-0.315299
4.42651,-0.505902,0.0777679
4.44307,-0.288878,0.2593
4.4116,-0.504198,0.180903
4.47768,-0.291128,-0.209018
4.40458,-0.503396,0.361909
4.47334,-0.290846,-0.104312
4.45356,-0.305175,0
4.48307,-0.0876448,0.0260606
4.44836,-0.304819,0.103754
4.49048,-0.307705,-0.314741
4.47325,-0.0874529,0.130209
4.42868,-0.521818,0.0778377
4.43806,-0.304113,0.259068
4.48062,-0.30703,-0.209204
4.39884,-0.518301,0.361584
4.47629,-0.306733,-0.104405
4.45252,-0.319942,0
4.48675,-0.102602,0.0260839
4.44334,-0.319282,0.103661
4.49341,-0.32288,-0.31502
4.4309,-0.536983,0.0779075
4.43702,-0.318828,0.259068
4.48357,-0.322173,-0.20939
4.38918,-0.531926,0.360933
4.47126,-0.321288,-0.104312
4.48974,-0.119136,-0.0783962
4.48235,-0.11894,0.0260606
4.44613,-0.335867,0.103754
4.48424,-0.338746,-0.314462
4.42097,-0.552228,0.0777679
4.43981,-0.335389,0.2593
4.48235,-0.338603,-0.20939
4.39115,-0.548504,0.361258
4.47005,-0.337674,-0.104312
4.46214,-0.351962,0
4.48193,-0.133803,0.0260606
4.441,-0.350294,0.103661
4.46412,-0.133272,0.129977
4.41911,-0.566885,0.0777679
4.43071,-0.349482,0.258835
4.48121,-0.353466,-0.20939
4.38536,-0.562555,0.360933
4.46891,-0.352495,-0.104312
4.48482,-0.149561,-0.0783264
4.4569,-0.367207,0
4.48143,-0.149447,0.0260606
4.43576,-0.365466,0.103568
4.46363,-0.148854,0.129977
4.42107,-0.58283,0.0778377
4.50425,-0.150208,-0.288832
4.42548,-0.364618,0.258602
4.468,-0.368122,-0.208832
4.38732,-0.578381,0.361258
4.46765,-0.368093,-0.104312
4.48088,-0.16509,0.0260606
4.43446,-0.380947,0.103568
4.46308,-0.164434,0.129977
4.41901,-0.598259,0.0778377
4.5037,-0.16593,-0.288832
4.42816,-0.380406,0.258835
4.47465,-0.3844,-0.209204
4.38922,-0.594227,0.361584
4.46634,-0.383685,-0.104312
4.48028,-0.18073,0.0260606
4.43709,-0.39678,0.103661
4.42085,-0.614231,0.0779075
4.42283,-0.395505,0.258602
4.47328,-0.400017,-0.209204
4.37528,-0.607898,0.360607
4.46497,-0.399273,-0.104312
4.44484,-0.413118,0
4.47163,-0.196018,0.0260141
4.43568,-0.412266,0.103661
4.45783,-0.195413,0.12986
4.41472,-0.629094,0.0778377
4.4254,-0.411311,0.258835
4.47186,-0.415629,-0.209204
4.46355,-0.414857,-0.104312
4.43939,-0.428247,0
4.47092,-0.211625,0.0260141
4.43819,-0.428131,0.103754
4.45712,-0.210972,0.12986
4.4125,-0.644501,0.0778377
4.41996,-0.426372,0.258602
4.47436,-0.43162,-0.20939
4.45809,-0.430051,-0.104219
4.44185,-0.444139,0
4.47415,-0.227433,0.0260374
4.42871,-0.442825,0.103568
4.45236,-0.226326,0.129744
4.41022,-0.659899,0.0778377
4.41844,-0.441798,0.258602
4.46054,-0.446008,-0.104312
4.44433,-0.459277,0
4.46937,-0.242053,0.0260141
4.43517,-0.458331,0.103754
4.45159,-0.241089,0.129744
4.49219,-0.243288,-0.288321
4.41695,-0.456448,0.258602
4.47189,-0.257848,-0.0781868
4.43475,-0.473938,0
4.4725,-0.257883,0.0260374
4.42559,-0.47296,0.103568
4.40958,-0.690522,0.0779075
4.49928,-0.259427,-0.288832
4.4193,-0.472287,0.258835
4.45741,-0.476359,-0.104312
4.46692,-0.273991,-0.078117
4.44093,-0.491068,0
4.46354,-0.273784,0.0259909
4.42781,-0.489617,0.103661
4.44975,-0.272938,0.129744
4.40307,-0.706046,0.0778377
4.48635,-0.275183,-0.288065
4.45563,-0.492693,-0.104312
4.43133,-0.504886,0
4.4626,-0.288584,0.0259909
4.43013,-0.50475,0.103754
4.44882,-0.287692,0.129744
4.41193,-0.502676,0.258602
4.45397,-0.507466,-0.104312
4.43351,-0.520818,0
4.46157,-0.304159,0.0259909
4.42437,-0.519744,0.103661
4.4438,-0.302948,0.129627
4.41015,-0.518073,0.258602
4.39519,-0.735502,0.181554
4.45217,-0.52301,-0.104312
4.46447,-0.320017,0.0260141
4.42253,-0.535185,0.103661
4.4467,-0.318744,0.129744
4.40832,-0.533465,0.258602
4.44238,-0.537587,-0.104126
4.4258,-0.551263,0
4.45934,-0.335299,0.0259909
4.4246,-0.551113,0.103754
4.44158,-0.333964,0.129627
4.47815,-0.336713,-0.287809
4.40246,-0.548356,0.25837
4.45754,-0.350816,-0.0780472
4.42385,-0.566708,0
4.45016,-0.350235,0.0259444
4.41869,-0.566047,0.103661
4.44038,-0.349466,0.129627
4.47694,-0.352343,-0.287809
4.40844,-0.564735,0.258835
4.42184,-0.582147,0
4.45689,-0.366423,0.0259909
4.41668,-0.581467,0.103661
4.43914,-0.364963,0.129627
4.39853,-0.579077,0.25837
4.41979,-0.597578,0
4.4516,-0.381636,0.0259676
4.41066,-0.596345,0.103568
4.43784,-0.380457,0.129627
4.39648,-0.594427,0.25837
4.45031,-0.396396,0.0259676
4.40866,-0.610968,0.103568
4.44053,-0.395526,0.129744
4.39844,-0.609552,0.258602
4.41176,-0.626316,0
4.45295,-0.41152,0.0259909
4.40661,-0.625584,0.103568
4.43123,-0.409513,0.129511
4.39244,-0.623573,0.25837
4.44736,-0.428232,0.0259676
4.40418,-0.6425,0.103568
4.42963,-0.426525,0.129511
4.39001,-0.640434,0.25837
4.44981,-0.44415,0.0259909
4.40982,-0.659052,0.103754
4.42811,-0.441984,0.129511
4.3917,-0.656344,0.258602
4.44771,-0.458842,-0.0780472
4.44036,-0.458083,0.0259444
4.40365,-0.673067,0.103661
4.42662,-0.456666,0.129511
4.3895,-0.670904,0.258602
4.44677,-0.473653,0.0259909
4.4014,-0.687667,0.103661
4.42906,-0.471766,0.129627
4.38725,-0.685456,0.258602
4.43645,-0.489005,-0.0779075
4.445,-0.489948,0.0259909
4.39885,-0.703794,0.103661
4.4273,-0.487996,0.129627
4.38471,-0.701532,0.258602
4.43869,-0.50494,-0.0779774
4.43929,-0.505009,0.0259676
4.40031,-0.71979,0.103754
4.42557,-0.503448,0.129627
4.4369,-0.520431,-0.0779774
4.41982,-0.518427,0.129511
4.37971,-0.732126,0.258602
4.43118,-0.534662,-0.0779075
4.43575,-0.535214,0.0259676
4.42204,-0.53356,0.129627
4.43316,-0.551394,-0.0779774
4.42979,-0.550975,0.0259444
4.42006,-0.549764,0.129627
4.41414,-0.564682,0.129511
4.4298,-0.582408,0.0259676
4.41215,-0.580087,0.129511
4.42774,-0.597867,0.0259676
4.41009,-0.595484,0.129511
4.41216,-0.609884,0.129627
4.41375,-0.627383,0.129744
4.40362,-0.641633,0.129511
4.4053,-0.657591,0.129627
4.40298,-0.672965,0.129627
4.40061,-0.68833,0.129627
4.39842,-0.702151,0.129627
4.39582,-0.718268,0.129627
4.38934,-0.732949,0.129511
