4.55485,0.547971,0.0534093
4.5486,0.532729,0.0533162
4.55459,0.515709,0.0533627
4.55636,0.499808,0.0533627
4.55117,0.725722,0.376229
4.54995,0.484643,0.0532696
4.55343,0.711419,0.376229
4.54374,0.467146,-0.0531765
4.5517,0.467965,0.0532696
4.55601,0.694726,0.376229
4.55322,0.452867,-0.0532696
4.5572,0.453263,0.0533162
4.55434,0.679025,0.375904
4.5508,0.436587,-0.053223
4.5508,0.436587,0.053223
4.55223,0.662475,0.187416
4.56063,0.663696,0.376229
4.55229,0.420702,-0.053223
4.55627,0.42107,0.0532696
4.55056,0.646022,0.187254
4.55897,0.647216,0.375904
4.54982,0.403662,-0.0531765
4.5538,0.404015,0.053223
4.5529,0.62934,0.187254
4.55341,0.629411,0.375253
4.55113,0.388571,-0.0531765
4.54715,0.38823,0.0531299
4.55496,0.614237,0.187254
4.55548,0.614307,0.375253
4.55253,0.371886,-0.0531765
4.55253,0.371886,0.0531765
4.55322,0.597017,0.187091
4.54981,0.355682,-0.0531299
4.5538,0.355994,0.0531765
4.55924,0.581627,0.187254
4.5558,0.581188,0.374928
4.55501,0.340095,-0.0531765
4.559,0.340392,0.053223
4.55639,0.565106,0.0801414
4.55331,0.564723,0.186928
4.56176,0.565771,0.375253
4.55617,0.324193,-0.0531765
4.55218,0.32391,0.0531299
4.55039,0.548242,0.0800018
4.52886,0.32225,-0.264416
4.55128,0.548349,0.186765
4.5637,0.549845,0.375253
4.54919,0.309334,-0.0530833
4.55318,0.309606,0.0531299
4.52985,0.308019,-0.264416
4.55298,0.534047,0.186765
4.55749,0.534575,0.374602
4.55428,0.292916,-0.0531299
4.55827,0.293173,0.0531765
4.53095,0.291415,-0.264416
4.55888,0.517807,0.186928
4.55128,0.276773,-0.0530833
4.55244,0.500985,-0.0266186
4.55927,0.277259,0.0531765
4.55182,0.500917,0.079932
4.55669,0.501453,0.186765
4.55724,0.501513,0.374277
4.55617,0.261912,-0.0531299
4.54612,0.48504,-0.0265721
4.56016,0.262141,0.0531765
4.55744,0.486247,0.0800018
4.55435,0.485918,0.186602
4.55887,0.486401,0.374277
4.5531,0.244992,-0.0530833
4.54787,0.468371,-0.0265721
4.52575,0.24352,-0.423081
4.5571,0.245207,0.0531299
4.55919,0.469537,0.0800018
4.55541,0.695448,0.26837
4.55213,0.46881,0.186439
4.55393,0.229101,-0.0530833
4.52657,0.227724,-0.423081
4.55793,0.229302,0.0531299
4.53058,0.227926,-0.264184
4.55386,0.678957,0.268137
4.55771,0.453316,0.186602
4.53318,0.435698,-0.132536
4.55866,0.214185,-0.0531299
4.53128,0.212898,-0.423453
4.55467,0.213997,0.0530833
4.53929,0.213275,-0.264649
4.55609,0.66385,0.268137
4.56317,0.43858,0.186765
4.55975,0.438252,0.373951
4.53468,0.419871,-0.132536
4.55643,0.421885,-0.0265953
4.53597,0.197251,-0.423825
4.55938,0.198269,0.0531299
4.53203,0.19708,-0.264184
4.55443,0.64738,0.267905
4.56069,0.42228,0.186602
4.53611,0.40404,-0.132536
4.55605,0.182194,-0.0530833
4.55389,0.405624,-0.0265721
4.55522,0.63128,0.10701
4.56404,0.182514,0.0531765
4.56124,0.406279,0.079932
4.53668,0.18142,-0.264416
4.5527,0.63093,0.267672
4.55816,0.406004,0.186439
4.53351,0.387864,-0.13242
4.56065,0.166436,-0.0531299
4.56065,0.166436,0.0531299
4.56263,0.390355,0.079932
4.53729,0.165583,-0.264416
4.55883,0.61557,0.267905
4.55955,0.390091,0.186439
4.56409,0.39048,0.373951
4.55724,0.149587,-0.0530833
4.55566,0.598146,0.106917
4.56123,0.149718,0.0531299
4.53786,0.148951,-0.264416
4.56106,0.598856,0.267905
4.56095,0.373376,0.186439
4.53459,0.371218,-0.238443
4.53611,0.356204,-0.13242
4.55371,0.134357,-0.0530368
4.55762,0.583037,0.106917
4.56171,0.134593,0.0531299
4.53833,0.133903,-0.264416
4.56302,0.583728,0.267905
4.56216,0.35825,0.186439
4.53579,0.356179,-0.238443
4.53733,0.340367,-0.13242
4.56215,0.118667,-0.0531299
4.56615,0.118771,0.0531765
4.53877,0.118059,-0.264416
4.55711,0.56681,0.26744
4.5594,0.342023,0.186277
4.54498,0.340941,-0.238861
4.55854,0.102653,-0.0530833
4.5576,0.550725,0.106824
4.56253,0.102743,0.0531299
4.56365,0.326327,0.0798622
4.53516,0.102126,-0.264184
4.56302,0.551379,0.267672
4.56056,0.326106,0.186277
4.53817,0.324505,-0.238443
4.56512,0.326432,0.373626
4.56285,0.0876132,-0.0531299
4.55146,0.534676,0.106638
4.56285,0.0876132,0.0531299
4.56471,0.311193,0.0798622
4.54746,0.0873176,-0.264881
4.56086,0.53578,0.26744
4.55364,0.310438,0.185951
4.53922,0.309455,-0.238443
4.56618,0.311293,0.373626
4.55914,0.0708235,-0.0530833
4.56134,0.518891,0.106824
4.56314,0.0708856,0.0531299
4.53148,0.292242,-0.370697
4.54774,0.0706464,-0.264881
4.56279,0.519056,0.26744
4.55874,0.294,0.186114
4.54032,0.292813,-0.238443
4.5759,0.520548,0.565474
4.56331,0.294295,0.3733
4.55536,0.0548636,-0.0530368
4.56736,0.0550082,0.0531765
4.53645,0.276668,-0.371022
4.54796,0.0547746,-0.264881
4.56061,0.502692,0.267207
4.55974,0.278089,0.186114
4.54132,0.276965,-0.238443
4.58558,0.505445,0.566449
4.53854,0.261691,-0.132304
4.53816,0.48499,0
4.55552,0.039756,-0.0530368
4.56752,0.0398607,0.0531765
4.53337,0.261393,-0.370697
4.54413,0.0396565,-0.264649
4.55828,0.48714,0.266974
4.56463,0.263195,0.186277
4.54221,0.261903,-0.238443
4.58329,0.489813,0.565961
4.5438,0.469556,0
4.55963,0.0238737,-0.0530833
4.55848,0.471073,0.106638
4.55963,0.0238737,0.0530833
4.53425,0.245566,-0.370697
4.54424,0.0237931,-0.264649
4.552,0.470403,0.266509
4.55754,0.246827,0.185951
4.54709,0.246261,-0.238652
4.54257,0.469429,-0.106266
4.5601,0.455161,0.106638
4.55968,0.00796064,0.0530833
4.54829,0.00794074,-0.264881
4.56554,0.455704,0.267207
4.55438,0.230717,0.185788
4.53994,0.229986,-0.238233
4.57869,0.457017,0.564986
4.56693,0.231353,0.3733
4.54816,0.453969,-0.106359
4.53703,0.213962,-0.132187
4.53901,0.437058,0
4.55968,-0.00795687,-0.0530833
4.56368,-0.00796385,0.0531299
4.52789,0.213531,-0.370046
4.54829,-0.00793698,-0.264881
4.56313,0.43938,0.266974
4.56314,0.215193,0.186114
4.54072,0.214136,-0.238233
4.57631,0.44065,0.564499
4.54972,0.438089,-0.106359
4.53775,0.198123,-0.132187
4.54051,0.42121,0
4.55963,-0.0238743,-0.0530833
4.56317,0.423312,0.106638
4.56363,-0.0238953,0.0531299
4.53259,0.197897,-0.370371
4.56695,0.199398,0.0797924
4.54823,-0.0238147,-0.264881
4.56463,0.423448,0.266974
4.56386,0.199263,0.186114
4.54144,0.198283,-0.238233
4.57782,0.424671,0.564499
4.56445,0.199288,0.372975
4.55122,0.422204,-0.106359
4.53842,0.182283,-0.132187
4.54593,0.405715,0
4.56352,-0.0398242,-0.0531299
4.55625,0.182999,-0.0265023
4.56752,-0.0398591,0.0531765
4.54122,0.182395,-0.371022
4.54013,-0.0396201,-0.264416
4.56211,0.407158,0.266742
4.56054,0.183171,0.185951
4.5421,0.182431,-0.238233
4.58718,0.409396,0.565474
4.5447,0.405605,-0.106173
4.54333,0.389501,0
4.56335,-0.0557548,-0.0531299
4.55686,0.167092,-0.0265023
4.56203,0.391104,0.106545
4.54471,0.614468,0.133467
4.5635,0.39123,0.266742
4.56115,0.16725,0.185951
4.58858,0.39338,0.565474
4.56573,0.167418,0.372975
4.54609,0.389737,-0.106173
4.53958,0.150594,-0.132187
4.54467,0.37364,0
4.56713,-0.0717454,-0.0531765
4.56141,0.151318,-0.0265256
4.56336,0.375178,0.106545
4.56713,-0.0717454,0.0531765
4.54682,0.598601,0.133467
4.56086,0.374972,0.266509
4.5617,0.151328,0.185951
4.54725,0.150849,-0.238443
4.58201,0.376711,0.564499
4.54742,0.373867,-0.106173
4.54008,0.134746,-0.132187
4.54196,0.357459,0
4.56285,-0.0876116,-0.0531299
4.55792,0.135275,-0.0265023
4.56465,0.359245,0.106545
4.56285,-0.0876116,0.0531299
4.5389,0.134711,-0.370697
4.56529,0.135494,0.0797226
4.56612,0.359361,0.266742
4.5662,0.135521,0.186114
4.52907,0.356445,-0.211624
4.54376,0.134855,-0.238233
4.57934,0.360402,0.564011
4.5487,0.35799,-0.106173
4.54052,0.118898,-0.132187
4.56651,-0.103628,-0.0531765
4.56236,0.11947,-0.0265256
4.57051,-0.103719,0.053223
4.53934,0.118867,-0.370697
4.56574,0.119559,0.0797226
4.56735,0.343421,0.266742
4.56665,0.119582,0.186114
4.53029,0.340634,-0.211624
4.5482,0.119099,-0.238443
4.58057,0.344416,0.564011
4.55391,0.342411,-0.106266
4.54089,0.103842,-0.132187
4.56615,-0.11877,-0.0531765
4.56273,0.104341,-0.0265256
4.563,0.327882,0.106452
4.56615,-0.11877,0.0531765
4.54481,0.550789,0.133235
4.56448,0.327988,0.266509
4.56702,0.104439,0.186114
4.55256,0.104108,-0.238652
4.58169,0.329225,0.564011
4.56761,0.104453,0.372975
4.55103,0.327022,-0.106173
4.5454,0.310671,0
4.55907,0.0883348,-0.0265023
4.56012,0.311678,0.106359
4.5737,-0.134945,0.0532696
4.54273,0.534452,0.133118
4.57356,0.312596,0.266974
4.56735,0.0884953,0.186114
4.5529,0.0882152,-0.238652
4.58281,0.313229,0.564011
4.56794,0.0885068,0.372975
4.54417,0.310587,-0.105987
4.5415,0.0721355,-0.132187
4.54246,0.294543,0
4.56521,-0.150647,-0.0531765
4.56335,0.0724824,-0.0265256
4.56517,0.296016,0.106452
4.5732,-0.150911,0.0532696
4.5314,0.293825,-0.317531
4.54854,0.519044,0.133235
4.57073,0.0725996,0.0797924
4.57064,0.29637,0.266742
4.56364,0.072487,0.185951
4.54519,0.072194,-0.238233
4.57992,0.296971,0.563524
4.56823,0.0725599,0.372975
4.5532,0.295239,-0.106173
4.54173,0.0562854,-0.132187
4.56865,-0.166724,-0.053223
4.56357,0.0565561,-0.0265256
4.56618,0.280082,0.106452
4.56865,-0.166724,0.053223
4.57165,0.280417,0.266742
4.56386,0.0565597,0.185951
4.5534,0.05643,-0.238652
4.58489,0.281229,0.564011
4.56845,0.0566165,0.372975
4.54622,0.278857,-0.105987
4.54589,0.0412592,-0.132304
4.54835,0.26385,0
4.56008,-0.181556,-0.0531299
4.56708,0.264937,0.106452
4.57207,-0.182034,0.0532696
4.57255,0.265254,0.266742
4.56403,0.0414238,0.185951
4.55356,0.0413288,-0.238652
4.58579,0.266022,0.564011
4.56861,0.0414654,0.372975
4.55511,0.264242,-0.106173
4.53905,0.469868,-0.0796528
4.54601,0.0245984,-0.132304
4.54929,0.247179,0
4.56737,-0.198615,-0.053223
4.55986,0.0246733,-0.0265023
4.56737,-0.198615,0.053223
4.52626,0.245927,-0.316973
4.56552,0.248061,0.266277
4.56814,0.0247181,0.186114
4.54969,0.0246183,-0.238443
4.58277,0.248998,0.563524
4.56873,0.0247213,0.372975
4.55205,0.247329,-0.10608
4.53668,0.453622,-0.079583
4.54207,0.0087208,-0.132187
4.55412,0.231499,0
4.57065,-0.214746,-0.0532696
4.56487,0.232046,0.106359
4.52709,0.230125,-0.316973
4.56636,0.232121,0.266277
4.56421,0.00876331,0.185951
4.58758,0.2332,0.564011
4.56879,0.00877211,0.372975
4.53361,0.453315,-0.185625
4.55289,0.231437,-0.10608
4.54222,0.438166,-0.0796528
4.54691,0.215222,0
4.56987,-0.230701,-0.0532696
4.56565,0.216109,0.106359
4.57387,-0.230902,0.0533162
4.52786,0.21432,-0.316973
4.54895,0.438815,0.133002
4.56714,0.216179,0.266277
4.56421,-0.00717001,0.185951
4.55375,-0.00715358,-0.238652
4.58044,0.216809,0.563036
4.58076,-0.00719601,0.373951
4.55367,0.215542,-0.10608
4.54372,0.422309,-0.0796528
4.54202,-0.022989,-0.132187
4.54364,0.199174,0
4.56904,-0.24665,-0.0532696
4.54035,0.421996,0.0265023
4.56638,0.200171,0.106359
4.57303,-0.246866,0.0533162
4.54647,0.422564,0.132886
4.56787,0.200237,0.266277
4.56815,-0.0231213,0.186114
4.58116,0.200819,0.563036
4.55439,0.199646,-0.10608
4.54119,0.40609,-0.079583
4.55629,0.183798,0
4.56376,-0.0390294,-0.0265256
4.56705,0.184231,0.106359
4.53324,0.182867,-0.317252
4.54792,0.406692,0.132886
4.57253,0.184452,0.266509
4.57204,-0.0391002,0.186277
4.53938,0.183115,-0.211624
4.58184,0.184828,0.563036
4.55506,0.183748,-0.10608
4.53461,0.389552,-0.0794434
4.54575,-0.0547437,-0.132304
4.54891,0.167598,0
4.5712,-0.278783,-0.0533162
4.53385,0.167043,-0.317252
4.57097,-0.0550475,0.0797924
4.56915,0.168344,0.266277
4.57587,-0.0551065,0.186439
4.53999,0.16727,-0.211624
4.55342,-0.0548361,-0.238652
4.58642,0.16898,0.563524
4.55168,0.1677,-0.105987
4.53992,0.374048,-0.0795132
4.54553,-0.0706122,-0.132304
4.54947,0.151717,0
4.56737,-0.0709516,-0.0265488
4.56822,0.152343,0.106359
4.57818,-0.295254,0.0534093
4.53041,0.151082,-0.316973
4.55463,0.37526,0.133002
4.56971,0.152393,0.266277
4.57166,-0.0710181,0.186277
4.54055,0.15142,-0.211624
4.59095,0.153101,0.564011
4.57622,-0.0710891,0.373626
4.54824,0.151676,-0.105894
4.5412,0.358198,-0.0795132
4.54597,0.135715,0
4.57313,-0.310963,-0.0533627
4.5671,-0.0868954,-0.0265488
4.56873,0.136395,0.106359
4.57712,-0.311234,0.0534093
4.53091,0.135266,-0.316973
4.55591,0.359358,0.133002
4.56623,0.13632,0.266044
4.57937,-0.087129,0.186602
4.54504,0.135688,-0.21181
4.58352,0.136836,0.563036
4.57196,-0.086988,0.3733
4.55274,0.135917,-0.105987
4.53844,0.342044,-0.0794434
4.54492,-0.102344,-0.132304
4.57202,-0.326923,-0.0533627
4.54703,0.342692,0.0265023
4.56677,-0.102836,-0.0265488
4.56667,0.120381,0.266044
4.57105,-0.102933,0.186277
4.5415,0.119717,-0.211624
4.58794,0.120942,0.563524
4.57163,-0.102946,0.3733
4.55718,0.120131,-0.10608
4.5396,0.326199,-0.0794434
4.54454,-0.118209,-0.132304
4.55081,0.104067,0
4.56957,0.104496,0.106359
4.57882,-0.34348,0.0534559
4.53574,0.103722,-0.317252
4.57376,-0.118969,0.0798622
4.57505,0.104621,0.266509
4.57466,-0.118993,0.186439
4.53789,0.103772,-0.211437
4.58437,0.104834,0.563036
4.55757,0.104222,-0.10608
4.55209,-0.134308,-0.132536
4.54715,0.0881036,0
4.56993,-0.134834,-0.0265721
4.57361,-0.359148,0.0534093
4.57539,0.0886508,0.266509
4.57821,-0.135078,0.186602
4.54222,0.0880082,-0.211624
4.58073,0.0887544,0.562549
4.54991,0.0881572,-0.105894
4.53767,0.295824,-0.0793735
4.5514,0.0738828,0
4.56549,-0.14906,-0.0265488
4.56616,0.0741225,0.106266
4.58043,-0.374166,0.0535024
4.53632,0.0736381,-0.317252
4.5524,0.296784,0.132769
4.52907,0.295264,-0.290879
4.57564,0.0742764,0.266509
4.56977,-0.1492,0.186277
4.53848,0.0736731,-0.211437
4.5929,0.0745565,0.564011
4.57832,-0.149479,0.373951
4.55417,0.0739277,-0.105987
4.55164,0.0572006,0
4.56891,-0.165937,-0.0265721
4.5704,0.0574364,0.106359
4.57903,-0.390951,0.0535024
4.53656,0.0570111,-0.317252
4.54947,0.279852,0.132653
4.53411,0.278907,-0.291135
4.57588,0.0575053,0.266509
4.57319,-0.166093,0.186439
4.55071,0.0571889,-0.211996
4.58123,0.0575725,0.562549
4.57774,-0.166258,0.373951
4.55441,0.0572354,-0.105987
4.53972,0.262554,-0.0793735
4.54644,-0.181809,-0.13242
4.55182,0.0405176,0
4.57058,0.0406846,0.106359
4.53275,0.0403479,-0.316973
4.53909,0.262517,-0.291391
4.57207,0.0406979,0.266277
4.57654,-0.183013,0.186602
4.55089,0.0405093,-0.211996
4.58538,0.0408164,0.563036
4.55459,0.0405423,-0.105987
4.54061,0.246705,-0.0793735
4.55193,0.0246286,0
4.56761,-0.198627,-0.0265721
4.532,0.246238,-0.290879
4.58017,0.0247814,0.266742
4.57987,-0.199161,0.186765
4.555,0.0246451,-0.212182
4.58947,0.0248316,0.563524
4.5547,0.0246435,-0.105987
4.54913,-0.212144,-0.132536
4.55599,0.0103372,0
4.57096,-0.213162,-0.0265953
4.53276,0.231999,-0.290879
4.57623,0.0103832,0.266509
4.58321,-0.213734,0.186928
4.55505,0.0103351,-0.212182
4.58952,0.0104133,0.563524
4.55476,0.0103344,-0.105987
4.55231,-0.229017,-0.132653
4.564,-0.00637254,0
4.57076,-0.00638199,0.106359
4.53358,0.215384,-0.290879
4.57225,-0.00638407,0.266277
4.57841,-0.23033,0.186765
4.54707,-0.00634891,-0.21181
4.5935,-0.00641374,0.564011
4.57498,-0.230157,0.373951
4.55076,-0.00635407,-0.105894
4.54291,0.199937,-0.0793735
4.55149,-0.244906,-0.132653
4.55195,-0.0222452,0
4.56671,-0.0223173,0.106266
4.5343,0.199558,-0.290879
4.5722,-0.0223442,0.266277
4.57758,-0.24631,0.186765
4.55101,-0.0222406,-0.211996
4.58154,-0.0223898,0.562549
4.57813,-0.24634,0.374277
4.55071,-0.0222392,-0.105894
4.54358,0.184078,-0.0793735
4.55584,-0.0381678,0
4.57242,-0.262043,-0.0266186
4.58177,-0.488032,0.0536421
4.53497,0.183729,-0.290879
4.57209,-0.038304,0.266277
4.57669,-0.262287,0.186765
4.54691,-0.038093,-0.21181
4.5854,-0.0384155,0.563036
4.55461,-0.0381575,-0.105987
4.5442,0.168216,-0.0793735
4.55968,-0.0541179,0
4.57444,-0.0542931,0.106452
4.55495,0.168615,0.132653
4.53558,0.167898,-0.290879
4.57992,-0.0543581,0.266742
4.57973,-0.278504,0.186928
4.55075,-0.0540119,-0.211996
4.58921,-0.0544684,0.563524
4.57629,-0.278295,0.374277
4.54076,0.152219,-0.0793037
4.55946,-0.0700338,0
4.55551,0.152714,0.132653
4.53614,0.152064,-0.290879
4.57571,-0.0702833,0.266509
4.57475,-0.294232,0.186765
4.55053,-0.0698966,-0.211996
4.58899,-0.0704874,0.563524
4.57927,-0.294523,0.374602
4.55423,-0.0699534,-0.105987
4.54521,0.138075,-0.0793735
4.55522,-0.0842834,0
4.57398,-0.0846305,0.106452
4.5366,0.137813,-0.290879
4.57147,-0.0845841,0.266277
4.5738,-0.308602,0.186765
4.54629,-0.0841182,-0.21181
4.59272,-0.0849772,0.564011
4.57833,-0.308908,0.374602
4.55399,-0.0842606,-0.105987
4.54569,0.121415,-0.0793735
4.55888,-0.101067,0
4.5503,0.121538,0.0264558
4.55645,0.121702,0.132653
4.53308,0.121078,-0.290623
4.58311,-0.101604,0.266974
4.57662,-0.325648,0.186928
4.55394,-0.100958,-0.212182
4.58444,-0.101634,0.563036
4.58114,-0.325969,0.374928
4.55765,-0.10104,-0.10608
4.54208,0.105454,-0.0793037
4.5625,-0.117083,0
4.5507,0.105654,0.0264558
4.57519,-0.341601,-0.0266651
4.58272,-0.117602,0.266974
4.57944,-0.341919,0.187091
4.59199,-0.11784,0.564011
4.54642,0.0896772,-0.0793735
4.56206,-0.133008,0
4.55718,0.0898894,0.132653
4.53381,0.0894285,-0.290623
4.58229,-0.133598,0.266974
4.58619,-0.358525,0.187416
4.59552,-0.133984,0.564499
4.53935,0.0895377,-0.184974
4.56482,-0.133089,-0.106266
4.5427,0.0745346,-0.0793037
4.5576,-0.148006,0
4.57783,-0.148663,0.266742
4.58498,-0.373731,0.187416
4.59108,-0.149093,0.564011
4.53962,0.0744842,-0.184974
4.56036,-0.148096,-0.106173
4.55093,0.0587805,-0.0794434
4.56105,-0.164058,0
4.57541,-0.389034,-0.0266883
4.5758,-0.164588,0.106545
4.57728,-0.164641,0.266742
4.57568,-0.389057,0.187091
4.59847,-0.165404,0.564986
4.55182,-0.163726,-0.105987
4.54711,0.0420631,-0.0793735
4.56042,-0.180774,0
4.55173,0.0421058,0.0264558
4.57517,-0.181358,0.106545
4.55788,0.0421627,0.132653
4.5345,0.0419465,-0.290623
4.58063,-0.181575,0.266974
4.58219,-0.406531,0.187416
4.58593,-0.181785,0.563524
4.54404,0.0420346,-0.185137
4.56718,-0.181042,-0.106359
4.55123,0.0262136,-0.0794434
4.56376,-0.196864,0
4.55185,0.0262171,0.0264558
4.56199,0.0262755,0.132769
4.5426,0.0261639,-0.291135
4.57997,-0.197563,0.266974
4.5887,-0.423257,0.187742
4.58924,-0.197963,0.564011
4.55129,0.0111209,-0.0794434
4.55908,-0.211811,0
4.55806,0.0111375,0.132653
4.54267,0.0110999,-0.291135
4.58328,-0.212935,0.267207
4.58727,-0.438472,0.187742
4.59252,-0.213365,0.564499
4.54022,0.0110939,-0.184974
4.56584,-0.212125,-0.106359
4.5473,-0.00555555,-0.0793735
4.56227,-0.22872,0
4.55807,-0.0055687,0.132653
4.57848,-0.229533,0.266974
4.58961,-0.455677,0.187905
4.59171,-0.230196,0.564499
4.54023,-0.00554691,-0.184974
4.56104,-0.228658,-0.106266
4.54726,-0.0214286,-0.0793735
4.55745,-0.244429,0
4.55187,-0.0214504,0.0264558
4.56202,-0.0214982,0.132769
4.57765,-0.245513,0.266974
4.58004,-0.470877,0.187579
4.59484,-0.246435,0.564986
4.54818,-0.0214329,-0.1853
4.56021,-0.244578,-0.106266
4.55116,-0.0365398,-0.0794434
4.55661,-0.259541,0
4.57934,-0.260835,0.106731
4.56192,-0.0366262,0.132769
4.58877,-0.261373,0.267672
4.5864,-0.486907,0.187905
4.59003,-0.261445,0.564499
4.55208,-0.0365472,-0.185462
4.551,-0.0524261,-0.0794434
4.55967,-0.275687,0
4.55562,-0.0524793,0.0264791
4.55777,-0.052504,0.132653
4.57986,-0.276907,0.267207
4.58467,-0.502913,0.187905
4.58909,-0.277465,0.564499
4.54393,-0.0523446,-0.185137
4.55879,-0.0684319,-0.079583
4.57066,-0.292367,0
4.58139,-0.293054,0.106824
4.55756,-0.0684133,0.132653
4.58684,-0.293402,0.267672
4.59083,-0.519813,0.18823
4.54372,-0.0682056,-0.185137
4.55454,-0.0834757,-0.0795132
4.56567,-0.307254,0
4.5653,-0.0836729,0.132886
4.58425,-0.53447,0.0805603
4.58186,-0.308343,0.26744
4.57717,-0.533645,0.187742
4.54347,-0.0832727,-0.185137
4.55021,-0.10008,-0.0794434
4.56851,-0.324269,0
4.55482,-0.100182,0.0264791
4.57525,-0.324747,0.106731
4.56496,-0.100405,0.132886
4.57034,-0.549835,0.0803509
4.5807,-0.325134,0.26744
4.54313,-0.0999248,-0.185137
4.55383,-0.116065,-0.0795132
4.55937,-0.33962,0
4.55844,-0.116183,0.0265023
4.58206,-0.34131,0.106917
4.56059,-0.116237,0.132769
4.57953,-0.341122,0.26744
4.55474,-0.116088,-0.185625
4.55742,-0.13128,-0.079583
4.56221,-0.355048,0
4.55803,-0.131298,0.0265023
4.58236,-0.356616,0.267672
4.54235,-0.130846,-0.185137
4.5609,-0.148113,-0.0796528
4.56885,-0.372417,0
4.55966,-0.148073,0.132769
4.585,-0.373733,0.267905
4.55236,-0.163745,-0.0795132
4.57151,-0.388701,0
4.55698,-0.163911,0.0265023
4.56711,-0.164276,0.133002
4.58367,-0.389735,0.267905
4.57012,-0.404657,0
4.56037,-0.179975,0.0265256
4.57051,-0.180375,0.133118
4.58228,-0.405733,0.267905
4.56313,-0.195241,-0.0797226
4.56477,-0.419443,0
4.56375,-0.195267,0.0265488
4.58345,-0.421159,0.107103
4.56988,-0.19553,0.133118
4.58488,-0.421292,0.268137
4.55443,-0.210798,-0.079583
4.57124,-0.436135,0
4.55904,-0.211012,0.0265256
4.58195,-0.437156,0.107103
4.56917,-0.211481,0.133118
4.57941,-0.436914,0.267905
4.56166,-0.227093,-0.0797226
4.56227,-0.227123,0.0265488
4.56441,-0.22723,0.133002
4.5858,-0.453683,0.26837
4.55285,-0.242589,-0.079583
4.55746,-0.242834,0.0265256
4.57158,-0.243587,0.133235
4.58419,-0.469687,0.26837
4.56395,-0.25916,-0.0797924
4.56457,-0.259195,0.0265721
4.5811,-0.485535,0.107197
4.57469,-0.25977,0.133351
4.56302,-0.275089,-0.0797924
4.56763,-0.275367,0.0265953
4.56977,-0.275496,0.133235
4.56607,-0.290473,-0.0798622
4.5627,-0.290259,0.0265721
4.58563,-0.517603,0.107383
4.57282,-0.290902,0.133351
4.56908,-0.305881,-0.079932
4.5657,-0.305655,0.0265953
4.58389,-0.532807,0.107383
4.57183,-0.306065,0.133351
4.5686,-0.321871,0.0266186
4.58597,-0.54928,0.107476
4.56674,-0.321741,0.133235
4.56739,-0.338614,0.0266186
4.58393,-0.566084,0.107476
4.57351,-0.339068,0.133467
4.57422,-0.354376,0.0266651
4.58203,-0.581282,0.107476
4.58033,-0.35485,0.1337
4.57295,-0.370341,0.0266651
4.57109,-0.37019,0.133467
4.56758,-0.386762,0.0266418
4.57369,-0.387279,0.133584
4.5662,-0.402703,0.0266418
4.57629,-0.403593,0.1337
4.56882,-0.418208,0.0266651
4.58289,-0.419495,0.133933
4.5753,-0.43491,0.0267116
4.57742,-0.435112,0.133816
4.57579,-0.451886,0.133816
4.57817,-0.468263,0.133933
4.57667,-0.482643,0.133933
4.58274,-0.501082,0.134166
4.58511,-0.515923,0.134282
4.58328,-0.531925,0.134282
4.5814,-0.547921,0.134282
4.57529,-0.565018,0.134166
