2.99155,0.707724,-0.107351
2.98597,0.696507,-0.107072
2.98851,0.685557,-0.107072
2.98698,0.674242,-0.106932
2.94799,0.654632,0.0351561
2.99322,0.664677,-0.107072
2.94623,0.643999,0.0351095
2.98369,0.652187,-0.106653
2.94466,0.632357,0.0350629
2.98997,0.642087,-0.106792
2.98437,0.629994,-0.106513
2.94509,0.610972,0.0350164
2.93926,0.599602,0.0349233
2.97292,0.606469,-0.105955
2.94144,0.588826,0.0349233
2.97904,0.596354,-0.106094
2.9315,0.577263,-0.0347836
2.93543,0.578036,0.0348301
2.97698,0.586219,-0.105955
2.92957,0.566268,-0.034737
2.95684,0.722988,-0.0176915
2.93743,0.567786,0.0348301
2.97116,0.574307,-0.105676
2.93163,0.555526,-0.034737
2.95947,0.712145,-0.0176915
2.93556,0.556271,0.0347836
2.97324,0.563412,-0.105676
2.92962,0.544559,-0.0346904
2.95805,0.700889,-0.0176682
2.93748,0.546021,0.0347836
2.95376,0.699872,0.0529855
2.96733,0.55157,-0.105396
2.93534,0.53556,-0.034737
2.93141,0.534842,0.0346904
2.95606,0.690073,0.0529855
2.96413,0.691957,-0.15952
2.96521,0.54101,-0.105257
2.92941,0.523391,-0.0346439
2.95117,0.677537,-0.0175985
2.92941,0.523391,0.0346439
2.95077,0.677445,0.0528459
2.96718,0.530139,-0.105257
2.93122,0.513162,-0.0346439
2.94572,0.665468,-0.017552
2.93122,0.513162,0.0346439
2.94922,0.666259,0.0527761
2.96113,0.518399,-0.104978
2.92108,0.501408,-0.0345042
2.944,0.654826,-0.0175287
2.92502,0.502085,0.0345507
2.95141,0.656474,0.0527761
2.96284,0.508576,-0.104978
2.92281,0.491209,-0.0345042
2.94627,0.644546,-0.0175287
2.92675,0.491872,0.0345507
2.94196,0.643604,0.0525666
2.95277,0.496243,-0.104559
2.92064,0.479844,-0.0344576
2.94079,0.632062,-0.0174822
2.92854,0.481141,0.0345507
2.94039,0.631976,0.0524968
2.94072,0.632045,-0.157636
2.95851,0.486065,-0.104698
2.91835,0.469012,-0.034411
2.94298,0.621793,-0.0174822
2.92625,0.470281,0.0345042
2.94258,0.621709,0.0524968
2.94059,0.621288,0.122448
2.939,0.620951,-0.157427
2.95229,0.474467,-0.104419
2.92384,0.459954,-0.0344576
2.94894,0.612845,-0.0175055
2.91989,0.459332,0.034411
2.94071,0.611134,0.052427
2.93872,0.610721,0.122285
2.95385,0.464675,-0.104419
2.92148,0.449137,-0.034411
2.94323,0.600946,-0.017459
2.91752,0.448529,0.0343645
2.93891,0.600065,0.0523572
2.94475,0.601258,0.122448
2.95546,0.45436,-0.104419
2.91108,0.437663,-0.0342714
2.93736,0.589609,-0.0174125
2.91504,0.438257,0.0343179
2.93696,0.589529,0.0522874
2.93889,0.589917,0.122122
2.94904,0.443369,-0.10414
2.91267,0.426989,-0.0342714
2.93165,0.577293,-0.017366
2.92058,0.42815,0.0343645
2.9391,0.57876,0.0522874
2.93319,0.577596,0.121796
2.94669,0.431977,-0.104001
2.91414,0.416819,-0.0342714
2.93758,0.567814,-0.0173892
2.9181,0.417385,0.0343179
2.93718,0.567737,0.0522176
2.93911,0.568112,0.121959
2.9336,0.567046,-0.156589
2.94422,0.421121,-0.103861
2.92739,0.408813,-0.034411
2.93551,0.557324,-0.017366
2.90759,0.406047,0.0341782
2.93511,0.557249,0.0521478
2.93706,0.557617,0.121796
2.94164,0.410803,-0.103721
2.90502,0.395356,-0.0341317
2.93744,0.547075,-0.017366
2.89659,0.394209,-0.272884
2.90502,0.395356,0.0341317
2.94097,0.547733,0.0522176
2.93898,0.547362,0.121796
2.92954,0.545603,-0.156171
2.94306,0.400533,-0.103721
2.91035,0.385738,-0.0341782
2.93933,0.536817,-0.017366
2.894,0.383571,-0.272512
2.91431,0.386264,0.0342248
2.935,0.536026,0.052078
2.89375,0.383538,-0.169998
2.93694,0.536381,0.121633
2.92749,0.534655,-0.155961
2.93651,0.389206,-0.103442
2.91168,0.375579,-0.0341782
2.92937,0.524441,-0.0172963
2.89137,0.37296,-0.27214
2.95019,0.678395,0.0704408
2.91168,0.375579,0.0341782
2.93685,0.525779,0.052078
2.9388,0.526128,0.121633
2.95168,0.678739,-0.141082
2.92934,0.524435,-0.155961
2.93785,0.378956,-0.103442
2.91297,0.365412,-0.0341782
2.92331,0.512829,-0.0172498
2.8887,0.362368,-0.271768
2.94864,0.667209,0.0703477
2.90107,0.363919,0.0340385
2.93473,0.514833,0.0520082
2.88843,0.362334,-0.169533
2.92881,0.513794,0.121145
2.92329,0.512825,-0.155542
2.91759,0.511826,0.241815
2.90629,0.354273,-0.0340851
2.93297,0.503976,-0.0172963
2.88995,0.352282,-0.271768
2.89835,0.353305,0.033992
2.93651,0.504585,0.0520082
2.88968,0.352248,-0.169533
2.93058,0.503566,0.121145
2.92112,0.50194,-0.155333
2.93646,0.357951,-0.103303
2.9423,0.644216,0
2.89956,0.343187,-0.033992
2.92287,0.491744,-0.0172265
2.88721,0.341724,-0.271397
2.94541,0.644897,0.0701616
2.90354,0.343657,0.0340385
2.93431,0.493668,0.0519384
2.93232,0.493334,0.121145
2.91323,0.490122,0.241164
2.93372,0.34723,-0.103163
2.90074,0.333062,-0.033992
2.92852,0.482188,-0.0172498
2.88838,0.331643,-0.271397
2.94764,0.634611,0.0701616
2.90074,0.333062,0.033992
2.92023,0.480823,0.0516591
2.89207,0.332066,-0.169533
2.9222,0.481147,0.120656
2.92061,0.480886,-0.155124
2.93095,0.33653,-0.103023
2.93983,0.632928,-0.0699755
2.90189,0.322935,-0.033992
2.93018,0.471963,-0.0172498
2.89348,0.322,-0.271768
2.94202,0.622662,0.0699755
2.89791,0.322493,0.0339454
2.94345,0.622966,-0.210386
2.92584,0.471263,0.0517289
2.8813,0.320644,-0.168836
2.92386,0.470944,0.120656
2.91044,0.468783,-0.154496
2.91265,0.469138,0.240839
2.92813,0.325856,-0.102884
2.903,0.312803,-0.033992
2.91601,0.459242,-0.0171568
2.88271,0.310617,-0.270653
2.93634,0.61076,0.0697894
2.89504,0.311946,0.0338988
2.92352,0.460424,0.0516591
2.87843,0.310156,-0.168603
2.91364,0.458869,0.120168
2.91601,0.459242,-0.154705
2.91033,0.458347,0.240513
2.92925,0.315632,-0.102884
2.89601,0.30285,-0.0338988
2.9059,0.448299,-0.374259
2.92534,0.451299,-0.0172033
2.88367,0.30156,-0.270653
2.94216,0.602334,0.0698825
2.89203,0.302434,0.0338523
2.92099,0.450628,0.0515893
2.88336,0.301528,-0.168836
2.91507,0.449714,0.120168
2.91349,0.44947,-0.154496
2.90387,0.447987,0.239862
2.92625,0.306012,-0.102744
2.90594,0.437926,-0.0855262
2.88909,0.291934,-0.0338057
2.90745,0.438152,-0.374259
2.91899,0.439892,-0.0171568
2.88074,0.291091,-0.270281
2.93641,0.590483,0.0696964
2.88909,0.291934,0.0338057
2.9265,0.441024,0.0516591
2.88043,0.291059,-0.168603
2.93615,0.590431,0.174417
2.90872,0.438344,0.119842
2.91109,0.438701,-0.154286
2.90148,0.437253,0.239537
2.90357,0.426691,-0.0854098
2.8981,0.282119,-0.0338988
2.92058,0.429191,-0.0171568
2.88179,0.280531,-0.270281
2.94248,0.580491,0.0697894
2.89014,0.281344,0.0338057
2.90306,0.426616,-0.239537
2.92414,0.429714,0.0515893
2.88147,0.2805,-0.168603
2.91821,0.428843,0.120168
2.91663,0.42861,-0.154496
2.93071,0.57817,-0.0695103
2.909,0.41712,-0.0855262
2.89907,0.272,-0.0338988
2.91414,0.417858,-0.0171103
2.88275,0.270469,-0.270281
2.93663,0.568695,0.0696033
2.89111,0.271253,0.0338057
2.90059,0.415913,-0.239212
2.92167,0.418936,0.0515195
2.87448,0.269694,-0.168138
2.92854,0.567128,0.173719
2.91178,0.417518,0.119842
2.91415,0.417859,-0.154286
2.90059,0.415913,0.239212
2.92138,0.274094,-0.102465
2.92878,0.567175,-0.0694172
2.90641,0.406918,-0.0854098
2.92751,0.556864,0
2.88801,0.261304,-0.0337591
2.90009,0.406032,-0.372744
2.91948,0.408747,-0.0171335
2.8757,0.260191,-0.269538
2.93064,0.55746,0.0694172
2.88402,0.260944,0.0337126
2.90195,0.406293,-0.239212
2.91908,0.408691,0.0514497
2.87536,0.26016,-0.168138
2.93432,0.55816,0.173952
2.90523,0.406752,0.119517
2.91552,0.408193,-0.154286
2.90195,0.406293,0.239212
2.89996,0.395183,-0.0851771
2.89691,0.25141,-0.0338523
2.89762,0.394865,-0.372239
2.91699,0.397504,-0.0171103
2.87267,0.249306,-0.269166
2.9366,0.547449,0.0695103
2.87699,0.249681,0.0336195
2.90342,0.395655,-0.239212
2.92452,0.39853,0.0515195
2.8763,0.249621,-0.168138
2.9285,0.545939,0.173487
2.90274,0.395562,0.119354
2.90117,0.395348,-0.153449
2.89947,0.395116,0.238886
2.90515,0.386599,-0.0852934
2.88573,0.241308,-0.0337126
2.90672,0.386807,-0.373249
2.91823,0.388339,-0.0171103
2.88137,0.240944,-0.26991
2.93437,0.5375,0.0694172
2.88573,0.241308,0.0337126
2.89674,0.38548,-0.238561
2.91783,0.388286,0.0513799
2.88105,0.240917,-0.168371
2.92234,0.535297,0.173022
2.90397,0.386442,0.119354
2.9024,0.386232,-0.153449
2.89279,0.384954,0.238235
2.90648,0.376455,-0.0852934
2.88656,0.231233,-0.0337126
2.90018,0.375638,-0.372239
2.91956,0.378149,-0.0171103
2.87823,0.230566,-0.269538
2.94017,0.52796,0.0695103
2.87858,0.230594,0.0336195
2.89412,0.374853,-0.238235
2.9152,0.377584,0.0513101
2.87789,0.230539,-0.168138
2.9242,0.525092,0.173022
2.9053,0.376302,0.119354
2.92204,0.524706,-0.13829
2.89977,0.375585,-0.15324
2.89016,0.374341,0.23791
2.92442,0.525133,-0.0691381
2.90387,0.365301,-0.0851771
2.8834,0.220348,-0.033666
2.89366,0.364016,-0.371229
2.90902,0.365949,-0.0170405
2.87508,0.219712,-0.269166
2.9342,0.515796,0.0693242
2.8834,0.220348,0.033666
2.89547,0.364244,-0.238235
2.9126,0.366398,0.0512403
2.86677,0.219077,-0.16744
2.92217,0.51368,0.172789
2.89873,0.364654,0.119028
2.90112,0.364955,-0.15324
2.88756,0.363249,0.237584
2.91845,0.513027,-0.0689519
2.89323,0.353706,-0.084828
2.92101,0.502972,0
2.88415,0.210281,-0.033666
2.89492,0.353913,-0.371229
2.90234,0.354821,-0.016994
2.87186,0.209385,-0.268794
2.93599,0.50555,0.0693242
2.88016,0.20999,0.0336195
2.89277,0.35365,-0.23791
2.91386,0.356229,0.0512403
2.86752,0.209068,-0.16744
2.92001,0.502799,0.172557
2.90792,0.355502,0.119354
2.89445,0.353856,-0.152821
2.88881,0.353166,0.237584
2.92022,0.502836,-0.0689519
2.8945,0.3431,-0.084828
2.87692,0.199156,-0.0335729
2.89225,0.342833,-0.370724
2.90362,0.344181,-0.016994
2.87261,0.198858,-0.268794
2.92993,0.493458,0.0691381
2.87692,0.199156,0.0335729
2.898,0.343515,-0.238235
2.9072,0.344605,0.0511006
2.86428,0.198282,-0.167208
2.92183,0.492094,0.172557
2.90127,0.343902,0.119028
2.89573,0.343245,-0.152821
2.89009,0.342577,0.237584
2.92205,0.49213,-0.0689519
2.89568,0.332995,-0.084828
2.86961,0.188589,-0.0334798
2.89343,0.332736,-0.370724
2.90481,0.334044,-0.016994
2.87328,0.18883,-0.268794
2.92769,0.482578,0.069045
2.87361,0.188851,0.0335263
2.89126,0.332487,-0.237584
2.90839,0.334456,0.0511006
2.86495,0.188283,-0.167208
2.92353,0.481892,0.172557
2.89054,0.332403,0.11854
2.90087,0.333592,-0.15303
2.88334,0.331576,0.236933
2.9198,0.481277,-0.0688589
2.88479,0.322561,-0.0844789
2.91024,0.470313,0
2.8662,0.179321,-0.0334332
2.89052,0.323201,-0.370218
2.90187,0.32447,-0.0169708
2.87784,0.180049,-0.269166
2.93314,0.474014,0.0691381
2.87019,0.179571,0.0334798
2.89229,0.3234,-0.237584
2.90545,0.324871,0.0510308
2.86553,0.179279,-0.167208
2.92109,0.472066,0.172324
2.89554,0.323763,0.118702
2.90191,0.324475,-0.15303
2.9213,0.4721,-0.0688589
2.89794,0.31277,-0.084828
2.91203,0.459136,0
2.87086,0.168549,-0.0334798
2.89174,0.312101,-0.370218
2.93698,0.611428,0.0174357
2.89911,0.312897,-0.0169475
2.87453,0.168765,-0.268794
2.93099,0.462126,0.069045
2.86288,0.16808,0.0333866
2.88955,0.311865,-0.237259
2.90667,0.313713,0.0510308
2.85823,0.167808,-0.166743
2.91893,0.460225,0.172092
2.90073,0.313072,0.118865
2.90887,0.458639,-0.137174
2.89916,0.312902,-0.152821
2.88162,0.311009,0.236608
2.91914,0.460257,-0.0687658
2.88697,0.302415,-0.0844789
2.86738,0.159308,-0.0334332
2.88876,0.302602,-0.369713
2.93889,0.602198,0.0174357
2.90008,0.303788,-0.0169475
2.86709,0.159292,-0.268051
2.92452,0.451695,0.0688589
2.87138,0.15953,0.0334798
2.89052,0.302786,-0.237259
2.91162,0.304997,0.0511006
2.85874,0.158828,-0.166743
2.92037,0.451053,0.172092
2.8858,0.302292,0.118214
2.89218,0.302961,-0.152402
2.88655,0.302371,0.236933
2.91267,0.449864,-0.0685797
2.88801,0.292335,-0.0844789
2.86792,0.149297,-0.0334332
2.8819,0.291716,-0.368703
2.93313,0.590357,0.0173892
2.89317,0.292857,-0.016901
2.92213,0.440887,0.0687658
2.86393,0.149089,0.0333866
2.88759,0.292292,-0.236933
2.90869,0.294428,0.0510308
2.86327,0.149055,-0.166975
2.91797,0.44026,0.171859
2.89082,0.292619,0.118377
2.88925,0.29246,-0.152193
2.87966,0.291489,0.236282
2.91026,0.439097,-0.0684867
2.88509,0.28136,-0.0843626
2.90077,0.426797,0
2.86445,0.138592,-0.0333866
2.8869,0.281537,-0.369208
2.93135,0.578828,0.017366
2.89024,0.281863,-0.0168778
2.92768,0.430756,0.0688589
2.86046,0.138399,0.0333401
2.88864,0.281707,-0.236933
2.90179,0.282989,0.0508912
2.85581,0.138174,-0.16651
2.91562,0.428981,0.171626
2.88789,0.281634,0.118214
2.90158,0.426916,-0.136615
2.8903,0.281869,-0.152193
2.87674,0.280546,0.235957
2.91581,0.42901,-0.0685797
2.88207,0.270914,-0.0842462
2.90224,0.416669,0
2.86093,0.128414,-0.0333401
2.88392,0.271088,-0.368703
2.92942,0.567832,0.0173428
2.89519,0.272147,-0.016901
2.92521,0.419966,0.0687658
2.86093,0.128414,0.0333401
2.88564,0.27125,-0.236608
2.90276,0.272859,0.0508912
2.85628,0.128205,-0.16651
2.9171,0.418802,0.171626
2.8809,0.270804,0.117888
2.8991,0.416218,-0.136429
2.89525,0.272153,-0.152402
2.86976,0.269757,0.235306
2.91333,0.418262,-0.0684867
2.89096,0.261572,-0.0844789
2.9116,0.407645,0
2.85736,0.11826,-0.0332935
2.92746,0.556854,0.0173195
2.89214,0.261678,-0.0168778
2.92666,0.409752,0.0687658
2.86136,0.118426,0.0333401
2.90056,0.406098,-0.204805
2.88657,0.261175,-0.236608
2.92627,0.556628,0.0866898
2.89573,0.262003,0.0507516
2.84873,0.117903,-0.166045
2.91459,0.408063,0.171394
2.88581,0.261106,0.118051
2.89658,0.405541,-0.136243
2.88822,0.261324,-0.151984
2.87466,0.260097,0.235632
2.91081,0.407534,-0.0683936
2.87991,0.250439,-0.0841298
2.90508,0.396396,0
2.86175,0.108436,-0.0333401
2.92545,0.545898,0.0172963
2.88905,0.251234,-0.0168546
2.92014,0.398452,0.0685797
2.85776,0.108285,0.0332935
2.898,0.395431,-0.204526
2.89143,0.251442,-0.236933
2.90061,0.25224,0.0508214
2.85311,0.108109,-0.166278
2.91599,0.397885,0.171394
2.88272,0.250684,0.117888
2.8931,0.251586,-0.152193
2.87157,0.249715,0.235306
2.90826,0.39683,-0.0683006
2.87674,0.240555,-0.0840135
2.89845,0.385706,0
2.8621,0.0989463,-0.0333401
2.92725,0.536194,0.0172963
2.89385,0.241986,-0.0168778
2.92145,0.388767,0.0685797
2.8581,0.0988081,0.0332935
2.8993,0.385819,-0.204526
2.88828,0.24152,-0.236608
2.92212,0.535256,0.0864571
2.89744,0.242287,0.0507516
2.85745,0.0987856,-0.16651
2.92125,0.388741,0.171626
2.87955,0.240791,0.117725
2.89531,0.385288,-0.136057
2.88197,0.240993,-0.151565
2.87636,0.240524,0.235632
2.90956,0.387184,-0.0683006
2.92092,0.523979,-0.0517987
2.88159,0.230329,-0.0841298
2.89984,0.375081,0
2.85045,0.0880856,-0.0332004
2.92919,0.525462,0.0172963
2.88276,0.230423,-0.0168081
2.91889,0.377544,0.0684867
2.85444,0.0882091,0.0332469
2.89278,0.374167,-0.203968
2.88517,0.230616,-0.236282
2.92013,0.523837,0.0863407
2.89831,0.231666,0.0507516
2.84981,0.0880659,-0.166045
2.91474,0.377007,0.171161
2.88042,0.230236,0.117725
2.87885,0.230111,-0.151356
2.90579,0.37585,0.359758
2.8653,0.229027,0.234655
2.91096,0.376518,-0.0683006
2.91871,0.513596,-0.0517289
2.87436,0.220161,-0.0838971
2.8971,0.364962,0
2.84672,0.0785216,-0.0331538
2.9191,0.513665,0.0172265
2.88749,0.221166,-0.0168313
2.92012,0.367862,0.0684867
2.85472,0.0787422,0.0332469
2.89005,0.364073,-0.203689
2.87797,0.220437,-0.235632
2.91791,0.513457,0.0862243
2.89508,0.221747,0.0506818
2.84609,0.0785042,-0.165813
2.91201,0.36684,0.170929
2.88913,0.221292,0.118051
2.89396,0.364566,-0.135871
2.8796,0.220562,-0.151356
2.90308,0.365715,0.359271
2.90822,0.366362,-0.0682075
2.87511,0.210126,-0.0838971
2.89836,0.354847,0
2.84698,0.0685848,-0.0331538
2.91693,0.502794,0.0172033
2.87628,0.210212,-0.0167616
2.91742,0.357181,0.0683936
2.85898,0.0688738,0.0332935
2.8913,0.353983,-0.203689
2.87872,0.21039,-0.235632
2.91575,0.50259,0.086108
2.88786,0.211058,0.0505422
2.83837,0.0683772,-0.165347
2.90931,0.356188,0.170696
2.88192,0.210624,0.117725
2.89125,0.353977,-0.135685
2.87637,0.210218,-0.151146
2.9004,0.355097,0.358783
2.89757,0.354751,-0.0679284
2.87586,0.199586,-0.0838971
2.89964,0.344221,0
2.85121,0.0582306,-0.0332004
2.91876,0.492099,0.0172033
2.87703,0.199668,-0.0167616
2.91474,0.346014,0.0683006
2.85121,0.0582306,0.0332004
2.89258,0.343383,-0.203689
2.88345,0.200113,-0.235957
2.91363,0.491234,0.0859916
2.88861,0.200471,0.0505422
2.84259,0.0580545,-0.16558
2.91456,0.345993,0.170929
2.8747,0.199505,0.1174
2.88856,0.342906,-0.135499
2.88111,0.19995,-0.151356
2.90562,0.344931,0.359271
2.89886,0.344128,-0.0679284
2.912,0.481557,-0.0515195
2.8685,0.190023,-0.0836644
2.89276,0.334192,0
2.84738,0.0492043,-0.0331538
2.91634,0.482275,0.01718
2.87764,0.190629,-0.0167616
2.91581,0.336856,0.0683006
2.84738,0.0492043,0.0331538
2.88571,0.333378,-0.203131
2.88009,0.19079,-0.235632
2.91516,0.482079,0.0859916
2.88923,0.191396,0.0505422
2.91167,0.336377,0.170696
2.87132,0.19021,0.117237
2.88566,0.333372,-0.135313
2.86578,0.189843,-0.150518
2.89486,0.334435,0.357808
2.89992,0.33502,-0.0679284
2.91366,0.47139,-0.0515195
2.86914,0.180009,-0.0836644
2.89391,0.324093,0
2.83554,0.0391,-0.0330141
2.91801,0.472092,0.01718
2.8743,0.180333,-0.0167383
2.913,0.326231,0.0682075
2.85154,0.0393206,0.0332004
2.88686,0.323304,-0.203131
2.8688,0.179988,-0.234655
2.90893,0.470623,0.0857589
2.88589,0.18106,0.0504724
2.90489,0.325323,0.170231
2.87197,0.180186,0.117237
2.8868,0.323298,-0.135313
2.86642,0.179839,-0.150518
2.8971,0.324451,-0.0678353
2.91134,0.460591,-0.0514497
2.86576,0.169756,-0.083548
2.89105,0.313558,0
2.84366,0.0292835,-0.0331072
2.91174,0.460653,0.0171335
2.87092,0.170061,-0.0167151
2.91014,0.315629,0.0681145
2.83966,0.0292423,0.0330607
2.89194,0.313654,-0.20341
2.86941,0.169972,-0.234655
2.91055,0.460466,0.0857589
2.8865,0.170984,0.0504724
2.90204,0.31475,0.169998
2.86859,0.169923,0.117074
2.88394,0.312787,-0.135126
2.87102,0.170067,-0.150728
2.89424,0.313904,-0.0677423
2.90511,0.448697,-0.0513101
2.86636,0.159252,-0.083548
2.89615,0.303377,0
2.83975,0.0188349,-0.0330607
2.90945,0.449368,0.0171103
2.86753,0.159316,-0.0166918
2.91526,0.305378,0.0682075
2.88513,0.302222,-0.202852
2.87001,0.159454,-0.234655
2.91222,0.449796,0.0857589
2.88311,0.160182,0.0504026
2.90749,0.449065,-0.188547
2.89523,0.30328,0.169533
2.86919,0.159409,0.117074
2.88904,0.302632,-0.135313
2.8796,0.159987,-0.151146
2.89139,0.302878,-0.0676492
2.90658,0.439061,-0.0513101
2.86288,0.149538,-0.0834316
2.89316,0.293368,0
2.83179,0.00939188,-0.0329675
2.91093,0.439718,0.0171103
2.86804,0.149807,-0.0166918
2.9083,0.294902,0.0680214
2.88612,0.292653,-0.202852
2.86654,0.149729,-0.23433
2.90974,0.439539,0.0856425
2.87964,0.150413,0.0503327
2.89622,0.293678,0.169533
2.8697,0.149894,0.117074
2.8781,0.291841,-0.134754
2.87214,0.150021,-0.150728
2.90461,0.438764,-0.119679
2.89238,0.293289,-0.0676492
2.91212,0.428987,-0.0513799
2.85543,0.138655,-0.0831989
2.89024,0.282372,0
2.84781,-0.000993503,-0.0331538
2.90856,0.428462,0.017087
2.86857,0.139293,-0.0166918
2.90538,0.283851,0.0679284
2.87923,0.281297,-0.202294
2.87504,0.139607,-0.234981
2.91133,0.428871,0.0856425
2.88416,0.14005,0.0504026
2.90266,0.427592,-0.188035
2.89727,0.28306,0.169533
2.86624,0.13918,0.116911
2.88711,0.282067,-0.135126
2.87267,0.139492,-0.150728
2.90225,0.427532,-0.119517
2.89344,0.282685,-0.0676492
2.90561,0.418189,-0.0512403
2.85188,0.129005,-0.0830826
2.8832,0.272036,0
2.83179,-0.010378,-0.0329675
2.91393,0.419385,0.0171103
2.86103,0.129419,-0.0166453
2.9063,0.274216,0.0679284
2.88014,0.271748,-0.202294
2.8715,0.129893,-0.234655
2.90087,0.417506,0.0852934
2.88062,0.130305,0.0503327
2.90011,0.417396,-0.187779
2.8982,0.273451,0.169533
2.86669,0.129675,0.116911
2.88405,0.272116,-0.13494
2.86513,0.129605,-0.150309
2.89969,0.417336,-0.119354
2.89038,0.272713,-0.0675562
2.90706,0.408043,-0.0512403
2.86829,0.119716,-0.083548
2.88811,0.262331,0
2.82774,-0.0202348,-0.032921
2.89953,0.406986,0.0170173
2.86945,0.119764,-0.0166918
2.90724,0.264068,0.0679284
2.88505,0.262053,-0.202573
2.90231,0.407377,0.0852934
2.86107,0.119415,0.0499837
2.89516,0.262971,0.169301
2.85914,0.119334,0.116586
2.881,0.261685,-0.134754
2.86956,0.119769,-0.150518
2.89717,0.406656,-0.119191
2.89131,0.262622,-0.0675562
2.9045,0.39735,-0.0511705
2.8607,0.109396,-0.0833153
2.88901,0.252247,0
2.83165,-0.0301487,-0.0329675
2.90093,0.396862,0.0170173
2.85786,0.109288,-0.0166221
2.90018,0.253222,0.0677423
2.88197,0.251633,-0.202294
2.90767,0.397784,0.0854098
2.86547,0.109579,0.0500535
2.89899,0.396597,-0.187524
2.8881,0.252168,0.168836
2.8819,0.251626,-0.134754
2.86597,0.109598,-0.150309
2.88823,0.252179,-0.0674631
2.90197,0.386175,-0.0511006
2.8451,0.0983588,-0.0828498
2.88991,0.241657,0
2.90236,0.386227,0.0170173
2.85824,0.0988134,-0.0166221
2.88913,0.241592,0.0674631
2.8789,0.240736,-0.202015
2.90119,0.38607,0.0851771
2.86985,0.0992146,0.0501233
2.89647,0.385443,-0.187268
2.889,0.241581,0.168836
2.87882,0.24073,-0.134568
2.85837,0.0988177,-0.14989
2.89605,0.385386,-0.119028
2.88116,0.240925,-0.067277
2.9072,0.377063,-0.0511705
2.8534,0.0891726,-0.0830826
2.88273,0.231432,0
2.8957,0.375571,0.0169708
2.86255,0.0894587,-0.0166453
2.86615,0.230101,-0.309725
2.89789,0.232649,0.0676492
2.8757,0.230868,-0.201736
2.90245,0.376447,0.0851771
2.86616,0.0895715,0.0500535
2.89773,0.375835,-0.187268
2.88581,0.231679,0.168603
2.87562,0.230861,-0.134382
2.85069,0.0890881,-0.149472
2.89335,0.375266,-0.118865
2.88195,0.231369,-0.067277
2.90057,0.365914,-0.0510308
2.85369,0.0792138,-0.0830826
2.88352,0.22137,0
2.89699,0.365463,0.0169708
2.85485,0.079246,-0.0165988
2.90267,0.22284,0.0677423
2.87649,0.22083,-0.201736
2.89185,0.364814,0.084828
2.86246,0.0794572,0.0499837
2.89111,0.364721,-0.186756
2.8866,0.221606,0.168603
2.87641,0.220824,-0.134382
2.85099,0.0791387,-0.149472
2.89464,0.365166,-0.118865
2.88274,0.22131,-0.067277
2.90182,0.355786,-0.0510308
2.84995,0.0691543,-0.0829662
2.88427,0.211302,0
2.89428,0.354861,0.0169475
2.85111,0.0691824,-0.0165756
2.87561,0.210668,-0.310581
2.89147,0.211829,0.0674631
2.87327,0.210496,-0.201457
2.89707,0.355203,0.0849444
2.85872,0.0693671,0.0499139
2.89236,0.354626,-0.186756
2.89134,0.21182,0.168836
2.87716,0.210781,-0.134382
2.84725,0.0690888,-0.149262
2.89589,0.355059,-0.118865
2.8795,0.210953,-0.067184
2.89505,0.345213,-0.0508912
2.85417,0.0597861,-0.0830826
2.88097,0.201457,0
2.89544,0.34526,0.0169475
2.85932,0.0598942,-0.0166221
2.89614,0.202518,0.0675562
2.87395,0.200966,-0.201457
2.89426,0.34512,0.084828
2.85894,0.0598861,0.0499139
2.89352,0.345032,-0.186756
2.87609,0.201116,0.167906
2.87784,0.201238,-0.134382
2.84347,0.0595621,-0.149053
2.88912,0.344506,-0.11854
2.8762,0.201123,-0.0670909
2.89623,0.335105,-0.0508912
2.84236,0.0496127,-0.0827335
2.88165,0.191398,0
2.89265,0.33469,0.0169243
2.84752,0.0497027,-0.0165523
2.88486,0.191611,0.067277
2.87065,0.190667,-0.201178
2.89148,0.334554,0.0847116
2.85113,0.0497658,0.0497743
2.88678,0.334011,-0.186244
2.88076,0.191339,0.168138
2.87056,0.190661,-0.13401
2.83967,0.0495657,-0.148843
2.8903,0.334419,-0.11854
2.87688,0.191081,-0.0670909
2.89744,0.324488,-0.0508912
2.83453,0.039085,-0.0825008
2.87834,0.180585,0
2.89386,0.324087,0.0169243
2.85568,0.0393766,-0.0165988
2.88155,0.180787,0.067184
2.87133,0.180145,-0.201178
2.89666,0.3244,0.084828
2.88798,0.323429,-0.186244
2.88144,0.18078,0.168138
2.87522,0.18039,-0.134196
2.83584,0.039103,-0.148634
2.88754,0.323379,-0.118377
2.87756,0.180536,-0.0670909
2.8985,0.314878,-0.0508912
2.83464,0.0296857,-0.0825008
2.87094,0.170565,0
2.89492,0.314489,0.0169243
2.8518,0.0298653,-0.0165756
2.89012,0.171705,0.0673701
2.86394,0.17015,-0.20062
2.88977,0.31393,0.0845953
2.88904,0.313851,-0.186244
2.88601,0.171461,0.168371
2.86783,0.170381,-0.133824
2.83995,0.0297412,-0.148843
2.88462,0.31337,-0.118214
2.87016,0.170519,-0.0669048
2.89958,0.304759,-0.0508912
2.84273,0.0198472,-0.0827335
2.87551,0.160767,0
2.88009,0.30271,0.0168313
2.84788,0.0198832,-0.0165523
2.8907,0.161616,0.0673701
2.86452,0.160152,-0.20062
2.89085,0.303841,0.0845953
2.88615,0.303347,-0.185989
2.87862,0.160941,0.167906
2.86841,0.16037,-0.133824
2.88967,0.303718,-0.118377
2.86675,0.160277,-0.0668117
2.88869,0.293423,-0.0506818
2.84278,0.00992335,-0.0827335
2.87206,0.150518,0
2.88511,0.293058,0.0168546
2.83994,0.00991342,-0.0165058
2.89125,0.151524,0.0673701
2.86506,0.150152,-0.20062
2.88791,0.293343,0.0844789
2.88322,0.292867,-0.185733
2.87294,0.150564,-0.13401
2.88276,0.29282,-0.118051
2.86729,0.150268,-0.0668117
2.8897,0.283337,-0.0506818
2.8308,-6.16915e-07,-0.0823844
2.87656,0.140687,0
2.88611,0.282985,0.0168546
2.84395,-6.19781e-07,-0.0165291
2.87978,0.140844,0.0670909
2.86955,0.140344,-0.200899
2.8929,0.28365,0.0845953
2.88422,0.2828,-0.185733
2.86946,0.140339,-0.133824
2.89172,0.283535,-0.118377
2.8638,0.140063,-0.0667187
2.89067,0.273249,-0.0506818
2.83078,-0.00988136,-0.0823844
2.86505,0.130101,0
2.8831,0.272533,0.0168313
2.83593,-0.00989934,-0.0164826
2.88025,0.130791,0.0670909
2.86604,0.130146,-0.20062
2.88591,0.272799,0.0843626
2.88519,0.272731,-0.185733
2.86594,0.130141,-0.133637
2.88474,0.272688,-0.118051
2.86427,0.130066,-0.0667187
2.89161,0.263158,-0.0506818
2.82673,-0.0197341,-0.082268
2.86948,0.120267,0
2.88005,0.262106,0.0168081
2.88069,0.120737,0.0670909
2.87046,0.120309,-0.200899
2.88286,0.262361,0.0842462
2.88215,0.262297,-0.185477
2.86637,0.120137,-0.133637
2.88169,0.262255,-0.117888
2.85672,0.119733,-0.0665326
2.89251,0.253063,-0.0506818
2.83065,-0.0296424,-0.0823844
2.86988,0.110251,0
2.87696,0.251703,0.0167848
2.88109,0.110682,0.0670909
2.86289,0.109982,-0.200341
2.87579,0.2516,0.0840135
2.8751,0.25154,-0.184965
2.86678,0.110132,-0.133637
2.88259,0.252195,-0.117888
2.85712,0.109761,-0.0665326
2.8854,0.242295,-0.0505422
2.82653,-0.0394679,-0.082268
2.86625,0.100092,0
2.87384,0.241323,0.0167616
2.87747,0.100484,0.0669978
2.85927,0.0998484,-0.200062
2.88064,0.241894,0.0841298
2.87596,0.241501,-0.184965
2.86315,0.0999838,-0.133451
2.87549,0.241462,-0.117563
2.85748,0.099786,-0.0665326
2.88225,0.2319,-0.0504724
2.87058,0.0902114,0
2.87466,0.231289,0.0167616
2.86581,0.0900613,0.0667187
2.85561,0.0897409,-0.199783
2.87748,0.231516,0.0840135
2.87678,0.23146,-0.184965
2.85549,0.0897371,-0.133079
2.8803,0.231743,-0.117725
2.85382,0.0896845,-0.0664395
2.88304,0.221838,-0.0504724
2.85889,0.0798561,0
2.88343,0.221868,0.0168081
2.86611,0.0800579,0.0667187
2.87827,0.221471,0.0840135
2.87757,0.221417,-0.184965
2.85579,0.0797697,-0.133079
2.88109,0.221688,-0.117725
2.86211,0.0799462,-0.0666256
2.88379,0.211773,-0.0504724
2.85915,0.069876,0
2.87621,0.211215,0.0167616
2.86237,0.0699548,0.0666256
2.86308,0.210251,0.083548
2.87435,0.211079,-0.184709
2.85206,0.0697027,-0.132893
2.86989,0.210751,-0.117237
2.86237,0.0699548,-0.0666256
2.88851,0.201984,-0.0505422
2.85937,0.0598953,0
2.86895,0.200616,0.0167151
2.87059,0.0601304,0.0668117
2.86778,0.200535,0.0836644
2.8671,0.200487,-0.184198
2.84829,0.0596631,-0.132707
2.8706,0.200732,-0.117237
2.8586,0.0598791,-0.0665326
2.87316,0.191843,-0.0502629
2.85955,0.0509121,0
2.86956,0.191602,0.0167151
2.8684,0.191524,0.0836644
2.8717,0.191745,-0.184454
2.84846,0.0507147,-0.132707
2.87521,0.191979,-0.1174
2.84678,0.0506847,-0.0662534
2.87385,0.181311,-0.0502629
2.85971,0.040431,0
2.87424,0.181335,0.0167383
2.87307,0.181262,0.0837807
2.87238,0.181218,-0.184454
2.84463,0.0402177,-0.132521
2.86791,0.180936,-0.117074
2.85494,0.0403635,-0.0664395
2.87443,0.17178,-0.0502629
2.84783,0.0308177,0
2.87083,0.171564,0.0167151
2.86168,0.171018,0.0834316
2.86898,0.171454,-0.184198
2.84475,0.0307843,-0.132521
2.87249,0.171663,-0.117237
2.84306,0.0307661,-0.0661604
2.86703,0.161296,-0.0501233
2.84392,0.0208474,0
2.8754,0.161767,0.0167383
2.85827,0.160803,0.0833153
2.86558,0.161214,-0.183942
2.84883,0.0208834,-0.132707
2.86908,0.161411,-0.117074
2.84315,0.0208418,-0.0661604
2.87556,0.151708,-0.0502629
2.84398,0.0109202,0
2.86796,0.151307,0.0166918
2.85881,0.150825,0.0833153
2.85815,0.15079,-0.18343
2.86164,0.150974,-0.116748
2.84321,0.0109172,-0.0661604
2.8601,0.140883,-0.0499837
2.848,0.000994138,0
2.86048,0.140902,0.0166453
2.85932,0.140845,0.0833153
2.85866,0.140812,-0.18343
2.86215,0.140984,-0.116748
2.83523,0.000989681,-0.0659743
2.86457,0.131081,-0.0500535
2.86096,0.130916,0.0166453
2.85181,0.130497,0.0830826
2.85914,0.130833,-0.18343
2.86263,0.130992,-0.116748
2.83922,-0.00891969,-0.0660673
2.86101,0.120912,-0.0499837
2.8614,0.120929,0.0166453
2.84825,0.120373,0.0829662
2.85559,0.120683,-0.183174
2.86307,0.120999,-0.116748
2.83917,-0.0188304,-0.0660673
2.85742,0.11077,-0.0499139
2.85781,0.110785,0.0166221
2.84466,0.110275,0.0828498
2.85599,0.110715,-0.183174
2.85548,0.110695,-0.116423
2.83509,-0.0287003,-0.0659743
2.85779,0.100795,-0.0499139
2.85418,0.100668,0.0165988
2.84902,0.100486,0.0829662
2.84838,0.100463,-0.182663
2.85585,0.100727,-0.116423
2.83897,-0.0386509,-0.0660673
2.85811,0.0913176,-0.0499139
2.8545,0.0912023,0.0165988
2.84135,0.0907821,0.0827335
2.85668,0.091272,-0.183174
2.85218,0.0911282,-0.11626
2.81883,-0.0477265,-0.0656021
2.85841,0.0813404,-0.0499139
2.8508,0.0811239,0.0165756
2.849,0.0810727,-0.182663
2.84848,0.081058,-0.116097
2.85468,0.0712624,-0.0498441
2.85506,0.071272,0.0165988
2.85674,0.0713139,-0.116423
2.85491,0.0612973,-0.0498441
2.85129,0.0612197,0.0165756
2.84099,0.0609984,-0.115772
2.8511,0.0512595,-0.0497743
2.83949,0.0510508,0.0165058
2.84518,0.051153,-0.115934
2.84327,0.0411911,-0.0496346
2.84765,0.0412547,0.0165523
2.84534,0.0412212,-0.115934
2.84339,0.031266,-0.0496346
2.84378,0.0312703,0.0165291
2.84147,0.0312449,-0.115772
2.84349,0.0213405,-0.0496346
2.84156,0.0213261,-0.115772
2.84354,0.0114148,-0.0496346
2.84162,0.0114071,-0.115772
2.83557,0.0014847,-0.049495
2.82756,-0.00838957,-0.0493554
2.83551,-0.0183112,-0.049495
2.83543,-0.0282088,-0.049495
2.83531,-0.0381061,-0.049495
