2.64619,0.469928,-0.0469121
2.58302,0.201927,-0.0754027
2.62274,0.334585,0
2.56674,0.0748334,-0.0298943
2.59904,0.203179,-0.331833
2.59604,0.202944,-0.0151342
2.60766,0.332661,-0.283165
2.57968,0.0752109,-0.240911
2.626,0.335001,0.0616008
2.57073,0.07495,0.0299409
2.62427,0.33478,-0.184994
2.60337,0.203518,-0.213175
2.60366,0.20354,0.0455857
2.57454,0.075061,-0.149999
2.6019,0.203403,0.106327
2.63179,0.33574,-0.123587
2.60049,0.203292,-0.136702
2.6444,0.46961,-0.109421
2.626,0.335001,-0.0616008
2.64395,0.459542,-0.0468423
2.57976,0.192162,-0.0752863
2.62395,0.324971,0
2.56299,0.065324,-0.0298477
2.59185,0.193063,-0.330823
2.59277,0.193132,-0.015111
2.57198,0.065553,-0.240167
2.62324,0.324883,0.0615077
2.56299,0.065324,0.0298477
2.6136,0.323689,-0.184157
2.6041,0.193975,-0.213175
2.59641,0.193402,0.0454461
2.57081,0.0655232,-0.149766
2.59067,0.192975,0.105839
2.62111,0.324619,-0.123028
2.60121,0.19376,-0.136702
2.6461,0.459915,-0.109421
2.62721,0.325374,-0.0616008
2.6416,0.449639,-0.0467725
2.58041,0.183156,-0.0752863
2.61316,0.314377,0
2.5672,0.0564656,-0.0298943
2.59251,0.184015,-0.330823
2.60141,0.184647,-0.0151575
2.57219,0.0565753,-0.240167
2.62039,0.315247,0.0614147
2.56321,0.0563777,0.0298477
2.61868,0.315041,-0.184436
2.59681,0.18432,-0.212524
2.60106,0.184622,0.0455159
2.57102,0.0565495,-0.149766
2.59531,0.184214,0.106002
2.62223,0.315468,-0.123028
2.59391,0.184114,-0.136283
2.5809,0.183191,0.211222
2.64769,0.450676,-0.109421
2.62833,0.316202,-0.0616008
2.63913,0.44022,-0.0467026
2.57702,0.174329,-0.0751699
2.61021,0.305245,0
2.55538,0.0477286,-0.0297546
2.5931,0.175417,-0.330823
2.63554,0.439621,0.0155294
2.59403,0.17548,-0.015111
2.63075,0.307647,-0.285307
2.5644,0.0478971,-0.239424
2.61745,0.306092,0.0613216
2.55938,0.0478033,0.0298012
2.61574,0.305892,-0.184157
2.59343,0.175439,-0.212199
2.60166,0.175996,0.0455159
2.642,0.440699,-0.171662
2.57119,0.0480239,-0.149766
2.61373,0.305657,0.153254
2.58793,0.175068,0.105676
2.61929,0.306307,-0.122842
2.59052,0.175242,-0.136073
2.6334,0.439264,-0.10877
2.62539,0.307021,-0.0615077
2.64467,0.431185,-0.0467725
2.56966,0.16437,-0.0749372
2.61529,0.296124,0
2.55554,0.0383604,-0.0297546
2.58977,0.165657,-0.330318
2.63319,0.429313,0.0155062
2.60264,0.16648,-0.0151575
2.62791,0.297553,-0.284878
2.56854,0.0385556,-0.239796
2.62253,0.296944,0.0614147
2.55954,0.0384205,0.0298012
2.61288,0.295852,-0.183878
2.59405,0.165931,-0.212199
2.59031,0.165691,0.0453064
2.63572,0.429726,-0.17115
2.57135,0.0385978,-0.149766
2.6188,0.296522,0.153487
2.58856,0.165579,0.105676
2.6204,0.296703,-0.122842
2.59114,0.165744,-0.136073
2.63499,0.429607,-0.10877
2.63048,0.297844,-0.0616008
2.63431,0.420064,-0.046563
2.5782,0.155884,-0.0751699
2.61631,0.286995,0
2.55566,0.0294415,-0.0297546
2.58637,0.156378,-0.329813
2.63467,0.42012,0.0155062
2.58324,0.156189,-0.0150412
2.62498,0.287947,-0.28445
2.56468,0.0295454,-0.239424
2.61957,0.287354,0.0613216
2.55966,0.0294875,0.0298012
2.60597,0.285861,-0.18332
2.59461,0.156876,-0.212199
2.59886,0.157133,0.0454461
2.64115,0.421153,-0.171406
2.57147,0.0296237,-0.149766
2.60791,0.286074,0.152789
2.58912,0.156544,0.105676
2.62142,0.287556,-0.122842
2.5917,0.1567,-0.136073
2.62858,0.41915,-0.108444
2.62752,0.288226,-0.0615077
2.63167,0.411169,-0.0464932
2.57868,0.147784,-0.0751699
2.60526,0.277504,0
2.55574,0.021413,-0.0297546
2.58685,0.148252,-0.329813
2.63202,0.411224,0.0154829
2.58771,0.148302,-0.0150645
2.62192,0.279278,-0.284021
2.56078,0.0214552,-0.239052
2.61251,0.278276,0.0611355
2.55974,0.0214465,0.0298012
2.61479,0.278519,-0.183878
2.59111,0.148497,-0.211873
2.64281,0.412909,0.0778463
2.59135,0.148511,0.0453064
2.63457,0.411622,-0.170895
2.55957,0.0214451,-0.149068
2.6088,0.277881,0.152789
2.57763,0.147724,0.105188
2.60641,0.277627,-0.122098
2.5882,0.14833,-0.135864
2.57121,0.147356,0.210246
2.63778,0.412124,-0.10877
2.62046,0.279123,-0.0613216
2.63309,0.401979,-0.0464932
2.5672,0.138137,-0.0748209
2.60224,0.267998,0
2.5558,0.012491,-0.0297546
2.58339,0.139008,-0.329308
2.62949,0.40143,0.0154597
2.58821,0.139267,-0.0150645
2.61892,0.269716,-0.283593
2.56084,0.0125156,-0.239052
2.61347,0.269154,0.0611355
2.5478,0.0124519,0.0296615
2.60384,0.268163,-0.183041
2.58764,0.139236,-0.211548
2.58786,0.139249,0.0452366
2.63204,0.40182,-0.170639
2.56363,0.0125293,-0.149301
2.60975,0.268772,0.152789
2.57813,0.138725,0.105188
2.60339,0.268117,-0.121912
2.5887,0.139294,-0.135864
2.63526,0.40231,-0.108607
2.61744,0.269564,-0.0612286
2.63461,0.391865,-0.0464932
2.56771,0.128278,-0.0748209
2.60723,0.258398,0
2.55183,0.00267256,-0.029708
2.63892,0.392507,0.0155062
2.58873,0.129328,-0.0150645
2.61993,0.259657,-0.283593
2.56087,0.00268203,-0.239052
2.6105,0.258722,0.0610425
2.54783,0.00266837,0.0296615
2.60485,0.258162,-0.183041
2.58417,0.1291,-0.211222
2.58438,0.129111,0.0451668
2.63357,0.39171,-0.170639
2.55567,0.00267659,-0.148836
2.60679,0.258355,0.152557
2.58263,0.129023,0.10535
2.6044,0.258118,-0.121912
2.58522,0.129153,-0.135655
2.62888,0.391012,-0.108281
2.62244,0.259906,-0.0613216
2.63187,0.383011,-0.0464234
2.5681,0.120211,-0.0748209
2.60404,0.249824,0
2.54382,-0.00532702,-0.0296149
2.58033,0.120783,-0.328802
2.62827,0.382487,0.0154364
2.58513,0.121008,-0.0150412
2.61678,0.251046,-0.283165
2.56086,-0.0053627,-0.239052
2.61528,0.250902,0.0611355
2.54782,-0.0053354,0.0296615
2.60564,0.249978,-0.183041
2.58058,0.120795,-0.210897
2.62325,0.381756,0.0771481
2.58078,0.120804,0.045097
2.61898,0.381135,-0.169615
2.55167,-0.00534346,-0.148603
2.60759,0.250164,0.152557
2.57903,0.120723,0.105188
2.61316,0.250698,-0.122284
2.58163,0.120844,-0.135445
2.63009,0.382752,-0.108281
2.61528,0.250902,-0.0611355
2.62527,0.372697,-0.0462838
2.5725,0.111418,-0.0749372
2.59693,0.239996,0
2.54379,-0.0142073,-0.0296149
2.58074,0.111775,-0.328802
2.62563,0.372747,0.0154132
2.58154,0.11181,-0.015018
2.60972,0.241178,-0.282308
2.61216,0.241403,0.0610425
2.54379,-0.0142073,0.0296149
2.6065,0.24088,-0.183041
2.58497,0.111958,-0.211222
2.62456,0.372596,0.0771481
2.58518,0.111967,0.0451668
2.63215,0.373674,-0.170383
2.54764,-0.0142288,-0.148371
2.60049,0.240325,0.152092
2.56746,0.1112,0.104699
2.60208,0.240472,-0.121725
2.57804,0.111658,-0.135236
2.62745,0.373006,-0.108119
2.61614,0.241771,-0.0611355
2.62272,0.362068,-0.046214
2.56092,0.101067,-0.0745881
2.60182,0.230376,0
2.54371,-0.023974,-0.0296149
2.58115,0.101865,-0.328802
2.62704,0.362664,0.0154132
2.58195,0.101897,-0.015018
2.61063,0.231156,-0.282308
2.55677,-0.024097,-0.23868
2.6051,0.230667,0.0608564
2.53972,-0.0239363,0.0295684
2.60343,0.230519,-0.182762
2.58538,0.102032,-0.211222
2.61805,0.361423,0.0769154
2.5776,0.101725,0.0450272
2.62566,0.362473,-0.169871
2.54358,-0.0239727,-0.148138
2.59742,0.229987,0.151859
2.56787,0.101341,0.104699
2.599,0.230127,-0.121539
2.57845,0.101759,-0.135236
2.62491,0.362369,-0.107956
2.61307,0.231372,-0.0610425
2.62001,0.352378,-0.0461442
2.55327,0.0918404,-0.0743554
2.59464,0.220616,0
2.54362,-0.0328525,-0.0296149
2.57752,0.0927129,-0.328297
2.62433,0.352959,0.0153899
2.57029,0.0924529,-0.0149482
2.60349,0.221368,-0.281451
2.54871,-0.0329183,-0.237937
2.6019,0.221233,0.0607633
2.53562,-0.0327492,0.0295218
2.58434,0.21974,-0.181367
2.58572,0.0930078,-0.211222
2.62722,0.353348,0.0771481
2.58194,0.0928716,0.045097
2.619,0.352242,-0.16936
2.53949,-0.0327992,-0.147906
2.59821,0.220919,0.151859
2.56421,0.0922341,0.104536
2.59581,0.220715,-0.121353
2.57879,0.0927585,-0.135236
2.62616,0.353205,-0.107956
2.60987,0.221911,-0.0609494
2.6211,0.344144,-0.0461442
2.56553,0.0842114,-0.0747045
2.59532,0.212462,0
2.5355,-0.0407156,-0.0295218
2.62146,0.344191,0.0153667
2.58257,0.0847705,-0.015018
2.60814,0.213512,-0.281879
2.55257,-0.0409898,-0.238309
2.60259,0.213058,0.0607633
2.5355,-0.0407156,0.0295218
2.59297,0.21227,-0.181925
2.58202,0.0847525,-0.210897
2.62039,0.344051,0.0769154
2.57822,0.0846279,0.0450272
2.62405,0.344531,-0.169615
2.54336,-0.0408419,-0.148138
2.59491,0.212429,0.151627
2.56848,0.0843083,0.104699
2.59649,0.212558,-0.121353
2.57508,0.0845248,-0.135027
2.61537,0.343391,-0.107467
2.61853,0.214363,-0.0611355
2.62234,0.334534,-0.0461442
2.56183,0.0746905,-0.0745881
2.59608,0.202948,0
2.53533,-0.0500091,-0.0295218
2.57016,0.0749336,-0.327287
2.61873,0.334074,0.0153435
2.57486,0.0750706,-0.0149715
2.54444,-0.0501887,-0.237565
2.61132,0.20414,0.0609494
2.53533,-0.0500091,0.0295218
2.59771,0.203076,-0.182204
2.61767,0.333938,0.076799
2.57451,0.0750604,0.0449574
2.62133,0.334406,-0.16936
2.54719,-0.0502429,-0.148371
2.59965,0.203227,0.151859
2.56079,0.0746602,0.104373
2.59725,0.20304,-0.121353
2.57138,0.074969,-0.134817
2.61661,0.333802,-0.107467
2.61132,0.20414,-0.0609494
2.61556,0.324395,-0.0460045
2.56607,0.0658507,-0.0747045
2.58481,0.192992,0
2.53115,-0.0587654,-0.0294752
2.58561,0.193052,-0.403381
2.57041,0.0659621,-0.327287
2.61591,0.324439,0.0153202
2.56711,0.0658775,-0.014925
2.59373,0.193659,-0.280166
2.54823,-0.059162,-0.237937
2.61202,0.195024,0.0609494
2.53515,-0.0588582,0.0295218
2.59045,0.193413,-0.181646
2.5706,0.065967,-0.20992
2.61485,0.324307,0.0766826
2.56676,0.0658686,0.0448178
2.6106,0.32378,-0.168592
2.53901,-0.058948,-0.147906
2.59238,0.193557,0.151394
2.56103,0.0657215,0.104373
2.58997,0.193378,-0.120981
2.57162,0.0659933,-0.134817
2.61776,0.324667,-0.107467
2.61202,0.195024,-0.0609494
2.61662,0.31572,-0.0460045
2.55428,0.0570736,-0.0743554
2.59341,0.184989,0
2.53094,-0.0671581,-0.0294752
2.59412,0.18504,-0.404611
2.57061,0.0574385,-0.327287
2.613,0.315284,0.015297
2.56732,0.0573648,-0.014925
2.58643,0.184491,-0.279309
2.53608,-0.0672946,-0.236822
2.60069,0.185508,0.0606703
2.52694,-0.0670521,0.0294287
2.58709,0.184538,-0.181367
2.57479,0.0575318,-0.210246
2.61591,0.315634,0.0766826
2.57497,0.0575357,0.0449574
2.61166,0.315122,-0.168592
2.53481,-0.0672609,-0.147673
2.59301,0.18496,0.151394
2.55724,0.0571397,0.104211
2.58662,0.184504,-0.120795
2.57582,0.0575549,-0.135027
2.61882,0.315985,-0.107467
2.60468,0.185793,-0.0607633
2.60976,0.305653,-0.0458649
2.55446,0.0481564,-0.0743554
2.57808,0.174852,0
2.52669,-0.075873,-0.0294287
2.59081,0.175715,-0.403996
2.61409,0.30616,0.015297
2.5635,0.0483268,-0.0149017
2.59103,0.17573,-0.279738
2.53185,-0.0760278,-0.23645
2.59733,0.176157,0.0605772
2.51869,-0.0756329,0.0293355
2.58374,0.175236,-0.181088
2.57498,0.0485431,-0.210246
2.61303,0.306036,0.0765663
2.56715,0.0483956,0.0448178
2.61274,0.306003,-0.168592
2.53855,-0.0762292,-0.147906
2.59364,0.175907,0.151394
2.54943,0.0480615,0.103885
2.58326,0.175203,-0.120609
2.56402,0.0483367,-0.134399
2.61828,0.177578,0.322223
2.6199,0.306841,-0.107467
2.60531,0.176699,-0.0607633
2.61086,0.296086,-0.0458649
2.54663,0.0386727,-0.0741227
2.58269,0.165658,0
2.5184,-0.0848633,-0.0293355
2.57566,0.165207,-0.401536
2.61122,0.296127,0.0152737
2.56366,0.0389313,-0.0149017
2.59165,0.166233,-0.279738
2.53155,-0.0853064,-0.23645
2.59796,0.166637,0.0605772
2.5224,-0.084998,0.0293821
2.58437,0.165765,-0.181088
2.56716,0.0389845,-0.209595
2.61016,0.296006,0.0764499
2.56731,0.0389868,0.0448178
2.60988,0.295975,-0.168336
2.53427,-0.0853979,-0.147673
2.59028,0.166145,0.151161
2.55359,0.0387783,0.104048
2.5799,0.165479,-0.120423
2.56418,0.0389393,-0.134399
2.6091,0.295886,-0.106979
2.60195,0.166893,-0.0606703
2.60781,0.287444,-0.0457951
2.54674,0.0306713,-0.0741227
2.5832,0.157543,0
2.51812,-0.0927754,-0.0293355
2.57617,0.157114,-0.401536
2.56313,0.0308687,-0.326277
2.60816,0.287483,0.0152505
2.56377,0.0308764,-0.0149017
2.59613,0.158331,-0.280166
2.53525,-0.0934065,-0.236822
2.59847,0.158474,0.0605772
2.52611,-0.0930699,0.0294287
2.58089,0.157402,-0.180809
2.5593,0.0308226,-0.208944
2.60313,0.286928,0.0762172
2.55942,0.0308241,0.0446782
2.6108,0.287774,-0.168336
2.53797,-0.0935069,-0.147906
2.59079,0.158006,0.151161
2.5537,0.0307551,0.104048
2.5804,0.157372,-0.120423
2.56829,0.0309308,-0.134608
2.60604,0.287249,-0.106816
2.59847,0.158474,-0.0605772
2.60089,0.277037,-0.0456555
2.54683,0.0213374,-0.0741227
2.57977,0.147846,0
2.52176,-0.102165,-0.0293821
2.56883,0.147219,-0.400306
2.55926,0.0214415,-0.325772
2.6092,0.277922,0.0152505
2.55587,0.0214131,-0.0148553
2.58875,0.148361,-0.279309
2.53091,-0.102536,-0.23645
2.59903,0.14895,0.0605772
2.51776,-0.102004,0.0293355
2.57747,0.147714,-0.18053
2.56338,0.021476,-0.209269
2.60814,0.277809,0.0763336
2.56352,0.0214772,0.044748
2.6039,0.277358,-0.167825
2.52565,-0.102323,-0.147208
2.5754,0.147595,0.150231
2.5498,0.0213622,0.103885
2.58495,0.148143,-0.120609
2.56439,0.0214845,-0.134399
2.6031,0.277273,-0.106653
2.59504,0.148721,-0.0604842
2.60582,0.268367,-0.0457253
2.54689,0.0124477,-0.0741227
2.58027,0.13884,0
2.52538,-0.111143,-0.0294287
2.56538,0.138039,-0.399691
2.55932,0.0125084,-0.325772
2.61015,0.268813,0.0152505
2.55593,0.0124918,-0.0148553
2.58131,0.138896,-0.278452
2.52656,-0.111194,-0.236078
2.58356,0.139017,0.060205
2.51739,-0.110791,0.0293355
2.57797,0.138716,-0.18053
2.60511,0.268294,0.0762172
2.55558,0.0124902,0.0446084
2.60485,0.268267,-0.167825
2.52926,-0.111313,-0.147441
2.58388,0.139034,0.150696
2.54586,0.0124426,0.103722
2.57348,0.138475,-0.12005
2.56046,0.012514,-0.134189
2.60405,0.268185,-0.106653
2.59155,0.139447,-0.0603911
2.60271,0.259327,-0.0456555
2.53892,0.00398855,-0.07389
2.56873,0.129677,0
2.51701,-0.119139,-0.0293355
2.56977,0.12973,-0.400306
2.60705,0.259759,0.0152272
2.55595,0.0040153,-0.0148553
2.58176,0.130335,-0.278452
2.52618,-0.119573,-0.236078
2.58401,0.130449,0.060205
2.51302,-0.11895,0.029289
2.57443,0.129965,-0.180251
2.56347,0.00402711,-0.209269
2.59803,0.25886,0.0759845
2.55561,0.00401476,0.0446084
2.60175,0.259231,-0.167569
2.52489,-0.119512,-0.147208
2.58432,0.130464,0.150696
2.54189,0.00399321,0.103559
2.57792,0.130141,-0.120236
2.55649,0.00401614,-0.13398
2.60891,0.259944,-0.106816
2.588,0.13065,-0.0602981
2.59967,0.249403,-0.0455857
2.54692,-0.00533449,-0.0741227
2.57318,0.120448,0
2.50457,-0.127753,-0.0291958
2.56234,0.11994,-0.399076
2.55141,-0.0053439,-0.324762
2.604,0.249819,0.015204
2.55195,-0.00534503,-0.014832
2.57825,0.120685,-0.278024
2.52174,-0.128629,-0.235706
2.58846,0.121163,0.0602981
2.50857,-0.127957,0.0292424
2.5709,0.120341,-0.179972
2.55549,-0.00535245,-0.208619
2.59498,0.248954,0.0758681
2.5596,-0.00536107,0.0446782
2.60269,0.249693,-0.167569
2.52045,-0.128563,-0.146975
2.57681,0.120617,0.150231
2.54189,-0.00532395,0.103559
2.57838,0.120691,-0.120236
2.55249,-0.00534617,-0.133771
2.59791,0.249235,-0.106327
2.59246,0.12135,-0.0603911
2.6045,0.240696,-0.0456555
2.53889,-0.0141797,-0.07389
2.56959,0.111292,0
2.5121,-0.13693,-0.029289
2.56669,0.111167,-0.399691
2.54741,-0.0142272,-0.324257
2.59689,0.239992,0.0151575
2.55592,-0.0142748,-0.0148553
2.5866,0.112029,-0.278881
2.52526,-0.137647,-0.236078
2.58887,0.112127,0.0602981
2.50811,-0.136712,0.0292424
2.57131,0.111367,-0.179972
2.55945,-0.0142945,-0.208944
2.59185,0.239527,0.0757518
2.54757,-0.0142282,0.0444687
2.59162,0.239505,-0.166801
2.52397,-0.137577,-0.147208
2.5812,0.111795,0.150464
2.53786,-0.0141739,0.103397
2.5708,0.111345,-0.119864
2.55645,-0.0142778,-0.13398
2.59478,0.239797,-0.106165
2.58887,0.112127,-0.0602981
2.59732,0.231349,-0.0455159
2.53882,-0.0225983,-0.07389
2.57794,0.103091,0
2.51163,-0.145259,-0.029289
2.56309,0.102497,-0.399076
2.55131,-0.0227095,-0.324762
2.60166,0.231735,0.0151807
2.54786,-0.0226787,-0.0148088
2.57106,0.102816,-0.277167
2.52479,-0.14602,-0.236078
2.58124,0.103223,0.060112
2.51163,-0.145259,0.029289
2.56767,0.10268,-0.179693
2.5554,-0.0227458,-0.208619
2.6006,0.231641,0.0759845
2.54751,-0.0226756,0.0444687
2.59637,0.231264,-0.167057
2.51553,-0.145484,-0.146743
2.57358,0.102917,0.149999
2.53779,-0.0225892,0.103397
2.56716,0.10266,-0.119678
2.55639,-0.0227547,-0.13398
2.59954,0.231547,-0.106327
2.58124,0.103223,-0.060112
2.59811,0.22228,-0.0455159
2.53473,-0.0314115,-0.0737736
2.57029,0.0937992,0
2.5151,-0.154271,-0.0293355
2.56344,0.0935491,-0.399076
2.60245,0.222651,0.0151807
2.54776,-0.0315729,-0.0148088
2.5714,0.0938398,-0.277167
2.52426,-0.154832,-0.236078
2.57759,0.0940655,0.0600189
2.50313,-0.153536,0.0291958
2.572,0.0938617,-0.179972
2.55132,-0.031617,-0.208293
2.59342,0.221879,0.0757518
2.53942,-0.0314695,0.0443291
2.59319,0.221859,-0.166801
2.51102,-0.15402,-0.14651
2.56993,0.0937861,0.149766
2.5337,-0.0313987,0.103234
2.56351,0.0935519,-0.119492
2.5523,-0.0316292,-0.133771
2.59635,0.22213,-0.106165
2.58158,0.0942113,-0.060112
2.59492,0.21243,-0.0454461
2.5306,-0.0406368,-0.0736572
2.56662,0.0842473,0
2.51053,-0.163228,-0.029289
2.55981,0.0840239,-0.398462
2.54315,-0.0408383,-0.323752
2.59926,0.212785,0.0151575
2.53963,-0.0407817,-0.0147623
2.57173,0.0844151,-0.277167
2.57392,0.0844869,0.0599259
2.49456,-0.16219,0.0291027
2.56435,0.084173,-0.179414
2.55118,-0.0409672,-0.208293
2.59422,0.212373,0.0757518
2.53929,-0.0407762,0.0443291
2.58603,0.211702,-0.16629
2.51044,-0.163222,-0.14651
2.56627,0.0842358,0.149534
2.53357,-0.0406844,0.103234
2.56384,0.084156,-0.119492
2.54418,-0.0408548,-0.133352
2.59317,0.212287,-0.106002
2.57791,0.0846181,-0.0600189
2.59565,0.20337,-0.0454461
2.53844,-0.0496269,-0.07389
2.5589,0.0750524,0
2.49398,-0.170897,-0.0291027
2.55219,0.0748555,-0.397232
2.54299,-0.0497159,-0.323752
2.596,0.203398,0.0151342
2.54347,-0.0497253,-0.0147855
2.57598,0.0755535,-0.277596
2.5702,0.0753838,0.0598328
2.49398,-0.170897,0.0291027
2.56463,0.0752205,-0.179414
2.54305,-0.0497171,-0.207642
2.59495,0.203315,0.0757518
2.53913,-0.0496404,0.0443291
2.58675,0.202673,-0.16629
2.51782,-0.172531,-0.146975
2.57054,0.0753937,0.149766
2.52942,-0.0494506,0.103071
2.56012,0.0750882,-0.119306
2.54402,-0.0497361,-0.133352
2.58991,0.202921,-0.105839
2.57819,0.0756183,-0.0600189
2.59235,0.194011,-0.0453763
2.53026,-0.0583027,-0.0736572
2.55915,0.0661202,0
2.48938,-0.179314,-0.0290561
2.54848,0.0658447,-0.396617
2.53884,-0.0585004,-0.323247
2.58074,0.193141,0.0150412
2.54328,-0.0586028,-0.0147855
2.56828,0.0663563,-0.276739
2.57444,0.0665155,0.0599259
2.50135,-0.180176,0.0291958
2.56089,0.0661653,-0.179135
2.59963,0.194555,0.0758681
2.53894,-0.0585028,0.0443291
2.58346,0.193345,-0.166034
2.50525,-0.180457,-0.146278
2.56679,0.0663178,0.149534
2.52923,-0.058279,0.103071
2.56436,0.066255,-0.119492
2.54783,-0.0587075,-0.133561
2.58263,0.193283,-0.105513
2.57844,0.0666188,-0.0600189
2.58903,0.184675,-0.0453064
2.53004,-0.0671351,-0.0736572
2.55936,0.0571862,0
2.49672,-0.188606,-0.0291493
2.55265,0.0570362,-0.397232
2.53862,-0.0673628,-0.323247
2.58938,0.1847,0.0150877
2.53506,-0.0672685,-0.014739
2.56055,0.0572127,-0.275882
2.56666,0.0573494,0.0597397
2.50071,-0.188907,0.0291958
2.56111,0.0572252,-0.179135
2.54264,-0.0674696,-0.207642
2.58434,0.184341,0.0754027
2.54272,-0.0674716,0.0443989
2.5881,0.184609,-0.16629
2.50461,-0.189202,-0.146278
2.55902,0.0571787,0.149068
2.52901,-0.0671079,0.103071
2.56458,0.0573028,-0.119492
2.54361,-0.0674953,-0.133352
2.58329,0.184266,-0.105513
2.57066,0.0574387,-0.0598328
2.59361,0.17636,-0.0453763
2.5258,-0.0754054,-0.0735409
2.56354,0.0487748,0
2.49608,-0.196884,-0.0291493
2.55282,0.048571,-0.397232
2.53838,-0.0757808,-0.323247
2.58998,0.176113,0.0150877
2.53083,-0.0755554,-0.0147158
2.55674,0.0486456,-0.275454
2.56284,0.0487616,0.0596467
2.49608,-0.196884,0.0291493
2.56128,0.0487319,-0.179135
2.58892,0.176041,0.075519
2.53448,-0.0756645,0.0442593
2.58472,0.175755,-0.166034
2.49999,-0.197192,-0.146045
2.56319,0.0487683,0.149301
2.52078,-0.0752555,0.102745
2.55676,0.048646,-0.11912
2.54737,-0.0760491,-0.133561
2.58787,0.17597,-0.105676
2.57084,0.0489138,-0.0598328
2.59022,0.167048,-0.0453064
2.51753,-0.0839551,-0.0733081
2.55569,0.0397019,0
2.49538,-0.205596,-0.0291493
2.54902,0.0395983,-0.396617
2.58658,0.166813,0.0150645
2.53455,-0.0845225,-0.014739
2.56485,0.0398442,-0.27631
2.563,0.0398153,0.0596467
2.48342,-0.20461,0.0290096
2.56144,0.0397911,-0.179135
2.53814,-0.0846423,-0.207317
2.58952,0.167003,0.075519
2.5342,-0.084511,0.0442593
2.58531,0.166732,-0.166034
2.49928,-0.205918,-0.146045
2.55935,0.0397587,0.149068
2.52051,-0.0840542,0.102745
2.55292,0.0396589,-0.118934
2.5391,-0.0846743,-0.133143
2.58049,0.166421,-0.10535
2.567,0.0398775,-0.0597397
2.58281,0.157519,-0.0451668
2.52522,-0.0930368,-0.0735409
2.55182,0.0307324,0
2.48269,-0.213278,-0.0290096
2.53729,0.0305575,-0.394772
2.58316,0.15754,0.0150412
2.53024,-0.0932219,-0.0147158
2.561,0.030843,-0.275882
2.56712,0.0309167,0.0597397
2.48667,-0.21362,0.0290561
2.56156,0.0308498,-0.179135
2.53783,-0.0935015,-0.207317
2.57413,0.156989,0.0750536
2.53789,-0.0935038,0.0443291
2.5819,0.157463,-0.165778
2.49855,-0.21464,-0.146045
2.55948,0.0308247,0.149068
2.5202,-0.0928519,0.102745
2.55704,0.0307954,-0.11912
2.53879,-0.0935369,-0.133143
2.58106,0.157412,-0.10535
2.56312,0.0308686,-0.0596467
2.58731,0.149183,-0.0452366
2.5209,-0.10125,-0.0734245
2.5559,0.022305,0
2.48595,-0.221865,-0.0290561
2.53738,0.0221434,-0.394772
2.57568,0.148513,0.0149947
2.52992,-0.101612,-0.0147158
2.55711,0.0223156,-0.275454
2.55921,0.0223339,0.0595536
2.55367,0.0222855,-0.178577
2.53352,-0.101757,-0.206991
2.57862,0.148682,0.0751699
2.52158,-0.101277,0.0440499
2.57842,0.148671,-0.165522
2.49385,-0.22257,-0.145813
2.55557,0.0223021,0.148836
2.51588,-0.101048,0.102582
2.55713,0.0223157,-0.11912
2.53448,-0.101795,-0.132933
2.58556,0.149082,-0.105513
2.56721,0.0224037,-0.0597397
2.57586,0.139053,-0.0450272
2.52051,-0.110489,-0.0734245
2.55597,0.012937,0
2.47716,-0.230235,-0.028963
2.52954,0.0128033,-0.393542
2.57221,0.138856,0.0149715
2.52553,-0.110709,-0.0146925
2.54922,0.0129029,-0.274597
2.56327,0.012974,0.0596467
2.55373,0.0129257,-0.178577
2.53313,-0.111042,-0.206991
2.58314,0.139446,0.0752863
2.52519,-0.110694,0.0441197
2.57496,0.139004,-0.165266
2.48108,-0.2306,-0.145115
2.55164,0.0129151,0.148603
2.51949,-0.110444,0.102745
2.5532,0.012923,-0.118934
2.53009,-0.110909,-0.132724
2.5781,0.139174,-0.105188
2.55528,0.0129335,-0.0594606
2.58032,0.130262,-0.045097
2.51212,-0.118908,-0.0731918
2.556,0.00401496,0
2.4843,-0.239648,-0.0290561
2.54933,0.00400448,-0.396617
2.57268,0.129876,0.0149715
2.52513,-0.119524,-0.0146925
2.55323,0.00401061,-0.275025
2.55531,0.00401387,0.0594606
2.55376,0.00401144,-0.178577
2.52875,-0.119695,-0.206666
2.57563,0.130025,0.0750536
2.52079,-0.119319,0.0440499
2.57543,0.130015,-0.165266
2.54369,0.00399562,0.148138
2.50312,-0.118482,0.102094
2.54524,0.00399805,-0.118561
2.53368,-0.119929,-0.132933
2.57857,0.130174,-0.105188
2.5593,0.00402015,-0.0595536
2.58074,0.121705,-0.045097
2.50772,-0.127036,-0.0730754
2.548,-0.0044471,0
2.47951,-0.247488,-0.0290096
2.5691,0.121156,0.0149482
2.52472,-0.127897,-0.0146925
2.54925,-0.00444929,-0.274597
2.55131,-0.00445288,0.0593675
2.54578,-0.00444323,-0.178019
2.52834,-0.12808,-0.206666
2.57605,0.121483,0.0750536
2.52038,-0.127677,0.0440499
2.57585,0.121474,-0.165266
2.54768,-0.00444655,0.148371
2.5067,-0.126984,0.102257
2.54524,-0.00444228,-0.118561
2.5213,-0.127724,-0.132305
2.57899,0.121622,-0.105188
2.55131,-0.00445288,-0.0593675
2.57715,0.112521,-0.0450272
2.50726,-0.135788,-0.0730754
2.53997,-0.0132993,0
2.47863,-0.256142,-0.0290096
2.5775,0.112536,0.0149947
2.52026,-0.136493,-0.0146693
2.54922,-0.0133478,-0.274597
2.54728,-0.0133376,0.0592745
2.54575,-0.0133296,-0.178019
2.52787,-0.136905,-0.206666
2.56846,0.112142,0.0748209
2.51194,-0.136042,0.0439103
2.57626,0.112482,-0.165266
2.54765,-0.0133396,0.148371
2.51024,-0.13595,0.10242
2.54521,-0.0133268,-0.118561
2.52483,-0.13674,-0.132515
2.57142,0.11227,-0.104862
2.55927,-0.0134004,-0.0595536
2.57355,0.102915,-0.0449574
2.50675,-0.144977,-0.0730754
2.5439,-0.0226443,0
2.46972,-0.264373,-0.0289165
2.56591,0.102609,0.014925
2.51975,-0.145729,-0.0146693
2.54518,-0.0226557,-0.274168
2.54721,-0.0226738,0.0592745
2.5377,-0.0225891,-0.17746
2.52338,-0.145939,-0.20634
2.56486,0.102567,0.0747045
2.50743,-0.145016,0.0438404
2.57266,0.102879,-0.16501
2.54758,-0.0226771,0.148371
2.54114,-0.0226198,-0.118375
2.52032,-0.145762,-0.132305
2.56382,0.102526,-0.104536
2.55521,-0.0227449,-0.0594606
2.56588,0.0940867,-0.0448178
2.50625,-0.153289,-0.0730754
2.53981,-0.0310312,0
2.46088,-0.271684,-0.0288233
2.56223,0.0939529,0.0149017
2.50328,-0.153107,-0.0145763
2.53713,-0.0309985,-0.273312
2.54712,-0.0311205,0.0592745
2.54559,-0.0311018,-0.178019
2.52288,-0.154306,-0.20634
2.56519,0.0940612,0.0747045
2.50693,-0.153331,0.0438404
2.56501,0.0940547,-0.164499
2.53551,-0.0309787,0.147673
2.54105,-0.0310464,-0.118375
2.51983,-0.154119,-0.132305
2.57214,0.094316,-0.104862
2.54712,-0.0311205,-0.0592745
2.57019,0.0852621,-0.0448876
2.49772,-0.161521,-0.0728427
2.54369,-0.0399594,0
2.56255,0.0850084,0.0149017
2.5187,-0.162877,-0.0146693
2.54496,-0.0399795,-0.274168
2.535,-0.039823,0.0589953
2.53749,-0.0398621,-0.17746
2.51834,-0.162854,-0.206015
2.56151,0.0849739,0.0745881
2.51037,-0.162339,0.0439103
2.56931,0.0852329,-0.164755
2.53539,-0.0398291,0.147673
2.53694,-0.0398534,-0.118189
2.52326,-0.163172,-0.132515
2.56845,0.0852044,-0.104699
2.547,-0.0400114,-0.0592745
2.56248,0.0760527,-0.044748
2.49714,-0.170238,-0.0728427
2.53153,-0.0486079,0
2.55883,0.0759443,0.0148785
2.51013,-0.171124,-0.0146228
2.54481,-0.0488628,-0.274168
2.54284,-0.0488251,0.0591814
2.53734,-0.0487193,-0.17746
2.51776,-0.171644,-0.206015
2.56578,0.0761507,0.0747045
2.5058,-0.170828,0.0438404
2.5656,0.0761454,-0.164499
2.53923,-0.0487557,0.147906
2.53678,-0.0487087,-0.118189
2.5147,-0.171435,-0.132096
2.56874,0.0762383,-0.104699
2.54284,-0.0488251,-0.0591814
2.57073,0.0673169,-0.0448876
2.49653,-0.178954,-0.0728427
2.53135,-0.0574443,0
2.55508,0.0669072,0.0148553
2.50952,-0.179885,-0.0146228
2.54065,-0.0576553,-0.27374
2.54266,-0.057701,0.0591814
2.54114,-0.0576665,-0.17774
2.55404,0.06688,0.0743554
2.50519,-0.179574,0.0438404
2.56985,0.0672938,-0.164755
2.53505,-0.0575284,0.147673
2.5366,-0.0575634,-0.118189
2.51409,-0.180212,-0.132096
2.561,0.0670621,-0.104373
2.54266,-0.057701,-0.0591814
2.56695,0.0582522,-0.0448178
2.49988,-0.187967,-0.0729591
2.53513,-0.0663847,0
2.5513,0.0578971,0.014832
2.50489,-0.188343,-0.0145995
2.5285,-0.0662111,-0.272455
2.53844,-0.0664715,0.0590884
2.53693,-0.0664319,-0.17746
2.55426,0.0579643,0.0743554
2.49258,-0.187418,0.043631
2.5541,0.0579607,-0.163731
2.52685,-0.0661679,0.147208
2.53238,-0.0663128,-0.118003
2.50548,-0.188388,-0.131677
2.55722,0.0580314,-0.104211
2.53844,-0.0664715,-0.0590884
2.55914,0.049138,-0.0446782
2.49921,-0.196692,-0.0729591
2.52689,-0.0749963,0
2.54749,0.0489142,0.0148088
2.49624,-0.196458,-0.014553
2.52428,-0.0749189,-0.272027
2.5382,-0.0753319,0.0590884
2.52871,-0.0750503,-0.176902
2.55045,0.0489711,0.074239
2.49191,-0.196118,0.043631
2.55828,0.0491215,-0.163987
2.5266,-0.0749879,0.147208
2.53613,-0.0752706,-0.118189
2.51277,-0.197759,-0.132096
2.5614,0.0491814,-0.104373
2.5262,-0.074976,-0.0588092
2.55929,0.0402046,-0.0446782
2.48257,-0.204104,-0.0724936
2.52661,-0.0838163,0
2.55564,0.0401472,0.0148553
2.49155,-0.204843,-0.0145298
2.53195,-0.0839935,-0.272883
2.53392,-0.0840588,0.0589953
2.52843,-0.0838767,-0.176902
2.5546,0.0401309,0.0743554
2.55843,0.0401911,-0.163987
2.51435,-0.0834097,0.14651
2.52787,-0.083858,-0.117817
2.5041,-0.205875,-0.131677
2.55756,0.0401774,-0.104211
2.52992,-0.0839262,-0.0589023
2.56342,0.0313196,-0.044748
2.47786,-0.212427,-0.0723772
2.51831,-0.0923422,0
2.55177,0.0311772,0.014832
2.49481,-0.21388,-0.014553
2.52767,-0.0926854,-0.272455
2.53761,-0.0930498,0.0590884
2.52015,-0.0924096,-0.176344
2.55073,0.0311646,0.074239
2.55856,0.0312602,-0.163987
2.51405,-0.092186,0.14651
2.53155,-0.0928278,-0.118003
2.49939,-0.214273,-0.131468
2.56568,0.0313472,-0.104536
2.52961,-0.0927568,-0.0589023
2.55551,0.0223017,-0.0446084
2.48905,-0.222142,-0.0727263
2.52197,-0.101293,0
2.54386,0.0222,0.0147855
2.49405,-0.222588,-0.014553
2.5313,-0.101668,-0.272883
2.52928,-0.101586,0.0589023
2.5238,-0.101366,-0.176623
2.53883,0.022156,0.07389
2.55466,0.0222942,-0.163731
2.53121,-0.101664,-0.118003
2.49863,-0.222996,-0.131468
2.55378,0.0222866,-0.104048
2.53327,-0.101747,-0.0589953
2.55558,0.0133811,-0.0446084
2.4803,-0.23009,-0.0724936
2.5176,-0.109921,0
2.54392,0.0133201,0.0147855
2.48927,-0.230923,-0.0145298
2.52891,-0.110414,0.0589023
2.51546,-0.109827,-0.176065
2.53489,0.0132728,0.0737736
2.54674,0.0133348,-0.16322
2.52685,-0.110325,-0.117817
2.49783,-0.231717,-0.131468
2.54585,0.0133302,-0.103722
2.52891,-0.110414,-0.0589023
2.55161,0.0044534,-0.0445385
2.48346,-0.23913,-0.07261
2.5172,-0.118708,0
2.53995,0.00443306,0.0147623
2.48049,-0.238844,-0.0144833
2.53053,-0.119337,-0.272883
2.52451,-0.119053,0.0588092
2.51107,-0.118419,-0.175786
2.53492,0.00442428,0.0737736
2.55076,0.00445193,-0.163475
2.52246,-0.118956,-0.117631
2.49303,-0.240052,-0.131259
2.54588,0.00444341,-0.103722
2.51652,-0.118676,-0.0586231
2.54361,-0.0039955,-0.0443989
2.47072,-0.246175,-0.0722609
2.5128,-0.126853,0
2.53595,-0.00398348,0.014739
2.4757,-0.246671,-0.01446
2.51611,-0.127021,0.0586231
2.50668,-0.126544,-0.175507
2.53892,-0.00398814,0.07389
2.54278,-0.0039942,-0.162964
2.52205,-0.12732,-0.117631
2.4962,-0.248714,-0.131468
2.54988,-0.00400536,-0.103885
2.52011,-0.127222,-0.0587162
2.54758,-0.0128946,-0.0444687
2.46586,-0.254387,-0.0721445
2.50835,-0.135408,0
2.53192,-0.0128153,0.0147158
2.51965,-0.136018,0.0587162
2.50622,-0.135293,-0.175507
2.53489,-0.0128304,0.0737736
2.54275,-0.0128701,-0.162964
2.52159,-0.136123,-0.117631
2.54985,-0.0129061,-0.103885
2.52364,-0.136234,-0.0588092
2.54752,-0.0213426,-0.0444687
2.46501,-0.262563,-0.0721445
2.50789,-0.143725,0
2.54387,-0.0213119,0.0147855
2.51918,-0.144373,0.0587162
2.50576,-0.143604,-0.175507
2.53084,-0.0212028,0.0736572
2.54269,-0.0213021,-0.162964
2.51315,-0.144027,-0.117258
2.53781,-0.0212612,-0.103397
2.51519,-0.144144,-0.0586231
2.54743,-0.0306796,-0.0444687
2.468,-0.272034,-0.0722609
2.50734,-0.152916,0
2.52777,-0.0304429,0.0146925
2.51864,-0.153605,0.0587162
2.5092,-0.15303,-0.175786
2.52675,-0.0304305,0.0735409
2.53861,-0.0305733,-0.162708
2.51659,-0.15348,-0.117445
2.53371,-0.0305144,-0.103234
2.51465,-0.153362,-0.0586231
2.5473,-0.0395716,-0.0444687
2.47101,-0.281099,-0.0723772
2.51078,-0.161925,0
2.53165,-0.0393284,0.0147158
2.52208,-0.162653,0.0588092
2.50467,-0.161531,-0.175507
2.53062,-0.0393124,0.0736572
2.53449,-0.0393726,-0.162452
2.51604,-0.162264,-0.117445
2.5296,-0.0392965,-0.103071
2.50611,-0.161624,-0.058437
2.53516,-0.0477923,-0.0442593
2.45815,-0.287896,-0.0720282
2.50624,-0.16998,0
2.52351,-0.0475726,0.0146693
2.50955,-0.170204,0.0585301
2.5081,-0.170106,-0.175786
2.52648,-0.0476287,0.0735409
2.53435,-0.047777,-0.162452
2.5115,-0.170336,-0.117258
2.53345,-0.04776,-0.103234
2.50157,-0.169663,-0.058344
2.53497,-0.0570839,-0.0442593
2.46105,-0.297384,-0.0721445
2.49363,-0.178308,0
2.52732,-0.0569115,0.0146925
2.50492,-0.179116,0.058437
2.49154,-0.178159,-0.17467
2.52229,-0.0567984,0.0734245
2.53416,-0.0570656,-0.162452
2.50687,-0.179255,-0.117072
2.53725,-0.0571352,-0.103397
2.49695,-0.178545,-0.0582509
2.53476,-0.0659323,-0.0442593
2.49698,-0.187311,0
2.5231,-0.0656292,0.0146693
2.50284,-0.18775,-0.175507
2.52208,-0.0656025,0.0734245
2.53793,-0.0660149,-0.162708
2.51022,-0.188304,-0.117258
2.52505,-0.0656798,-0.102908
2.49631,-0.18726,-0.0582509
2.53853,-0.0740116,-0.0443291
2.49638,-0.195155,0
2.51889,-0.0734388,0.014646
2.50224,-0.195612,-0.175507
2.51786,-0.073409,0.0733081
2.52574,-0.0736387,-0.161941
2.50961,-0.196189,-0.117258
2.52084,-0.0734956,-0.102745
2.49969,-0.195413,-0.058344
2.52624,-0.0833626,-0.0441197
2.4996,-0.205066,0
2.51059,-0.0828462,0.0145995
2.49749,-0.204892,-0.175228
2.51756,-0.0830763,0.0733081
2.52145,-0.0832046,-0.161685
2.50884,-0.205824,-0.117258
2.52054,-0.0831744,-0.102745
2.49494,-0.204683,-0.0582509
2.51794,-0.0918886,-0.0439801
2.49887,-0.21379,0
2.51428,-0.0917552,0.0146228
2.51726,-0.0918637,0.0733081
2.52115,-0.0920056,-0.161685
2.50015,-0.213899,-0.116886
2.51624,-0.0918264,-0.102582
2.49421,-0.213391,-0.0582509
2.52164,-0.0999569,-0.0440499
2.49022,-0.220932,0
2.50999,-0.0994952,0.0145995
2.50897,-0.0994547,0.0730754
2.52084,-0.0999256,-0.161685
2.4915,-0.221046,-0.116514
2.51993,-0.0998893,-0.102745
2.48954,-0.220872,-0.0581579
2.52523,-0.109812,-0.0441197
2.48537,-0.230123,0
2.51758,-0.10948,0.014646
2.50457,-0.108914,0.0729591
2.52044,-0.109604,-0.161685
2.49063,-0.230611,-0.116514
2.50755,-0.109043,-0.102257
2.4847,-0.230061,-0.0580648
2.51684,-0.118251,-0.0439801
2.48853,-0.23918,0
2.50919,-0.117891,0.0145995
2.50817,-0.117844,0.0730754
2.51207,-0.118027,-0.161173
2.49379,-0.239686,-0.1167
2.51114,-0.117983,-0.10242
2.48786,-0.239115,-0.0581579
2.50842,-0.126632,-0.0438404
2.50077,-0.126246,0.014553
2.49976,-0.126195,0.0728427
2.50766,-0.126594,-0.160917
2.49692,-0.248785,-0.116886
2.51072,-0.126748,-0.10242
2.47905,-0.247005,-0.0579717
2.50801,-0.134512,-0.0438404
2.50436,-0.134316,0.0145763
2.49935,-0.134047,0.0728427
2.50725,-0.134471,-0.160917
2.49215,-0.25622,-0.1167
2.51031,-0.134635,-0.10242
2.47826,-0.254792,-0.0579717
2.5075,-0.143704,-0.0438404
2.50385,-0.143494,0.0145763
2.50283,-0.143436,0.0729591
2.52268,-0.144573,-0.161941
2.50581,-0.143606,-0.102257
2.47334,-0.26345,-0.0578787
2.51497,-0.152941,-0.0439801
2.49934,-0.151991,0.014553
2.5102,-0.152651,-0.161173
2.5013,-0.15211,-0.102094
2.48035,-0.272957,-0.0580648
2.51046,-0.161024,-0.0439103
2.49483,-0.160022,0.0145298
2.5057,-0.160719,-0.160917
2.50078,-0.160404,-0.102094
2.46354,-0.279378,-0.0576926
2.50187,-0.169683,-0.0437706
2.49423,-0.169165,0.0145298
2.50509,-0.169902,-0.160917
2.50416,-0.169839,-0.102257
2.4625,-0.288406,-0.0576926
2.50126,-0.178415,-0.0437706
2.49362,-0.17787,0.0145298
2.50847,-0.178929,-0.161173
2.49957,-0.178294,-0.102094
2.49667,-0.186411,-0.0437008
2.49701,-0.186436,0.014553
2.50388,-0.186949,-0.160917
2.49897,-0.186582,-0.102094
2.48799,-0.194936,-0.0435612
2.49232,-0.195274,0.0145298
2.50318,-0.196125,-0.160917
2.48631,-0.194804,-0.101605
2.4873,-0.203619,-0.0435612
2.48365,-0.20332,0.0144833
2.49054,-0.203885,-0.16015
2.4896,-0.203807,-0.101768
2.49056,-0.21264,-0.043631
2.47894,-0.211648,0.01446
2.49379,-0.212917,-0.160406
2.49684,-0.213177,-0.102094
2.48988,-0.220464,-0.043631
2.48819,-0.220314,-0.101768
2.48507,-0.229221,-0.0435612
2.48339,-0.229066,-0.101605
2.48426,-0.237894,-0.0435612
2.48257,-0.237733,-0.101605
2.48739,-0.246959,-0.043631
2.48173,-0.246397,-0.101605
2.4786,-0.25439,-0.0434914
2.4809,-0.254626,-0.101605
2.48163,-0.263895,-0.0435612
2.47995,-0.263717,-0.101605
2.48069,-0.272556,-0.0435612
2.65752,0.519459,-0.0315241
2.67846,0.494974,-0.0317103
2.67632,0.484442,-0.0316637
2.678,0.475096,-0.0316637
2.66766,0.464622,-0.0315241
2.66942,0.454376,-0.0315241
2.6631,0.44374,-0.0314309
2.66705,0.444397,0.0314775
2.66053,0.434727,-0.0313844
2.66053,0.434727,0.0313844
2.6641,0.435309,-0.157208
2.65809,0.424805,-0.0313378
2.65809,0.424805,0.0313378
2.6656,0.426006,-0.157208
2.6597,0.414595,-0.0313378
2.65575,0.413979,0.0312912
2.66327,0.415152,-0.156975
2.64517,0.403823,-0.0311515
2.65308,0.405031,0.0312447
2.66061,0.406181,-0.156743
2.64663,0.394126,-0.0311515
2.65455,0.395305,0.0312447
2.67994,0.524812,-0.0794753
2.64793,0.385347,-0.0311515
2.65188,0.385923,0.0311981
2.65548,0.386446,-0.156278
2.66998,0.513189,-0.0791263
2.6453,0.375539,-0.031105
2.64926,0.376101,0.0311515
2.64495,0.37549,-0.15558
2.67175,0.503868,-0.0791263
2.63867,0.365208,-0.0310118
2.64263,0.365756,0.0310584
2.64625,0.366257,-0.15558
2.66572,0.492617,-0.0788935
2.63999,0.355532,-0.0310118
2.64791,0.3566,0.031105
2.65153,0.357087,-0.155813
2.67119,0.484955,-0.0790099
2.63713,0.346716,-0.0309653
2.68014,0.486581,-0.0158317
2.64109,0.347237,0.0310118
2.64868,0.348235,-0.15558
2.66499,0.474227,-0.0787772
2.63435,0.337001,-0.0309187
2.67789,0.476522,-0.0158084
2.64229,0.338016,0.0310118
2.638,0.337467,-0.154882
2.66277,0.46377,-0.0786608
2.6316,0.32685,-0.0308722
2.67173,0.465331,-0.0157619
2.64351,0.328329,0.0310118
2.63922,0.327796,-0.154882
2.66437,0.454473,-0.0786608
2.62875,0.317183,-0.0308256
2.6694,0.45533,-0.0157387
2.6367,0.318142,0.0309187
2.65721,0.453251,0.0470517
2.63241,0.317625,-0.154417
2.65403,0.443658,-0.0783117
2.62185,0.307533,-0.0307325
2.67484,0.447135,-0.0157619
2.63774,0.309397,0.0309187
2.63742,0.30936,-0.15465
2.66353,0.435216,-0.0785444
2.62693,0.298372,-0.030779
2.67251,0.436683,-0.0157387
2.63488,0.299275,0.0308722
2.64847,0.432754,0.0468423
2.65714,0.424655,-0.0783117
2.62398,0.288764,-0.0307325
2.65822,0.424827,-0.0156457
2.63193,0.289639,0.0308256
2.67366,0.427294,0.0472611
2.62369,0.288732,-0.15372
2.65063,0.414604,-0.078079
2.62492,0.28006,-0.0307325
2.65962,0.416009,-0.0156457
2.6289,0.280484,0.030779
2.67111,0.417807,0.0471913
2.61272,0.278758,-0.153022
2.64028,0.403077,-0.0777299
2.61797,0.269618,-0.0306393
2.66112,0.406259,-0.0156457
2.62593,0.270438,0.0307325
2.66867,0.407411,0.0471215
2.62564,0.270408,-0.15372
2.64556,0.39491,-0.0778463
2.61487,0.260539,-0.0305928
2.6585,0.396842,-0.0156224
2.62681,0.261729,0.0307325
2.66209,0.397379,0.0469819
2.61858,0.260908,-0.153254
2.65885,0.396895,-0.140888
2.64692,0.385672,-0.0778463
2.61179,0.251027,-0.0305462
2.65987,0.387559,-0.0156224
2.62373,0.252175,0.0306859
2.65504,0.386855,-0.219033
2.65159,0.386353,0.0467725
2.6155,0.251383,-0.153022
2.65627,0.387034,-0.140679
2.64033,0.375306,-0.0776135
2.61265,0.241909,-0.0305462
2.64932,0.376584,-0.0155527
2.61663,0.242278,0.0305928
2.65293,0.377096,0.0467725
2.61636,0.242252,-0.153022
2.68208,0.516002,-0.0635549
2.6337,0.364988,-0.0773808
2.61348,0.232787,-0.0305462
2.65062,0.367333,-0.0155527
2.62543,0.233851,0.0306859
2.65026,0.367283,0.0467026
2.60923,0.232409,-0.152557
2.65243,0.367583,0.109096
2.68561,0.506965,-0.127309
2.67993,0.505894,-0.0634618
2.63886,0.356789,-0.0774972
2.61423,0.22412,-0.0305462
2.64786,0.358006,-0.0155294
2.61423,0.22412,0.0305462
2.6475,0.357957,0.0466328
2.60999,0.223756,-0.152557
2.64571,0.357715,0.10877
2.68334,0.497329,-0.127123
2.67373,0.495547,-0.0632757
2.62826,0.345552,-0.0771481
2.60308,0.213556,-0.0304065
2.64916,0.348299,-0.0155294
2.61504,0.214537,0.0305462
2.64483,0.347731,0.046563
2.60283,0.213536,-0.152092
2.64304,0.347495,0.108607
2.68122,0.486777,-0.126937
2.64953,0.348348,-0.140051
2.6834,0.487173,-0.0634618
2.62548,0.335867,-0.0770317
2.68187,0.477231,0
2.59982,0.204154,-0.0303599
2.64639,0.338541,-0.0155062
2.60779,0.20478,0.0304531
2.64206,0.337988,0.0464932
2.60356,0.204448,-0.152092
2.64028,0.337759,0.108444
2.67897,0.476715,-0.126751
2.64281,0.338083,-0.139632
2.67327,0.475701,-0.0631827
2.63061,0.327194,-0.0771481
2.67564,0.466494,0
2.60052,0.195079,-0.0303599
2.61853,0.325693,-0.335873
2.63962,0.328315,-0.0154597
2.60849,0.195677,0.0304531
2.63926,0.32827,0.0464234
2.60824,0.195658,-0.152324
2.6454,0.329035,0.108607
2.67491,0.466367,-0.0631827
2.61586,0.316091,-0.0766826
2.67725,0.45715,0
2.60118,0.185999,-0.0303599
2.63677,0.318618,-0.0154364
2.60202,0.186059,-0.243513
2.60517,0.186284,0.0304065
2.63245,0.318095,0.0462838
2.60094,0.185982,-0.151859
2.63067,0.31788,0.107956
2.67041,0.455983,-0.126192
2.67258,0.456354,-0.0630896
2.61689,0.307414,-0.0766826
2.66297,0.445628,0
2.60178,0.177372,-0.0303599
2.63782,0.309872,-0.0154364
2.60262,0.177428,-0.243513
2.59779,0.1771,0.0303134
2.65648,0.444543,-0.188342
2.63349,0.309363,0.0462838
2.60154,0.177355,-0.151859
2.63171,0.309154,0.107956
2.66797,0.446465,-0.126006
2.63425,0.309453,-0.139004
2.66225,0.445508,-0.0628105
2.62197,0.298273,-0.076799
2.66459,0.435866,0
2.59443,0.16732,-0.0302668
2.63496,0.29975,-0.0154132
2.6757,0.437684,0.0630896
2.59843,0.167578,0.0303134
2.66597,0.436092,-0.188901
2.63023,0.299212,-0.216104
2.63063,0.299258,0.046214
2.59819,0.167562,-0.151627
2.63282,0.299507,0.107956
2.66564,0.436039,-0.12582
2.63536,0.299796,-0.139004
2.65992,0.435102,-0.0627174
2.61505,0.288242,-0.0765663
2.67004,0.427193,0
2.58702,0.157775,-0.0301737
2.63599,0.29055,-0.0154132
2.59899,0.158506,0.0303134
2.66354,0.426152,-0.188622
2.6273,0.289592,-0.215779
2.63563,0.290511,0.0462838
2.59876,0.158491,-0.151627
2.63385,0.290314,0.107956
2.66715,0.42673,-0.12582
2.63242,0.290157,-0.138795
2.60748,0.287408,0.214151
2.66142,0.425814,-0.0627174
2.61201,0.279144,-0.0764499
2.66354,0.417099,0
2.58753,0.149196,-0.0301737
2.62899,0.280958,-0.0153667
2.67467,0.418842,0.0629966
2.6035,0.150117,0.0303599
2.62824,0.280878,-0.215779
2.62465,0.280495,0.0460744
2.5913,0.149413,-0.151161
2.62685,0.280729,0.10763
2.6646,0.417266,-0.125634
2.63337,0.281426,-0.138795
2.60842,0.27876,0.214151
2.65887,0.416368,-0.0626244
2.61297,0.270025,-0.0764499
2.66103,0.407195,0
2.58803,0.140163,-0.0301737
2.62995,0.27178,-0.0153667
2.58893,0.140212,-0.242026
2.65635,0.40648,0.0625313
2.59602,0.140596,0.0302668
2.65454,0.406203,-0.187784
2.62562,0.271332,0.0460744
2.5918,0.140368,-0.151161
2.61986,0.270737,0.107304
2.65814,0.406754,-0.125262
2.62639,0.271412,-0.138376
2.61334,0.270063,0.214477
2.65635,0.40648,-0.0625313
2.60594,0.260108,-0.0762172
2.65056,0.396129,0
2.5885,0.131128,-0.0301737
2.63088,0.262597,-0.0153667
2.59339,0.131375,-0.242398
2.65776,0.397204,0.0625313
2.5885,0.131128,0.0301737
2.65595,0.396934,-0.187784
2.61859,0.26137,0.0459347
2.5843,0.130915,-0.150696
2.61682,0.261193,0.107142
2.65955,0.397472,-0.125262
2.61937,0.261448,-0.137958
2.60634,0.260147,0.213826
2.65776,0.397204,-0.0625313
2.60285,0.250626,-0.0761008
2.65193,0.386874,0
2.57696,0.121526,-0.030034
2.62382,0.252644,-0.0153202
2.66308,0.388501,0.0626244
2.57696,0.121526,0.030034
2.64942,0.386508,-0.187226
2.61516,0.251811,-0.214477
2.62346,0.25261,0.0460045
2.59272,0.122269,-0.151161
2.61771,0.252056,0.107142
2.61232,0.251537,-0.137539
2.60326,0.250665,0.2135
2.65121,0.386769,-0.0623452
2.6823,0.516531,-0.04768
2.60769,0.24191,-0.0762172
2.6493,0.377053,0
2.58536,0.11288,-0.0301271
2.61162,0.242274,-0.333853
2.6207,0.243116,-0.015297
2.58628,0.112921,-0.241655
2.64859,0.376951,0.0622522
2.58536,0.11288,0.0301271
2.6468,0.376697,-0.186947
2.61603,0.242683,-0.214477
2.61637,0.242714,0.0458649
2.58914,0.113045,-0.150929
2.62255,0.243288,0.107304
2.61716,0.242787,-0.137748
2.60015,0.24121,0.213175
2.67264,0.51467,-0.110887
2.6565,0.378078,-0.0624383
2.6723,0.504937,-0.0474705
2.59658,0.231739,-0.0758681
2.6506,0.367802,0
2.57775,0.103533,-0.030034
2.6085,0.232803,-0.333348
2.61755,0.233611,-0.0152737
2.58666,0.103891,-0.241655
2.65385,0.368252,0.0623452
2.58174,0.103694,0.0300806
2.64019,0.366358,-0.186389
2.61289,0.233194,-0.214151
2.6172,0.233579,0.0458649
2.58154,0.103686,-0.150464
2.61543,0.233421,0.106979
2.65169,0.367953,-0.124703
2.61799,0.23365,-0.137748
2.597,0.231777,0.212849
2.67049,0.504595,-0.110724
2.64989,0.367702,-0.0622522
2.67011,0.494877,-0.0474007
2.5894,0.221991,-0.0756354
2.64394,0.357476,0
2.5741,0.0943887,-0.0299874
2.6093,0.223697,-0.333348
2.61437,0.224131,-0.0152505
2.57905,0.0945702,-0.240911
2.64323,0.357379,0.0620661
2.5741,0.0943887,0.0299874
2.64146,0.35714,-0.186389
2.60971,0.223732,-0.213826
2.61401,0.224101,0.0457951
2.58189,0.0946744,-0.150464
2.62364,0.354731,0.154185
2.60826,0.223608,0.106653
2.65296,0.358695,-0.124703
2.61481,0.224169,-0.137539
2.59383,0.22237,0.212524
2.67617,0.495999,-0.110887
2.64323,0.357379,-0.0620661
2.67576,0.486268,-0.0474705
2.59016,0.21295,-0.0756354
2.63724,0.3472,0
2.57041,0.0852696,-0.0299409
2.60611,0.214261,-0.332843
2.61912,0.215331,-0.0152737
2.57538,0.0854344,-0.240539
2.64049,0.347628,0.061973
2.57041,0.0852696,0.0299409
2.63082,0.346354,-0.185552
2.61445,0.214947,-0.214151
2.61079,0.214646,0.0457253
2.57821,0.0855283,-0.150231
2.60903,0.214501,0.106653
2.65023,0.34891,-0.124517
2.60761,0.214385,-0.13712
2.59459,0.213314,0.212524
2.66608,0.48451,-0.110398
2.64049,0.347628,-0.061973
2.67736,0.477393,-0.0474705
2.58687,0.204046,-0.075519
2.63838,0.338453,0
2.56668,0.0766265,-0.0298943
2.61184,0.206016,-0.0152272
2.57167,0.0767753,-0.240167
2.64163,0.33887,0.061973
2.57068,0.0767458,0.0299409
2.63591,0.338136,-0.185831
2.59925,0.205023,-0.212849
2.6075,0.205674,0.0456555
2.57848,0.0769787,-0.150231
2.63392,0.337881,0.15465
2.60175,0.20522,0.106327
2.60831,0.205737,-0.13712
2.66374,0.474965,-0.110235
2.64163,0.33887,-0.061973
2.67105,0.467133,-0.0473309
2.58354,0.195164,-0.0754027
2.63552,0.329206,0
2.56692,0.0681139,-0.0298943
2.59956,0.196374,-0.331833
2.66353,0.465818,0.0157154
2.61251,0.197353,-0.0152272
2.57191,0.0682462,-0.240167
2.63877,0.329612,0.06188
2.57092,0.06822,0.0299409
2.63306,0.328898,-0.185552
2.59992,0.196402,-0.212849
2.60817,0.197025,0.0456555
2.66992,0.466935,-0.173709
2.58271,0.0685329,-0.150464
2.63502,0.329144,0.15465
2.60242,0.196591,0.106327
2.64456,0.330335,-0.124145
2.60499,0.196785,-0.136911
2.58402,0.1952,0.211548
2.65743,0.464751,-0.10991
2.64274,0.330108,-0.061973
2.65311,0.453505,-0.0469819
2.59225,0.185815,-0.0756354
2.63279,0.318604,0
2.56317,0.058167,-0.0298477
2.59634,0.186108,-0.331328
2.65347,0.453566,0.0156457
2.60926,0.187035,-0.015204
2.63344,0.318682,-0.285735
2.56817,0.0582806,-0.239796
2.63605,0.318998,0.0617869
2.56716,0.0582578,0.0298943
2.62638,0.317827,-0.184994
2.60463,0.186703,-0.213175
2.60492,0.186724,0.0455857
2.66775,0.456008,-0.173453
2.57098,0.0583443,-0.149766
2.62437,0.317585,0.153952
2.60316,0.186597,0.106327
2.63787,0.319219,-0.123773
2.60573,0.186782,-0.136911
2.58475,0.185278,0.211548
2.66313,0.455218,-0.110073
2.63208,0.318517,-0.0616939
2.65854,0.445364,-0.0470517
2.58487,0.176672,-0.0754027
2.62986,0.309403,0
2.56734,0.0497437,-0.0298943
2.65496,0.444764,0.0156457
2.60987,0.17838,-0.015204
2.56437,0.049686,-0.239424
2.62915,0.309319,0.0616008
2.56335,0.0496662,0.0298477
2.63534,0.310048,-0.185552
2.60126,0.177792,-0.212849
2.60552,0.178084,0.0455857
2.65744,0.44518,-0.172685
2.57515,0.049895,-0.149999
2.62145,0.308413,0.15372
2.59579,0.177418,0.106002
2.63098,0.309535,-0.123401
2.60235,0.177867,-0.136702
2.58137,0.176433,0.211222
2.66463,0.446384,-0.110073
2.63312,0.309787,-0.0616939
