1.80422,0.358882,-0.367916
1.79272,0.448636,0
1.90299,0.282705,-0.0223974
1.76757,0.442344,-0.283473
1.81744,0.361512,-0.235869
1.74183,0.527549,0.0105777
1.85169,0.368324,-0.0109729
1.887,0.28033,-0.178081
1.79611,0.449485,0.0430833
1.90299,0.282705,0.0223974
1.77674,0.444637,-0.128073
1.83776,0.365554,-0.152965
1.85144,0.368274,0.0329501
1.90384,0.282833,-0.112092
1.79743,0.449816,0.107906
1.85803,0.369584,0.077181
1.7869,0.44718,-0.0858034
1.81787,0.45493,0.230089
1.8534,0.368665,0.154267
1.72894,0.523645,-0.0735988
1.87958,0.373872,0.349411
1.72409,0.516268,-0.0314143
1.73892,0.429372,-0.50141
1.80149,0.352459,-0.367132
1.798,0.443961,0
1.90782,0.277301,-0.022444
1.76512,0.435841,-0.282858
1.82636,0.357324,-0.236879
1.74348,0.522075,0.0105777
1.88787,0.274401,-0.178081
1.79751,0.443841,0.0430833
1.90386,0.276726,0.0223974
1.77425,0.438097,-0.127794
1.84281,0.360544,-0.153291
1.85259,0.362456,0.0329501
1.73229,0.518724,-0.115891
1.90868,0.277425,-0.112325
1.80659,0.446082,0.108371
1.8631,0.364513,0.0773438
1.78829,0.441565,-0.0858034
1.80772,0.446362,0.228627
1.85847,0.363606,0.154593
1.73441,0.519358,-0.0737616
1.88847,0.369477,0.350845
1.73355,0.512514,-0.031554
1.83763,0.352875,-0.0544575
1.74415,0.42421,-0.502488
1.81427,0.348388,-0.369485
1.79565,0.436737,0
1.90878,0.27064,-0.022444
1.76279,0.428744,-0.282244
1.82759,0.350947,-0.236879
1.74913,0.51712,0.0106009
1.77373,0.431406,-0.19663
1.90064,0.269487,-0.179196
1.80682,0.439454,0.0432694
1.90878,0.27064,0.022444
1.77189,0.430958,-0.127515
1.84406,0.35411,-0.153291
1.74842,0.51691,0.0530611
1.8617,0.357496,0.0330898
1.73409,0.512675,-0.115891
1.80813,0.439773,0.108371
1.86436,0.358008,0.0773438
1.79371,0.436264,-0.0859895
1.85158,0.355554,-0.0988103
1.82084,0.442865,0.230089
1.85972,0.357117,0.154593
1.73238,0.512168,-0.0735988
1.89362,0.363625,0.351563
1.73551,0.505855,-0.031554
1.8429,0.346556,-0.0545738
1.74951,0.418406,-0.503567
1.81559,0.34142,-0.369485
1.80121,0.43077,0
1.91377,0.263856,-0.0224906
1.76826,0.422892,-0.282858
1.82893,0.343928,-0.236879
1.74726,0.509281,0.0105777
1.86724,0.351132,-0.0110426
1.77924,0.425517,-0.197059
1.90167,0.262188,-0.179196
1.81239,0.433444,0.0433625
1.91377,0.263856,0.0224906
1.78129,0.426008,-0.128073
1.84541,0.347027,-0.153291
1.75807,0.512431,0.0532939
1.8552,0.348867,0.0329501
1.73605,0.506013,-0.115891
1.81758,0.434685,0.108836
1.86572,0.350847,0.0773438
1.79925,0.430303,-0.0861756
1.83025,0.437717,0.231064
1.865,0.350711,0.154918
1.73433,0.505512,-0.0735988
1.895,0.356352,0.351563
1.73324,0.499292,-0.0314841
1.84792,0.34149,-0.0546902
1.75456,0.413791,-0.504645
1.82437,0.337138,-0.371054
1.81034,0.426944,0
1.91459,0.257841,-0.0224906
1.77343,0.41824,-0.283473
1.83,0.338179,-0.236879
1.74885,0.503788,0.0105777
1.86047,0.343809,-0.0109961
1.91432,0.257805,-0.180312
1.81763,0.428665,0.0434555
1.92251,0.258908,0.0225837
1.79039,0.422241,-0.128631
1.85041,0.341951,-0.153616
1.75967,0.506904,0.0532939
1.86415,0.344489,0.0330898
1.73763,0.500555,-0.115891
1.91939,0.258488,-0.11279
1.81505,0.428055,0.108604
1.87468,0.346435,0.0776695
1.80449,0.425565,-0.0863618
1.86188,0.34407,-0.099229
1.83162,0.431964,0.231064
1.87001,0.345573,0.155243
1.73975,0.501166,-0.0737616
1.89611,0.350396,0.351563
1.73891,0.494029,-0.031554
1.75607,0.407358,-0.504645
1.82173,0.329751,-0.370269
1.81579,0.42121,0
1.92742,0.25238,-0.0226303
1.78265,0.413524,-0.284703
1.83904,0.332883,-0.237889
1.75838,0.499561,0.0106242
1.86565,0.337701,-0.0110194
1.89946,0.248719,-0.178824
1.8114,0.420193,0.0432694
1.92742,0.25238,0.0226303
1.79581,0.416578,-0.12891
1.8595,0.336587,-0.154267
1.76536,0.501544,0.0534102
1.8654,0.337655,0.0330898
1.73945,0.494183,-0.115891
1.82049,0.422303,0.108836
1.87593,0.339562,0.0776695
1.80214,0.418045,-0.0861756
1.86706,0.337955,-0.0994383
1.83319,0.425248,0.231064
1.87519,0.339427,0.155569
1.74927,0.496971,-0.0740873
1.90512,0.344846,0.352998
1.74447,0.489036,-0.0316238
1.75748,0.401226,-0.504645
1.80945,0.413089,0
1.92828,0.245651,-0.0226303
1.78408,0.407299,-0.284703
1.84409,0.327155,-0.238394
1.76012,0.493421,0.0106242
1.8747,0.332584,-0.0110659
1.91217,0.243598,-0.17994
1.81675,0.414758,0.0433625
1.92432,0.245146,0.0225837
1.79337,0.409419,-0.128631
1.86459,0.330791,-0.154593
1.87838,0.333238,0.0332992
1.74885,0.490264,-0.116403
1.92911,0.245757,-0.113255
1.82196,0.415946,0.108836
1.88104,0.33371,0.0778323
1.86429,0.330739,-0.099229
1.83466,0.418847,0.231064
1.88421,0.334273,0.15622
1.74714,0.489784,-0.0739244
1.90632,0.338194,0.352998
1.75002,0.48401,-0.0316936
1.75887,0.395089,-0.504645
1.83172,0.318369,-0.371838
1.81868,0.408524,0
1.92913,0.238919,-0.0226303
1.78935,0.401936,-0.285318
1.85695,0.322755,-0.23991
1.76568,0.488341,0.0106474
1.87979,0.326724,-0.0110891
1.7927,0.402688,-0.197915
1.92091,0.237901,-0.180683
1.82599,0.410167,0.0435486
1.92913,0.238919,0.0226303
1.80647,0.40578,-0.129468
1.85395,0.322232,-0.153616
1.76882,0.489208,0.0534102
1.88347,0.327364,0.033369
1.83119,0.411334,0.109301
1.8822,0.327143,0.0778323
1.81671,0.408082,-0.086734
1.87331,0.325597,-0.0996477
1.83612,0.41244,0.231064
1.75269,0.484748,-0.0740873
1.90749,0.331538,0.352998
1.75548,0.479257,-0.0317634
1.86433,0.317671,-0.0550393
1.76769,0.390917,-0.506802
1.83276,0.312293,-0.371838
1.82003,0.402491,0
1.93388,0.232998,-0.0226768
1.79453,0.396853,-0.285933
1.76343,0.481429,0.0106242
1.88086,0.320488,-0.0110891
1.79791,0.3976,-0.198344
1.92564,0.232005,-0.181055
1.83125,0.404972,0.0436417
1.9458,0.234434,0.0228165
1.8078,0.399787,-0.129468
1.86679,0.318091,-0.154593
1.77429,0.484392,0.0535266
1.88455,0.321116,0.033369
1.7483,0.477297,-0.116147
1.82475,0.403534,0.108836
1.88721,0.32157,0.0779952
1.81806,0.402055,-0.086734
1.8491,0.408921,0.232527
1.75815,0.479985,-0.0742501
1.92021,0.327193,0.35515
1.75336,0.471781,-0.0316936
1.86942,0.311493,-0.0551557
1.76911,0.384436,-0.506802
1.83777,0.306218,-0.372623
1.8254,0.396667,0
1.93472,0.225909,-0.0226768
1.79984,0.391113,-0.286548
1.85525,0.309131,-0.239405
1.77291,0.477041,0.0106707
1.88202,0.313592,-0.0110891
1.92648,0.224947,-0.181055
1.83272,0.398258,0.0436417
1.94664,0.227301,0.0228165
1.81315,0.394006,-0.129747
1.87188,0.311903,-0.154918
1.88571,0.314207,0.033369
1.75775,0.472961,-0.116659
1.94348,0.226932,-0.113952
1.83402,0.39854,0.109301
1.89626,0.315965,0.0783208
1.88341,0.313824,-0.100066
1.85447,0.402984,0.233014
1.89154,0.315179,0.156545
1.76375,0.474577,-0.0744129
1.9214,0.320154,0.35515
1.82881,0.397409,-0.0435486
1.76273,0.467708,-0.0318332
1.77421,0.379063,-0.50788
1.84657,0.301063,-0.374192
1.8346,0.391964,0
1.94742,0.220504,-0.0228165
1.80506,0.385653,-0.287163
1.86023,0.303291,-0.23991
1.77843,0.471875,0.0106939
1.88705,0.307664,-0.0111124
1.80071,0.384724,-0.198344
1.93121,0.218668,-0.181427
1.82628,0.390187,0.0434555
1.9514,0.220954,0.0228631
1.82232,0.389342,-0.130305
1.78544,0.473734,0.0537593
1.89469,0.30891,0.0335086
1.75939,0.466822,-0.116659
1.8393,0.392969,0.109534
1.89735,0.309344,0.0783208
1.82479,0.38987,-0.0869201
1.85586,0.396508,0.233014
1.9005,0.309857,0.157196
1.7654,0.468417,-0.0744129
1.9225,0.313444,0.35515
1.76427,0.461861,-0.0318332
1.77546,0.373177,-0.50788
1.84368,0.29432,-0.373407
1.83197,0.385056,0
1.95212,0.214482,-0.0228631
1.81019,0.380479,-0.287778
1.86123,0.297121,-0.23991
1.77999,0.465975,0.0106939
1.89201,0.302036,-0.0111356
1.80587,0.379569,-0.198772
1.93192,0.212263,-0.181427
1.8393,0.386596,0.0437347
1.95212,0.214482,0.0228631
1.8197,0.382476,-0.130026
1.88183,0.300411,-0.155569
1.787,0.467811,0.0537593
1.89176,0.301995,0.0334388
1.76479,0.461996,-0.116914
1.95292,0.21457,-0.114418
1.8406,0.386868,0.109534
1.89837,0.30305,0.0783208
1.8339,0.38546,-0.0872924
1.88551,0.300997,-0.100066
1.85717,0.390352,0.233014
1.90152,0.303553,0.157196
1.77081,0.463573,-0.0745757
1.9313,0.308308,0.356585
1.83539,0.385774,-0.0436417
1.76982,0.456389,-0.031903
1.88444,0.293747,-0.0555047
1.78059,0.367446,-0.508958
1.84862,0.288164,-0.374192
1.83337,0.378338,0
1.80771,0.373042,-0.287163
1.87014,0.291519,-0.24092
1.78556,0.460447,0.0107172
1.90101,0.296331,-0.0111821
1.81114,0.373751,-0.199201
1.94853,0.206862,-0.182914
1.84854,0.381468,0.0439208
1.96085,0.20817,0.0229562
1.82109,0.375804,-0.130026
1.88686,0.294125,-0.155894
1.7887,0.461258,0.0537593
1.90866,0.297523,0.033718
1.77033,0.456521,-0.11717
1.95766,0.207832,-0.11465
1.84982,0.381733,0.109999
1.90736,0.297321,0.0786465
1.83138,0.377928,-0.0871063
1.89054,0.294699,-0.100276
1.86636,0.385147,0.233989
1.76863,0.456081,-0.0744129
1.9402,0.302439,0.35802
1.84071,0.379852,-0.0437347
1.77512,0.451814,-0.0319728
1.88535,0.287826,-0.0555047
1.78551,0.362617,-0.510037
1.8534,0.282948,-0.374976
1.83847,0.373373,0
1.95751,0.201599,-0.0229097
1.82049,0.369721,-0.289008
1.87105,0.285643,-0.24092
1.78312,0.453848,0.0106939
1.90193,0.290357,-0.0111821
1.8162,0.368851,-0.199629
1.94917,0.20074,-0.182914
1.85365,0.376455,0.0440139
1.96945,0.202828,0.0230493
1.83399,0.372463,-0.130863
1.88383,0.287595,-0.155569
1.79014,0.455637,0.0537593
1.90167,0.290318,0.0335784
1.76789,0.449973,-0.116914
1.85493,0.376715,0.110232
1.90829,0.291328,0.0786465
1.84039,0.373764,-0.0874785
1.86367,0.378492,0.233502
1.90748,0.291205,0.157522
1.77392,0.451508,-0.0745757
1.94114,0.296343,0.35802
1.89425,0.282422,-0.0557375
1.79054,0.357135,-0.511115
1.86601,0.278211,-0.37733
1.85545,0.370082,0
1.96218,0.19516,-0.0229562
1.82177,0.363364,-0.289008
1.87596,0.279695,-0.241425
1.79633,0.45054,0.0107637
1.90689,0.284306,-0.0112054
1.82138,0.363286,-0.200057
1.94986,0.193934,-0.182914
1.85887,0.370764,0.0441069
1.97413,0.196348,0.0230959
1.83919,0.366839,-0.131142
1.89666,0.28278,-0.156545
1.7956,0.450357,0.0538757
1.91059,0.284857,0.033718
1.77332,0.44477,-0.11717
1.86015,0.371018,0.110464
1.9172,0.285843,0.0789721
1.87277,0.373536,0.234477
1.91243,0.285132,0.157847
1.77937,0.446285,-0.0747386
1.94216,0.289565,0.35802
1.84319,0.367636,-0.0437347
1.86318,0.270481,-0.376545
1.85686,0.362956,0
1.97088,0.188386,-0.0230493
1.82703,0.357125,-0.289623
1.88095,0.27306,-0.24193
1.79805,0.44364,0.0107637
1.90797,0.276982,-0.0112054
1.82276,0.35629,-0.200057
1.95059,0.186447,-0.182914
1.84851,0.361323,0.0438278
1.97088,0.188386,0.0230493
1.80508,0.445375,0.0541084
1.92354,0.279243,0.0339275
1.77502,0.437958,-0.11717
1.85764,0.363108,0.110232
1.92224,0.279054,0.079135
1.84701,0.361029,-0.0876646
1.87809,0.367105,0.234964
1.91746,0.27836,0.158173
1.78495,0.440407,-0.0749014
1.94715,0.282671,0.358738
1.85243,0.36209,-0.0439208
1.90023,0.26909,-0.0558538
1.86412,0.263976,-0.376545
1.85026,0.354965,0
1.96755,0.181139,-0.0230028
1.82438,0.350001,-0.289008
1.88189,0.266493,-0.24193
1.80347,0.438306,0.0107869
1.90892,0.270321,-0.0112054
1.83571,0.352174,-0.201342
1.9552,0.180002,-0.183286
1.85761,0.356376,0.0440139
1.97153,0.181506,0.0230493
1.84575,0.3541,-0.131421
1.90657,0.269988,-0.157196
1.81051,0.440016,0.0542248
1.9245,0.272528,0.0339275
1.78041,0.432702,-0.117426
1.91529,0.271222,0.0788093
1.91425,0.271075,-0.101322
1.87936,0.360547,0.234964
1.78647,0.434175,-0.0749014
1.95982,0.277528,0.36089
1.78904,0.42885,-0.0321124
1.79797,0.339079,-0.512193
1.86316,0.351374,0
1.97607,0.175665,-0.0230959
1.83324,0.345732,-0.290237
1.89058,0.261667,-0.24294
1.80484,0.432637,0.0107869
1.92561,0.266516,-0.0112984
1.82899,0.344931,-0.200486
1.95972,0.174211,-0.183657
1.86265,0.351279,0.0441069
1.97607,0.175665,0.0230959
1.83901,0.34682,-0.130863
1.90346,0.26345,-0.156871
1.80411,0.432462,0.053992
1.92139,0.265931,0.0338577
1.78953,0.428967,-0.117938
1.87963,0.35448,0.111394
1.92801,0.266847,0.0792978
1.91509,0.26506,-0.101322
1.88828,0.356112,0.235939
1.78394,0.427628,-0.0747386
1.95288,0.27029,0.359455
1.85872,0.350538,-0.0440139
1.90999,0.256882,-0.0560866
1.79926,0.332173,-0.512193
1.87758,0.252523,-0.378899
1.86449,0.344217,0
1.97673,0.168075,-0.0230959
1.83067,0.337972,-0.289623
1.8955,0.254934,-0.243445
1.80649,0.425704,0.0107869
1.93058,0.259653,-0.0113216
1.83813,0.339349,-0.201342
1.96434,0.167022,-0.184029
1.87579,0.346302,0.0443861
1.98869,0.169092,0.0232356
1.85603,0.342654,-0.131979
1.91236,0.257202,-0.157522
1.80965,0.426448,0.0541084
1.92636,0.259084,0.0339275
1.78728,0.421177,-0.117682
1.87705,0.346534,0.111162
1.93298,0.259975,0.0794606
1.86247,0.343844,-0.088223
1.92401,0.258769,-0.101741
1.89354,0.34958,0.236427
1.78946,0.421691,-0.0749014
1.96561,0.264363,0.361608
1.86792,0.34485,-0.0442
1.79603,0.416629,-0.0321822
1.91484,0.250734,-0.0562029
1.88234,0.246478,-0.379683
1.86962,0.33842,0
1.98129,0.161501,-0.0231425
1.83962,0.332989,-0.290852
1.89638,0.248317,-0.243445
1.81575,0.421204,0.0108334
1.92355,0.251875,-0.0112751
1.8393,0.332932,-0.201342
1.97285,0.160812,-0.184773
1.99325,0.162475,0.0232822
1.85721,0.336174,-0.131979
1.92115,0.251561,-0.158173
1.81112,0.42013,0.0541084
1.93518,0.253398,0.0340671
1.79263,0.415839,-0.117938
1.8861,0.341404,0.111627
1.93784,0.253746,0.0796234
1.9249,0.252052,-0.101741
1.89475,0.342969,0.236427
1.79481,0.416347,-0.0750642
1.96652,0.257501,0.361608
1.86518,0.337616,-0.0441069
1.88707,0.240401,-0.380468
1.87473,0.33259,0
1.98982,0.155205,-0.0232356
1.84077,0.326565,-0.290852
1.90117,0.242197,-0.24395
1.81721,0.414863,0.0108334
1.93632,0.246675,-0.0113449
1.84437,0.327204,-0.201771
1.96943,0.153615,-0.184401
1.87816,0.333199,0.0443861
1.99381,0.155516,0.0232822
1.86623,0.331083,-0.132537
1.92202,0.244853,-0.158173
1.82037,0.415584,0.0543411
1.93209,0.246136,0.0339973
1.79407,0.409578,-0.117938
1.99455,0.155574,-0.116511
1.88335,0.33412,0.111394
1.93078,0.245969,0.0792978
1.86089,0.330136,-0.0880369
1.90375,0.33774,0.237402
1.80015,0.410968,-0.0752271
1.97521,0.251629,0.363043
1.87028,0.331801,-0.0442
1.92448,0.238343,-0.0564356
1.87194,0.325359,0
1.99833,0.148853,-0.0233287
1.8419,0.320138,-0.290852
1.90988,0.236535,-0.24496
1.82646,0.410271,0.0108799
1.94114,0.240406,-0.0113681
1.8455,0.320764,-0.201771
1.97393,0.147035,-0.184773
1.88325,0.327326,0.0444791
1.85951,0.3232,-0.131979
1.93078,0.239123,-0.158823
1.82571,0.410104,0.0544575
1.94484,0.240865,0.0342067
1.79938,0.404189,-0.118194
1.89237,0.328912,0.111859
1.93956,0.240211,0.0796234
1.93455,0.23959,-0.10216
1.90101,0.330413,0.236914
1.80548,0.405558,-0.0753899
1.97998,0.245217,0.36376
1.92919,0.232774,-0.056552
1.90031,0.22929,-0.382821
1.88083,0.320822,0
1.85069,0.315679,-0.292082
1.90668,0.230058,-0.244455
1.82383,0.403666,0.0108567
1.85826,0.31697,-0.203056
1.97835,0.141116,-0.185145
1.89215,0.322752,0.0446652
2.00278,0.142858,0.0233753
1.87232,0.319369,-0.132816
1.93548,0.233533,-0.159149
1.82309,0.403502,0.0543411
1.80844,0.400259,-0.118705
1.94824,0.235073,0.0799491
1.8788,0.320474,-0.0887814
1.91378,0.326441,0.238376
1.80674,0.399884,-0.0753899
1.98465,0.239466,0.364478
1.88427,0.321407,-0.0444791
1.93003,0.225701,-0.056552
1.89724,0.221868,-0.382037
1.88594,0.314583,0
2.00329,0.135516,-0.0233753
1.84793,0.308243,-0.291467
1.91145,0.223529,-0.24496
1.82139,0.396128,0.0108334
1.95465,0.228581,-0.0114378
1.86725,0.311465,-0.203913
1.99078,0.13467,-0.18626
1.89332,0.315814,0.0446652
2.00728,0.135786,0.0234219
1.86954,0.311848,-0.132537
1.94028,0.2269,-0.159474
1.82846,0.397667,0.0544575
1.95041,0.228085,0.0342765
1.80599,0.392779,-0.118449
2.01198,0.136105,-0.117441
1.90639,0.317993,0.112557
1.95703,0.228859,0.0802748
1.91496,0.319424,0.238376
1.81601,0.394957,-0.0757155
1.99333,0.233104,0.365912
1.88149,0.31384,-0.0443861
1.93474,0.219751,-0.0566684
1.90576,0.216461,-0.383605
1.89092,0.308973,0
2.00372,0.128873,-0.0233753
1.86065,0.304026,-0.293312
1.91612,0.217637,-0.245465
1.83834,0.393435,0.0109264
1.95539,0.222098,-0.0114378
1.86042,0.303989,-0.203056
2.00313,0.128835,-0.187375
1.89831,0.310179,0.0447583
2.02368,0.130156,0.0236081
1.94498,0.220915,-0.1598
1.82586,0.390765,0.0543411
1.9591,0.222519,0.0344161
1.81119,0.387624,-0.118705
2.00844,0.129176,-0.117208
1.90743,0.31167,0.112557
1.95778,0.222369,0.0802748
1.88888,0.308638,-0.0891536
1.91993,0.313713,0.238864
1.81731,0.388933,-0.0757155
1.99018,0.226049,0.365195
1.89041,0.30889,-0.0445722
1.90651,0.209806,-0.383605
1.89594,0.303001,0
2.01614,0.122606,-0.023515
1.85779,0.296905,-0.292697
1.9287,0.212249,-0.246981
1.83579,0.386191,0.0109032
1.96013,0.215708,-0.0114611
1.86933,0.298748,-0.203913
2.00755,0.122083,-0.187747
1.90332,0.304182,0.0448513
2.02412,0.123091,0.0236081
1.88344,0.301004,-0.133374
1.9497,0.21456,-0.160125
1.83504,0.386035,0.0545738
1.96384,0.216116,0.034486
1.81643,0.38212,-0.118961
2.01685,0.122649,-0.117673
1.95457,0.215096,0.0801119
1.89389,0.302673,-0.0893398
1.92493,0.307635,0.239351
1.82256,0.38341,-0.0758784
1.95343,0.312189,0.530061
1.99487,0.219531,0.365912
1.89543,0.302919,-0.0446652
1.94421,0.206747,-0.0569011
1.91896,0.204062,-0.385959
1.89704,0.296051,0
2.02456,0.115672,-0.0236081
1.86668,0.291313,-0.293927
1.92947,0.205179,-0.246981
1.84111,0.38027,0.0109264
1.96489,0.208946,-0.0114843
1.87434,0.292508,-0.204341
2.01196,0.114952,-0.188119
1.91233,0.298437,0.0450374
1.88059,0.293484,-0.133095
1.95444,0.207835,-0.160451
1.84036,0.380115,0.0546902
1.9686,0.20934,0.0345558
1.82564,0.377075,-0.119473
2.02127,0.115484,-0.117906
1.96727,0.209199,0.0806004
1.89498,0.29573,-0.0893398
1.95826,0.20824,-0.103207
1.92605,0.300578,0.239351
1.82396,0.376727,-0.0758784
2.00349,0.21305,0.367347
1.89653,0.295971,-0.0446652
1.91966,0.197363,-0.385959
1.90201,0.290031,0
2.02495,0.108605,-0.0236081
1.86378,0.2842,-0.293312
1.93806,0.199254,-0.247991
1.8385,0.373046,0.0109032
1.96958,0.202495,-0.0115076
1.87928,0.286564,-0.20477
2.01235,0.107929,-0.188119
1.91731,0.292363,0.0451305
2.03693,0.109247,0.0237478
1.89344,0.288723,-0.133932
1.84167,0.373689,0.0546902
1.83086,0.371495,-0.119729
2.02964,0.108856,-0.118371
1.96401,0.201922,0.0804376
1.93493,0.29505,0.240326
1.82526,0.370359,-0.0758784
2.01205,0.206861,0.368782
1.90545,0.290555,-0.0448513
1.92811,0.191773,-0.387528
1.91088,0.284902,0
2.0293,0.102091,-0.0236547
1.87253,0.279184,-0.294542
1.93871,0.192827,-0.247991
1.84365,0.36773,0.0109264
1.97423,0.196359,-0.0115308
1.88809,0.281504,-0.205626
2.02065,0.101655,-0.188862
2.03729,0.102492,0.0237478
1.89833,0.283031,-0.134211
1.95581,0.194527,-0.160451
1.97396,0.196332,0.0346256
1.82817,0.364641,-0.119473
2.03398,0.102326,-0.118604
1.9766,0.196595,0.0809261
1.93983,0.289218,0.240814
1.83432,0.365868,-0.076204
1.95277,0.291147,0.529026
2.01272,0.200188,0.368782
1.95821,0.187519,-0.0572502
1.9288,0.184703,-0.387528
1.91191,0.277895,0
2.03765,0.0950232,-0.0237478
1.87354,0.272317,-0.294542
1.94336,0.186097,-0.248496
1.84499,0.360969,0.0109264
1.97493,0.18912,-0.0115308
1.88124,0.273436,-0.20477
2.02896,0.0946183,-0.189606
2.04564,0.0953959,0.0238409
1.9033,0.276644,-0.13449
1.96445,0.188116,-0.161102
1.84816,0.36159,0.0548066
1.98661,0.190238,0.034835
1.83732,0.359469,-0.119984
2.03035,0.0946829,-0.118371
1.93239,0.280871,0.11372
1.97731,0.189348,0.0809261
1.83172,0.358373,-0.0760412
2.01344,0.192808,0.368782
1.90744,0.277244,-0.0448513
1.842,0.354046,-0.0327407
1.9628,0.181392,-0.0573665
1.93722,0.179028,-0.389097
1.92074,0.272678,0
2.04594,0.0886122,-0.0238409
1.87834,0.266659,-0.295157
1.94792,0.180017,-0.249001
1.8501,0.355604,0.0109496
1.9875,0.183675,-0.0116006
1.88607,0.267756,-0.205198
2.02131,0.0875453,-0.188862
1.92814,0.273728,0.0453166
2.04594,0.0886122,0.0238409
1.90421,0.270331,-0.13449
1.96903,0.181968,-0.161427
1.84935,0.355459,0.0548066
1.99121,0.184018,0.0349048
1.83851,0.353375,-0.119984
2.03065,0.0879499,-0.118371
1.93726,0.275023,0.113952
1.9819,0.183158,0.0810889
1.91075,0.271259,-0.0898981
1.97685,0.182691,-0.104044
1.94573,0.276226,0.241301
1.84075,0.353806,-0.0763669
1.9624,0.278592,0.531097
2.02191,0.186855,0.370217
1.90834,0.270918,-0.0448513
1.96744,0.174551,-0.0574829
1.93395,0.17158,-0.388312
1.92173,0.265637,0
2.04226,0.0809549,-0.0237944
1.87931,0.259773,-0.295157
1.95647,0.173578,-0.250011
1.85532,0.349562,0.0109729
1.99214,0.176743,-0.0116238
1.89492,0.261931,-0.206055
2.03753,0.0807677,-0.190349
2.04625,0.0811133,0.0238409
1.90519,0.26335,-0.13449
1.97763,0.175455,-0.162078
1.85457,0.34942,0.0549229
1.99586,0.177072,0.0349746
1.84371,0.347374,-0.12024
2.03495,0.0806653,-0.118604
1.94221,0.268468,0.114185
1.98654,0.176246,0.0812517
1.97751,0.175445,-0.104044
1.95066,0.269636,0.241789
1.99351,0.176864,0.16338
1.85382,0.349278,-0.0768554
1.96724,0.271927,0.532132
2.02258,0.179444,0.370217
1.91725,0.265017,-0.0450374
1.94236,0.165495,-0.389881
1.92661,0.259461,0
2.04653,0.0739705,-0.0238409
1.88412,0.253739,-0.295772
1.96497,0.167422,-0.251021
1.85653,0.343084,0.0109729
1.99673,0.170128,-0.0116471
1.89976,0.255846,-0.206483
2.0378,0.0736553,-0.190349
1.93798,0.260992,0.0455027
2.05452,0.0742594,0.0239341
1.91005,0.257231,-0.134769
1.97823,0.168551,-0.162078
2.00443,0.170784,0.0351142
1.85276,0.342387,-0.120752
2.0432,0.0738503,-0.119069
1.94709,0.26222,0.114418
1.99909,0.170329,0.0817402
1.95553,0.263356,0.242276
1.8511,0.342079,-0.0766925
1.98349,0.267122,0.536273
2.02712,0.172717,0.370935
1.92212,0.258857,-0.0451305
1.85342,0.336489,-0.0328803
1.98051,0.162479,-0.057832
1.94678,0.159712,-0.390666
1.92741,0.253407,0
2.05074,0.0676721,-0.0238875
1.88883,0.248334,-0.296387
1.96153,0.160923,-0.250516
1.8576,0.337249,0.0109729
1.90844,0.250912,-0.20734
2.04997,0.0676464,-0.191465
2.05474,0.067804,0.0239341
1.92272,0.252789,-0.135607
1.97875,0.162335,-0.162078
1.86078,0.337826,0.0550393
1.85383,0.336564,-0.120752
2.05141,0.0676939,-0.119534
2.0036,0.164374,0.0819031
1.92929,0.253653,-0.0906426
1.99057,0.163305,-0.104672
1.95241,0.256693,0.241789
1.86003,0.337689,-0.0770182
1.98049,0.260385,0.535238
2.03941,0.167312,0.373087
1.95126,0.152883,-0.39145
1.94023,0.247862,0
2.05498,0.060273,-0.0239341
1.96606,0.154043,-0.251021
1.86276,0.331139,0.0109961
1.99784,0.156533,-0.0116471
1.90146,0.242908,-0.206483
2.04622,0.0600162,-0.191093
1.94764,0.248808,0.0456888
2.06697,0.0606248,0.0240738
1.92759,0.246247,-0.135886
1.98728,0.155705,-0.162729
1.86594,0.331704,0.0551557
2.00555,0.157136,0.0351142
1.85505,0.329768,-0.120752
2.05563,0.0602922,-0.119766
2.00419,0.15703,0.0819031
1.93417,0.247087,-0.0908288
1.96515,0.251045,0.243251
1.86519,0.331569,-0.077181
1.9891,0.254104,0.537308
2.03217,0.159222,0.371652
1.93574,0.247288,-0.0454097
1.95958,0.146998,-0.393019
1.94104,0.241426,0
2.05916,0.0535615,-0.0239806
1.90228,0.236605,-0.298231
1.97843,0.148412,-0.252536
1.87173,0.326333,0.0110426
2.00234,0.150205,-0.0116703
1.91409,0.238074,-0.207768
2.05437,0.0534369,-0.191837
2.07516,0.0539776,0.0241669
1.92444,0.23936,-0.135607
1.99176,0.149412,-0.163054
1.87491,0.326887,0.0553884
2.01403,0.151083,0.0352539
1.86007,0.324299,-0.121008
2.05981,0.0535784,-0.119999
2.0047,0.150382,0.0819031
1.93498,0.240671,-0.0908288
1.96991,0.245017,0.243739
2.01164,0.150903,0.164682
1.86234,0.324695,-0.0770182
1.99376,0.247983,0.538344
2.04053,0.15307,0.373087
1.86866,0.319082,-0.0330898
1.99007,0.142302,-0.0580647
1.96008,0.140157,-0.393019
1.94187,0.234649,0
2.06734,0.0465539,-0.0240738
1.89917,0.229489,-0.297616
1.97894,0.141505,-0.252536
2.01083,0.143786,-0.0117168
1.91886,0.231868,-0.208197
2.05853,0.0463555,-0.192208
1.95723,0.236505,0.0458749
2.07133,0.046644,0.0241203
1.92526,0.232642,-0.135607
1.99625,0.142743,-0.16338
1.87998,0.321014,0.0555047
2.01854,0.144337,0.0353237
1.86906,0.319149,-0.121519
2.05999,0.0463884,-0.119999
2.01319,0.143954,0.0822287
1.9358,0.233916,-0.0908288
2.00413,0.143306,-0.1053
1.96682,0.237663,0.243251
2.01613,0.144165,0.165007
1.87134,0.319538,-0.0773438
1.99462,0.241022,0.538344
2.04498,0.146228,0.373805
1.86982,0.31223,-0.0330898
1.96058,0.132971,-0.393019
1.94272,0.22753,0
1.98736,0.134788,-0.253547
1.87797,0.31359,0.0110659
2.01534,0.136685,-0.0117401
1.92365,0.225296,-0.208625
2.07063,0.039035,-0.193324
1.96205,0.229794,0.045968
2.07949,0.0392021,0.0242135
1.93799,0.226976,-0.136444
1.99278,0.135155,-0.163054
2.01905,0.136937,0.0353237
1.86628,0.311638,-0.121264
2.06414,0.0389126,-0.120232
2.02167,0.137115,0.0825544
1.94459,0.227748,-0.091201
2.00862,0.13623,-0.105509
1.97556,0.231376,0.244226
1.87644,0.313335,-0.0775067
2.00316,0.234609,0.540414
2.04943,0.138997,0.374522
1.87479,0.306673,-0.0331596
1.96884,0.126973,-0.394588
1.95539,0.222442,0
2.07561,0.0322433,-0.0241669
1.9878,0.128196,-0.253547
1.879,0.30736,0.0110659
2.02376,0.130516,-0.0117866
1.92438,0.218915,-0.208625
2.07473,0.0322296,-0.193695
2.08361,0.0323676,0.02426
1.93873,0.220547,-0.136444
2.00117,0.129059,-0.163705
1.88612,0.308526,0.0556211
2.02748,0.130755,0.0354633
1.87518,0.306736,-0.121775
2.08022,0.032315,-0.121162
2.02611,0.130667,0.0827172
1.9493,0.22175,-0.0913871
1.98026,0.225272,0.244714
1.88536,0.308401,-0.0778323
2.00009,0.227527,0.539379
2.05773,0.132706,0.375957
1.97318,0.12034,-0.395372
1.95218,0.215178,0
1.99219,0.1215,-0.254052
1.88401,0.301432,0.0110891
2.02021,0.123208,-0.0117633
1.93304,0.213069,-0.209482
2.07881,0.0250367,-0.194067
2.08771,0.0251438,0.0243066
1.94742,0.214654,-0.137002
2.00957,0.122559,-0.164356
1.89114,0.302573,0.0557375
2.03591,0.124166,0.0356029
1.88018,0.30082,-0.122031
2.08432,0.025103,-0.121394
2.02655,0.123595,0.0827172
1.95006,0.214945,-0.0913871
2.02147,0.123285,-0.106137
1.98103,0.218359,0.244714
1.88642,0.301819,-0.0778323
2.00855,0.221392,0.541449
2.05425,0.125285,0.37524
1.9596,0.215996,-0.0458749
1.88484,0.294486,-0.0332992
1.98536,0.113781,-0.397726
1.95693,0.208446,0
1.99659,0.114425,-0.254557
2.03263,0.11649,-0.0118331
1.93381,0.205983,-0.209482
2.07491,0.0173844,-0.193695
1.97628,0.210507,0.0462471
2.09178,0.0175258,0.0243531
1.9482,0.207515,-0.137002
2.01,0.115193,-0.164356
1.90013,0.296875,0.0559702
2.03635,0.116703,0.0356029
1.88521,0.294544,-0.122287
2.08839,0.0174974,-0.121627
2.03098,0.116396,0.08288
1.95481,0.20822,-0.0915733
1.98972,0.211938,0.245689
1.88752,0.294903,-0.0778323
2.01703,0.214848,0.54352
2.06256,0.118205,0.376675
1.96038,0.208813,-0.0458749
1.88981,0.288508,-0.033369
1.98183,0.106639,-0.396941
1.96162,0.202023,0
2.09183,0.0102235,-0.0243531
2.0049,0.10788,-0.255567
1.89402,0.28915,0.0111356
2.03702,0.109609,-0.0118563
1.93452,0.199231,-0.209482
2.08292,0.0101799,-0.194439
1.97701,0.203607,0.0462471
1.95685,0.201531,-0.13756
2.02234,0.108819,-0.165333
1.89721,0.289636,0.0558538
2.04473,0.110024,0.0357425
1.89412,0.289166,-0.122798
2.08444,0.0101873,-0.121394
2.03936,0.109734,0.0832057
1.9595,0.201804,-0.0917594
2.03027,0.109246,-0.106556
1.9865,0.204584,0.245201
1.89644,0.289519,-0.078158
2.02162,0.208201,0.544555
2.07475,0.111639,0.378827
1.99392,0.100659,-0.399295
1.96626,0.195913,0
2.00525,0.101231,-0.255567
2.04137,0.103054,-0.0118796
1.93913,0.193209,-0.20991
2.09489,0.00329081,-0.195554
1.95353,0.194644,-0.137281
2.01472,0.101709,-0.164682
1.90607,0.284523,0.0560866
2.04508,0.103242,0.0357425
1.89507,0.282882,-0.122798
2.10044,0.00329953,-0.122325
2.0437,0.103172,0.0833685
1.96016,0.195304,-0.0917594
2.03461,0.102713,-0.106765
1.99111,0.198389,0.245689
1.89739,0.283228,-0.078158
2.02998,0.202262,0.546626
2.07117,0.104559,0.37811
1.90756,0.277943,-0.0336482
1.99426,0.0936978,-0.399295
1.96694,0.189048,0
2.10785,-0.00404718,-0.0245394
2.00955,0.0944162,-0.256072
2.0497,0.0963027,-0.011926
1.94375,0.186819,-0.210339
2.09887,-0.00402993,-0.195926
1.96612,0.188969,-0.138118
2.02701,0.0952366,-0.165658
1.911,0.278444,0.0562029
2.04543,0.096102,0.0357425
1.90395,0.277416,-0.12331
2.10842,-0.00404827,-0.12279
2.05602,0.0965996,0.083857
1.96878,0.189225,-0.0921316
1.9997,0.192196,0.246664
1.90627,0.277755,-0.0784836
2.02683,0.194804,0.545591
2.07939,0.0976974,0.379545
1.9006,0.270157,-0.0335086
1.99458,0.0867364,-0.399295
1.97157,0.18255,0
2.11183,-0.0114262,-0.024586
2.0178,0.0877461,-0.257082
1.90878,0.27132,0.0112054
2.05402,0.0893215,-0.0119493
2.10681,-0.011399,-0.19667
1.99492,0.184712,0.0466193
2.11183,-0.0114262,0.024586
1.96279,0.181737,-0.137839
2.03132,0.088334,-0.165984
1.91592,0.272335,0.0563193
2.04975,0.0891356,0.0358123
1.90491,0.270769,-0.12331
2.11239,-0.0114292,-0.123022
2.00004,0.185186,0.116976
2.06034,0.0895962,0.0840198
1.96943,0.182352,-0.0921316
2.04725,0.089027,-0.107393
2.00431,0.185581,0.247151
2.05521,0.0893733,0.167936
1.90723,0.2711,-0.0784836
2.03904,0.188797,0.548696
2.08365,0.0906097,0.380262
2.00269,0.0804369,-0.400864
1.97216,0.176011,0
2.11178,-0.0184287,-0.024586
2.02204,0.0812141,-0.257587
1.90967,0.264989,0.0112054
2.05831,0.0826706,-0.0119725
1.94893,0.173938,-0.210767
2.10278,-0.0183502,-0.196298
1.99951,0.178452,0.0467124
2.11978,-0.0184985,0.0246791
1.96736,0.175582,-0.138118
2.04355,0.0820779,-0.16696
1.9287,0.267629,0.0566684
2.05803,0.0826594,0.035952
1.90975,0.265,-0.123566
2.12033,-0.0185033,-0.123487
1.97003,0.175821,-0.0921316
2.04754,0.0822381,-0.107393
2.00887,0.179287,0.247639
1.91604,0.265873,-0.0788093
2.0435,0.182378,0.549732
2.08394,0.0837001,0.380262
1.91032,0.258286,-0.0336482
2.00688,0.0735889,-0.401648
1.97675,0.169467,0
2.1237,-0.0259472,-0.0247257
2.01835,0.0740094,-0.257082
1.91851,0.259393,0.0112519
2.06258,0.0756313,-0.0119958
1.95349,0.167473,-0.211195
2.11067,-0.025788,-0.197041
2.0041,0.171812,0.0468054
1.96796,0.168713,-0.138118
2.04382,0.0749435,-0.16696
1.92566,0.260359,0.056552
2.0583,0.0754745,0.035952
1.9067,0.257796,-0.12331
2.12025,-0.0259051,-0.123487
2.0609,0.0755698,0.0840198
1.97461,0.169284,-0.0923178
2.0518,0.0752361,-0.107603
2.01344,0.172612,0.248126
2.04798,0.175574,0.550767
2.09601,0.0768573,0.382414
1.91919,0.252326,-0.0337879
1.92335,0.15779,-0.540229
2.01498,0.066492,-0.403217
1.98533,0.162875,0
2.0305,0.0670043,-0.258597
1.93135,0.253924,0.0113216
2.06284,0.0680715,-0.0119958
2.11852,-0.0336499,-0.197785
2.00871,0.164793,0.0468985
1.97652,0.162152,-0.138676
2.04807,0.0675839,-0.167285
1.9266,0.2533,0.056552
2.06256,0.0680623,0.0360218
1.91555,0.251847,-0.123822
2.13212,-0.0338658,-0.124185
2.06117,0.0680162,0.0840198
1.98318,0.162699,-0.09269
2.05606,0.0678476,-0.107812
2.0101,0.164908,0.247639
1.92185,0.252676,-0.0789721
2.05631,0.168698,0.552837
2.10021,0.0693047,0.383132
1.92398,0.246468,-0.0338577
1.9277,0.151713,-0.541307
2.01519,0.0598091,-0.403217
2.13946,-0.0410799,-0.0249119
2.02675,0.0601523,-0.258092
1.92424,0.246501,0.0112751
2.07105,0.0614672,-0.0120423
2.12636,-0.0408284,-0.198529
2.01323,0.158444,0.0469915
1.97704,0.155597,-0.138676
2.0443,0.0606731,-0.16696
1.93139,0.247417,0.0566684
1.91638,0.245493,-0.123822
2.07736,0.0616544,0.0846712
1.98769,0.156435,-0.0928761
2.06426,0.0612655,-0.108231
2.01459,0.158552,0.248126
1.93061,0.247316,-0.0792978
2.06456,0.162484,0.554908
2.10437,0.0624559,0.383849
1.92483,0.239751,-0.0338577
1.93206,0.145273,-0.542386
2.02322,0.0529802,-0.404786
2.1393,-0.0485474,-0.0249119
1.93303,0.240772,0.0113216
2.06726,0.0541333,-0.012019
1.97758,0.148695,-0.138676
2.05645,0.0538503,-0.167936
1.94018,0.241662,0.0569011
2.06698,0.0541259,0.0360916
1.92514,0.23979,-0.124333
2.13583,-0.0484685,-0.124418
2.02285,0.152099,0.118138
2.08156,0.0545078,0.084834
1.98823,0.149496,-0.0928761
2.06845,0.0541645,-0.10844
2.02701,0.152412,0.249588
1.93939,0.241564,-0.0796234
2.10457,0.0551104,0.383849
1.92963,0.233511,-0.0339275
2.02732,0.0460069,-0.405571
2.13912,-0.0560142,-0.0249119
2.03902,0.0462725,-0.259607
2.07943,0.0471895,-0.0120888
2.13399,-0.0558798,-0.199272
2.01429,0.144386,0.0469915
1.99002,0.142647,-0.139513
2.06061,0.0467625,-0.168262
1.94895,0.23585,0.0571338
2.07115,0.0470017,0.0361614
1.92993,0.233548,-0.124589
2.14762,-0.0562368,-0.125115
2.02735,0.145323,0.118371
2.08573,0.0473326,0.0849968
2.07662,0.0471257,-0.108859
2.03149,0.14562,0.250076
1.94022,0.234794,-0.0796234
1.93837,0.227707,-0.0340671
1.94071,0.132305,-0.544542
2.03139,0.0390048,-0.406355
2.15491,-0.063956,-0.0250982
2.05504,0.0394588,-0.261628
1.94261,0.228204,0.0113681
2.07958,0.0399301,-0.0120888
1.98389,0.135248,-0.214194
2.13776,-0.0634471,-0.199644
2.02276,0.137898,0.0471777
2.15091,-0.0638373,0.0250516
1.98653,0.135428,-0.139234
2.06475,0.0396453,-0.168587
1.9577,0.229977,0.0573665
2.0753,0.0398479,0.0362312
1.9347,0.227275,-0.124845
2.15141,-0.0638521,-0.125348
2.09388,0.0402046,0.0853225
1.99719,0.136155,-0.0932484
2.06878,0.0397227,-0.10844
2.03199,0.138527,0.250076
2.09265,0.0401811,0.170865
2.11671,0.040643,0.386002
1.93916,0.22094,-0.0340671
2.07087,0.0325323,-0.0602756
1.94501,0.125779,-0.545621
2.03151,0.0319141,-0.406355
2.15467,-0.0714772,-0.0250982
2.05913,0.0323479,-0.262133
1.94737,0.221875,0.0113914
2.09571,0.0329225,-0.0121818
2.14947,-0.0713046,-0.200759
2.03121,0.131353,0.0473638
1.99097,0.128751,-0.139513
2.06488,0.0324382,-0.168587
1.95452,0.22269,0.0572502
2.08742,0.0327924,0.0364406
1.93548,0.220521,-0.124845
2.15915,-0.0716259,-0.125813
2.03629,0.131681,0.118836
2.094,0.0328958,0.0853225
2.0729,0.0325643,-0.108649
1.94579,0.221695,-0.0797863
2.02323,0.130837,-0.0471777
1.94787,0.215046,-0.0342067
2.0473,0.0250137,-0.409493
2.1584,-0.079145,-0.0251447
2.05526,0.025111,-0.261628
2.09581,0.0256064,-0.0121818
2.15717,-0.0790997,-0.201503
2.03564,0.124505,0.0474568
2.1624,-0.0792916,0.0251913
1.99937,0.122287,-0.140071
2.06896,0.0252784,-0.168913
1.95926,0.216304,0.0573665
2.08753,0.0255052,0.0364406
1.94021,0.214201,-0.125101
2.16687,-0.0794555,-0.126278
2.04471,0.12506,0.119301
2.0981,0.0256344,0.0854853
2.00208,0.122453,-0.0934345
2.08498,0.0254741,-0.109277
1.95449,0.215778,-0.0801119
1.96122,0.113083,-0.549934
2.03953,0.0177982,-0.407924
2.16211,-0.0868399,-0.0251913
2.06327,0.0180054,-0.262638
2.09589,0.01829,-0.0121818
2.15688,-0.0866297,-0.201503
2.03607,0.117398,0.0474568
2.16611,-0.0870004,0.0252379
1.99979,0.115306,-0.140071
2.081,0.01816,-0.169889
1.96398,0.209888,0.0574829
2.0996,0.0183224,0.0366501
1.94491,0.207851,-0.125357
2.16259,-0.0868591,-0.126045
2.04115,0.117691,0.119069
2.10218,0.0183449,0.0856481
2.09305,0.0182652,-0.109696
1.95524,0.208954,-0.0801119
2.03207,0.117168,-0.0473638
1.9533,0.201855,-0.0342765
1.9616,0.106237,-0.549934
2.05919,0.0107829,-0.411846
2.17778,-0.0950829,-0.0253776
2.07126,0.0108461,-0.263648
1.96948,0.203527,0.0115076
2.09994,0.0109962,-0.012205
2.16054,-0.0943303,-0.201875
2.04046,0.110508,0.0475499
2.17778,-0.0950829,0.0253776
1.98061,0.204677,0.0579483
2.09965,0.0109947,0.0366501
1.94563,0.201062,-0.125357
2.17823,-0.0951027,-0.126976
2.04553,0.110783,0.119301
2.10622,0.0110292,0.085811
2.10109,0.0110023,-0.110115
2.05355,0.111217,0.252513
2.11294,0.0110643,0.172493
2.03646,0.110292,-0.0474568
1.96593,0.196226,-0.034486
2.05529,0.00358749,-0.411062
2.17743,-0.102685,-0.0253776
2.07525,0.00362232,-0.264153
1.9662,0.196253,0.0114843
2.10796,0.00367942,-0.0122515
2.16418,-0.10206,-0.202246
2.04482,0.103587,0.0476429
2.17743,-0.102685,0.0253776
2.09702,0.00366032,-0.171191
1.98131,0.197762,0.0579483
2.11168,0.0036859,0.0368595
1.95823,0.195458,-0.126124
2.17789,-0.102706,-0.126976
2.04591,0.103641,0.119301
2.11424,0.00369038,0.0861366
2.01523,0.102087,-0.0939929
2.10111,0.00366746,-0.110115
1.96858,0.19649,-0.0806004
1.97055,0.190089,-0.0345558
2.09511,-0.00329125,-0.0609738
1.96998,0.0932461,-0.55209
2.05529,-0.00322871,-0.411062
2.18107,-0.110107,-0.0254241
2.08319,-0.00327253,-0.265163
1.9748,0.190499,0.0115308
2.11596,-0.00332401,-0.012298
2.17178,-0.109638,-0.20299
2.04516,0.0968046,0.0476429
2.18507,-0.110309,0.0254707
2.09702,-0.00329426,-0.171191
1.97798,0.190806,0.057832
2.11967,-0.00332984,0.0369991
1.95887,0.188963,-0.126124
2.1895,-0.110532,-0.127673
2.05422,0.0972334,0.119766
2.12224,-0.00333387,0.0864623
2.03152,0.0961592,-0.0947374
2.10511,-0.00330696,-0.110324
1.96922,0.189961,-0.0806004
1.97518,0.18358,-0.0346256
2.10708,-0.0106648,-0.0613228
1.97414,0.0865381,-0.553169
2.06312,-0.0104423,-0.412631
2.19266,-0.118366,-0.0255638
2.00197,0.0877582,-0.311759
2.0792,-0.0105237,-0.264658
2.11594,-0.0107096,-0.012298
2.17934,-0.117647,-0.203733
2.05347,0.0900158,0.047829
2.19266,-0.118366,0.0255638
2.10896,-0.0106743,-0.172167
1.98261,0.184271,0.0579483
2.11965,-0.0107284,0.0369991
1.96349,0.182493,-0.12638
2.06252,0.0904125,0.120232
2.12221,-0.0107414,0.0864623
2.03584,0.0892427,-0.0949235
2.11307,-0.0106951,-0.110743
1.97385,0.183456,-0.0807633
2.05347,0.0900158,-0.047829
1.9718,0.176673,-0.0345558
1.97826,0.0801475,-0.554247
2.07876,-0.0174148,-0.415769
2.19625,-0.125865,-0.0256104
2.01015,0.0814393,-0.312989
2.08709,-0.0174845,-0.265668
1.98402,0.177768,0.0115773
2.11989,-0.0177594,-0.0123213
2.18291,-0.125101,-0.204105
2.05376,0.0832061,0.047829
2.21222,-0.12678,0.0257966
2.1129,-0.0177008,-0.172493
1.99118,0.178409,0.0581811
2.1276,-0.017824,0.0371387
1.96806,0.176338,-0.126636
2.19667,-0.125889,-0.128138
2.05882,0.0834112,0.119999
2.12616,-0.0178119,0.0866251
2.04411,0.082815,-0.0952957
2.11702,-0.0177353,-0.110952
1.97843,0.177267,-0.0809261
2.05775,0.083368,-0.0479221
1.98239,0.0730385,-0.555325
2.0826,-0.0250805,-0.416553
2.20775,-0.134644,-0.0257501
2.01043,0.0740717,-0.312989
2.09891,-0.0252769,-0.267184
1.99263,0.17118,0.0116238
2.12381,-0.0255767,-0.0123445
2.18244,-0.1331,-0.204105
2.05405,0.0756786,0.047829
2.20775,-0.134644,0.0257501
2.00377,0.172137,0.0585302
2.13952,-0.0257659,0.0373482
1.97267,0.169466,-0.126892
2.20018,-0.134182,-0.128371
2.0631,0.0760121,0.120232
2.12493,-0.0255902,-0.111371
2.075,0.0764504,0.254951
1.98703,0.170699,-0.0812517
2.06204,0.0759731,-0.0480151
1.98497,0.163544,-0.0347652
2.07858,-0.0322896,-0.415769
2.21525,-0.142865,-0.0258432
2.01858,0.0673164,-0.314219
2.10278,-0.0326655,-0.267689
1.99321,0.164223,0.0116238
2.13571,-0.033177,-0.0124142
2.18594,-0.140974,-0.204477
2.06229,0.0687742,0.0480151
2.21126,-0.142607,0.0257966
2.12468,-0.0330056,-0.173469
2.00436,0.165141,0.0585302
2.14741,-0.0333589,0.0374878
1.97723,0.162906,-0.127148
2.20767,-0.142376,-0.128836
2.13797,-0.0332121,0.0871136
2.04465,0.0681856,-0.0952957
2.13282,-0.0331321,-0.11179
2.08319,0.069471,0.255926
1.98761,0.163761,-0.0812517
2.0543,0.0685076,-0.047829
1.98952,0.156928,-0.034835
1.9944,0.0595409,-0.55856
2.09022,-0.0397694,-0.418122
2.06308,0.0615912,0
2.21074,-0.150326,-0.0257966
2.10662,-0.0400814,-0.268194
2.00175,0.157893,0.0116703
2.13558,-0.0406324,-0.0124142
2.19338,-0.149145,-0.205221
2.06652,0.0616938,0.0481082
2.12455,-0.0404225,-0.173469
2.00492,0.158143,0.0585302
2.15128,-0.0409312,0.0375576
1.98575,0.15663,-0.127659
2.20715,-0.150082,-0.128836
2.14983,-0.0409035,0.0876021
2.05286,0.061286,-0.095668
2.13668,-0.0406534,-0.111999
1.99215,0.157136,-0.0814146
2.07052,0.0618131,-0.0482012
1.99003,0.150329,-0.034835
2.13456,-0.0476952,-0.0621374
1.99844,0.0530285,-0.559639
2.094,-0.0467888,-0.418907
2.2222,-0.15851,-0.0259363
2.0269,0.0537835,-0.315449
2.10647,-0.0470675,-0.268194
2.00226,0.151253,0.0116703
2.14743,-0.0479826,-0.012484
2.19684,-0.156702,-0.205592
2.07071,0.0549462,0.0482012
2.23018,-0.15908,0.0260295
2.13237,-0.0476462,-0.17412
2.00942,0.151794,0.0586465
2.15114,-0.0480655,0.0375576
1.98227,0.149743,-0.127403
2.21461,-0.157969,-0.129301
2.14968,-0.048033,0.0876021
2.06104,0.0546895,-0.0960402
2.14053,-0.0478284,-0.112208
1.99266,0.150528,-0.0814146
2.07071,0.0549462,-0.0482012
2.13838,-0.0552485,-0.0622537
2.00632,0.0462304,-0.561795
2.09774,-0.0541986,-0.419691
2.2336,-0.167161,-0.026076
2.03892,0.0469818,-0.317293
2.1182,-0.0547271,-0.269709
2.01076,0.144838,0.0117168
2.15125,-0.0555809,-0.0125072
2.20423,-0.164963,-0.206336
2.07889,0.0479026,0.0483873
2.22961,-0.166863,0.0260295
2.13618,-0.0551916,-0.174445
2.01792,0.145354,0.0588792
2.15495,-0.0556767,0.0376274
1.98677,0.14311,-0.127659
2.21405,-0.165698,-0.129301
2.16149,-0.0558455,0.0880906
2.06521,0.0475875,-0.0962264
2.10364,0.048473,0.258363
2.00115,0.144146,-0.0817402
2.07889,0.0479026,-0.0483873
1.99903,0.136631,-0.0349746
2.00647,0.0388766,-0.561795
2.11321,-0.0623495,-0.422829
2.07161,0.0401387,0
2.23696,-0.17566,-0.0261226
2.03513,0.0394319,-0.316679
2.12591,-0.0627243,-0.270719
2.01127,0.137468,0.0117168
2.15103,-0.0634653,-0.0125072
2.20758,-0.173352,-0.206708
2.23696,-0.17566,0.0261226
2.14792,-0.0633735,-0.175422
2.02242,0.13823,0.0589956
2.16673,-0.0639285,0.0378368
1.99126,0.1361,-0.127915
2.22537,-0.174749,-0.129999
2.16127,-0.0637673,0.0880906
2.06937,0.0400952,-0.0964125
2.1561,-0.063615,-0.113046
2.11174,0.0409162,0.259338
2.00167,0.136811,-0.0817402
2.07905,0.0402827,-0.0483873
2.00748,0.13017,-0.0351142
2.14592,-0.0708127,-0.0624865
2.10906,-0.0695963,-0.422044
2.23633,-0.183467,-0.0261226
2.05106,0.0325788,-0.319138
2.13758,-0.0705374,-0.272234
2.01972,0.130964,0.0117633
2.16279,-0.0713691,-0.012577
2.08317,0.0330888,0.0484804
2.24032,-0.183794,0.0261692
2.15167,-0.0710022,-0.175747
2.02688,0.131428,0.059112
2.17049,-0.0716233,0.0379066
1.99571,0.129406,-0.128171
2.22474,-0.182516,-0.129999
2.16902,-0.0715748,0.0884162
2.07749,0.0329984,-0.0967847
2.15986,-0.0712725,-0.113255
2.11187,0.0335446,0.259338
2.00612,0.130082,-0.0819031
2.07917,0.0330253,-0.0483873
2.15365,-0.0785945,-0.0627192
2.01825,0.0250111,-0.56503
2.11273,-0.0771009,-0.422829
2.24365,-0.191954,-0.0262157
2.04721,0.02537,-0.318523
2.14129,-0.0781432,-0.272739
2.02416,0.124158,0.0117866
2.16652,-0.0790641,-0.0126002
2.22219,-0.190118,-0.208195
2.09527,0.0259656,0.0487595
2.24764,-0.192295,0.0262623
2.15539,-0.0786579,-0.176073
2.02733,0.124352,0.059112
2.18221,-0.0796368,0.0381161
2.00411,0.122928,-0.128683
2.23603,-0.191302,-0.130697
2.09629,0.0259782,0.122092
2.17275,-0.0792914,0.0885791
2.1596,-0.0788114,-0.113255
2.11198,0.0261726,0.259338
2.01055,0.123323,-0.0820659
2.08727,0.0258665,-0.0485734
2.01231,0.116734,-0.0351841
2.15738,-0.0858949,-0.0628356
2.02217,0.0183532,-0.566108
2.13205,-0.0848867,-0.426751
2.08791,0.0189498,0
2.25097,-0.200102,-0.0263088
2.05519,0.0186528,-0.319753
2.14102,-0.0852435,-0.272739
2.02856,0.117676,0.0118098
2.17824,-0.0867255,-0.01267
2.06398,0.0187326,-0.222334
2.22948,-0.198191,-0.208938
2.09935,0.0190536,0.0488526
2.25894,-0.20081,0.026402
2.16308,-0.0861222,-0.176724
2.03571,0.118092,0.0593447
2.18194,-0.0868729,0.0381161
2.00451,0.116281,-0.128683
2.23936,-0.19907,-0.130929
2.18845,-0.0871321,0.0892304
2.08565,0.0189293,-0.097157
2.11999,0.019241,0.260313
2.00696,0.116423,-0.0819031
2.08735,0.0189447,-0.0485734
2.16504,-0.094149,-0.0630683
2.02993,0.0109831,-0.568265
2.13565,-0.0928709,-0.427536
2.09997,0.011362,0
2.2542,-0.208719,-0.0263554
2.05525,0.0111201,-0.319753
2.14862,-0.0934349,-0.27375
2.02897,0.11024,0.0118098
2.16991,-0.094361,-0.0126235
2.2327,-0.206728,-0.20931
2.1114,0.0114239,0.0491318
2.25819,-0.209088,0.026402
2.0749,0.0112264,-0.145093
2.17072,-0.0943961,-0.177375
2.04412,0.111063,0.0595774
2.1856,-0.0950432,0.0381859
2.00891,0.10915,-0.128938
2.23862,-0.207276,-0.130929
2.18812,-0.0951526,0.0892304
2.0937,0.0113281,-0.0975292
2.12799,0.0115136,0.261288
2.01934,0.109717,-0.0823915
2.0914,0.0113157,-0.0486665
2.16869,-0.101893,-0.0631846
2.14315,-0.100693,-0.429105
2.1,0.00403171,0
2.26142,-0.217352,-0.0264485
2.06318,0.00396102,-0.320983
2.16017,-0.101493,-0.275265
2.03734,0.103563,0.0118563
2.18555,-0.102686,-0.0127165
2.2399,-0.215283,-0.210054
2.10743,0.00404597,0.0490387
2.26939,-0.218117,0.0265417
2.08291,0.00399891,-0.145652
2.0405,0.103724,0.0594611
2.19724,-0.103235,0.0383953
2.01725,0.102543,-0.12945
2.24583,-0.215853,-0.131394
2.19176,-0.102977,0.0893932
2.09373,0.00401967,-0.0975292
2.13596,0.00410075,0.262263
2.02371,0.102871,-0.0825544
2.10343,0.0040383,-0.0489456
2.17634,-0.109106,-0.0634174
2.14674,-0.107622,-0.429889
2.104,-0.00257052,0
2.26471,-0.224851,-0.0264951
2.07108,-0.0025303,-0.322213
2.16777,-0.108676,-0.276275
2.04964,0.097734,0.011926
2.1972,-0.110152,-0.0127862
2.07997,-0.00254115,-0.224047
2.24713,-0.223106,-0.210797
2.11943,-0.00258936,0.0493179
2.26869,-0.225246,0.0265417
2.17801,-0.10919,-0.178025
2.04481,0.0975039,0.0595774
2.2049,-0.110538,0.0385349
2.01756,0.0962047,-0.12945
2.25706,-0.224091,-0.132092
2.12839,-0.00260032,0.123952
2.19941,-0.110263,0.0897188
2.10172,-0.00256773,-0.0979015
2.18625,-0.109603,-0.11472
2.13993,-0.00261441,0.26275
2.2019,-0.110388,0.179978
2.02801,0.0967029,-0.0827172
2.09943,-0.00256493,-0.0488526
2.18389,-0.117893,-0.0636501
2.14631,-0.115864,-0.429889
2.10797,-0.0106695,0
2.27179,-0.234366,-0.0265882
2.17526,-0.117427,-0.277285
2.05399,0.0900384,0.0119493
2.20475,-0.119019,-0.0128327
2.08392,-0.0105477,-0.224475
2.25022,-0.232141,-0.211169
2.1274,-0.0107678,0.049504
2.27975,-0.235187,0.0266814
2.09486,-0.0106031,-0.146489
2.18554,-0.117982,-0.178676
2.04916,0.0898268,0.0596938
2.20445,-0.119003,0.0385349
2.02589,0.0888067,-0.129962
2.26015,-0.233166,-0.132324
2.13635,-0.0108131,0.124418
2.19897,-0.118707,0.0897188
2.10569,-0.0106579,-0.0980876
2.14387,-0.0108512,0.263238
2.02837,0.0889152,-0.0827172
2.1154,-0.0107071,-0.0492248
2.19145,-0.125975,-0.0638828
2.15372,-0.123806,-0.431458
2.17087,-0.124792,-0.27678
2.0463,0.0825457,0.0119028
2.20832,-0.126944,-0.012856
2.09182,-0.0178899,-0.225332
2.25732,-0.240839,-0.211912
2.12735,-0.0181937,0.049504
2.28686,-0.243992,0.0267745
2.0988,-0.0179496,-0.146768
2.18511,-0.12561,-0.178676
2.20802,-0.126927,0.0386047
2.02619,0.0817345,-0.129962
2.27124,-0.242325,-0.133022
2.1363,-0.0182703,0.124418
2.21051,-0.12707,0.0902073
2.11763,-0.0181106,-0.098646
2.20134,-0.126543,-0.115558
2.14382,-0.0183346,0.263238
2.03266,0.0819954,-0.08288
2.11535,-0.0180912,-0.0492248
2.19105,-0.132859,-0.0638828
2.16115,-0.131046,-0.433027
2.12785,-0.0248836,0
2.18235,-0.132331,-0.278295
2.05454,0.076414,0.0119493
2.20791,-0.133881,-0.012856
2.26843,-0.249235,-0.213028
2.13528,-0.0249704,0.0496901
2.29006,-0.251612,0.0268211
2.10671,-0.0246364,-0.147326
2.19267,-0.132957,-0.179327
2.05371,0.0763829,0.0598101
2.2116,-0.134105,0.0386745
2.03043,0.075517,-0.130218
2.2665,-0.249023,-0.13279
2.14023,-0.0250283,0.12465
2.21808,-0.134498,0.090533
2.12155,-0.02481,-0.0988321
2.20093,-0.133458,-0.115558
2.15963,-0.0252553,0.265188
2.0369,0.0757577,-0.0830429
2.11528,-0.0247366,-0.0492248
2.16457,-0.139218,-0.433811
2.12775,-0.0326824,0
2.0906,-0.0321119,-0.325287
2.18977,-0.140839,-0.279305
2.05881,0.0690172,0.0119725
2.21938,-0.142743,-0.0129257
2.2675,-0.257547,-0.213028
2.13517,-0.0327964,0.0496901
2.2931,-0.260455,0.0268676
2.1106,-0.032419,-0.147605
2.20012,-0.141504,-0.179978
2.05797,0.0689891,0.0599265
2.21509,-0.142467,0.0387443
2.2735,-0.258229,-0.133255
2.14811,-0.0329951,0.125115
2.22156,-0.142883,0.0906958
2.12145,-0.0325857,-0.0988321
2.21239,-0.142293,-0.116186
2.15953,-0.0331705,0.265188
2.04116,0.0684255,-0.0832057
2.13117,-0.032735,-0.049597
2.20201,-0.149346,-0.0642319
2.06426,-0.038915,-0.57797
2.16799,-0.147038,-0.434596
2.07103,0.0621903,0.0120423
2.23084,-0.151301,-0.0129954
2.10743,-0.0397289,-0.227046
2.27845,-0.26685,-0.214143
2.14704,-0.0404755,0.0499692
2.11446,-0.0398614,-0.147884
2.20359,-0.149453,-0.180304
2.07019,0.0621651,0.0602756
2.23054,-0.15128,0.0390236
2.04289,0.0613452,-0.130985
2.28845,-0.268022,-0.134185
2.15596,-0.0406438,0.12558
2.22903,-0.151178,0.0910215
2.12931,-0.0401414,-0.0992044
2.21586,-0.150285,-0.116395
2.16337,-0.0407833,0.265675
2.05737,0.06178,-0.083857
2.13904,-0.0403248,-0.0497831
2.17137,-0.154884,-0.43538
2.13947,-0.0478041,0
2.20457,-0.157252,-0.281326
2.07124,0.0549607,0.0120423
2.2303,-0.159087,-0.0129954
2.11921,-0.0473515,-0.228331
2.29332,-0.276711,-0.21563
2.15488,-0.0481485,0.0501553
2.12229,-0.0474202,-0.148442
2.20306,-0.157144,-0.180304
2.23398,-0.15935,0.0390934
2.05107,0.0544256,-0.131497
2.29543,-0.276965,-0.13465
2.16778,-0.0484368,0.126278
2.23646,-0.159527,0.0913472
2.14114,-0.0478416,-0.0997627
2.17512,-0.0486007,0.267138
2.05357,0.054492,-0.0836942
2.14688,-0.0479698,-0.0499692
2.2129,-0.165224,-0.064581
2.14329,-0.0550012,0
2.20799,-0.164857,-0.281831
2.06741,0.0479991,0.012019
2.23374,-0.16678,-0.0130187
2.11904,-0.0543787,-0.228331
2.3003,-0.285294,-0.216374
2.1627,-0.0554992,0.0503414
2.12611,-0.0545601,-0.148721
2.21047,-0.165042,-0.180955
2.07456,0.0481652,0.060392
2.22945,-0.16646,0.0390236
2.30243,-0.285558,-0.135115
2.1716,-0.0557276,0.126511
2.24389,-0.167537,0.0916728
2.14497,-0.0550441,-0.0999489
2.23072,-0.166554,-0.117233
2.06573,0.0479601,-0.0841827
