2.20096,0.28898,-0.0258432
2.20784,0.266396,-0.0258898
2.21272,0.259153,-0.0259363
2.21763,0.251491,-0.0259829
2.21452,0.243313,-0.0259363
2.21929,0.236391,-0.0259829
2.22412,0.228664,-0.0260295
2.22483,0.221676,-0.0260295
2.22483,0.221676,0.0260295
2.22161,0.213526,-0.0259829
2.23356,0.214674,0.0261226
2.23788,0.215089,-0.130929
2.23034,0.206118,-0.026076
2.24229,0.207223,0.0262157
2.2466,0.207621,-0.131394
2.23102,0.19872,-0.026076
2.23898,0.19943,0.0261692
2.2433,0.199815,-0.131162
2.23967,0.191613,-0.0261692
2.24764,0.192295,0.0262623
2.25194,0.192663,-0.131627
2.21207,0.290439,-0.0649301
2.25231,0.184382,-0.0263088
2.24434,0.18373,0.0262157
2.25263,0.184409,-0.131627
2.24497,0.175894,-0.0262157
2.24497,0.175894,0.0262157
2.26123,0.177168,-0.132092
2.25753,0.168952,-0.0263554
2.21891,0.275594,-0.0129954
2.24956,0.168355,0.0262623
2.2698,0.16987,-0.132557
2.19907,0.265727,-0.0644646
2.25808,0.161466,-0.0263554
2.25808,0.161466,0.0263554
2.26636,0.162058,-0.132324
2.19601,0.257583,-0.0643483
2.25065,0.153039,-0.0262623
2.26262,0.153853,0.026402
2.2709,0.154416,-0.132557
2.20091,0.249984,-0.0644646
2.26716,0.145816,-0.0264485
2.2177,0.251891,-0.0129722
2.25918,0.145303,0.0263554
2.27942,0.146605,-0.133022
2.20173,0.242684,-0.0644646
2.27163,0.13854,-0.0264951
2.2225,0.244974,-0.0129954
2.26763,0.138297,0.0264485
2.28388,0.139288,-0.133255
2.20654,0.235422,-0.064581
2.27209,0.130611,-0.0264951
2.22732,0.23764,-0.0130187
2.29422,0.131883,-0.214515
2.2681,0.130382,0.0264485
2.28834,0.131545,-0.133487
2.2153,0.228539,-0.0648137
2.27653,0.122895,-0.0265417
2.22814,0.229863,-0.0130187
2.30262,0.124303,-0.215258
2.27653,0.122895,0.0265417
2.29277,0.123771,-0.13372
2.21605,0.221191,-0.0648137
2.28092,0.115546,-0.0265882
2.23287,0.22287,-0.0130419
2.307,0.116868,-0.21563
2.28092,0.115546,0.0265882
2.29317,0.116167,-0.13372
2.24177,0.223758,-0.11807
2.21282,0.21307,-0.0646974
2.29729,0.108337,-0.0267745
2.23761,0.215457,-0.0130652
2.30739,0.108813,-0.21563
2.27731,0.107395,0.0265417
2.23731,0.215428,0.039233
2.30154,0.108537,-0.134185
2.24254,0.215931,-0.11807
2.22948,0.206823,-0.0651628
2.28966,0.0999698,-0.0266814
2.23835,0.207646,-0.0130652
2.30776,0.10076,-0.21563
2.28567,0.0997953,0.0266348
2.23805,0.207618,0.039233
2.3019,0.100504,-0.134185
2.24725,0.208472,-0.118279
2.23022,0.19865,-0.0651628
2.29401,0.0917363,-0.0267279
2.25105,0.200505,-0.0131349
2.31607,0.0926185,-0.216374
2.28602,0.0914167,0.0266348
2.24278,0.199768,0.0393028
2.31423,0.0925447,-0.134883
2.248,0.200234,-0.118279
2.24285,0.191887,-0.0655119
2.29831,0.0838745,-0.0267745
2.25174,0.192647,-0.0131349
2.32434,0.0848243,-0.217117
2.29432,0.0837286,0.0267279
2.24745,0.19228,0.0393726
2.31453,0.0844665,-0.134883
2.24869,0.192386,-0.118279
2.23551,0.183792,-0.0652792
2.30258,0.0763846,-0.0268211
2.25236,0.185178,-0.0131349
2.32461,0.0771154,-0.217117
2.29858,0.0762519,0.0267745
2.25206,0.185153,0.0394424
2.3148,0.0767901,-0.134883
2.26524,0.186237,-0.119117
2.24015,0.175911,-0.0653955
2.31084,0.0681811,-0.0269142
2.25701,0.177235,-0.0131582
2.32488,0.0685953,-0.217117
2.29884,0.0678272,0.0267745
2.25272,0.176898,0.0394424
2.32704,0.0686592,-0.13558
2.26591,0.177933,-0.119117
2.21336,0.283146,-0.0519233
2.23677,0.167791,-0.0652792
2.31506,0.0602177,-0.0269608
2.26161,0.169654,-0.0131814
2.33306,0.0606861,-0.217861
2.29907,0.0598017,0.0267745
2.2613,0.169631,0.0395821
2.33126,0.0606391,-0.135813
2.26651,0.170022,-0.119117
2.21037,0.274924,-0.0518303
2.25326,0.161516,-0.0657446
2.32324,0.0527224,-0.0270539
2.26615,0.16244,-0.0132047
2.33723,0.0530398,-0.218233
2.31925,0.0526316,0.0270073
2.28651,0.163899,-0.187138
2.26185,0.162132,0.0395821
2.33544,0.0529991,-0.136045
2.26032,0.162022,0.0923241
2.27503,0.163077,-0.119535
2.22317,0.269034,-0.0521094
2.2578,0.153922,-0.065861
2.32341,0.0446129,-0.0270539
2.2667,0.154529,-0.0132047
2.34537,0.0450344,-0.218976
2.31142,0.0443825,0.0269142
2.28309,0.155646,-0.186813
2.26639,0.154508,0.0396519
2.3396,0.0449237,-0.136278
2.26087,0.154132,0.0923241
2.27957,0.155407,-0.119745
2.22013,0.260806,-0.0520164
2.26231,0.146298,-0.0659773
2.33555,0.0366902,-0.0271936
2.27122,0.146873,-0.0132279
2.34949,0.0369092,-0.219348
2.32356,0.0365018,0.0270539
2.2876,0.147933,-0.187138
2.26692,0.146596,0.0396519
2.33575,0.0366934,-0.136045
2.2614,0.146238,0.0923241
2.23907,0.25511,-0.104974
2.2801,0.147448,-0.119745
2.22103,0.253054,-0.0520164
2.2668,0.138643,-0.0660937
2.21057,0.244049,0
2.34367,0.0286345,-0.0272867
2.2797,0.139432,-0.0132744
2.34563,0.0286585,-0.218976
2.32767,0.0284391,0.0271004
2.29606,0.140433,-0.187789
2.2754,0.139169,0.0397915
2.34785,0.0286856,-0.136743
2.26189,0.138343,0.0923241
2.2806,0.139487,-0.119745
2.22587,0.245738,-0.0521094
2.27126,0.130961,-0.0662101
2.20743,0.235907,0
2.32775,0.0203143,-0.0271004
2.27618,0.131244,-0.0132512
2.35368,0.0205405,-0.21972
2.33175,0.0203492,0.027147
2.29653,0.132418,-0.187789
2.27987,0.131456,0.0398613
2.35193,0.0205252,-0.136976
2.27034,0.130907,0.0926498
2.22888,0.238199,-0.104416
2.28905,0.131986,-0.120163
2.23069,0.238392,-0.0522025
2.27969,0.123463,-0.0664428
2.22018,0.229433,0
2.33981,0.012251,-0.0272401
2.28861,0.123946,-0.0133209
2.35772,0.0123448,-0.220092
2.33181,0.0122091,0.027147
2.29698,0.1244,-0.187789
2.28031,0.123497,0.0398613
2.35997,0.0123565,-0.137441
2.27478,0.123197,0.0928126
2.23764,0.231238,-0.104788
2.2895,0.123994,-0.120163
2.23549,0.231015,-0.0522955
2.28009,0.115903,-0.0664428
2.22093,0.222069,0
2.35184,0.00451534,-0.0273798
2.28501,0.116154,-0.0132977
2.36571,0.00454198,-0.220835
2.33584,0.00448462,0.0271936
2.30136,0.116985,-0.188115
2.2887,0.116341,0.0400009
2.356,0.00452334,-0.137208
2.28316,0.116059,0.0931383
2.2384,0.223817,-0.104788
2.30585,0.117213,-0.121001
2.23226,0.223203,-0.0522025
2.28446,0.108531,-0.0665591
2.23359,0.215857,0
2.35984,-0.00329548,-0.027473
2.28538,0.108575,-0.0132977
2.36173,-0.00329812,-0.220463
2.35184,-0.00328431,0.0273798
2.31369,0.10992,-0.189091
2.29706,0.10913,0.0401405
2.36,-0.00329571,-0.137441
2.28353,0.108487,0.0931383
2.23913,0.216392,-0.104788
2.30623,0.109565,-0.121001
2.23697,0.216183,-0.0522955
2.28883,0.100333,-0.0666755
2.2264,0.206929,0
2.36381,-0.0119644,-0.0275195
2.29775,0.100724,-0.0133674
2.36967,-0.0119941,-0.221207
2.34381,-0.0118632,0.0272867
2.31407,0.101439,-0.189091
2.30144,0.100885,0.0402103
2.36796,-0.0119854,-0.137906
2.27992,0.099942,0.0929754
2.24389,0.208554,-0.104974
2.30662,0.101112,-0.121001
2.24571,0.208724,-0.0524816
2.16289,0.300511,-0.0381161
2.28917,0.0923432,-0.0666755
2.23907,0.200226,0
2.36775,-0.0202493,-0.0275661
2.29809,0.0927032,-0.0133674
2.38156,-0.0203673,-0.222322
2.25041,0.20124,0.0525747
2.35975,-0.0201809,0.027473
2.3184,0.0935222,-0.189416
2.30178,0.0928518,0.0402103
2.37189,-0.0202847,-0.138138
2.28425,0.0921446,0.0931383
2.24062,0.200365,-0.104788
2.31095,0.0932217,-0.12121
2.25041,0.20124,-0.0525747
2.30146,0.0847929,-0.0670246
2.24374,0.19275,0
2.36767,-0.0285148,-0.0275661
2.3064,0.0849747,-0.0134139
2.37749,-0.0286331,-0.22195
2.24711,0.193041,0.0524816
2.35967,-0.0284184,0.027473
2.32668,0.0857219,-0.190067
2.31008,0.0851104,0.04035
2.37979,-0.0286608,-0.138603
2.29654,0.0846114,0.0936268
2.24927,0.193226,-0.10516
2.31525,0.0853009,-0.121419
2.28285,0.0841072,0.186487
2.25508,0.193725,-0.0526678
2.30173,0.077161,-0.0670246
2.24835,0.185638,0
2.37956,-0.0365499,-0.0277058
2.30667,0.0773264,-0.0134139
2.38933,-0.0367,-0.223066
2.25571,0.186246,0.0526678
2.36756,-0.0363656,0.0275661
2.24685,0.185515,-0.15765
2.33492,0.0782735,-0.190718
2.31035,0.0774499,0.04035
2.37969,-0.0365519,-0.138603
2.30479,0.0772636,0.0939524
2.26184,0.186753,-0.105719
2.3275,0.0780247,-0.122047
2.2871,0.0766706,0.186813
2.25571,0.186246,-0.0526678
2.18575,0.28039,-0.0384651
2.31399,0.0690827,-0.0673737
2.25699,0.178026,0
2.38341,-0.0453467,-0.0277523
2.34007,0.0698612,-0.297993
2.31493,0.0691108,-0.0134604
2.3852,-0.0453808,-0.222694
2.25638,0.177978,0.0526678
2.37941,-0.0452706,0.0277058
2.25945,0.17822,-0.158487
2.33519,0.0697155,-0.190718
2.31861,0.0692207,0.0404896
2.38353,-0.0453491,-0.138836
2.30506,0.0688161,0.0939524
2.26251,0.178462,-0.105719
2.33176,0.0696132,-0.122257
2.29534,0.0685259,0.187464
2.25239,0.177664,-0.0525747
2.19069,0.273253,-0.0385349
2.31022,0.0608989,-0.0672573
2.25361,0.169845,0
2.38723,-0.0537568,-0.0277989
2.34426,0.0617964,-0.298498
2.32315,0.0612399,-0.0135069
2.39299,-0.0538864,-0.223438
2.26097,0.170401,0.0527608
2.37524,-0.0534867,0.0276592
2.26006,0.170331,-0.158487
2.34339,0.0617733,-0.191369
2.33084,0.0614424,0.040699
2.39134,-0.0538493,-0.139301
2.31727,0.0610849,0.0944409
2.26312,0.170562,-0.105719
2.328,0.0613675,-0.122047
2.29556,0.0605126,0.187464
2.26097,0.170401,-0.0527608
2.19555,0.266468,-0.0386047
2.31441,0.0533291,-0.0673737
2.25416,0.162371,0
2.39104,-0.0617768,-0.0278455
2.34842,0.054113,-0.299003
2.32734,0.0536272,-0.0135301
2.39678,-0.061925,-0.223809
2.26552,0.163189,0.0528539
2.38704,-0.0616735,0.0277989
2.26857,0.163409,-0.159045
2.33959,0.0539095,-0.191044
2.33103,0.0537121,0.040699
2.39115,-0.0617796,-0.139301
2.31347,0.0533075,0.0942781
2.27165,0.16363,-0.106091
2.33218,0.0537387,-0.122257
2.29974,0.0529911,0.187789
2.26552,0.163189,-0.0528539
2.20843,0.259822,-0.0388142
2.31858,0.044924,-0.06749
2.26272,0.154654,0
2.3948,-0.0706574,-0.027892
2.35257,0.0455826,-0.299508
2.22065,0.261259,0.0129954
2.33152,0.0451747,-0.0135534
2.4045,-0.0709436,-0.224553
2.27807,0.155703,0.053133
2.3868,-0.0704215,0.0277989
2.26517,0.154821,-0.158766
2.35572,0.0456435,-0.192346
2.33121,0.0451686,0.040699
2.39889,-0.0707782,-0.139766
2.31764,0.0449058,0.0944409
2.2802,0.155849,-0.106463
2.34434,0.0454231,-0.122885
2.3039,0.0446395,0.188115
2.27408,0.15543,-0.05304
2.20138,0.251204,-0.0386745
2.32672,0.0369567,-0.0677228
2.26724,0.147013,0
2.40253,-0.0792809,-0.0279852
2.35669,0.0374327,-0.300013
2.33567,0.0370988,-0.0135766
2.41219,-0.0795998,-0.225296
2.2786,0.147749,0.053133
2.39853,-0.0791489,0.0279386
2.28163,0.147945,-0.159882
2.35587,0.0374196,-0.192346
2.33535,0.0370938,0.0407688
2.39863,-0.0791521,-0.139766
2.32178,0.0368783,0.0946037
2.27675,0.147629,-0.106277
2.34449,0.0372389,-0.122885
2.30803,0.0366598,0.18844
2.20783,0.25194,-0.090533
2.27461,0.14749,-0.05304
2.20215,0.244287,-0.0386745
2.32283,0.0295965,-0.0676064
2.27168,0.140136,0
2.40227,-0.0868278,-0.0279852
2.35679,0.0300292,-0.300013
2.33577,0.0297614,-0.0135766
2.40795,-0.0870332,-0.224925
2.27107,0.140098,0.0529469
2.40227,-0.0868278,0.0279852
2.2781,0.140532,-0.159603
2.35996,0.0300695,-0.192671
2.33945,0.0298083,0.0408386
2.39837,-0.0866868,-0.139766
2.32588,0.0296354,0.0947666
2.28517,0.140968,-0.106649
2.35657,0.0300264,-0.123513
2.31611,0.0295108,0.189091
2.21258,0.245444,-0.0906958
2.27506,0.140344,-0.05304
2.20705,0.236256,-0.0387443
2.34292,0.0208557,-0.0681882
2.26821,0.131182,0
2.4179,-0.0966899,-0.0281714
2.36483,0.0210508,-0.301023
2.22326,0.237991,0.0129954
2.34787,0.0208998,-0.0136464
2.41556,-0.0965961,-0.225668
2.28357,0.13207,0.0532261
2.40192,-0.0960506,0.0279852
2.27862,0.131784,-0.159603
2.37202,0.0211148,-0.193647
2.35155,0.0209326,0.0410481
2.41398,-0.0965329,-0.140696
2.26836,0.13119,0.132324
2.33797,0.0208117,0.095255
2.28969,0.132424,-0.106835
2.34868,0.0209071,-0.123094
2.32418,0.0206889,0.189742
2.22146,0.237798,-0.0910215
2.28357,0.13207,-0.0532261
2.21184,0.228963,-0.0388142
2.33898,0.0126562,-0.0680718
2.27664,0.123698,0
2.41755,-0.105129,-0.0281714
2.36885,0.0128178,-0.301529
2.23204,0.231053,0.0130419
2.35193,0.0127262,-0.0136696
2.42317,-0.105373,-0.226412
2.28401,0.124098,0.0532261
2.40956,-0.104781,0.0280783
2.29102,0.124479,-0.16044
2.36809,0.0128137,-0.193322
2.35561,0.0127461,0.0411179
2.41363,-0.104958,-0.140696
2.27279,0.123489,0.132557
2.33403,0.0126294,0.0950922
2.29014,0.124431,-0.106835
2.35673,0.0127522,-0.123513
2.32423,0.0125764,0.189742
2.23022,0.230865,-0.0913472
2.28401,0.124098,-0.0532261
2.22051,0.222811,-0.0389538
2.343,0.00531639,-0.0681882
2.28101,0.116749,0
2.41321,-0.112538,-0.0281249
2.37285,0.00538412,-0.302034
2.22479,0.22324,0.0129954
2.35995,0.00535486,-0.0137161
2.43476,-0.113542,-0.227527
2.29238,0.117331,0.0534122
2.41321,-0.112538,0.0281249
2.2914,0.11728,-0.16044
2.37609,0.00539147,-0.193973
2.35564,0.00534506,0.0411179
2.42126,-0.112913,-0.141162
2.28114,0.116756,0.133022
2.35004,0.00533237,0.0957435
2.30648,0.118052,-0.10758
2.36475,0.00536574,-0.123932
2.32426,0.00527387,0.189742
2.22298,0.223059,-0.0910215
2.29238,0.117331,-0.0534122
2.21733,0.214287,-0.038884
2.351,-0.00328181,-0.0684209
2.28942,0.108768,0
2.42477,-0.121984,-0.0282646
2.37682,-0.00331786,-0.302539
2.23754,0.216239,0.0130652
2.35996,-0.00329432,-0.0137161
2.43035,-0.122265,-0.227155
2.29679,0.109118,0.0535052
2.41678,-0.121582,0.0281714
2.2958,0.109071,-0.160719
2.38008,-0.00332241,-0.194298
2.35964,-0.00329387,0.0411877
2.41684,-0.121585,-0.140929
2.27757,0.108205,0.13279
2.35005,-0.00328048,0.0957435
2.3029,0.109409,-0.107394
2.36875,-0.00330659,-0.124141
2.33224,-0.00325562,0.190393
2.22776,0.215295,-0.0911843
2.29279,0.108928,-0.0534122
2.22205,0.206916,-0.0389538
2.34698,-0.0114694,-0.0683046
2.29378,0.100951,0
2.42433,-0.130448,-0.0282646
2.37679,-0.0116151,-0.302539
2.23828,0.208427,0.0130652
2.36393,-0.0115523,-0.0137394
2.29251,0.100895,-0.24718
2.43786,-0.131176,-0.227899
2.29715,0.101099,0.0535052
2.43232,-0.130878,0.0283577
2.30414,0.101407,-0.161277
2.37607,-0.0116116,-0.193973
2.36761,-0.0115702,0.0413273
2.24963,0.209484,-0.1448
2.42438,-0.130451,-0.141394
2.28591,0.100605,0.133255
2.35402,-0.0115038,0.0959064
2.30726,0.101544,-0.10758
2.37671,-0.0116147,-0.12456
2.3362,-0.0114167,0.190718
2.23248,0.207887,-0.0913472
2.29715,0.101099,-0.0535052
2.23467,0.200619,-0.0391632
2.36292,-0.0193829,-0.06877
2.28611,0.0930192,0
2.42788,-0.138714,-0.0283111
2.38468,-0.0195614,-0.303549
2.24693,0.201719,0.0131117
2.37188,-0.0194564,-0.0137859
2.30872,0.0939394,-0.248894
2.44536,-0.139713,-0.228642
2.30946,0.0939695,0.0537844
2.42788,-0.138714,0.0283111
2.30446,0.093766,-0.161277
2.39196,-0.0196212,-0.195275
2.23008,0.200207,0.0651628
2.37156,-0.0194538,0.0413971
2.24236,0.20131,-0.144288
2.43988,-0.1394,-0.142324
2.29022,0.0931865,0.133487
2.35796,-0.0193423,0.0960692
2.30759,0.0938931,-0.10758
2.38465,-0.0195612,-0.124978
2.3521,-0.0192941,0.19202
2.2451,0.201555,-0.0918356
2.30547,0.0938069,-0.0536913
2.23539,0.192427,-0.0391632
2.36283,-0.0280439,-0.06877
2.29043,0.0847869,0
2.43134,-0.147855,-0.0283577
2.39253,-0.0283964,-0.304559
2.24765,0.193482,0.0131117
2.38379,-0.0282927,-0.0138556
2.30508,0.0853291,-0.248465
2.44881,-0.148918,-0.229014
2.3018,0.0852078,0.0535983
2.43134,-0.147855,0.0283577
2.30878,0.0854661,-0.161556
2.39187,-0.0283886,-0.195275
2.23479,0.192375,0.0652792
2.37547,-0.0281939,0.0414669
2.25104,0.193774,-0.1448
2.43935,-0.148342,-0.142324
2.29055,0.0847912,0.133487
2.36187,-0.0280326,0.096232
2.3159,0.0857298,-0.107952
2.38456,-0.0283018,-0.124978
2.34802,-0.0278682,0.191695
2.24582,0.193325,-0.0918356
2.3058,0.0853557,-0.0536913
2.24004,0.184952,-0.039233
2.36272,-0.0362911,-0.06877
2.30271,0.0771939,0
2.4388,-0.156854,-0.0284508
2.39241,-0.0367472,-0.304559
2.24831,0.185635,0.0131117
2.38368,-0.036613,-0.0138556
2.31729,0.0776826,-0.24975
2.45622,-0.157975,-0.229758
2.31807,0.0777089,0.0539705
2.4388,-0.156854,0.0284508
2.31305,0.0775406,-0.161835
2.39575,-0.0367984,-0.1956
2.23146,0.184244,0.0651628
2.37936,-0.0365466,0.0415367
2.24772,0.185587,-0.144544
2.44281,-0.157112,-0.142557
2.3028,0.0771971,0.134185
2.36176,-0.0362764,0.096232
2.32018,0.0777796,-0.108138
2.38445,-0.0366248,-0.124978
2.3519,-0.0361249,0.19202
2.25047,0.185814,-0.0919985
2.31807,0.0777089,-0.0539705
2.23668,0.176816,-0.0391632
2.37058,-0.0446897,-0.0690027
2.30296,0.0691548,0
2.43424,-0.165096,-0.0284042
2.39624,-0.0451734,-0.305064
2.25293,0.178101,0.0131349
2.38754,-0.0450094,-0.0138789
2.31754,0.0695927,-0.24975
2.46361,-0.167088,-0.230501
2.32632,0.0698563,0.0541566
2.44621,-0.165908,0.0285439
2.32128,0.069705,-0.162393
2.39162,-0.0450864,-0.195275
2.24006,0.177083,0.0653955
2.38321,-0.0449279,0.0416065
2.25234,0.178054,-0.1448
2.44623,-0.165909,-0.142789
2.30705,0.0692776,0.134417
2.37361,-0.0447469,0.0967205
2.32443,0.0697995,-0.108324
2.3883,-0.0450238,-0.125188
2.35973,-0.0444852,0.192671
2.25907,0.178586,-0.0923241
2.31033,0.0693762,-0.0537844
2.24523,0.170002,-0.0393028
2.37441,-0.0526387,-0.0691191
2.32317,0.062052,0
2.44166,-0.173735,-0.0284974
2.39211,-0.053031,-0.304559
2.2575,0.170931,0.0131582
2.39137,-0.0530147,-0.0139021
2.32571,0.0621199,-0.250607
2.46701,-0.175539,-0.230873
2.32654,0.062142,0.0541566
2.44964,-0.174303,0.0285905
2.32948,0.0622205,-0.162951
2.39146,-0.0530165,-0.195275
2.24861,0.170258,0.0656282
2.38705,-0.0529189,0.0416763
2.2569,0.170886,-0.145056
2.45363,-0.174587,-0.143255
2.31126,0.0617338,0.13465
2.37345,-0.0526173,0.0967205
2.32465,0.0620915,-0.108324
2.40012,-0.0532085,-0.125816
2.35957,-0.0523096,0.192671
2.25567,0.170793,-0.0921613
2.31855,0.0619285,-0.0539705
2.2498,0.162452,-0.0393726
2.37022,-0.0608244,-0.0690027
2.31138,0.0536634,0
2.46098,-0.183746,-0.0287302
2.40381,-0.0616864,-0.306074
2.26207,0.163338,0.0131814
2.39517,-0.0614648,-0.0139253
2.32592,0.0540009,-0.250607
2.47433,-0.184743,-0.231617
2.33074,0.0541129,0.0542496
2.44902,-0.182853,0.0285905
2.32968,0.0540883,-0.162951
2.39923,-0.0615689,-0.195926
2.24919,0.162408,0.0656282
2.39085,-0.0613539,0.0417462
2.26146,0.163294,-0.145312
2.46495,-0.184043,-0.143952
2.31545,0.053758,0.134883
2.37724,-0.0610048,0.0968833
2.32885,0.0540689,-0.108511
2.39592,-0.0614841,-0.125606
2.37133,-0.060853,0.193647
2.26422,0.163493,-0.0924869
2.32674,0.0540201,-0.0541566
2.26235,0.155025,-0.0395821
2.37797,-0.0697457,-0.0692355
2.32356,0.0454259,0
2.45232,-0.19214,-0.0286371
2.4115,-0.0707291,-0.307084
2.26266,0.155046,0.0131814
2.40293,-0.0704777,-0.0139718
2.33007,0.0455534,-0.251036
2.47363,-0.19381,-0.231617
2.34292,0.0458045,0.0545288
2.45631,-0.192453,0.0286836
2.33385,0.0456273,-0.16323
2.39898,-0.0703621,-0.195926
2.25775,0.15471,0.065861
2.4026,-0.0704681,0.0419556
2.26603,0.155277,-0.145567
2.46824,-0.193388,-0.144185
2.32362,0.0454272,0.135348
2.38899,-0.0700689,0.0973718
2.32903,0.0455329,-0.108511
2.40367,-0.0704994,-0.126025
2.37507,-0.0696608,0.193973
2.26481,0.155193,-0.0924869
2.33092,0.04557,-0.0542496
2.26687,0.147386,-0.0396519
2.3897,-0.0784395,-0.0695846
2.3277,0.0373792,0
2.4596,-0.201352,-0.0287302
2.40727,-0.0790162,-0.306579
2.26318,0.147147,0.0131814
2.41066,-0.0791275,-0.0140183
2.33022,0.0374196,-0.251036
2.48485,-0.203419,-0.232732
2.33907,0.0375617,0.0544357
2.46359,-0.201678,0.0287768
2.33799,0.0375444,-0.163509
2.41068,-0.079128,-0.196902
2.25827,0.146828,0.065861
2.40234,-0.0788543,0.0419556
2.27054,0.147625,-0.145823
2.47551,-0.202654,-0.14465
2.32776,0.0373801,0.13558
2.39672,-0.0786699,0.0976975
2.33716,0.0375311,-0.108883
2.41139,-0.0791514,-0.126444
2.3788,-0.0780817,0.194298
2.27331,0.147805,-0.0928126
2.33907,0.0375617,-0.0544357
2.26338,0.139227,-0.0395821
2.38941,-0.0867806,-0.0695846
2.33582,0.0293543,0
2.46686,-0.210617,-0.0288233
2.41491,-0.0877067,-0.307589
2.26768,0.139491,0.0132047
2.41037,-0.0875418,-0.0140183
2.33431,0.0293354,-0.251464
2.49206,-0.212769,-0.233476
2.35118,0.0295473,0.0547149
2.46287,-0.210277,0.0287768
2.33811,0.029383,-0.163509
2.41039,-0.0875424,-0.196902
2.25877,0.138944,0.065861
2.40605,-0.0873848,0.0420254
2.27502,0.139944,-0.146079
2.47877,-0.211634,-0.144882
2.32787,0.0292544,0.13558
2.40042,-0.0871806,0.0978603
2.34927,0.0295233,-0.109441
2.40711,-0.0874233,-0.126234
2.37453,-0.0862401,0.193973
2.27381,0.139869,-0.0928126
2.33518,0.0293463,-0.0543427
2.2638,0.132116,-0.0395821
2.39312,-0.0944444,-0.0697009
2.3279,0.0219406,0
2.46618,-0.218366,-0.0288233
2.42255,-0.0956058,-0.3086
2.27609,0.132833,0.0132512
2.41808,-0.0954292,-0.0140648
2.33439,0.0220018,-0.251464
2.49138,-0.220597,-0.233476
2.34326,0.0220854,0.0545288
2.47415,-0.219071,0.0289165
2.34617,0.0221128,-0.164067
2.41408,-0.0952716,-0.197227
2.2592,0.131847,0.065861
2.40976,-0.0951008,0.0420952
2.27944,0.133028,-0.146335
2.48207,-0.219772,-0.145115
2.33195,0.0219787,0.135813
2.40014,-0.0947213,0.0978603
2.34136,0.0220674,-0.109069
2.41081,-0.0951425,-0.126444
2.3862,-0.0941711,0.194949
2.27823,0.132958,-0.0929754
2.34326,0.0220854,-0.0545288
2.27226,0.124254,-0.0397217
2.39676,-0.103387,-0.0698173
2.33196,0.0134313,0
2.46935,-0.227771,-0.0288699
2.36748,0.0136359,-0.368331
2.42615,-0.104655,-0.309105
2.28055,0.124708,0.0132744
2.42171,-0.104464,-0.0140881
2.33843,0.0134686,-0.251892
2.49849,-0.230458,-0.234219
2.35132,0.0135428,0.0547149
2.47333,-0.228138,0.0289165
2.35022,0.0135365,-0.164346
2.42567,-0.104634,-0.198204
2.27564,0.124439,0.0663264
2.41738,-0.104277,0.0422348
2.2839,0.124891,-0.146591
2.49317,-0.229968,-0.145813
2.34,0.0134776,0.136278
2.41175,-0.104034,0.0983488
2.34941,0.0135318,-0.109441
2.42242,-0.104494,-0.127072
2.34634,0.0135141,0.288099
2.3938,-0.10326,0.1956
2.28668,0.125043,-0.0933011
2.34733,0.0135198,-0.0546219
2.28866,0.11714,-0.0400009
2.40437,-0.112125,-0.07005
2.33999,0.00530929,0
2.48447,-0.237914,-0.0290561
2.3517,0.00533586,-0.365871
2.4337,-0.113493,-0.310115
2.28098,0.116747,0.0132744
2.42133,-0.112916,-0.0140881
2.3504,0.0053329,-0.253177
2.50956,-0.240317,-0.235334
2.35936,0.00535322,0.054901
2.4765,-0.237151,0.028963
2.35425,0.00534162,-0.164625
2.42131,-0.112915,-0.197878
2.27206,0.11629,0.0662101
2.42499,-0.113087,0.0423744
2.29628,0.11753,-0.147358
2.50428,-0.239812,-0.14651
2.35201,0.00533655,0.136976
2.41138,-0.112452,0.0983488
2.35744,0.00534887,-0.109813
2.42603,-0.113136,-0.127281
2.39741,-0.111801,0.195926
2.28312,0.116856,-0.0931383
2.35536,0.00534415,-0.054808
2.28504,0.109358,-0.0399311
2.40398,-0.120098,-0.07005
2.348,-0.00245882,0
2.48366,-0.246151,-0.0290561
2.35961,-0.00247098,-0.367101
2.43331,-0.121563,-0.310115
2.28135,0.109182,0.0132744
2.43292,-0.121544,-0.0141578
2.35836,-0.00246967,-0.254034
2.50875,-0.248638,-0.235334
2.36336,-0.00247491,0.0549941
2.48366,-0.246151,0.0290561
2.35824,-0.00246955,-0.164904
2.43286,-0.121541,-0.198855
2.27643,0.108947,0.0663264
2.42461,-0.121128,0.0423744
2.28868,0.109533,-0.146847
2.50745,-0.248509,-0.146743
2.35601,-0.00246721,0.137208
2.41897,-0.120847,0.0986745
2.35744,-0.00246871,-0.109813
2.43362,-0.121579,-0.1277
2.34241,-0.00245297,0.287612
2.40499,-0.120148,0.196577
2.29147,0.109667,-0.0934639
2.35936,-0.00247072,-0.054901
2.28143,0.100806,-0.0398613
2.4155,-0.129551,-0.0703991
2.35197,-0.0110835,0
2.4907,-0.256071,-0.0291493
2.37145,-0.0111753,-0.368946
2.44473,-0.131118,-0.31163
2.28973,0.101173,0.0133209
2.43246,-0.13046,-0.0141578
2.35833,-0.0111135,-0.254034
2.52367,-0.25946,-0.236822
2.36733,-0.0111559,0.0550871
2.4907,-0.256071,0.0291493
2.3662,-0.0111505,-0.165462
2.44434,-0.131097,-0.199831
2.27681,0.100602,0.0663264
2.42814,-0.130228,0.0424443
2.29704,0.101496,-0.147358
2.50652,-0.257697,-0.146743
2.35199,-0.0110836,0.136976
2.43049,-0.130354,0.0991629
2.3694,-0.0111656,-0.110372
2.43715,-0.130711,-0.127909
2.35429,-0.0110944,0.289074
2.40851,-0.129176,0.196902
2.29985,0.10162,-0.0937896
2.35934,-0.0111182,-0.054901
2.28576,0.0930044,-0.0399311
2.40705,-0.137525,-0.0701664
2.35192,-0.0192934,0
2.50172,-0.266032,-0.029289
2.37139,-0.0194531,-0.368946
2.44426,-0.139651,-0.31163
2.29007,0.0931796,0.0133209
2.43998,-0.139407,-0.0142043
2.36623,-0.0194107,-0.254891
2.52275,-0.268268,-0.236822
2.36728,-0.0194193,0.0550871
2.49775,-0.265609,0.0292424
2.36614,-0.01941,-0.165462
2.44785,-0.139856,-0.200157
2.28514,0.0929792,0.0665591
2.43166,-0.138931,0.0425141
2.30935,0.0939641,-0.148126
2.50957,-0.266867,-0.146975
2.36791,-0.0194245,0.137906
2.42603,-0.138609,0.0990001
2.35736,-0.019338,-0.109813
2.43668,-0.139218,-0.127909
2.35821,-0.0193449,0.289562
2.41203,-0.13781,0.197227
2.30019,0.0935914,-0.0937896
2.36728,-0.0194193,-0.0550871
2.29405,0.0857227,-0.0400707
2.41856,-0.146231,-0.0705155
2.35984,-0.0271847,0
2.50878,-0.275199,-0.0293821
2.38317,-0.0274534,-0.370791
2.45171,-0.148235,-0.31264
2.29836,0.0858837,0.0133674
2.4435,-0.147738,-0.0142276
2.37808,-0.0273948,-0.256176
2.5258,-0.277066,-0.237193
2.3752,-0.0273615,0.0552732
2.49685,-0.273891,0.0292424
2.37005,-0.0273023,-0.165741
2.45533,-0.148454,-0.200808
2.29343,0.0856995,0.0667919
2.43518,-0.147236,0.0425839
2.30965,0.0863055,-0.148126
2.51265,-0.275623,-0.147208
2.37182,-0.0273227,0.138138
2.42954,-0.146895,0.0991629
2.36927,-0.0272933,-0.110372
2.44418,-0.14778,-0.128328
2.35416,-0.0271192,0.289074
2.41952,-0.146289,0.197878
2.31646,0.0865602,-0.0944409
2.3712,-0.0273155,-0.0551802
2.30634,0.0777181,-0.0402802
2.42599,-0.155606,-0.0707482
2.35973,-0.0358337,0
2.51173,-0.284843,-0.0294287
2.38305,-0.036188,-0.370791
2.46698,-0.158236,-0.31466
2.30265,0.0775939,0.0133907
2.44693,-0.156949,-0.0142508
2.37797,-0.0361107,-0.256176
2.53664,-0.287668,-0.238309
2.38708,-0.0362491,0.0555524
2.50775,-0.284393,0.0293821
2.37393,-0.0360494,-0.16602
2.45079,-0.157197,-0.200482
2.29772,0.0774277,0.0669082
2.44261,-0.156672,0.0427235
2.31394,0.0779741,-0.148382
2.53146,-0.28708,-0.148371
2.37171,-0.0360156,0.138138
2.43298,-0.156054,0.0993258
2.37715,-0.0360983,-0.110744
2.45159,-0.157248,-0.128746
2.36596,-0.0359283,0.290537
2.41897,-0.155156,0.197878
2.31277,0.0779347,-0.0942781
2.37908,-0.0361276,-0.0553663
2.31459,0.0699085,-0.0404198
2.42942,-0.164343,-0.0708645
2.37159,-0.0442946,0
2.51469,-0.294074,-0.0294752
2.39082,-0.0446538,-0.37202
2.45454,-0.166043,-0.313145
2.30691,0.0696764,0.0134139
2.45435,-0.16603,-0.0142973
2.3818,-0.0444854,-0.256605
2.38294,-0.0445066,0.0554593
2.51072,-0.293609,0.0294287
2.38177,-0.0444847,-0.166578
2.46216,-0.166558,-0.201458
2.30198,0.0695274,0.0670246
2.43806,-0.164928,0.0426537
2.3102,0.069776,-0.148126
2.53837,-0.296843,-0.148836
2.37955,-0.0444434,0.138603
2.44438,-0.165355,0.0998143
2.37701,-0.0443958,-0.110744
2.45501,-0.166075,-0.128956
2.36979,-0.044261,0.291024
2.43034,-0.164406,0.198855
2.31702,0.0699818,-0.0944409
2.39493,-0.0447307,-0.0557385
2.30683,0.0616151,-0.0402802
2.44079,-0.173674,-0.0712136
2.37542,-0.0526613,0
2.52556,-0.304285,-0.0296149
2.3946,-0.0530866,-0.372635
2.46186,-0.175173,-0.314155
2.30714,0.0616234,0.0134139
2.44976,-0.174312,-0.0142741
2.38163,-0.0527992,-0.256605
2.39476,-0.0530902,0.0557385
2.51762,-0.303328,0.0295218
2.37761,-0.0527099,-0.166299
2.46952,-0.175718,-0.202109
2.3062,0.0615984,0.067141
2.44544,-0.174005,0.0427933
2.32241,0.0620312,-0.148893
2.53732,-0.305702,-0.148836
2.38338,-0.0528378,0.138836
2.44778,-0.174171,0.0999771
2.38882,-0.0529585,-0.111302
2.46239,-0.17521,-0.129375
2.37359,-0.0526208,0.291512
2.42975,-0.172888,0.198855
2.32524,0.0621069,-0.0947666
2.39476,-0.0530902,-0.0557385
2.31901,0.0542456,-0.0404896
2.44419,-0.182064,-0.07133
2.37523,-0.0605382,0
2.53248,-0.313642,-0.029708
2.40231,-0.0612285,-0.373865
2.47314,-0.18422,-0.315671
2.31133,0.0540658,0.0134371
2.45715,-0.183029,-0.0143206
2.38145,-0.0606967,-0.256605
2.39457,-0.0610313,0.0557385
2.52851,-0.31315,0.0296615
2.3854,-0.0607974,-0.166857
2.47688,-0.184498,-0.20276
2.31039,0.0540439,0.0672573
2.45283,-0.182707,0.0429329
2.32659,0.0544228,-0.149149
2.54422,-0.315096,-0.149301
2.38718,-0.0608428,0.139069
2.45117,-0.182584,0.10014
2.38464,-0.0607781,-0.111116
2.46578,-0.183672,-0.129584
2.38134,-0.0606939,0.292486
2.43314,-0.181241,0.19918
2.32543,0.0543958,-0.0947666
2.39857,-0.0611332,-0.0558315
2.32319,0.04623,-0.0405594
2.45151,-0.191216,-0.0715627
2.375,-0.068829,0
2.54327,-0.323996,-0.0298477
2.40603,-0.0697282,-0.37448
2.47644,-0.19316,-0.316176
2.3195,0.0461567,0.0134836
2.46447,-0.192227,-0.0143671
2.38917,-0.0692395,-0.257461
2.39834,-0.0695054,0.0558315
2.52343,-0.321469,0.0296149
2.38517,-0.0691237,-0.166857
2.48019,-0.193453,-0.203086
2.32256,0.0462175,0.0676064
2.46015,-0.19189,0.0430725
2.33076,0.0463806,-0.149405
2.5431,-0.323975,-0.149301
2.39494,-0.0694066,0.139534
2.45849,-0.19176,0.100466
2.3924,-0.0693331,-0.111489
2.47308,-0.192899,-0.130003
2.38111,-0.069006,0.292486
2.44044,-0.190353,0.199831
2.3336,0.0464372,-0.0950922
2.40234,-0.0696212,-0.0559246
2.32733,0.0381859,-0.0406292
2.46279,-0.200747,-0.0719118
2.37875,-0.0772487,0
2.53816,-0.332353,-0.0298012
2.40973,-0.0782547,-0.375095
2.49948,-0.203738,-0.319206
2.32365,0.0381254,0.0135069
2.46777,-0.201154,-0.0143903
2.40084,-0.0779661,-0.258747
2.40208,-0.0780065,0.0559246
2.53419,-0.331833,0.0297546
2.39289,-0.0777081,-0.167416
2.49142,-0.203081,-0.204062
2.31471,0.0379787,0.0673737
2.47143,-0.201451,0.043282
2.33889,0.0383754,-0.149916
2.55384,-0.334405,-0.149999
2.39468,-0.077766,0.139534
2.46577,-0.20099,0.100791
2.39614,-0.0778134,-0.111675
2.47638,-0.201855,-0.130212
2.38879,-0.0775749,0.293461
2.44771,-0.199518,0.200482
2.33375,0.0382912,-0.0950922
2.40608,-0.0781363,-0.0560176
2.33145,0.0301134,-0.040699
2.47004,-0.21002,-0.0721445
2.38246,-0.0856954,0
2.54888,-0.34281,-0.0299409
2.41734,-0.0869499,-0.376325
2.4948,-0.212125,-0.318701
2.32777,0.0300658,0.0135301
2.47503,-0.210444,-0.0144368
2.4085,-0.0866321,-0.259603
2.4018,-0.0863909,0.0559246
2.54491,-0.342277,0.0298943
2.40058,-0.0863472,-0.167974
2.4907,-0.211777,-0.204062
2.32682,0.0300536,0.0677228
2.47071,-0.210077,0.043282
2.33901,0.030211,-0.149916
2.56057,-0.344382,-0.150464
2.39838,-0.0862681,0.139766
2.46904,-0.209935,0.100954
2.41182,-0.0867516,-0.112419
2.49158,-0.211851,-0.131049
2.39247,-0.0860556,0.293949
2.45097,-0.208399,0.200808
2.34186,0.0302478,-0.0954179
2.40979,-0.0866784,-0.0561107
2.33154,0.0219749,-0.040699
2.47327,-0.218993,-0.0722609
2.39014,-0.0943266,0
2.55163,-0.352252,-0.0299874
2.42492,-0.0956992,-0.377555
2.33186,0.0219779,0.0135534
2.48225,-0.219788,-0.0144833
2.42011,-0.0955092,-0.260888
2.41347,-0.0952473,0.0562037
2.55559,-0.352799,0.030034
2.41223,-0.0951983,-0.168811
2.49789,-0.221173,-0.204713
2.32691,0.0219313,0.0677228
2.47793,-0.219405,0.0434216
2.34309,0.0220837,-0.150172
2.56726,-0.35441,-0.150929
2.40206,-0.094797,0.139999
2.47227,-0.218904,0.101117
2.4155,-0.0953274,-0.112605
2.4948,-0.2209,-0.131259
2.39613,-0.0945629,0.294436
2.45817,-0.217656,0.201458
2.34595,0.0221107,-0.0955807
2.40947,-0.0950896,-0.0561107
2.3356,0.0142675,-0.0407688
2.47253,-0.227194,-0.0722609
2.39781,-0.102594,0
2.56232,-0.362392,-0.0301271
2.42854,-0.103909,-0.37817
2.33592,0.0142695,0.0135766
2.48549,-0.228384,-0.0145065
2.4158,-0.103364,-0.26046
2.41713,-0.103421,0.0562968
2.56232,-0.362392,0.0301271
2.41987,-0.103538,-0.169369
2.50508,-0.230184,-0.205364
2.33497,0.0142637,0.0679555
2.48913,-0.228719,0.043631
2.35113,0.0143624,-0.150684
2.40572,-0.102933,0.140231
2.46755,-0.226736,0.100954
2.41118,-0.103166,-0.112419
2.50201,-0.229903,-0.131677
2.39977,-0.102678,0.294924
2.46141,-0.226172,0.201784
2.35001,0.0143555,-0.0957435
2.41713,-0.103421,-0.0562968
2.34364,0.0057266,-0.0409084
2.47566,-0.236635,-0.0723772
2.40141,-0.111567,0
2.5689,-0.37293,-0.0302203
2.43209,-0.112993,-0.378784
2.34395,0.00572738,0.0136231
2.48463,-0.237492,-0.0145065
2.41938,-0.112402,-0.260888
2.42073,-0.112465,0.0563898
2.56098,-0.371781,0.0301271
2.41948,-0.112407,-0.169369
2.51612,-0.240502,-0.20634
2.347,0.00573482,0.0683046
2.4843,-0.23746,0.0435612
2.35117,0.00574501,-0.150684
2.40931,-0.111935,0.140464
2.47864,-0.236919,0.101443
2.41078,-0.112003,-0.112419
2.50513,-0.239451,-0.131887
2.40731,-0.111841,0.295899
2.4685,-0.23595,0.202435
2.35804,0.00576179,-0.0960692
2.41274,-0.112094,-0.0562037
2.35164,-0.00246261,-0.0410481
2.48278,-0.246064,-0.07261
2.405,-0.120149,0
2.56362,-0.381306,-0.0301737
2.43563,-0.121679,-0.379399
2.34796,-0.00245875,0.0136464
2.49175,-0.246953,-0.014553
2.42692,-0.121244,-0.261745
2.42033,-0.120914,0.0563898
2.57153,-0.382483,0.0302668
2.42305,-0.121051,-0.169648
2.5113,-0.248891,-0.206015
2.34301,-0.00245357,0.0681882
2.49141,-0.24692,0.0437008
2.35517,-0.0024663,-0.15094
2.4129,-0.120543,0.140696
2.48177,-0.245964,0.101605
2.43033,-0.121414,-0.11335
2.50428,-0.248195,-0.131887
2.4069,-0.120244,0.295899
2.47956,-0.245745,0.203411
2.35804,-0.00246931,-0.0960692
2.43231,-0.121513,-0.056669
2.35562,-0.0106895,-0.0411179
2.49782,-0.256362,-0.0730754
2.41655,-0.129184,0
2.57414,-0.392059,-0.0303134
2.44308,-0.130602,-0.380629
2.35194,-0.0106728,0.0136696
2.50281,-0.256874,-0.0146228
2.43839,-0.130351,-0.26303
2.43187,-0.130003,0.056669
2.57809,-0.392662,0.0303599
2.43059,-0.129934,-0.170206
2.51835,-0.258469,-0.206666
2.35498,-0.0106866,0.0685373
2.50247,-0.25684,0.0439103
2.36712,-0.0107417,-0.151707
2.42044,-0.129392,0.141162
2.48885,-0.255442,0.101931
2.43388,-0.13011,-0.113536
2.51532,-0.258158,-0.132515
2.40647,-0.128645,0.295899
2.36202,-0.0107186,-0.096232
2.43586,-0.130216,-0.0567621
2.35557,-0.0189121,-0.0411179
2.50883,-0.266346,-0.0734245
2.42008,-0.137846,0
2.58066,-0.402275,-0.0304065
2.4505,-0.139579,-0.381859
2.35988,-0.0189468,0.0137161
2.5019,-0.265609,-0.0146228
2.44189,-0.139088,-0.263459
2.42741,-0.138263,0.056576
2.58066,-0.402275,0.0304065
2.44207,-0.139098,-0.171043
2.52933,-0.268521,-0.207642
2.35893,-0.0189391,0.0686537
2.50156,-0.265573,0.0439103
2.36707,-0.0190044,-0.151707
2.41997,-0.13784,0.141162
2.49987,-0.265394,0.10242
2.44139,-0.13906,-0.113908
2.52234,-0.26778,-0.132933
2.42186,-0.137947,0.297849
2.36596,-0.0189956,-0.0963948
2.43539,-0.138718,-0.0567621
2.36349,-0.0268141,-0.0412575
2.50396,-0.274228,-0.0733081
2.4236,-0.146111,0
2.58326,-0.411459,-0.0304531
2.45397,-0.147942,-0.382474
2.36781,-0.0268631,0.0137626
2.51293,-0.275211,-0.0146925
2.45333,-0.147903,-0.264744
2.42294,-0.146071,0.0564829
2.43761,-0.146956,-0.170764
2.53238,-0.277341,-0.207968
2.36285,-0.0268068,0.06877
2.51259,-0.275174,0.0441197
2.37497,-0.0269444,-0.152219
2.43146,-0.146585,0.141859
2.49897,-0.273682,0.10242
2.44491,-0.147395,-0.114094
2.52938,-0.277013,-0.133352
2.42535,-0.146216,0.298336
2.37388,-0.026932,-0.0967205
2.4429,-0.147275,-0.0569482
2.36738,-0.0351233,-0.0413273
2.50696,-0.283416,-0.0734245
2.42308,-0.15457,0
2.59365,-0.422403,-0.0305928
2.3717,-0.0351874,0.0137859
2.52388,-0.285329,-0.0147623
2.45677,-0.156719,-0.265172
2.43838,-0.155546,0.0568551
2.44107,-0.155718,-0.171043
2.53536,-0.286627,-0.208293
2.36674,-0.0351138,0.0688864
2.51559,-0.284392,0.0441895
2.37487,-0.0352344,-0.152219
2.43492,-0.155325,0.142092
2.50197,-0.282852,0.102582
2.44836,-0.156183,-0.11428
2.53237,-0.286289,-0.133561
2.42879,-0.154934,0.298824
2.37377,-0.0352182,-0.0967205
2.44636,-0.156056,-0.0570412
2.37924,-0.0436067,-0.0415367
2.50993,-0.292629,-0.0735409
2.4305,-0.163564,0
2.59611,-0.432111,-0.0306393
2.37956,-0.0436126,0.0138324
2.53081,-0.295064,-0.0148088
2.46017,-0.165561,-0.265601
2.4458,-0.164594,0.0570412
2.44449,-0.164505,-0.171322
2.53435,-0.295475,-0.208293
2.3666,-0.0433751,0.0688864
2.5265,-0.294561,0.0443989
2.38271,-0.0436704,-0.152731
2.43038,-0.163556,0.141859
2.50891,-0.29251,0.102908
2.46375,-0.165802,-0.115025
2.54326,-0.296515,-0.134189
2.43615,-0.163945,0.299799
2.38162,-0.0436504,-0.0970462
2.45378,-0.165131,-0.0572273
2.37507,-0.0518243,-0.0414669
2.52477,-0.303296,-0.0740063
2.4379,-0.172612,0
2.37939,-0.0519186,0.0138324
2.52977,-0.303896,-0.0148088
2.46751,-0.174709,-0.266457
2.4492,-0.173413,0.0571343
2.4638,-0.174446,-0.172717
2.56101,-0.307648,-0.210571
2.37443,-0.0518102,0.0691191
2.52149,-0.302901,0.0443291
2.38254,-0.0519873,-0.152731
2.44174,-0.172884,0.142557
2.51184,-0.301742,0.103071
2.46316,-0.174401,-0.115025
2.54221,-0.30539,-0.134189
2.38146,-0.0519636,-0.0970462
2.45718,-0.173978,-0.0573204
2.37888,-0.0602157,-0.0415367
2.5237,-0.312107,-0.0740063
2.44526,-0.181714,0
2.38719,-0.0604263,0.0138789
2.5406,-0.314197,-0.0148785
2.46689,-0.183321,-0.266457
2.45656,-0.182554,0.0573204
2.4592,-0.18275,-0.172438
2.38223,-0.0603006,0.0693518
2.53629,-0.313664,0.0446084
2.39432,-0.0606066,-0.153498
2.44909,-0.181999,0.143022
2.51871,-0.31149,0.103397
2.47449,-0.183886,-0.115583
2.55698,-0.316224,-0.135027
2.38925,-0.0604784,-0.0973718
2.45656,-0.182554,-0.0573204
2.37865,-0.0685192,-0.0415367
2.53053,-0.321923,-0.074239
2.4486,-0.190559,0
2.39497,-0.0689891,0.0139253
2.54346,-0.323569,-0.0149017
2.46623,-0.191931,-0.266457
2.45192,-0.190817,0.0572273
2.47048,-0.192262,-0.173275
2.386,-0.0687308,0.0694682
2.54311,-0.323525,0.044748
2.39409,-0.068964,-0.153498
2.44445,-0.190236,0.142789
2.52553,-0.321288,0.103722
2.46985,-0.192212,-0.115397
2.56379,-0.326155,-0.135445
2.39302,-0.0689331,-0.0975347
2.46388,-0.191748,-0.0575065
2.38641,-0.0766635,-0.0416763
2.54134,-0.331866,-0.0745881
2.45991,-0.199648,0
2.40272,-0.0771876,0.0139718
2.55427,-0.333555,-0.0149715
2.48144,-0.201396,-0.268171
2.46323,-0.199918,0.0575065
2.46983,-0.200453,-0.173275
2.39375,-0.0768995,0.0697009
2.53806,-0.331439,0.0446782
2.39784,-0.0770309,-0.153754
2.45973,-0.199634,0.14372
2.52445,-0.329662,0.103722
2.48114,-0.201371,-0.115956
2.56269,-0.334655,-0.135445
2.40077,-0.077125,-0.0978603
2.46722,-0.200241,-0.0575995
2.39413,-0.08486,-0.041816
2.54815,-0.341354,-0.0748209
2.45924,-0.207805,0
2.40645,-0.0852966,0.0139951
2.55315,-0.342024,-0.0149715
2.48472,-0.209958,-0.268599
2.46654,-0.208422,0.0575995
2.4771,-0.209314,-0.173833
2.39348,-0.084837,0.0697009
2.55677,-0.342508,0.0450272
2.40954,-0.0854062,-0.154521
2.46303,-0.208126,0.143952
2.48444,-0.209935,-0.116142
2.56157,-0.343152,-0.135445
2.39651,-0.0849442,-0.0976975
2.47849,-0.209432,-0.0578787
2.40178,-0.0943662,-0.0419556
2.54682,-0.351135,-0.0748209
2.47037,-0.218302,0
2.4101,-0.0946931,0.0140183
2.57163,-0.354556,-0.0150877
2.49182,-0.220197,-0.269456
2.47767,-0.218947,0.0578787
2.4882,-0.219878,-0.17467
2.39713,-0.0941837,0.0698173
2.55543,-0.352323,0.0450272
2.40521,-0.0945008,-0.154266
2.46222,-0.217581,0.143952
2.4876,-0.219824,-0.116328
2.57211,-0.354622,-0.136073
2.40415,-0.0944593,-0.0980231
2.48166,-0.219299,-0.0579717
2.39748,-0.101742,-0.0418858
2.55362,-0.360252,-0.0750536
2.48163,-0.227156,0
2.40979,-0.102264,0.0140183
2.56654,-0.362074,-0.0150645
2.49508,-0.228387,-0.269885
2.48494,-0.227459,0.0580648
2.49148,-0.228057,-0.174949
2.40482,-0.102053,0.07005
2.56223,-0.361467,0.0451668
2.41287,-0.102395,-0.154777
2.46947,-0.226044,0.144417
2.49485,-0.228367,-0.1167
2.57889,-0.363816,-0.136492
2.41582,-0.10252,-0.0985116
2.4929,-0.228188,-0.0582509
2.4011,-0.110293,-0.0419556
2.55235,-0.369163,-0.0750536
2.4848,-0.236195,0
2.41341,-0.110859,0.0140416
2.57714,-0.372749,-0.0151342
2.4903,-0.236719,-0.269456
2.48413,-0.236132,0.0580648
2.50655,-0.238263,-0.176065
2.41243,-0.110814,0.0702827
2.56492,-0.370981,0.0452366
2.42048,-0.111183,-0.155289
2.47662,-0.235418,0.144882
2.502,-0.23783,-0.117072
2.58946,-0.374532,-0.13712
2.41944,-0.111136,-0.0986745
2.49209,-0.236888,-0.0582509
2.41267,-0.119687,-0.042165
2.5668,-0.380863,-0.075519
2.4879,-0.245694,0
2.42098,-0.1201,0.0140881
2.57971,-0.382779,-0.0151575
2.49734,-0.246626,-0.270313
2.49518,-0.246414,0.058344
2.50169,-0.247056,-0.175786
2.416,-0.119853,0.0703991
2.57541,-0.38214,0.0454461
2.42005,-0.120054,-0.155289
2.48766,-0.245671,0.14558
2.50508,-0.247392,-0.117258
2.427,-0.120399,-0.0990001
2.50314,-0.2472,-0.0585301
2.40824,-0.127896,-0.0420952
2.56545,-0.389821,-0.075519
2.49498,-0.255191,0
2.42854,-0.128974,0.0141346
2.58232,-0.392383,-0.0151807
2.53207,-0.258984,-0.274168
2.49431,-0.255122,0.058344
2.50875,-0.256599,-0.176344
2.41158,-0.128074,0.0702827
2.42759,-0.128924,-0.155801
2.49474,-0.255166,0.146045
2.51216,-0.256947,-0.117631
2.41858,-0.128446,-0.0986745
2.50624,-0.256343,-0.0586231
2.42377,-0.136783,-0.0423744
2.57205,-0.399553,-0.0757518
2.50208,-0.264304,0
2.43209,-0.137252,0.0141578
2.59286,-0.402786,-0.0152505
2.51333,-0.265493,0.0588092
2.51583,-0.265756,-0.176902
2.41513,-0.136295,0.0703991
2.42715,-0.136974,-0.155801
2.50579,-0.264696,0.146743
2.51526,-0.265696,-0.117817
2.43011,-0.137141,-0.0991629
2.50936,-0.265072,-0.0587162
2.42727,-0.145482,-0.0424443
2.57854,-0.409784,-0.0759845
2.50512,-0.27347,0
2.4316,-0.145741,0.0141578
2.59539,-0.412462,-0.0152737
2.52034,-0.275132,0.0589953
2.52282,-0.275402,-0.17746
2.42662,-0.145443,0.0707482
2.43861,-0.146162,-0.156568
2.50088,-0.273008,0.14651
2.52226,-0.275342,-0.118189
2.44159,-0.14634,-0.0996514
2.51637,-0.274698,-0.0589023
2.43072,-0.154631,-0.0425141
2.57702,-0.419232,-0.0759845
2.51205,-0.283547,0
2.43903,-0.15516,0.0142043
2.58991,-0.421329,-0.0152505
2.52329,-0.284816,0.0590884
2.52972,-0.285542,-0.178019
2.43006,-0.154589,0.0708645
2.44603,-0.155605,-0.15708
2.51573,-0.283963,0.147441
2.52124,-0.284585,-0.118189
2.44503,-0.155542,-0.0998143
2.52329,-0.284816,-0.0590884
2.43022,-0.162267,-0.0425141
2.51512,-0.291899,0
2.44651,-0.163355,0.0142508
2.59646,-0.430773,-0.015297
2.52238,-0.292742,0.0590884
2.53277,-0.293948,-0.178298
2.43754,-0.162756,0.0710973
2.45349,-0.163821,-0.157591
2.51086,-0.291405,0.147208
2.53621,-0.294346,-0.118934
2.46048,-0.164287,-0.100466
2.5343,-0.294125,-0.0593675
2.43762,-0.17131,-0.0426537
2.52203,-0.301626,0
2.4579,-0.172735,0.0143206
2.52929,-0.302495,0.0592745
2.53569,-0.303261,-0.178577
2.43695,-0.171263,0.0710973
2.46485,-0.173224,-0.158359
2.53517,-0.303198,-0.118934
2.45191,-0.172315,-0.10014
2.5412,-0.303919,-0.0595536
2.44492,-0.18126,-0.0427933
2.53276,-0.312779,0
2.45722,-0.182171,0.0143206
2.53604,-0.313184,0.0594606
2.54243,-0.313973,-0.179135
2.44425,-0.181211,0.07133
2.46417,-0.182687,-0.158359
2.53795,-0.31342,-0.11912
2.45921,-0.182319,-0.100466
2.55192,-0.315145,-0.0598328
2.45224,-0.190412,-0.0429329
2.53562,-0.322122,0
2.45656,-0.190748,0.0143206
2.54287,-0.323043,0.0596467
2.54924,-0.323852,-0.179693
2.45158,-0.190361,0.0715627
2.4675,-0.191596,-0.158615
2.54873,-0.323787,-0.119678
2.46652,-0.191521,-0.100791
2.53493,-0.322035,-0.0594606
2.44765,-0.197793,-0.0428631
2.54253,-0.331119,0
2.46393,-0.199108,0.0143671
2.55374,-0.332579,0.0599259
2.45894,-0.198706,0.0717954
2.47882,-0.200312,-0.159382
2.55166,-0.332309,-0.119864
2.46989,-0.199591,-0.100954
2.54977,-0.332063,-0.0598328
2.46281,-0.20854,-0.0431423
2.5452,-0.341411,0
2.47112,-0.209243,0.0144135
2.56037,-0.343446,0.060112
2.46214,-0.208483,0.0719118
2.48201,-0.210165,-0.159638
2.55433,-0.342635,-0.12005
2.48106,-0.210084,-0.101443
2.56433,-0.343977,-0.060205
2.47402,-0.218189,-0.0433518
2.544,-0.350294,0
2.47435,-0.218219,0.0144368
2.55519,-0.351835,0.0600189
2.4614,-0.217076,0.0719118
2.48921,-0.219529,-0.16015
2.56103,-0.352639,-0.120423
2.48429,-0.219095,-0.101605
2.56708,-0.353472,-0.0602981
2.48527,-0.227052,-0.0435612
2.55477,-0.359958,0
2.47764,-0.226355,0.01446
2.56991,-0.362093,0.0603911
2.46867,-0.225535,0.0721445
2.48851,-0.227348,-0.16015
2.56783,-0.361798,-0.120795
2.48757,-0.227262,-0.101768
2.56991,-0.362093,-0.0603911
2.48048,-0.235348,-0.0434914
2.55745,-0.369446,0
2.48082,-0.23538,0.0144833
2.57259,-0.371633,0.0604842
2.47185,-0.234529,0.0722609
2.49565,-0.236787,-0.160661
2.58237,-0.373045,-0.121539
2.4987,-0.237076,-0.102257
2.57655,-0.372205,-0.0605772
2.47964,-0.244005,-0.0434914
2.56802,-0.380128,0
2.48794,-0.244822,0.0145298
2.48295,-0.244331,0.07261
2.50673,-0.24667,-0.161429
2.50581,-0.24658,-0.102582
2.5871,-0.382953,-0.0608564
2.49863,-0.255123,-0.0438404
2.56661,-0.389538,0
2.49499,-0.254751,0.0145763
2.49397,-0.254648,0.0729591
2.50978,-0.256261,-0.161685
2.51284,-0.256574,-0.102908
2.59754,-0.394233,-0.0611355
2.5097,-0.264666,-0.0440499
2.56925,-0.39866,0
2.50208,-0.263863,0.0146228
2.48516,-0.262078,0.0727263
2.52082,-0.265839,-0.162452
2.508,-0.264487,-0.102745
2.60017,-0.403457,-0.0612286
2.50871,-0.273862,-0.0440499
2.58358,-0.410585,0
2.50508,-0.273465,0.014646
2.49611,-0.272487,0.0730754
2.51983,-0.275076,-0.162452
2.52291,-0.275412,-0.103397
2.60658,-0.41424,-0.0614147
2.51579,-0.282635,-0.0441895
2.58622,-0.41934,0
2.50818,-0.281781,0.0146693
2.50319,-0.28122,0.0733081
2.52689,-0.283882,-0.162964
2.526,-0.283783,-0.103559
2.60131,-0.421787,-0.0613216
2.52273,-0.292336,-0.0443291
2.52307,-0.292376,0.0147623
2.51013,-0.290876,0.0735409
2.53778,-0.29408,-0.163731
2.53691,-0.293979,-0.104048
2.5217,-0.30114,-0.0443291
2.52204,-0.301181,0.0147623
2.51704,-0.300585,0.0737736
2.54466,-0.303883,-0.164243
2.5438,-0.30378,-0.104373
2.52851,-0.311358,-0.0444687
2.54077,-0.312867,0.0148785
2.51989,-0.310297,0.07389
2.55145,-0.314183,-0.164755
2.54267,-0.313102,-0.104373
2.53926,-0.322134,-0.0446782
2.53563,-0.321674,0.0148553
2.52667,-0.320537,0.0741227
2.55029,-0.323533,-0.164755
2.54547,-0.322922,-0.104536
2.54208,-0.331513,-0.044748
2.55036,-0.332592,0.0149482
2.53743,-0.330906,0.0744718
2.55706,-0.333465,-0.165266
2.55225,-0.332839,-0.104862
2.54896,-0.340557,-0.0448876
2.55723,-0.341662,0.0149947
2.54431,-0.339935,0.0747045
2.55912,-0.341914,-0.105188
2.55568,-0.350539,-0.0450272
2.55603,-0.350586,0.0149947
2.55499,-0.350444,0.0750536
2.56979,-0.352474,-0.105676
2.5623,-0.36102,-0.0451668
2.57453,-0.362743,0.015111
2.56848,-0.36189,-0.105676
2.56498,-0.370533,-0.0452366
2.57325,-0.371727,0.015111
2.57907,-0.372568,-0.106165
2.56769,-0.379622,-0.0453064
2.572,-0.380258,0.015111
2.57782,-0.381119,-0.106165
2.57419,-0.390229,-0.0454461
2.58641,-0.392081,0.015204
2.58079,-0.399989,-0.0455857
2.593,-0.401881,0.0152505
2.59123,-0.410874,-0.0457951
2.58985,-0.419464,-0.0457951
2.60021,-0.430462,-0.0460045
