2.43283,0.756811,-0.0296615
2.46235,0.756108,-0.0299874
2.45853,0.754934,0.0299409
2.47263,0.749829,-0.0300806
2.47646,0.75099,0.0301271
2.47523,0.741193,-0.0300806
2.47907,0.74234,0.0301271
2.47781,0.732549,-0.0300806
2.48164,0.733683,0.0301271
2.49174,0.727692,-0.0302203
2.49174,0.727692,0.0302203
2.50579,0.722313,-0.0303599
2.51348,0.724528,0.0304531
2.51202,0.715095,-0.0304065
2.51202,0.715095,0.0304065
2.5222,0.708486,-0.0304996
2.51835,0.707404,0.0304531
2.52466,0.699677,-0.0304996
2.53623,0.702881,0.0306393
2.53493,0.692527,-0.0305928
2.41454,0.788263,-0.0147623
2.5465,0.69569,0.0307325
2.54131,0.684272,-0.0306393
2.55676,0.688432,0.0308256
2.56803,0.691467,-0.154882
2.55504,0.679367,-0.030779
2.44653,0.780316,-0.014925
2.56277,0.681422,0.0308722
2.55475,0.67929,-0.153952
2.55752,0.669998,-0.030779
2.44937,0.771344,-0.014925
2.56912,0.673039,0.0309187
2.56495,0.671946,-0.154417
2.56759,0.663066,-0.0308722
2.45969,0.765166,-0.0149715
2.57533,0.665066,0.0309653
2.57888,0.665983,-0.155115
2.57365,0.655537,-0.0309187
2.47368,0.760533,-0.0150412
2.58915,0.659486,0.031105
2.4657,0.758079,0.0450272
2.58495,0.658415,-0.155347
2.59144,0.650443,-0.031105
2.48015,0.753055,-0.0150645
2.59532,0.651417,0.0311515
2.48364,0.754115,0.0453064
2.58723,0.649387,-0.155347
2.60157,0.64286,-0.0311981
2.48673,0.745108,-0.0150877
2.60545,0.64382,0.0312447
2.49405,0.747303,0.0454461
2.60122,0.642774,-0.156045
2.47667,0.733153,-0.0751699
2.61146,0.636122,-0.0312912
2.50069,0.740263,-0.0151575
2.61146,0.636122,0.0312912
2.50802,0.742433,0.0456555
2.6111,0.636034,-0.15651
2.48305,0.725625,-0.0752863
2.61755,0.627936,-0.0313378
2.51094,0.733774,-0.015204
2.61755,0.627936,0.0313378
2.51827,0.735918,0.0457951
2.62495,0.629711,-0.157208
2.51273,0.734299,0.106653
2.49325,0.71917,-0.075519
2.63141,0.621554,-0.0314775
2.51733,0.726114,-0.0152272
2.63957,0.623484,-0.25318
2.63919,0.623393,0.0315706
2.52083,0.727124,0.0457951
2.63102,0.621463,-0.15744
2.49959,0.711557,-0.0756354
2.63746,0.61327,-0.0315241
2.52369,0.718417,-0.0152505
2.64173,0.614265,-0.25318
2.64914,0.615988,0.0316637
2.53489,0.721605,0.0460045
2.64873,0.615892,-0.158371
2.53317,0.721116,0.107304
2.52412,0.718538,-0.137539
2.50591,0.703908,-0.0757518
2.65518,0.607629,-0.0317103
2.53389,0.711766,-0.015297
2.64774,0.605928,-0.253551
2.65518,0.607629,0.0317103
2.53739,0.712751,0.0460045
2.65865,0.608423,-0.158836
2.53952,0.71335,0.107467
2.50835,0.695157,-0.0757518
2.66118,0.599236,-0.0317569
2.54406,0.705054,-0.0153435
2.65761,0.598432,-0.254295
2.66508,0.600114,0.0318034
2.54757,0.706026,0.0461442
2.66465,0.600017,-0.159068
2.5497,0.706616,0.107793
2.52907,0.700899,-0.137539
2.52619,0.690614,-0.0762172
2.42585,0.792423,0
2.66716,0.590807,-0.0318034
2.55037,0.697223,-0.0153667
2.66746,0.590874,-0.255039
2.67107,0.591672,0.03185
2.5616,0.700293,0.0463536
2.67063,0.591575,-0.159301
2.55601,0.698765,0.107956
2.53536,0.693119,-0.137748
2.53631,0.683875,-0.0764499
2.68484,0.584901,-0.0319897
2.56051,0.690401,-0.0154132
2.68118,0.584104,-0.256154
2.68875,0.585752,0.0320363
2.56016,0.690307,0.0462838
2.67658,0.583101,-0.159533
2.56615,0.691921,0.108281
2.55319,0.688427,-0.138586
2.54629,0.677516,-0.0766826
2.435,0.777109,0
2.69068,0.576832,-0.0320363
2.56665,0.682934,-0.0154364
2.687,0.576044,-0.256526
2.69459,0.577671,0.0320828
2.5663,0.682841,0.0463536
2.69021,0.576732,-0.160231
2.57615,0.685463,0.108607
2.56704,0.683037,-0.139214
2.54864,0.668623,-0.0766826
2.4377,0.768604,0
2.70442,0.56991,-0.032176
2.57289,0.674985,-0.0154597
2.69289,0.567481,-0.256897
2.70833,0.570735,0.0322225
2.58028,0.676923,0.046563
2.70393,0.569808,-0.160929
2.5824,0.677479,0.10877
2.57327,0.675085,-0.139423
2.55881,0.661279,-0.0769154
2.44814,0.762043,0
2.72215,0.563236,-0.0323622
2.58696,0.668553,-0.0155294
2.70275,0.559222,-0.257641
2.71432,0.561615,0.0322691
2.59436,0.670464,0.0467725
2.70991,0.560703,-0.161161
2.58873,0.669011,0.108933
2.57573,0.665649,-0.139423
2.4513,0.763025,-0.0597397
2.57649,0.656739,-0.0773808
2.46212,0.757448,0
2.72009,0.553408,-0.0323156
2.58529,0.658982,-0.0155062
2.7124,0.551844,-0.258385
2.47675,0.761946,0.0602981
2.73576,0.556598,0.0325019
2.59657,0.661857,0.0467725
2.7235,0.554102,-0.161859
2.60256,0.663383,0.109421
2.58566,0.659077,-0.139842
2.59222,0.660747,0.218382
2.57489,0.646768,-0.0772645
2.46475,0.748849,0
2.73769,0.547045,-0.0325019
2.59533,0.651903,-0.0155527
2.71821,0.543153,-0.258756
2.74161,0.547829,0.0325485
2.60274,0.653764,0.0468423
2.73324,0.546157,-0.162324
2.60873,0.655268,0.109584
2.60344,0.65394,-0.140679
2.59837,0.652666,0.218708
2.59266,0.641619,-0.0777299
2.47884,0.74369,0
2.74351,0.538256,-0.0325485
2.60536,0.644762,-0.0155992
2.72791,0.535196,-0.2595
2.50499,0.751533,0.0608564
2.74743,0.539026,0.032595
2.6045,0.644551,-0.219033
2.61665,0.647557,0.0470517
2.73905,0.537382,-0.162557
2.61488,0.647119,0.109747
2.61734,0.647728,-0.141307
2.60837,0.645509,0.219359
2.47817,0.743489,-0.060205
2.60265,0.634458,-0.0779626
2.48526,0.736168,0
2.75323,0.530188,-0.0326416
2.61925,0.638505,-0.0156689
2.73758,0.527176,-0.260243
2.49993,0.740512,0.0606703
2.75715,0.530944,0.0326882
2.62223,0.639232,-0.220335
2.63055,0.64126,0.0472611
2.74091,0.527817,-0.162557
2.62489,0.63988,0.110073
2.62347,0.639533,-0.141516
2.61836,0.638287,0.22001
2.49226,0.73824,-0.0604842
2.61262,0.627235,-0.0781954
2.48782,0.727488,0
2.76685,0.522801,-0.0327813
2.62924,0.631225,-0.0157154
2.74723,0.519095,-0.260987
2.51017,0.734025,0.0608564
2.76685,0.522801,0.0327813
2.62832,0.631005,-0.22066
2.64444,0.634874,0.0474705
2.75843,0.521211,-0.163487
2.631,0.631646,0.110235
2.63734,0.633168,-0.142144
2.62832,0.631005,0.22066
2.50633,0.732903,-0.0607633
2.63036,0.621791,-0.0786608
2.50187,0.722128,0
2.76866,0.513141,-0.0327813
2.64311,0.624805,-0.0157852
2.76078,0.51168,-0.262102
2.52424,0.728586,0.0611355
2.77259,0.51387,0.0328279
2.63827,0.623661,-0.221311
2.65054,0.62656,0.0475404
2.76416,0.512307,-0.16372
2.64874,0.626136,0.110887
2.51068,0.72467,-0.121725
2.64731,0.625797,-0.142563
2.63439,0.622744,0.220986
2.51272,0.725259,-0.0608564
2.63641,0.613512,-0.0787772
2.50822,0.714485,0
2.77437,0.504188,-0.0328279
2.65307,0.617387,-0.0158317
2.76646,0.502751,-0.262474
2.52677,0.71977,0.0611355
2.78617,0.506333,0.0329675
2.64431,0.615351,-0.221637
2.6566,0.61821,0.0476102
2.77772,0.504797,-0.164417
2.6548,0.617792,0.111049
2.65726,0.618362,-0.142982
2.64431,0.615351,0.221637
2.51908,0.717578,-0.0609494
2.65023,0.606985,-0.0791263
2.52225,0.708974,0
2.79186,0.497308,-0.0330141
2.6552,0.608124,-0.0158317
2.78389,0.495887,-0.263961
2.54082,0.714193,0.0614147
2.7958,0.498009,0.0330607
2.65422,0.607898,-0.222288
2.66654,0.610721,0.0477498
2.7834,0.4958,-0.16465
2.66474,0.610307,0.111375
2.51952,0.708207,-0.121912
2.66719,0.610868,-0.143401
2.53312,0.712029,-0.0612286
2.64843,0.59685,-0.0790099
2.52857,0.701234,0
2.79358,0.487559,-0.0330141
2.67292,0.602369,-0.0159246
2.7856,0.486166,-0.263961
2.5433,0.705319,0.0614147
2.8054,0.489622,0.0331538
2.67188,0.602135,-0.22359
2.68036,0.604046,0.0479592
2.79298,0.487453,-0.165115
2.67075,0.60188,0.111538
2.52198,0.699407,-0.121912
2.67709,0.60331,-0.143819
2.66799,0.601259,0.223264
2.53559,0.703182,-0.0612286
2.66211,0.590662,-0.079359
2.53859,0.694957,0
2.81095,0.48099,-0.0332004
2.68271,0.595234,-0.0159711
2.79505,0.478268,-0.264705
2.54948,0.697936,0.0615077
2.81095,0.48099,0.0332004
2.68165,0.594998,-0.22424
2.69016,0.596886,0.0480988
2.81032,0.480882,-0.166045
2.55741,0.700108,0.154417
2.67663,0.593885,0.111701
2.5397,0.695259,-0.122656
2.68298,0.595294,-0.144029
2.67386,0.593271,0.22359
2.54562,0.696881,-0.0614147
2.66806,0.582219,-0.0794753
2.54487,0.687135,0
2.81656,0.471836,-0.0332469
2.69259,0.587572,-0.0160176
2.81241,0.471142,-0.266192
2.56348,0.692161,0.0617869
2.8205,0.472497,0.0332935
2.68371,0.585634,-0.22424
2.70785,0.590903,0.0483781
2.81592,0.47173,-0.166278
2.56369,0.692218,0.15465
2.69821,0.588799,0.112515
2.54982,0.688473,-0.123028
2.69675,0.58848,-0.144657
2.68371,0.585634,0.22424
2.55962,0.691118,-0.0616939
2.67779,0.575048,-0.0797081
2.56646,0.683842,0
2.826,0.46379,-0.0333401
2.41183,0.770642,0.0147158
2.70626,0.58116,-0.0160874
2.82575,0.463748,-0.267307
2.57349,0.685716,0.061973
2.83784,0.465733,0.0334798
2.69733,0.579243,-0.225217
2.7098,0.581921,0.0483781
2.82929,0.46433,-0.166975
2.57755,0.686797,0.155347
2.70406,0.580688,0.112678
2.55982,0.682072,-0.123401
2.70259,0.580373,-0.144866
2.69733,0.579243,0.225217
2.56963,0.684686,-0.06188
2.69543,0.568999,-0.0801735
2.57657,0.676911,0
2.8355,0.455189,-0.0334332
2.68664,0.567143,-0.34951
2.44121,0.770646,0.0148785
2.7161,0.573362,-0.0161339
2.84308,0.456406,-0.268794
2.5836,0.67876,0.0621591
2.8434,0.456457,0.0335263
2.70714,0.57147,-0.225868
2.71573,0.573284,0.0484479
2.8309,0.45445,-0.166975
2.57993,0.677795,0.155347
2.7178,0.573722,0.113166
2.56991,0.675162,-0.123773
2.71633,0.573411,-0.145494
2.70714,0.57147,0.225868
2.572,0.675712,-0.06188
2.4475,0.762781,-0.044748
2.70141,0.559929,-0.0802899
2.5829,0.668466,0
2.849,0.446653,-0.0335729
2.70035,0.559709,-0.351026
2.44783,0.762884,0.0149017
2.72993,0.565839,-0.0162036
2.8408,0.445366,-0.268423
2.58995,0.670289,0.0622522
2.849,0.446653,0.0335729
2.56888,0.664838,-0.185552
2.71702,0.563163,-0.226519
2.72956,0.565762,0.0486573
2.85227,0.447164,-0.168138
2.58626,0.669336,0.15558
2.7238,0.564568,0.113329
2.57237,0.665739,-0.123773
2.72232,0.564262,-0.145703
2.71702,0.563163,0.226519
2.5822,0.668285,-0.0620661
2.46148,0.758192,-0.0449574
2.71501,0.553362,-0.080639
2.58898,0.660885,0
2.85442,0.437808,-0.0336195
2.70608,0.551543,-0.351531
2.46182,0.758295,0.0149715
2.73571,0.557581,-0.0162269
2.85407,0.437754,-0.269538
2.59603,0.662685,0.0623452
2.85047,0.437202,0.0335729
2.57107,0.656315,-0.185552
2.73059,0.556538,-0.227495
2.74318,0.559103,0.0488667
2.85768,0.438308,-0.168371
2.60395,0.664706,0.15651
2.7374,0.557927,0.113818
2.58618,0.660169,-0.124331
2.73201,0.556826,-0.146122
2.73059,0.556538,0.227495
2.58828,0.660706,-0.0621591
2.46807,0.750329,-0.0450272
2.72094,0.544192,-0.0807553
2.59914,0.653343,0
2.86788,0.42912,-0.0337591
2.71587,0.543178,-0.352541
2.47606,0.752757,0.0150412
2.74558,0.54912,-0.0162734
2.87141,0.429649,-0.271025
2.61007,0.65609,0.0626244
2.86788,0.42912,0.0337591
2.58507,0.649806,-0.186389
2.7287,0.545745,-0.22717
2.74521,0.549046,0.0488667
2.87112,0.429605,-0.169068
2.61798,0.658078,0.157208
2.73943,0.54789,0.113818
2.59245,0.651661,-0.124517
2.73795,0.547593,-0.146331
2.73652,0.547309,0.227821
2.59844,0.653166,-0.0623452
2.47834,0.744008,-0.0451668
2.72675,0.535461,-0.0808717
2.61306,0.64715,0
2.88123,0.42084,-0.0338988
2.72164,0.534458,-0.353046
2.48634,0.746409,0.0150877
2.75533,0.541074,-0.0163199
2.88472,0.421349,-0.27214
2.62788,0.65082,0.0629966
2.87727,0.420262,0.0338523
2.59894,0.643655,-0.187226
2.74233,0.53852,-0.228146
2.48915,0.747256,0.0756354
2.75888,0.541771,0.0490762
2.89236,0.422465,-0.170231
2.63189,0.651815,0.157906
2.75309,0.540634,0.114306
2.60635,0.645489,-0.125076
2.74768,0.539571,-0.14675
2.75015,0.540057,0.228797
2.61235,0.646975,-0.0626244
2.47708,0.734216,-0.045097
2.73645,0.527452,-0.0811044
2.61919,0.638972,0
2.89852,0.413036,-0.0340851
2.73128,0.526456,-0.354056
2.48893,0.737725,0.0150877
2.76506,0.532966,-0.0163664
2.90194,0.413523,-0.273627
2.63013,0.641643,0.0629966
2.8906,0.411907,0.033992
2.61281,0.637416,-0.188063
2.74419,0.528944,-0.228146
2.49558,0.739698,0.0757518
2.76861,0.53365,0.0492158
2.89381,0.412365,-0.170231
2.62639,0.640731,0.15744
2.76674,0.533289,0.114795
2.60858,0.636386,-0.125076
2.75347,0.530732,-0.146959
2.76376,0.532717,0.229773
2.61848,0.638799,-0.0627174
2.48731,0.727812,-0.0452366
2.7422,0.518642,-0.0812208
2.63696,0.633565,0
2.90787,0.404019,-0.0341782
2.7409,0.518395,-0.355066
2.503,0.732404,0.0151575
2.77083,0.524056,-0.0163896
2.64013,0.634328,0.0631827
2.90391,0.403468,0.0341317
2.62277,0.630158,-0.188622
2.74994,0.520104,-0.228471
2.50966,0.734353,0.0761008
2.77831,0.525471,0.0493554
2.9071,0.403912,-0.170929
2.64026,0.634359,0.158138
2.77643,0.525116,0.11512
2.61856,0.629145,-0.125448
2.76315,0.522604,-0.147378
2.76561,0.523068,0.229773
2.48946,0.728442,-0.105676
2.62458,0.630591,-0.0628105
2.49752,0.721345,-0.0453763
2.744,0.509066,-0.0812208
2.63915,0.624356,0
2.92115,0.395475,-0.0343179
2.7505,0.510271,-0.356076
2.51707,0.726992,0.0152272
2.78444,0.516569,-0.0164593
2.64622,0.626028,0.0632757
2.90926,0.393865,0.0341782
2.62884,0.621916,-0.188901
2.76742,0.51341,-0.229773
2.51605,0.726696,0.0762172
2.78406,0.516499,0.0494252
2.92037,0.395368,-0.171626
2.65023,0.626977,0.158603
2.79004,0.517607,0.115609
2.63629,0.62368,-0.126192
2.76889,0.513684,-0.147587
2.77918,0.515592,0.23075
2.50351,0.723074,-0.106165
2.64233,0.625108,-0.0631827
2.50746,0.715691,-0.0455159
2.76132,0.503311,-0.0816862
2.64889,0.61788,0
2.92634,0.386821,-0.0343645
2.7638,0.503763,-0.357592
2.52319,0.720179,0.0152505
2.79392,0.509254,-0.0165058
2.65986,0.620438,0.0635549
2.92238,0.386296,0.0343179
2.63078,0.613655,-0.188901
2.77294,0.505429,-0.230099
2.52601,0.720984,0.0764499
2.79354,0.509185,0.0495648
2.92951,0.387239,-0.172092
2.66386,0.62137,0.159301
2.79165,0.50884,0.115609
2.64213,0.616303,-0.126379
2.78228,0.507132,-0.148215
2.7847,0.507574,0.231075
2.50961,0.716303,-0.106327
2.65207,0.618621,-0.0633688
2.51404,0.70714,-0.0455857
2.7711,0.494108,-0.0819189
2.65124,0.607703,0
2.93971,0.377107,-0.0345042
2.76181,0.49245,-0.357087
2.52979,0.711568,0.0152737
2.80767,0.500628,-0.0165756
2.67002,0.612006,0.063741
2.93971,0.377107,0.0345042
2.64479,0.606223,-0.189738
2.78663,0.496877,-0.231075
2.53646,0.713444,0.0766826
2.79941,0.499156,0.0496346
2.9389,0.377003,-0.172557
2.6779,0.613813,0.159999
2.80539,0.500221,0.116097
2.65616,0.608831,-0.126937
2.79207,0.497847,-0.148634
2.79841,0.498976,0.232052
2.52004,0.708826,-0.106653
2.66222,0.610219,-0.0635549
2.52806,0.701568,-0.0457951
2.78463,0.486495,-0.082268
2.66896,0.601965,0
2.94895,0.367833,-0.0345973
2.77914,0.485537,-0.359107
2.53996,0.704871,0.0153202
2.80546,0.490135,-0.0165523
2.63809,0.595002,-0.291304
2.68384,0.605321,0.0640202
2.95292,0.368328,0.0346439
2.66246,0.600498,-0.190854
2.7962,0.488518,-0.231726
2.53893,0.704585,0.0766826
2.81296,0.491445,0.0498441
2.94416,0.367236,-0.172789
2.68392,0.605339,0.160231
2.81499,0.491801,0.116423
2.66607,0.601313,-0.127309
2.8056,0.490159,-0.149262
2.80799,0.490577,0.232702
2.53405,0.70323,-0.107142
2.66824,0.601802,-0.0636479
2.53435,0.693795,-0.0458649
2.78237,0.476098,-0.0821517
2.67495,0.593512,0
2.9661,0.359462,-0.0347836
2.78864,0.477172,-0.360117
2.55784,0.700226,0.0154132
2.81898,0.482364,-0.0166221
2.65568,0.589237,-0.293018
2.68984,0.596816,0.0641132
2.9661,0.359462,0.0347836
2.66843,0.592066,-0.191133
2.80575,0.4801,-0.232377
2.54523,0.696774,0.076799
2.82254,0.482973,0.0499837
2.97317,0.36032,-0.174417
2.68991,0.596833,0.160464
2.81669,0.481972,0.116423
2.66815,0.592003,-0.127309
2.8191,0.482384,-0.14989
2.69377,0.597687,0.338797
2.82147,0.48279,0.233679
2.54034,0.695436,-0.107304
2.67813,0.594217,-0.0638341
2.54038,0.686873,-0.0459347
2.79568,0.46934,-0.0825008
2.6768,0.585104,0
2.97913,0.351548,-0.0349233
2.80187,0.470379,-0.361632
2.56389,0.69323,0.0154364
2.82837,0.474829,-0.0166686
2.66529,0.582588,-0.293874
2.69951,0.59007,0.0642993
2.96721,0.350142,0.0347836
2.67028,0.583679,-0.191133
2.81904,0.473263,-0.233353
2.55899,0.691905,0.0771481
2.82799,0.474765,0.0500535
2.55483,0.690781,-0.169615
2.71128,0.592642,0.161626
2.83002,0.475105,0.116911
2.6739,0.584471,-0.127495
2.82454,0.474186,-0.1501
2.69951,0.590069,0.339284
2.82691,0.474583,0.234004
2.54638,0.688495,-0.107467
2.6917,0.588362,-0.0641132
2.55447,0.680647,-0.0461442
2.80922,0.461034,-0.0828498
2.68284,0.57613,0
2.98437,0.341081,-0.0349698
2.8114,0.461393,-0.362642
2.57028,0.684859,0.0154597
2.83799,0.465755,-0.0167151
2.67129,0.573651,-0.294303
2.71339,0.582691,0.0645785
2.98039,0.340627,0.0349233
2.6841,0.576402,-0.19197
2.82863,0.464219,-0.234004
2.56537,0.683551,0.0772645
2.8376,0.465692,0.0501931
2.54577,0.678329,-0.168848
2.72124,0.584378,0.162092
2.84751,0.467319,0.117563
2.68384,0.576345,-0.127868
2.83415,0.465125,-0.150518
2.70942,0.581838,0.340259
2.55274,0.680187,-0.10763
2.69775,0.579332,-0.0642063
2.56457,0.673759,-0.0462838
2.82265,0.453127,-0.0831989
2.69657,0.569241,0
2.99349,0.331543,-0.0350629
2.57265,0.675883,0.0154597
2.8396,0.455847,-0.0167151
2.67328,0.564324,-0.294303
2.72323,0.574868,0.0647646
2.99747,0.331983,0.0351095
2.69,0.567854,-0.192249
2.8381,0.455607,-0.234655
2.56774,0.674593,0.0772645
2.85106,0.457687,0.0504026
2.55199,0.670454,-0.169104
2.72327,0.574876,0.162092
2.85307,0.458011,0.117725
2.69365,0.568624,-0.12824
2.84758,0.457129,-0.151146
2.71532,0.573198,0.340747
2.57056,0.675334,-0.108281
2.70758,0.571564,-0.0643924
2.57453,0.667259,-0.0464234
2.83994,0.446247,-0.0836644
2.70628,0.561922,0
3.00651,0.322896,-0.0352026
2.58262,0.669356,0.0155062
2.85295,0.448291,-0.0167848
2.68292,0.557073,-0.295159
2.73687,0.568274,0.0650437
3.00651,0.322896,0.0352026
2.70359,0.561365,-0.193086
2.85141,0.44805,-0.235632
2.58544,0.670087,0.0777299
2.86046,0.449472,0.0505422
2.56192,0.663991,-0.169615
2.72907,0.566655,0.162324
2.85853,0.449168,0.117888
2.69552,0.559689,-0.12824
2.86487,0.450164,-0.151984
2.72887,0.566612,0.342209
2.57666,0.66781,-0.108444
2.71729,0.564209,-0.0645785
2.58083,0.658806,-0.0464932
2.84155,0.435834,-0.0836644
2.71616,0.553596,0
3.0196,0.313112,-0.0353423
2.59281,0.661864,0.0155527
2.86643,0.43965,-0.0168546
2.69274,0.548824,-0.296016
2.73893,0.558238,0.0650437
3.02358,0.313524,0.0353889
2.71345,0.553045,-0.193644
2.86092,0.438804,-0.236282
2.58788,0.660606,0.0777299
2.87395,0.440803,0.0507516
2.57594,0.657558,-0.170383
2.74287,0.55904,0.163022
2.872,0.440505,0.118377
2.7093,0.552199,-0.128798
2.8744,0.440872,-0.152402
2.7387,0.558192,0.343184
2.59071,0.661326,-0.108933
2.72718,0.555843,-0.0647646
2.587,0.65077,-0.046563
2.85492,0.427691,-0.0840135
2.722,0.544898,0
3.02068,0.30257,-0.0353423
2.60286,0.654761,0.0155992
2.87586,0.430827,-0.016901
2.69854,0.540202,-0.296445
2.74871,0.550245,0.0652298
3.02864,0.303367,0.0354355
2.71928,0.544354,-0.193923
2.8782,0.431178,-0.237584
2.60181,0.654495,0.078079
2.88734,0.432547,0.050961
2.58984,0.651484,-0.17115
2.74872,0.550247,0.163254
2.87748,0.43107,0.11854
2.72297,0.545092,-0.129357
2.88382,0.43202,-0.152821
2.59687,0.653255,-0.109096
2.74087,0.548675,-0.0650437
2.60067,0.64553,-0.0467725
2.87207,0.42104,-0.0844789
2.73154,0.53789,0
3.02958,0.293851,-0.0354355
2.61267,0.648509,0.0156457
2.88907,0.423532,-0.0169708
2.71583,0.534796,-0.298158
2.75827,0.543153,0.0654159
3.03754,0.294624,0.0355286
2.73272,0.538121,-0.19476
2.88743,0.423291,-0.238235
2.61161,0.648245,0.0783117
2.90055,0.425215,0.0511705
2.59962,0.645268,-0.171662
2.75827,0.543152,0.16372
2.88673,0.423188,0.118865
2.73251,0.538079,-0.129729
2.89702,0.424697,-0.153449
2.75403,0.542318,0.344647
2.61055,0.647982,-0.109584
2.75435,0.54238,-0.0653229
2.61867,0.639333,-0.0470517
2.89742,0.413397,-0.0851771
2.74537,0.52967,0
3.03865,0.282957,-0.0355286
2.61514,0.638471,0.0156457
2.90652,0.414694,-0.0170638
2.72177,0.525117,-0.298587
2.76819,0.534072,0.0656021
3.05059,0.28407,0.0356683
2.73868,0.52838,-0.195039
2.89693,0.413327,-0.238886
2.62573,0.641057,0.0786608
2.8982,0.413509,0.0511006
2.60208,0.635281,-0.171662
2.76817,0.534069,0.164185
2.9002,0.413793,0.119354
2.7424,0.529096,-0.130101
2.90654,0.414697,-0.153868
2.6169,0.638901,-0.109747
2.76819,0.534072,-0.0656021
2.617,0.629253,-0.0469819
2.89092,0.402177,-0.0849444
2.75506,0.521571,0
2.62513,0.631208,0.0156922
2.91587,0.405648,-0.0171103
2.73531,0.517832,-0.299872
2.77789,0.525893,0.0657882
3.05954,0.274133,0.0357614
2.75227,0.521043,-0.195876
2.90625,0.40431,-0.239537
2.62796,0.631887,0.0786608
2.92736,0.407246,0.0515893
2.61592,0.628993,-0.17243
2.77395,0.525145,0.164417
2.9135,0.405318,0.119842
2.75208,0.521006,-0.130473
2.92379,0.40675,-0.154705
2.62689,0.63163,-0.110073
2.76218,0.522918,-0.0654159
2.63453,0.62472,-0.0472611
2.90802,0.395248,-0.0854098
2.76455,0.514377,0
2.631,0.623882,0.0157154
2.92109,0.397025,-0.0171335
2.74474,0.510691,-0.300729
2.77953,0.517164,0.0657882
2.76567,0.514584,-0.196713
2.64549,0.627318,0.0791263
2.93259,0.398587,0.0516591
2.62954,0.623536,-0.173197
2.78343,0.51789,0.164882
2.92268,0.397241,0.120168
2.76156,0.51382,-0.130846
2.93297,0.398639,-0.155124
2.63664,0.625219,-0.110398
2.77953,0.517164,-0.0657882
2.64459,0.616876,-0.0474007
2.91738,0.385634,-0.0856425
2.77429,0.505675,0
2.64885,0.617868,0.0158084
2.93442,0.387887,-0.0172033
2.75442,0.502053,-0.301585
2.79715,0.50984,0.0661604
2.76361,0.503727,-0.196434
2.65166,0.618525,0.0792426
2.95385,0.390455,0.0520082
2.63958,0.615707,-0.173709
2.79317,0.509116,0.165347
2.93204,0.387572,0.120494
2.77522,0.505844,-0.131404
2.94233,0.388933,-0.155542
2.6428,0.616458,-0.110561
2.78928,0.508406,-0.0659743
2.65453,0.609431,-0.0475404
2.92664,0.376469,-0.0858753
2.78391,0.497395,0
2.65878,0.610409,0.0158549
2.94766,0.379174,-0.017273
2.7679,0.494535,-0.30287
2.79891,0.500074,0.0661604
2.78106,0.496886,-0.19755
2.6577,0.610161,0.079359
2.95916,0.380653,0.052078
2.65339,0.609169,-0.174476
2.80279,0.500768,0.165813
2.94923,0.379376,0.121145
2.78877,0.498262,-0.131962
2.94763,0.37917,-0.155752
2.65273,0.609019,-0.110887
2.79497,0.499371,-0.0660673
2.66834,0.602805,-0.0477498
2.93587,0.367243,-0.086108
2.78957,0.488364,0
2.657,0.600242,0.0158317
2.96484,0.370867,-0.017366
2.77745,0.486241,-0.303727
2.81245,0.492369,0.0664395
2.79064,0.48855,-0.198108
2.67542,0.604403,0.0798244
2.96047,0.370321,0.052078
2.6555,0.599903,-0.174476
2.80846,0.491669,0.166045
2.95847,0.37007,0.121471
2.8023,0.490591,-0.132521
2.96083,0.370365,-0.15638
2.66654,0.602397,-0.111375
2.80851,0.491679,-0.0663465
2.66652,0.59262,-0.04768
2.94904,0.35844,-0.0864571
2.81492,0.48268,0
2.6747,0.594435,0.0159246
2.96612,0.360516,-0.017366
2.79089,0.47856,-0.305012
2.82204,0.483901,0.0666256
2.80413,0.48083,-0.198945
2.68532,0.596796,0.0800572
2.97763,0.361915,0.0523572
2.66537,0.592362,-0.174988
2.81803,0.483213,0.16651
2.97165,0.361188,0.121959
2.81581,0.482832,-0.133079
2.97004,0.360992,-0.156799
2.8448,0.487805,0.354396
2.67642,0.59482,-0.111701
2.80627,0.481198,-0.0662534
2.67629,0.585484,-0.0478196
2.95418,0.349129,-0.0865734
2.82439,0.474669,0
2.68447,0.587273,0.0159711
2.98716,0.353026,-0.0174822
2.8003,0.470621,-0.305869
2.82757,0.475204,0.0667187
2.81358,0.472852,-0.199504
2.699,0.590452,0.0804062
2.99073,0.353448,0.0525666
2.67902,0.58608,-0.175755
2.82749,0.47519,0.166975
2.98474,0.35274,0.122448
2.82133,0.474155,-0.133265
2.98312,0.352548,-0.157427
2.6901,0.588504,-0.112189
2.81968,0.473878,-0.0665326
2.69797,0.579872,-0.0481686
2.9753,0.340571,-0.0871552
2.83795,0.466259,0
2.70224,0.580791,0.0160641
2.99241,0.342529,-0.0175055
2.81378,0.462288,-0.307154
2.84508,0.467429,0.0670909
2.8271,0.464476,-0.200341
2.70505,0.581395,0.0805226
2.99995,0.343393,0.0527063
2.69285,0.578773,-0.176523
2.84103,0.466765,0.167673
2.98601,0.341797,0.122448
2.83094,0.465106,-0.133637
2.70005,0.58032,-0.112515
2.83324,0.465484,-0.0668117
2.70389,0.571278,-0.0482385
2.97647,0.330184,-0.0871552
2.84351,0.456985,0
2.70817,0.572182,0.0160874
3.00154,0.332965,-0.017552
2.82323,0.453726,-0.308011
2.85459,0.458765,0.067277
2.82871,0.454605,-0.200341
2.71489,0.573603,0.0807553
3.01306,0.334242,0.0529157
2.69876,0.570195,-0.176779
2.85447,0.458746,0.168371
2.84043,0.45649,-0.13401
2.70206,0.570892,-0.112515
2.84669,0.457496,-0.0670909
2.7136,0.563935,-0.0483781
2.9855,0.321167,-0.087388
2.86082,0.450039,0
2.71788,0.564826,0.0161339
3.01456,0.324292,-0.0176217
2.83651,0.446214,-0.309296
2.86399,0.450538,0.0674631
2.84991,0.448322,-0.201736
2.72461,0.566223,0.080988
3.01812,0.324676,0.0529855
2.70064,0.561242,-0.176779
2.85992,0.449898,0.168603
2.86167,0.450172,-0.13494
2.71176,0.563554,-0.112841
2.85609,0.449295,-0.067277
2.71555,0.554459,-0.0483781
2.99854,0.311984,-0.087737
2.87819,0.44248,0
2.71984,0.555334,0.0161339
3.03158,0.315422,-0.0177147
2.84591,0.437518,-0.310153
2.87741,0.44236,0.0677423
2.85934,0.439583,-0.202294
2.7344,0.558308,0.0812208
3.0272,0.314965,0.0531251
2.7104,0.553408,-0.17729
2.88516,0.443552,0.169998
2.86322,0.440179,-0.13494
2.72546,0.556482,-0.113329
2.85765,0.439322,-0.067277
2.72541,0.546074,-0.0485177
2.88374,0.432522,0
2.74147,0.549292,0.0162501
3.04068,0.305108,-0.0177612
2.88692,0.432998,0.0679284
2.86883,0.430285,-0.202852
2.74819,0.550639,0.0815699
3.04027,0.305067,0.0533346
2.72416,0.545824,-0.178058
2.88282,0.432383,0.169766
2.87272,0.430868,-0.135313
2.73532,0.54806,-0.113655
2.8711,0.430626,-0.0675562
2.73898,0.539352,-0.0487271
2.88516,0.422957,0
2.7472,0.540971,0.0162734
3.04566,0.29541,-0.0177845
2.90021,0.425163,0.0682075
2.88208,0.422506,-0.203689
2.75785,0.543069,0.0818026
3.04922,0.295756,0.0534742
2.73378,0.53833,-0.178569
2.90004,0.425138,0.170696
2.88994,0.423658,-0.136057
2.74497,0.540532,-0.11398
2.8923,0.424003,-0.0680214
2.74477,0.530548,-0.0487969
2.8985,0.414584,0
2.76085,0.533656,0.0163431
3.05065,0.28515,-0.0178077
2.91355,0.416736,0.0684867
2.89539,0.414139,-0.204526
2.75973,0.533439,0.0818026
3.05422,0.285483,0.053544
2.74349,0.5303,-0.179081
2.91336,0.416709,0.171394
2.89932,0.4147,-0.136429
2.75468,0.532464,-0.114306
2.90563,0.415604,-0.0683006
2.75446,0.522453,-0.0489365
2.91578,0.406673,0
2.76663,0.52476,0.0163664
3.06756,0.275932,-0.0179007
2.92687,0.40822,0.0687658
2.90472,0.405131,-0.205084
2.7655,0.524547,0.0819189
2.74924,0.521463,-0.179337
2.92666,0.408191,0.172092
2.91262,0.406232,-0.136988
2.76045,0.523589,-0.114469
2.91499,0.406563,-0.0684867
2.76413,0.514298,-0.0490762
2.92114,0.39703,0
2.77631,0.516562,0.0164128
3.07249,0.265566,-0.0179239
2.94413,0.400154,0.0691381
2.92589,0.397675,-0.206479
2.77911,0.517084,0.082268
2.75889,0.513323,-0.179849
2.93203,0.39851,0.172324
2.91798,0.3966,-0.137174
2.77405,0.516143,-0.114957
2.91639,0.396384,-0.0684867
2.76985,0.505364,-0.049146
2.93441,0.388406,0
2.78596,0.508305,0.0164593
2.94551,0.389875,0.0691381
2.92726,0.38746,-0.206479
2.78876,0.508816,0.0825008
2.77245,0.505839,-0.180616
2.94924,0.390369,0.173254
2.92727,0.387461,-0.137546
2.7837,0.507892,-0.115283
2.93361,0.388301,-0.0688589
2.78332,0.498291,-0.0493554
2.93965,0.379186,0
2.79944,0.501178,0.0165291
2.95471,0.381129,0.0693242
2.79831,0.500975,0.0827335
2.77411,0.496643,-0.180616
2.96636,0.382631,0.174185
2.9325,0.378264,-0.137732
2.79717,0.500771,-0.115772
2.94282,0.379595,-0.069045
2.80088,0.490849,-0.0496346
2.95689,0.370398,0
2.81702,0.493677,0.0166221
2.96799,0.371789,0.0696033
2.80406,0.491406,0.0828498
2.79557,0.489918,-0.181895
2.96774,0.371757,0.174185
2.94179,0.368507,-0.138104
2.80686,0.491896,-0.116097
2.95212,0.369801,-0.0692311
2.80652,0.481745,-0.0497045
2.95817,0.360074,0
2.81479,0.483163,0.0165988
2.98118,0.362875,0.0698825
2.81364,0.482967,0.0830826
2.80514,0.481507,-0.182407
2.951,0.359201,-0.138477
2.81644,0.483447,-0.116423
2.96531,0.360943,-0.0695103
2.8081,0.472434,-0.0497045
2.96729,0.351202,0
2.82821,0.475817,0.0166686
3.00223,0.355337,0.0703477
2.82311,0.47496,0.0833153
2.81459,0.473526,-0.182919
2.97201,0.35176,-0.139407
2.82591,0.47543,-0.116748
2.9784,0.352517,-0.0697894
2.82947,0.465879,-0.0500535
2.98042,0.342211,0
2.8338,0.466592,0.0166918
2.9955,0.343943,0.0701616
2.83659,0.467052,0.0836644
2.82016,0.464347,-0.183174
3.00895,0.345487,-0.141082
2.83938,0.467512,-0.117237
2.9955,0.343943,-0.0701616
2.83502,0.456636,-0.0501233
2.98557,0.332248,0
2.8512,0.459242,0.0167848
3.00861,0.334812,0.0704408
2.85399,0.459691,0.0841298
2.83753,0.45704,-0.184198
2.84494,0.458234,-0.1174
3.00463,0.33437,-0.0703477
2.8524,0.449225,-0.0504026
2.99864,0.32311,0
2.85674,0.449908,0.0168081
3.01771,0.325164,0.0706269
2.85953,0.450348,0.0842462
2.85094,0.448995,-0.184965
2.85837,0.450165,-0.117888
3.01373,0.324736,-0.0705338
2.86581,0.441091,-0.050612
3.01169,0.313885,0
2.86225,0.440543,0.0168313
3.03076,0.315873,0.0709061
2.87689,0.442797,0.0847116
2.86433,0.440863,-0.185733
2.87177,0.442009,-0.118377
3.03076,0.315873,-0.0709061
2.86733,0.431084,-0.050612
3.02868,0.304973,0
2.87563,0.432332,0.016901
3.03582,0.305691,0.0709991
2.88633,0.43394,0.0849444
2.86979,0.431454,-0.185989
2.88911,0.434358,-0.119028
3.03582,0.305691,-0.0709991
2.88465,0.423395,-0.0508912
3.04566,0.295945,0
2.88504,0.423453,0.0169475
2.89969,0.425603,0.0852934
2.88313,0.423173,-0.186756
2.89456,0.42485,-0.119191
2.89403,0.414459,-0.0510308
3.04667,0.285314,0
2.89442,0.414516,0.016994
2.90512,0.416048,0.0854098
2.89249,0.41424,-0.187268
2.90789,0.416445,-0.119679
2.90734,0.406014,-0.0512403
3.0596,0.275754,0
2.9117,0.406622,0.017087
2.91447,0.40701,0.0856425
2.91369,0.4069,-0.188547
2.91329,0.406844,-0.119842
2.92855,0.39856,-0.0515893
2.91706,0.396996,0.0171103
2.92776,0.398452,0.0859916
2.923,0.397804,-0.189058
2.92261,0.397751,-0.120168
2.93382,0.389371,-0.0516591
2.92629,0.388372,0.0171568
2.93699,0.389792,0.0862243
2.93222,0.389159,-0.18957
2.94372,0.390685,-0.120982
2.94303,0.380667,-0.0517987
2.94343,0.380719,0.0172498
2.9581,0.382616,0.0868062
2.94933,0.381482,-0.190593
2.95689,0.38246,-0.121471
2.94441,0.369878,-0.0517987
2.96068,0.371923,0.0173428
2.97535,0.373765,0.0872716
2.96621,0.372617,-0.121796
2.96156,0.361536,-0.052078
2.97387,0.363039,0.0174125
2.97663,0.363376,0.0872716
2.96749,0.36226,-0.121796
2.97466,0.353127,-0.0522874
2.97903,0.353646,0.0174357
2.98973,0.354916,0.0876207
2.97661,0.353359,-0.122122
2.97593,0.342222,-0.0522874
2.99223,0.344097,0.0175055
2.99499,0.344414,0.087737
2.99377,0.344274,-0.122773
2.98108,0.332275,-0.0523572
3.00136,0.334535,0.017552
3.00809,0.335285,0.0880861
2.99807,0.324107,-0.0526365
3.01836,0.326301,0.017645
3.02111,0.326598,0.0884352
3.01117,0.314363,-0.0528459
3.0275,0.316067,0.0176915
3.02817,0.305455,-0.0531251
3.03654,0.306299,0.017738
3.02911,0.295941,-0.0531251
3.04943,0.297925,0.0178077
3.0625,0.287334,0.0178774
3.07145,0.277363,0.0179239
