2.59487,0.995556,-0.161859
2.60238,0.988551,-0.0324088
2.59815,0.986946,-0.161859
2.60581,0.979462,-0.0324088
2.59784,0.976466,-0.161626
2.60189,0.967117,-0.0323156
2.60947,0.969934,-0.259872
2.60515,0.968329,-0.161859
2.59757,0.95572,-0.0322225
2.59757,0.95572,0.0322225
2.60085,0.956926,-0.161394
2.60465,0.948016,-0.0322691
2.60852,0.949425,-0.259128
2.60042,0.946476,-0.161161
2.60794,0.938917,-0.0322691
2.61182,0.940313,-0.259128
2.59289,0.933498,0.0320828
2.60371,0.937393,-0.161161
2.60367,0.927127,-0.032176
2.60758,0.92852,-0.258385
2.60367,0.927127,0.032176
2.60697,0.9283,-0.161161
2.59557,0.914046,-0.0320363
2.61081,0.919412,-0.258385
2.60689,0.918032,0.032176
2.60266,0.916541,-0.160696
2.60253,0.906295,-0.0320828
2.61024,0.908982,-0.258013
2.6063,0.90761,0.0321294
2.60207,0.906137,-0.160464
2.60567,0.897206,-0.0320828
2.60587,0.897272,-0.257269
2.60189,0.895903,0.0320363
2.59767,0.894448,-0.159999
2.60091,0.886435,-0.0319897
2.59712,0.885145,0.0319431
2.60802,0.88886,-0.160464
2.60019,0.876073,-0.0319431
2.5964,0.874796,0.0318966
2.60354,0.8772,-0.159999
2.60354,0.866082,-0.0319431
2.59974,0.864819,0.0318966
2.60689,0.867196,-0.159999
2.60275,0.85574,-0.0318966
2.59895,0.854491,0.03185
2.60231,0.855598,-0.159533
2.59811,0.844178,-0.0318034
2.60977,0.847965,-0.256154
2.60191,0.845414,0.03185
2.60511,0.989588,-0.227495
2.60528,0.846509,-0.159533
2.61019,0.991519,-0.146331
2.59706,0.977207,-0.0807553
2.60075,0.836012,-0.0318034
2.60186,0.979013,-0.0161571
2.58933,0.83234,0.0316637
2.60447,0.979995,-0.22717
2.60413,0.837099,-0.159301
2.60208,0.979095,-0.145703
2.59296,0.965345,-0.0805226
2.59222,0.823296,-0.0316637
2.60526,0.969924,-0.0161571
2.59222,0.823296,0.0316637
2.6004,0.968115,-0.226519
2.60704,0.828003,-0.159301
2.60174,0.968611,-0.145494
2.59632,0.956287,-0.0805226
2.59507,0.814242,-0.0316637
2.60863,0.960823,-0.0161571
2.59126,0.813044,0.0316172
2.60377,0.959032,-0.226519
2.6061,0.817701,-0.159068
2.6051,0.959523,-0.145494
2.5998,0.946765,-0.0805226
2.59422,0.803542,-0.0316172
2.59804,0.804725,0.0316637
2.60352,0.948118,-0.226193
2.60526,0.806963,-0.158836
2.59541,0.935427,-0.0802899
2.6007,0.796105,-0.0316637
2.60452,0.797276,0.0317103
2.6029,0.938127,-0.225868
2.60411,0.79715,-0.158603
2.61174,0.941312,-0.145494
2.59865,0.926362,-0.0802899
2.5958,0.784708,-0.0315706
2.59197,0.78355,0.0315241
2.60991,0.930375,-0.226193
2.59923,0.785744,-0.158138
2.60372,0.928167,-0.144866
2.59056,0.913298,-0.0799408
2.59086,0.773354,-0.0314775
2.59469,0.774498,0.0315241
2.60938,0.919934,-0.225868
2.60578,0.777809,-0.158371
2.59751,0.905565,-0.0800572
2.59354,0.764305,-0.0314775
2.60122,0.766566,0.0315706
2.60881,0.909507,-0.225542
2.60465,0.767579,-0.158138
2.61013,0.909967,-0.144866
2.60081,0.896039,-0.0800572
2.59633,0.754795,-0.0314775
2.60565,0.897706,-0.0160176
2.60017,0.755911,0.0315241
2.60836,0.898641,-0.225217
2.60151,0.896282,0.048029
2.59978,0.755799,-0.157673
2.59226,0.883992,-0.0797081
2.59869,0.746634,-0.0314775
2.59869,0.746634,0.0314775
2.6074,0.889154,-0.224891
2.6081,0.889395,0.0480988
2.60214,0.747627,-0.157673
2.59548,0.874485,-0.0797081
2.59756,0.736014,-0.0314309
2.58986,0.733833,0.0313378
2.61064,0.879592,-0.224891
2.60102,0.736996,-0.15744
2.59064,0.872854,0.111375
2.59852,0.865419,-0.0797081
2.59241,0.724788,-0.0313378
2.59626,0.725865,0.0313844
2.60991,0.869214,-0.224566
2.60358,0.727912,-0.15744
2.59367,0.863805,0.111375
2.59773,0.855093,-0.0795917
2.58721,0.713607,-0.0312447
2.60818,0.858533,-0.34951
2.59878,0.716797,0.0313844
2.60536,0.857605,-0.223915
2.60603,0.857825,0.0478894
2.60225,0.717757,-0.157208
2.59288,0.853496,0.111212
2.59593,0.997521,-0.129543
2.60435,0.847712,-0.0797081
2.59342,0.706074,-0.0312912
2.61101,0.84988,-0.34951
2.60541,0.848056,-0.0159246
2.60505,0.847941,0.0478196
2.60077,0.708075,-0.156975
2.59569,0.844894,0.111212
2.59548,0.987487,-0.129357
2.60133,0.989712,-0.0647646
2.59968,0.836168,-0.0794753
2.58814,0.694944,-0.0311981
2.61018,0.839546,-0.349005
2.60074,0.836508,-0.0158782
2.59587,0.697018,0.0312912
2.60419,0.837619,0.0477498
2.60322,0.698993,-0.156975
2.58721,0.832157,0.110724
2.60477,0.980626,-0.0647646
2.59496,0.824665,-0.0792426
2.59055,0.685904,-0.0311981
2.59442,0.686928,0.0312447
2.59793,0.687857,-0.15651
2.5901,0.82312,0.110724
2.59483,0.966554,-0.128984
2.60818,0.971527,-0.0647646
2.60164,0.816802,-0.079359
2.60475,0.959913,0
2.58906,0.675849,-0.0311515
2.60651,0.818332,-0.0158782
2.58906,0.675849,0.0311515
2.60933,0.819215,-0.223264
2.60616,0.818221,0.04768
2.60417,0.679794,-0.156743
2.58914,0.812879,0.110561
2.59443,0.95611,-0.128798
2.6078,0.961036,-0.0646715
2.60066,0.80653,-0.0792426
2.59682,0.946704,0
2.58753,0.66581,-0.031105
2.59988,0.80629,-0.34648
2.60171,0.806858,-0.0158317
2.59528,0.667803,0.0311981
2.60836,0.80892,-0.222939
2.59372,0.80438,0.0474007
2.60266,0.669704,-0.15651
2.59196,0.803835,0.110561
2.594,0.945679,-0.128612
2.60738,0.950557,-0.0645785
2.59581,0.795105,-0.0790099
2.59634,0.936276,0
2.58596,0.65579,-0.0310584
2.59304,0.794257,-0.0157619
2.59759,0.658739,0.0311981
2.60416,0.797663,0.0475404
2.60112,0.659633,-0.156278
2.59476,0.794782,0.110561
2.59729,0.936617,-0.128612
2.5994,0.937379,-0.0642993
2.59857,0.786039,-0.0790099
2.59959,0.927208,0
2.58435,0.64579,-0.0310118
2.60925,0.789269,-0.346985
2.59962,0.786359,-0.0157852
2.59988,0.649669,0.0311981
2.59953,0.649582,-0.156045
2.58986,0.783406,0.110235
2.59301,0.924861,-0.12824
2.59889,0.926957,-0.0642063
2.59363,0.774675,-0.0787772
2.60281,0.918128,0
2.59048,0.63772,-0.0310584
2.59852,0.776134,-0.0157619
2.59535,0.915493,-0.296445
2.59048,0.63772,0.0310584
2.602,0.777174,0.0474007
2.59403,0.638594,-0.15558
2.58492,0.772073,0.10991
2.59623,0.915804,-0.12824
2.60965,0.92054,-0.0643924
2.60399,0.767879,-0.0790099
2.59845,0.906402,0
2.5888,0.627732,-0.0310118
2.59775,0.906157,0.0640202
2.59657,0.629617,0.031105
2.6047,0.768087,0.0474007
2.59624,0.629536,-0.15558
2.5876,0.763045,0.10991
2.60318,0.908052,-0.128426
2.60536,0.768281,-0.142354
2.60907,0.910108,-0.0642993
2.60538,0.89863,0
2.5832,0.616833,-0.0309187
2.60594,0.758574,-0.34547
2.60388,0.757974,-0.0157619
2.60167,0.897352,-0.296445
2.59876,0.620549,0.031105
2.59526,0.89514,-0.19197
2.59968,0.756754,0.0472611
2.59842,0.620469,-0.15558
2.59409,0.755125,0.110073
2.59878,0.896354,-0.128054
2.60845,0.899691,-0.0642063
2.59776,0.746369,-0.0786608
2.60093,0.886948,0
2.58533,0.607813,-0.0309187
2.60094,0.747283,-0.34446
2.59497,0.745567,-0.0156922
2.5935,0.884414,-0.295159
2.60779,0.88929,0.0641132
2.59312,0.609644,0.0310118
2.60231,0.747675,0.0472611
2.59668,0.610481,-0.155347
2.59287,0.744962,0.10991
2.59811,0.885988,-0.127868
2.60022,0.886708,-0.0639271
2.59266,0.735115,-0.0784281
2.59643,0.875309,0
2.59133,0.599687,-0.0309653
2.59756,0.736505,-0.0156922
2.60034,0.876627,-0.295588
2.6033,0.877627,0.0639271
2.59523,0.600589,0.0310118
2.59388,0.874452,-0.191412
2.59102,0.599613,-0.154882
2.58391,0.732636,0.109421
2.5974,0.875637,-0.127681
2.6033,0.877627,-0.0639271
2.59136,0.724983,-0.0783117
2.59567,0.864975,0
2.59341,0.590637,-0.0309653
2.60011,0.727433,-0.0156922
2.59961,0.866287,-0.295159
2.60256,0.86727,0.0638341
2.59341,0.590637,0.0309653
2.59309,0.590565,-0.154882
2.59031,0.724689,0.109584
2.59665,0.865301,-0.127495
2.5976,0.717449,-0.0784281
2.60233,0.857614,0
2.58755,0.580283,-0.0308722
2.60251,0.718806,-0.0156922
2.59491,0.855171,-0.294303
2.59782,0.85613,0.0636479
2.59926,0.582908,0.0310118
2.5922,0.854276,-0.190854
2.60216,0.718708,0.0471215
2.59894,0.582836,-0.155115
2.58884,0.71503,0.109421
2.59951,0.856685,-0.127495
2.60542,0.858634,-0.0638341
2.59237,0.706277,-0.0781954
2.59389,0.844811,0
2.58956,0.571249,-0.0308722
2.60334,0.709265,-0.34345
2.59788,0.84611,-0.294303
2.59737,0.572972,0.0309653
2.59137,0.843988,-0.190575
2.59308,0.706469,0.0469121
2.59315,0.572041,-0.15465
2.58951,0.843382,0.158603
2.58747,0.70494,0.109258
2.60248,0.847608,-0.127495
2.59597,0.988193,-0.113166
2.6046,0.848297,-0.063741
2.59869,0.698261,-0.0783117
2.60063,0.836976,0
2.59154,0.562205,-0.0308722
2.6058,0.700173,-0.34345
2.59974,0.698545,-0.0156457
2.59325,0.834599,-0.293446
2.59545,0.563053,0.0309187
2.5943,0.834937,-0.190575
2.59553,0.697412,0.0469121
2.59624,0.97793,-0.177802
2.59123,0.562139,-0.154417
2.59623,0.83556,0.158836
2.58991,0.695903,0.109258
2.60542,0.838517,-0.127495
2.60394,0.699672,-0.141307
2.59567,0.977716,-0.113003
2.59612,0.835524,-0.0634618
2.59338,0.687138,-0.078079
2.60354,0.827893,0
2.58957,0.552322,-0.0308256
2.60439,0.690057,-0.342945
2.59443,0.687417,-0.0155992
2.59236,0.824337,-0.293018
2.59902,0.826458,0.0634618
2.59339,0.824667,-0.190296
2.59795,0.688349,0.0469121
2.59589,0.967468,-0.177546
2.59709,0.553924,-0.15465
2.59152,0.824073,0.158371
2.58846,0.685835,0.109096
2.59691,0.825786,-0.126937
2.59532,0.967254,-0.112841
2.59902,0.826458,-0.0634618
2.59201,0.676618,-0.0779626
2.59892,0.815948,0
2.5955,0.543646,-0.0308722
2.59345,0.955746,0.0160641
2.6008,0.678913,-0.0156224
2.59915,0.816021,-0.293446
2.59822,0.815728,0.0633688
2.5955,0.543646,0.0308722
2.59658,0.677811,0.0468423
2.59568,0.956566,-0.17729
2.5991,0.544401,-0.15465
2.59834,0.815764,0.158603
2.58322,0.674324,0.10877
2.59992,0.816261,-0.126937
2.60115,0.679003,-0.140888
2.5951,0.956352,-0.112678
2.60204,0.816925,-0.0634618
2.59037,0.667021,-0.0778463
2.5978,0.806139,0
2.58161,0.531808,-0.0306859
2.60531,0.670867,-0.342439
2.59285,0.94577,0.0160409
2.59917,0.669287,-0.0155992
2.59805,0.806218,-0.293018
2.59709,0.805921,0.0632757
2.59728,0.535035,0.0308722
2.59147,0.804176,-0.189738
2.59881,0.669196,0.0468423
2.59508,0.946585,-0.177034
2.59698,0.534972,-0.154417
2.59721,0.805959,0.158371
2.58932,0.66675,0.108933
2.60643,0.808819,-0.127123
2.60339,0.670373,-0.140888
2.5945,0.946371,-0.112515
2.60091,0.807106,-0.0633688
2.59202,0.93523,-0.0480988
2.59268,0.657975,-0.0778463
2.60442,0.798239,0
2.58346,0.522793,-0.0306859
2.59994,0.659818,-0.341429
2.60149,0.66021,-0.0155992
2.59704,0.795979,-0.292589
2.59989,0.796851,0.0632757
2.59522,0.525173,0.0308256
2.59426,0.795125,-0.189738
2.59726,0.659137,0.0467725
2.591,0.524321,-0.153952
2.60001,0.796889,0.158371
2.59163,0.657708,0.108933
2.6016,0.797375,-0.126751
2.60184,0.660299,-0.140679
2.60371,0.798023,-0.0633688
2.58332,0.646011,-0.0774972
2.60336,0.787985,0
2.58919,0.514552,-0.0307325
2.59213,0.648215,-0.0155294
2.596,0.785757,-0.292161
2.60265,0.787772,0.0632757
2.59703,0.516112,0.0308256
2.5932,0.784909,-0.189459
2.59566,0.649097,0.0467026
2.59673,0.516052,-0.154185
2.58749,0.783181,0.15744
2.59003,0.647689,0.10877
2.60436,0.788289,-0.126751
2.59351,0.92555,-0.112189
2.595,0.785455,-0.0630896
2.59471,0.915781,-0.048029
2.59333,0.638904,-0.0777299
2.59097,0.505512,-0.0307325
2.59678,0.639753,-0.340419
2.59438,0.639163,-0.0155294
2.59492,0.775552,-0.291732
2.59773,0.776392,0.0630896
2.59489,0.506278,0.030779
2.59592,0.775853,-0.189459
2.59403,0.639077,0.0466328
2.59356,0.915374,-0.176267
2.58676,0.504691,-0.153487
2.59021,0.774145,0.15744
2.58839,0.637688,0.108607
2.60327,0.77805,-0.126565
2.59296,0.915162,-0.112026
2.60156,0.777537,-0.0631827
2.59412,0.9054,-0.0479592
2.58777,0.627961,-0.0774972
2.59345,0.765263,0
2.58879,0.495712,-0.0306859
2.60285,0.63162,-0.340924
2.59069,0.904204,0.0159479
2.5966,0.630103,-0.0155294
2.59761,0.766489,-0.291732
2.60042,0.767319,0.0630896
2.59272,0.496464,0.0307325
2.59096,0.764528,-0.188901
2.58964,0.903837,0.0798244
2.59625,0.630017,0.0466328
2.59674,0.906315,-0.176267
2.59243,0.496409,-0.15372
2.59289,0.765098,0.15744
2.58672,0.627706,0.108444
2.59831,0.766695,-0.126192
2.59236,0.904787,-0.111864
2.59659,0.766187,-0.0629966
2.60104,0.897643,-0.048029
2.58995,0.618923,-0.0774972
2.59611,0.756205,0
2.58264,0.485194,-0.0305928
2.60504,0.62253,-0.340924
2.59384,0.895155,0.0159479
2.59489,0.620105,-0.0155062
2.59263,0.755192,-0.290876
2.59924,0.757118,0.0629966
2.59443,0.48741,0.0307325
2.59843,0.62095,0.0466328
2.59989,0.897244,-0.176267
2.59022,0.486618,-0.153487
2.58788,0.753809,0.156975
2.5889,0.618672,0.108444
2.60097,0.75762,-0.126192
2.59551,0.895732,-0.111864
2.59924,0.757118,-0.0629966
2.59659,0.885976,-0.0478894
2.58431,0.608048,-0.0772645
2.59873,0.747138,0
2.58825,0.476902,-0.0306393
2.59947,0.611616,-0.339914
2.58937,0.883512,0.0159014
2.60093,0.61196,-0.0155294
2.59143,0.745039,-0.290447
2.59418,0.745831,0.0628105
2.59612,0.478351,0.0307325
2.59624,0.746421,-0.188901
2.5921,0.884445,0.0797081
2.59279,0.610045,0.0464932
2.5919,0.477574,-0.153487
2.5905,0.744771,0.156975
2.59104,0.609632,0.108444
2.59484,0.885376,-0.111701
2.60571,0.749146,-0.0630896
2.59209,0.874349,-0.0477498
2.59031,0.599925,-0.0773808
2.59363,0.735878,0
2.5899,0.467863,-0.0306393
2.59322,0.735762,-0.419368
2.60159,0.602538,-0.339914
2.58865,0.873189,0.0158782
2.59916,0.601974,-0.0155062
2.59784,0.737073,-0.290876
2.59677,0.736771,0.0628105
2.59499,0.736264,-0.188622
2.59139,0.874112,0.0795917
2.59491,0.60099,0.0464932
2.59474,0.875244,-0.1755
2.59355,0.468523,-0.153487
2.5854,0.733544,0.15651
2.59315,0.600583,0.108444
2.60235,0.738353,-0.126006
2.57893,0.597289,0.216104
2.59412,0.875035,-0.111538
2.59677,0.736771,-0.0628105
2.59118,0.864484,-0.04768
2.58449,0.589554,-0.0771481
2.59605,0.727274,0
2.5875,0.458575,-0.0305928
2.59184,0.726092,-0.418754
2.59971,0.593025,-0.339409
2.59724,0.592462,-0.0154829
2.59644,0.727382,-0.290447
2.5915,0.725998,0.0626244
2.59538,0.459971,0.0306859
2.59357,0.726579,-0.188342
2.59689,0.592382,0.0464932
2.59763,0.866635,-0.1755
2.58723,0.458527,-0.153022
2.58782,0.724966,0.15651
2.58734,0.590203,0.108119
2.60094,0.728642,-0.12582
2.5809,0.588735,0.216104
2.6008,0.867693,-0.111701
2.60305,0.729235,-0.0629035
2.59418,0.855434,-0.04768
2.58653,0.580529,-0.0771481
2.59472,0.717143,0
2.59303,0.450225,-0.0306393
2.59435,0.717041,-0.418754
2.60176,0.583947,-0.339409
2.59074,0.854297,0.0158549
2.59539,0.582517,-0.0154597
2.59896,0.718315,-0.290447
2.59787,0.718014,0.0627174
2.58514,0.448856,0.0305462
2.59609,0.717522,-0.188342
2.58968,0.85395,0.079359
2.59113,0.581562,0.0463536
2.60064,0.857563,-0.1755
2.59275,0.450177,-0.153254
2.59033,0.715929,0.15651
2.58548,0.580294,0.107956
2.60346,0.719559,-0.12582
2.60002,0.857358,-0.111538
2.60173,0.719079,-0.0628105
2.59335,0.845133,-0.0476102
2.58854,0.571496,-0.0771481
2.58949,0.705976,0
2.58275,0.439159,-0.0304996
2.5899,0.844009,0.0158317
2.60529,0.710284,-0.290876
2.5965,0.707889,0.0626244
2.59064,0.4405,0.0305928
2.59088,0.706355,-0.187784
2.60052,0.57414,-0.217406
2.59315,0.572513,0.0463536
2.59982,0.847242,-0.175244
2.59037,0.440454,-0.153022
2.58511,0.704782,0.156045
2.59139,0.572126,0.108119
2.60169,0.574399,-0.139632
2.58884,0.571562,0.21643
2.5954,0.8458,-0.111212
2.5965,0.707889,-0.0626244
2.59629,0.836075,-0.0476102
2.59443,0.563305,-0.0772645
2.59194,0.696932,0
2.58822,0.430796,-0.0305462
2.59802,0.564084,-0.338399
2.58902,0.833736,0.0158084
2.59896,0.69882,0.0626244
2.59718,0.698343,-0.188063
2.58731,0.56176,0.046214
2.59516,0.835714,-0.174732
2.59189,0.431408,-0.153022
2.59141,0.69679,0.156278
2.59337,0.563076,0.108119
2.60457,0.700327,-0.125634
2.59978,0.564466,-0.139423
2.59833,0.836734,-0.111212
2.59896,0.69882,-0.0626244
2.59538,0.825797,-0.0475404
2.58856,0.552578,-0.0770317
2.59049,0.686857,0
2.5897,0.421761,-0.0305462
2.59609,0.554186,-0.337894
2.5881,0.823483,0.0157852
2.59865,0.689022,-0.28959
2.60138,0.689746,0.0626244
2.59365,0.422404,0.0305928
2.59575,0.688252,-0.187784
2.60056,0.55514,-0.21708
2.59086,0.82436,0.0791263
2.59708,0.554397,0.0463536
2.59426,0.825442,-0.174476
2.5855,0.421076,-0.152557
2.58611,0.685695,0.155813
2.59142,0.553188,0.107956
2.59743,0.82645,-0.111049
2.59365,0.687696,-0.0624383
2.59061,0.814333,-0.0474007
2.58264,0.541896,-0.076799
2.589,0.676798,0
2.59116,0.412718,-0.0305462
2.58882,0.67675,-0.416294
2.59801,0.545119,-0.337894
2.58715,0.813244,0.0157619
2.59935,0.545401,-0.0154364
2.5972,0.67894,-0.289162
2.59192,0.412839,-0.245001
2.59217,0.677626,0.0623452
2.59511,0.413347,0.0305928
2.59814,0.679186,-0.187784
2.5861,0.812913,0.0788935
2.59117,0.543685,0.046214
2.58951,0.813986,-0.173965
2.58695,0.412048,-0.152557
2.58462,0.675653,0.15558
2.58551,0.542496,0.10763
2.59974,0.545483,-0.139214
2.59267,0.81498,-0.110724
2.59217,0.677626,-0.0623452
2.59344,0.805285,-0.0474007
2.58452,0.532878,-0.076799
2.59258,0.403671,-0.0305462
2.59882,0.669682,-0.417524
2.59212,0.534445,-0.336884
2.58997,0.804208,0.0157619
2.5957,0.668878,-0.288734
2.59728,0.404402,-0.245372
2.59452,0.668574,0.0623452
2.58863,0.403056,0.0304996
2.59276,0.668122,-0.187226
2.59305,0.534637,0.046214
2.59615,0.806126,-0.17422
2.59232,0.40363,-0.152789
2.59083,0.667624,0.155813
2.58739,0.533468,0.10763
2.59628,0.669028,-0.12489
2.59381,0.534793,-0.138795
2.59932,0.807111,-0.110887
2.59839,0.669572,-0.0624383
2.59241,0.795054,-0.0473309
2.58636,0.523852,-0.076799
2.59366,0.658707,0
2.58607,0.393415,-0.0304531
2.60175,0.526969,-0.337894
2.58894,0.793989,0.0157387
2.59802,0.659813,-0.288734
2.59296,0.658528,0.0622522
2.59002,0.394017,0.0304996
2.59121,0.658084,-0.186947
2.59491,0.525582,0.046214
2.59513,0.795888,-0.173965
2.58977,0.393977,-0.152557
2.5854,0.656609,0.155347
2.58923,0.524433,0.10763
2.59066,0.794516,-0.110398
2.59134,0.78484,-0.0472611
2.5921,0.5156,-0.0769154
2.58819,0.647706,0
2.59138,0.384973,-0.0304996
2.59193,0.648643,-0.415679
2.5919,0.515561,-0.336379
2.59259,0.648808,-0.287877
2.5961,0.385673,-0.245001
2.59524,0.649473,0.0622522
2.59349,0.649035,-0.186947
2.5928,0.51574,0.0461442
2.59407,0.785667,-0.173709
2.59112,0.384934,-0.152557
2.58768,0.64758,0.155347
2.59105,0.515391,0.10763
2.58959,0.784309,-0.110235
2.59912,0.650443,-0.0623452
2.5864,0.773499,-0.0471215
2.58211,0.50425,-0.0765663
2.59043,0.638668,0
2.59271,0.375925,-0.0304996
2.59034,0.638646,-0.415064
2.59758,0.507271,-0.336884
2.59442,0.775896,0.0157387
2.59494,0.506755,-0.0153667
2.59098,0.638803,-0.287448
2.59749,0.64041,0.0622522
2.58875,0.375351,0.0304531
2.59574,0.639978,-0.186947
2.5857,0.773289,0.0785444
2.59066,0.50592,0.0460744
2.58915,0.77432,-0.173197
2.5885,0.375315,-0.152324
2.58605,0.637588,0.155115
2.59283,0.506344,0.10763
2.60314,0.641802,-0.12489
2.59997,0.777556,-0.110561
2.59749,0.64041,-0.0622522
2.58909,0.764465,-0.0471215
2.58385,0.495233,-0.0765663
2.59264,0.629622,0
2.59401,0.366872,-0.0304996
2.59639,0.630532,-0.415679
2.59154,0.496706,-0.335873
2.58944,0.764569,0.0156922
2.59669,0.497694,-0.0153667
2.59706,0.630693,-0.287877
2.58806,0.628507,0.061973
2.59005,0.366312,0.0304531
2.60184,0.631854,-0.187226
2.58839,0.764258,0.0785444
2.59241,0.496873,0.0460744
2.59184,0.765277,-0.173197
2.58584,0.365717,-0.152092
2.58438,0.627614,0.154882
2.58673,0.495785,0.107304
2.60148,0.631768,-0.124703
2.59883,0.767343,-0.110398
2.59971,0.631339,-0.0622522
2.59174,0.755424,-0.0471215
2.59093,0.619639,0
2.58735,0.356724,-0.0304065
2.59473,0.620547,-0.415064
2.59326,0.487659,-0.335873
2.59209,0.755527,0.0156922
2.59924,0.621625,-0.287877
2.59412,0.620401,0.0620661
2.58735,0.356724,0.0304065
2.59239,0.619986,-0.186389
2.59413,0.487823,0.0460744
2.59449,0.756227,-0.173197
2.57919,0.3556,-0.151627
2.58655,0.618591,0.154882
2.59237,0.487493,0.107467
2.59097,0.487229,-0.138167
2.59766,0.75715,-0.110235
2.59023,0.619471,-0.061973
2.59026,0.74617,-0.0470517
2.57922,0.476633,-0.0763336
2.58898,0.610576,0
2.58846,0.348592,-0.0304065
2.59667,0.612391,-0.415064
2.59478,0.479507,-0.335873
2.59061,0.746271,0.0156689
2.60118,0.613455,-0.287877
2.59217,0.611329,0.061973
2.60209,0.613668,-0.186947
2.5992,0.480325,-0.215779
2.59565,0.479669,0.0460744
2.59686,0.74807,-0.173197
2.58821,0.348559,-0.152092
2.5846,0.609543,0.15465
2.58603,0.477892,0.107142
2.60173,0.613584,-0.124517
2.59249,0.479084,-0.138167
2.59619,0.747877,-0.110073
2.59606,0.612247,-0.0620661
2.59682,0.737764,-0.0471215
2.58095,0.467177,-0.0763336
2.5873,0.60018,0
2.58178,0.338065,-0.0303134
2.58735,0.600191,-0.413219
2.59261,0.469288,-0.335368
2.58563,0.734585,0.0156224
2.59954,0.603019,-0.287448
2.59439,0.601824,0.061973
2.60043,0.603226,-0.186668
2.58952,0.468728,0.0459347
2.58806,0.735275,-0.17243
2.58551,0.338553,-0.151859
2.5907,0.600969,0.154882
2.5917,0.469123,0.107304
2.59423,0.46958,-0.138167
2.59122,0.736173,-0.109747
2.59829,0.602728,-0.0620661
2.57863,0.457467,-0.0762172
2.59328,0.592035,0
2.57898,0.328546,-0.0302668
2.58943,0.591156,-0.413219
2.59814,0.460929,-0.335873
2.58433,0.724476,0.0155992
2.59543,0.460448,-0.0153202
2.59387,0.592171,-0.286592
2.59474,0.59237,-0.18611
2.59864,0.461018,-0.215453
2.58713,0.725261,0.0781954
2.59114,0.459687,0.0459347
2.59061,0.726237,-0.17243
2.57875,0.328517,-0.151394
2.58111,0.589257,0.154185
2.58939,0.459376,0.107142
2.59826,0.593173,-0.124145
2.59585,0.460522,-0.138167
2.59762,0.728203,-0.10991
2.59258,0.591875,-0.06188
2.58021,0.448463,-0.0762172
2.59533,0.58298,0
2.59202,0.321017,-0.0304065
2.59147,0.582114,-0.413219
2.59582,0.451178,-0.335368
2.5907,0.716517,0.0156224
2.59702,0.451386,-0.0153202
2.59592,0.583114,-0.286592
2.59073,0.581946,0.0617869
2.59679,0.583309,-0.18611
2.58579,0.71516,0.078079
2.59273,0.45064,0.0459347
2.58928,0.716126,-0.172174
2.57989,0.319514,-0.151394
2.58315,0.580244,0.154185
2.5831,0.448966,0.106816
2.59642,0.583224,-0.123959
2.59744,0.451459,-0.138167
2.604,0.720197,-0.110073
2.59853,0.583699,-0.061973
2.59271,0.707826,-0.0469121
2.58553,0.571779,0
2.59307,0.312419,-0.0304065
2.59725,0.57437,-0.413834
2.58534,0.705815,0.0155759
2.59784,0.574501,-0.286592
2.59264,0.573351,0.0617869
2.59092,0.572971,-0.185552
2.58815,0.706581,0.078079
2.59027,0.441367,0.0458649
2.59934,0.709638,-0.172685
2.58886,0.311911,-0.151859
2.58116,0.570812,0.153952
2.58711,0.440829,-0.137539
2.59866,0.709452,-0.109747
2.60045,0.575078,-0.061973
2.58761,0.562299,0
2.58228,0.301522,-0.0302668
2.58775,0.562329,-0.41199
2.58791,0.696335,0.0155759
2.59605,0.564132,-0.286163
2.59082,0.562996,0.0616939
2.593,0.563471,-0.185552
2.59546,0.43247,-0.214802
2.583,0.695013,0.0778463
2.59187,0.431871,0.0458649
2.59422,0.698032,-0.172174
2.58999,0.302421,-0.151859
2.58323,0.561348,0.153952
2.59652,0.564235,-0.123773
2.59265,0.432001,-0.137748
2.58967,0.696808,-0.109258
2.59863,0.564694,-0.06188
2.59384,0.688229,-0.0468423
2.58082,0.420775,-0.0761008
2.58565,0.552427,0
2.58332,0.292505,-0.0302668
2.58583,0.552467,-0.411375
2.59032,0.687296,0.0155759
2.598,0.555066,-0.286163
2.59668,0.554784,0.0617869
2.59496,0.554416,-0.185552
2.59302,0.422765,-0.214477
2.58941,0.422176,0.0457951
2.58518,0.552327,0.153952
2.58822,0.686738,-0.109096
2.59668,0.554784,-0.0617869
2.5845,0.676585,-0.0466328
2.57825,0.411585,-0.0759845
2.58355,0.543027,0
2.5803,0.283501,-0.0302203
2.59152,0.544702,-0.41199
2.58872,0.67769,0.0155527
2.59204,0.544812,-0.285307
2.59459,0.545348,0.0616939
2.59288,0.544987,-0.185273
2.59441,0.414165,-0.214477
2.5908,0.413588,0.0457951
2.59119,0.678336,-0.171662
2.57918,0.542109,0.153487
2.59639,0.545726,-0.123587
2.59158,0.413714,-0.137539
2.59048,0.678152,-0.109096
2.59459,0.545348,-0.0616939
2.58696,0.667108,-0.0466328
2.58944,0.534362,0
2.58963,0.534401,-0.411375
2.59119,0.668197,0.0155527
2.59013,0.534504,-0.284878
2.58091,0.532601,0.0613216
2.59486,0.53548,-0.185273
2.58239,0.665928,0.0776135
2.58834,0.403473,0.0457253
2.59752,0.66983,-0.171918
2.58115,0.532651,0.153487
2.59446,0.535398,-0.123401
2.59308,0.404211,-0.137539
2.59295,0.668652,-0.109096
2.59657,0.535834,-0.0616939
2.58916,0.658526,-0.0466328
2.58728,0.524977,0
2.59138,0.525811,-0.411375
2.58563,0.657629,0.0155062
2.59188,0.525912,-0.284878
2.5888,0.525285,-0.184715
2.58458,0.657362,0.0776135
2.58967,0.394888,0.0457253
2.59199,0.659246,-0.171406
2.5829,0.524089,0.153487
2.58839,0.525203,-0.123028
2.59441,0.395611,-0.137539
2.59128,0.659065,-0.108933
2.59833,0.527221,-0.0616939
2.59144,0.649483,-0.0466328
2.58125,0.514379,0
2.59955,0.651516,0.0155759
2.5898,0.516084,-0.28445
2.59231,0.516584,0.0615077
2.59061,0.516245,-0.184715
2.59072,0.385799,-0.213826
2.5904,0.649223,-0.17115
2.5808,0.514289,0.153254
2.59804,0.517726,-0.123401
2.58787,0.385375,-0.13712
2.58581,0.648072,-0.108607
2.58992,0.639023,-0.046563
2.57985,0.374521,-0.0758681
2.58704,0.505682,0
2.59027,0.63911,0.0155062
2.59558,0.507352,-0.284878
2.59419,0.50708,0.0615077
2.58857,0.505982,-0.184436
2.59212,0.376301,-0.213826
2.59243,0.376346,0.0457253
2.58889,0.638768,-0.170895
2.58267,0.504827,0.153254
2.59322,0.376462,-0.13733
2.58817,0.638591,-0.108607
2.59812,0.507847,-0.0616008
2.58437,0.62809,-0.0464234
2.57719,0.364953,-0.0757518
2.58093,0.495142,0
2.5886,0.62912,0.0154829
2.59408,0.367345,-0.0152272
2.58952,0.49679,-0.284021
2.59202,0.497268,0.0614147
2.59032,0.496943,-0.184436
2.59341,0.367251,-0.213826
2.58723,0.628785,-0.170639
2.59776,0.49837,-0.123214
2.59056,0.366848,-0.13712
2.59038,0.629553,-0.108607
2.59594,0.498022,-0.0615077
2.58244,0.619035,-0.0463536
2.58641,0.487772,0
2.58668,0.620052,0.0154597
2.59498,0.489389,-0.28445
2.58964,0.488381,0.0613216
2.59187,0.488802,-0.184436
2.58919,0.620654,-0.170639
2.59146,0.488725,-0.122842
2.58846,0.62048,-0.108444
2.59357,0.489122,-0.0614147
2.5848,0.609114,-0.0463536
2.57967,0.346951,-0.0757518
2.58039,0.476384,0
2.58904,0.610114,0.0154597
2.58902,0.477977,-0.283593
2.59149,0.478433,0.0613216
2.58588,0.477397,-0.183878
2.59155,0.610707,-0.170639
2.59725,0.479495,-0.123028
2.5891,0.34822,-0.136911
2.59472,0.611452,-0.108607
2.59543,0.479159,-0.0614147
2.58691,0.60009,-0.0463536
2.57811,0.466663,0
2.59505,0.601979,0.0154829
2.5985,0.470355,-0.28445
2.59315,0.469386,0.0613216
2.58753,0.46837,-0.183878
2.59367,0.601658,-0.170639
2.59104,0.469005,-0.122656
2.59426,0.3397,-0.13712
2.59294,0.60149,-0.108444
2.58119,0.589275,-0.046214
2.57972,0.457661,0
2.58544,0.590245,0.0154132
2.59229,0.459891,-0.283593
2.59477,0.460331,0.0613216
2.58129,0.45794,-0.18332
2.58797,0.590824,-0.170127
2.59147,0.330137,-0.136911
2.58723,0.590655,-0.108119
2.58303,0.581162,-0.046214
2.58305,0.32082,-0.0757518
2.58508,0.45024,0
2.58728,0.582119,0.0154132
2.58197,0.449697,-0.282308
2.59226,0.45149,0.0612286
2.58272,0.449827,-0.18332
2.58592,0.581813,-0.169871
2.59803,0.452494,-0.122842
2.5925,0.321993,-0.136911
2.58518,0.581646,-0.107956
2.5962,0.452176,-0.0613216
2.58504,0.572143,-0.046214
2.57622,0.310844,-0.075519
2.57875,0.439869,0
2.5932,0.573949,0.0154364
2.58123,0.31145,-0.015111
2.59136,0.44202,-0.283165
2.58988,0.441767,0.0611355
2.58427,0.44081,-0.18332
2.58043,0.571124,0.0769154
2.58793,0.572784,-0.169871
2.59172,0.44208,-0.12247
2.58964,0.312464,-0.136702
2.59109,0.573483,-0.108119
2.58321,0.561814,-0.0461442
2.59529,0.56444,0.0154364
2.59689,0.433173,-0.283593
2.58754,0.431613,0.0610425
2.58251,0.561662,0.0769154
2.58611,0.562446,-0.169615
2.59726,0.433234,-0.122656
2.59077,0.30297,-0.136702
2.59708,0.564831,-0.108281
2.59543,0.432929,-0.0612286
2.58897,0.554082,-0.046214
2.57832,0.292852,-0.075519
2.58932,0.554157,0.0153899
2.59439,0.423918,-0.283165
2.5929,0.423675,0.0611355
2.58335,0.422114,-0.183041
2.58045,0.552258,0.076799
2.59187,0.554703,-0.169871
2.59474,0.423975,-0.12247
2.59176,0.294377,-0.136702
2.58331,0.552871,-0.10763
2.58306,0.543394,-0.0460744
2.57536,0.283412,-0.0754027
2.58732,0.544291,0.0153667
2.59585,0.414858,-0.283165
2.59042,0.41399,0.0610425
2.58087,0.412463,-0.182762
2.58236,0.543247,0.076799
2.58598,0.544008,-0.16936
2.5962,0.414915,-0.12247
2.58522,0.543849,-0.10763
2.58112,0.533115,-0.0460045
2.57638,0.273971,-0.0754027
2.58471,0.403369,0
2.58538,0.533996,0.0153435
2.58236,0.403002,-0.182762
2.58042,0.53297,0.0766826
2.58404,0.533719,-0.169104
2.59376,0.404781,-0.122284
2.5872,0.534371,-0.10763
2.58208,0.394191,0
2.58714,0.525419,0.0153435
2.58534,0.394688,0.0608564
2.58368,0.394436,-0.182762
2.58217,0.52441,0.0766826
2.58971,0.525941,-0.16936
2.58719,0.394971,-0.121912
2.58896,0.525788,-0.10763
2.58469,0.515534,-0.0460045
2.57949,0.384588,0
2.5968,0.517951,0.0153899
2.57715,0.384239,-0.182204
2.58007,0.514613,0.0765663
2.58762,0.516119,-0.169104
2.58855,0.385939,-0.121912
2.59078,0.516749,-0.10763
2.59048,0.506824,-0.0460744
2.57512,0.246595,-0.0752863
2.59476,0.50766,0.0153667
2.58193,0.505151,0.0765663
2.58949,0.506629,-0.169104
2.58995,0.376447,-0.121912
2.58481,0.505713,-0.107304
2.58831,0.497026,-0.0460045
2.58393,0.238341,-0.075519
2.57821,0.365558,0
2.58473,0.496339,0.015297
2.57983,0.365788,-0.182204
2.57975,0.495383,0.0764499
2.5834,0.496084,-0.168592
2.5952,0.367967,-0.122098
2.58263,0.495936,-0.107142
2.57551,0.356008,0
2.59431,0.488794,0.0153435
2.57714,0.356233,-0.181925
2.58147,0.486374,0.0764499
2.5812,0.486323,-0.168336
2.59251,0.358358,-0.121912
2.58435,0.486917,-0.107142
2.59462,0.358649,-0.0609494
2.57975,0.477664,-0.0457951
2.5919,0.479913,0.0153202
2.57825,0.348136,-0.181925
2.57905,0.477534,0.0763336
2.58664,0.478939,-0.168592
2.58967,0.349677,-0.121725
2.5898,0.479524,-0.107304
2.5814,0.468655,-0.0457951
2.58962,0.470148,0.015297
2.57945,0.339133,-0.181925
2.58464,0.469242,0.0764499
2.58829,0.469906,-0.168592
2.59087,0.340635,-0.121725
2.58359,0.469052,-0.106979
2.58704,0.459891,-0.0458649
2.59527,0.461354,0.0153202
2.58067,0.329677,-0.181925
2.5824,0.459067,0.0763336
2.58607,0.459718,-0.168336
2.58814,0.330631,-0.121539
2.58136,0.458881,-0.106816
2.58461,0.450622,-0.0457951
2.5889,0.45137,0.0152737
2.57997,0.449813,0.0762172
2.58365,0.450454,-0.16808
2.59319,0.322539,-0.121725
2.57828,0.440252,-0.0456555
2.58652,0.441658,0.0152505
2.58153,0.440805,0.0762172
2.5852,0.441433,-0.16808
2.59033,0.313006,-0.121539
2.58048,0.440627,-0.106653
2.57988,0.430798,-0.0456555
2.58812,0.432174,0.0152505
2.57918,0.430682,0.0761008
2.59074,0.432612,-0.168336
2.57955,0.302115,-0.120981
2.58208,0.431165,-0.106653
2.5813,0.42224,-0.0456555
2.59349,0.424234,0.0152737
2.58849,0.423416,0.0763336
2.58822,0.423373,-0.16808
2.58451,0.29401,-0.121167
2.58744,0.423245,-0.106816
2.59059,0.294701,-0.0606703
2.57888,0.412146,-0.0455857
2.59107,0.414095,0.0152505
2.58581,0.413254,-0.167825
2.5816,0.284099,-0.120981
2.58108,0.412497,-0.10649
2.59165,0.285205,-0.0606703
2.5803,0.403143,-0.0455857
2.58855,0.404432,0.0152272
2.5786,0.274664,-0.120795
2.57855,0.40287,-0.106327
2.58162,0.394583,-0.0455857
2.58593,0.395241,0.015204
2.58462,0.395042,-0.167569
2.58383,0.39492,-0.10649
2.58955,0.267148,-0.0605772
2.58729,0.386212,0.015204
2.58204,0.385427,-0.167313
2.58124,0.385308,-0.106327
2.57853,0.256917,-0.0602981
2.58029,0.376424,-0.0455159
2.58856,0.37763,0.015204
2.5833,0.376863,-0.167313
2.58645,0.377324,-0.10649
2.57763,0.366851,-0.0454461
2.5859,0.368028,0.0151807
2.5846,0.367843,-0.167313
2.57588,0.366603,-0.106002
2.58682,0.358951,-0.0455857
2.5832,0.35845,0.0151575
2.58191,0.358271,-0.167057
2.58019,0.348398,-0.0454461
2.5845,0.34898,0.0151575
2.57925,0.348272,-0.166801
2.5824,0.348697,-0.106165
2.57742,0.338867,-0.0453763
2.58045,0.339265,-0.166801
2.58757,0.340201,-0.106327
2.58647,0.331334,-0.0455159
2.58156,0.330706,-0.166801
2.58472,0.33111,-0.106165
2.58364,0.32181,-0.0454461
2.5827,0.321693,-0.166801
2.57792,0.321098,-0.105839
2.5848,0.312337,-0.0454461
2.58305,0.312126,-0.106002
2.57788,0.302831,-0.0453064
2.58804,0.304025,-0.106165
2.57892,0.293831,-0.0453064
2.58909,0.29499,-0.106165
2.57993,0.284827,-0.0453064
2.58613,0.285511,-0.106002
2.58314,0.276057,-0.105839
2.59203,0.267862,-0.106165
