2.69938,0.696599,-0.0324553
2.70567,0.688158,-0.0325019
2.70794,0.679182,-0.0325019
2.69864,0.666848,-0.0323622
2.71364,0.670555,-0.162789
2.70495,0.657897,-0.0324088
2.70712,0.648923,-0.0324088
2.70661,0.6488,-0.162092
2.70937,0.639469,-0.0324088
2.70158,0.637632,0.0323156
2.71274,0.640266,-0.162324
2.7117,0.629535,-0.0324088
2.7039,0.627726,0.0323156
2.71118,0.629416,-0.162092
2.70998,0.619174,-0.0323622
2.69828,0.616502,0.0322225
2.70947,0.619058,-0.161859
2.70801,0.60978,-0.0323156
2.7002,0.608022,0.0322225
2.7153,0.611421,-0.162092
2.70621,0.599457,0.0322691
2.71352,0.601075,-0.161859
2.70839,0.589535,0.0322691
2.7118,0.590277,-0.161626
2.71435,0.580914,-0.0323156
2.70652,0.57924,0.0322225
2.71775,0.581642,-0.161859
2.71244,0.570613,-0.0322691
2.70853,0.569789,0.0322225
2.69043,0.695293,-0.0808717
2.71432,0.561615,-0.0322691
2.71432,0.561615,0.0322691
2.71636,0.551662,-0.0322691
2.69793,0.686692,-0.0161804
2.71244,0.550866,0.0322225
2.69134,0.67552,-0.0807553
2.71033,0.541086,-0.032176
2.69244,0.675795,-0.0161339
2.72221,0.543459,-0.259128
2.70641,0.540303,0.0321294
2.72159,0.543334,-0.161626
2.70816,0.679742,-0.146331
2.6938,0.66565,-0.0807553
2.71229,0.531148,-0.032176
2.6949,0.665921,-0.0161339
2.72419,0.533477,-0.259128
2.70444,0.529611,0.0320828
2.70676,0.668853,-0.146122
2.69611,0.656244,-0.0807553
2.7102,0.520922,-0.0321294
2.70498,0.658403,-0.0161804
2.72603,0.523965,-0.259128
2.70235,0.519413,0.0320363
2.71296,0.660345,-0.146331
2.71192,0.511933,-0.0321294
2.70326,0.648496,-0.0161571
2.70799,0.511191,0.0320828
2.699,0.647476,0.0484479
2.71125,0.650414,-0.146122
2.69662,0.636958,-0.080639
2.7055,0.639056,-0.0161571
2.70975,0.501734,0.0320828
2.72106,0.503828,-0.161161
2.7135,0.640945,-0.146122
2.70382,0.628702,-0.0161339
2.72737,0.495155,-0.258756
2.71149,0.492273,0.0320828
2.70346,0.628617,0.0484479
2.71572,0.63147,-0.146122
2.697,0.617696,-0.0805226
2.70589,0.619733,-0.0161339
2.70523,0.481876,0.0319897
2.69773,0.617864,0.0483083
2.72443,0.485296,-0.161161
2.71391,0.62157,-0.145913
2.69914,0.608277,-0.0805226
2.71478,0.473805,-0.0320828
2.7069,0.47243,0.0319897
2.7261,0.475782,-0.161161
2.71606,0.612092,-0.145913
2.69744,0.597516,-0.0804062
2.7165,0.463852,-0.0320828
2.71255,0.463179,0.0320363
2.70598,0.599408,0.0483781
2.71049,0.600406,-0.145494
2.70722,0.590271,-0.080639
2.72196,0.455501,-0.0321294
2.70051,0.588807,-0.0160641
2.71407,0.454181,0.0320363
2.71187,0.591283,0.0484479
2.72542,0.45608,-0.160929
2.69487,0.727132,-0.0649507
2.69754,0.578302,-0.0802899
2.72354,0.445996,-0.0321294
2.72765,0.44667,-0.258013
2.7117,0.444057,0.0319897
2.71702,0.582479,-0.226844
2.71,0.580974,0.0483781
2.727,0.446563,-0.160929
2.69739,0.71772,-0.0649507
2.72113,0.435854,-0.0320828
2.71238,0.571589,-0.0161106
2.7292,0.437147,-0.258013
2.70928,0.433957,0.0319431
2.71201,0.571511,0.0483781
2.72854,0.437041,-0.160929
2.69988,0.708301,-0.0649507
2.72263,0.426354,-0.0320828
2.71078,0.424497,0.0319431
2.70041,0.55923,0.112352
2.70345,0.550023,-0.0802899
2.68999,0.685669,0
2.72015,0.416242,-0.0320363
2.70829,0.414427,0.0318966
2.71202,0.551767,0.0483083
2.70235,0.5498,0.112352
2.70643,0.689862,-0.130101
2.70864,0.690423,-0.0650437
2.70535,0.540583,-0.0802899
2.71763,0.406154,-0.0319897
2.71763,0.406154,0.0319897
2.70033,0.539581,0.112189
2.70495,0.679437,-0.129915
2.70715,0.67999,-0.0649507
2.7033,0.530366,-0.0801735
2.69859,0.667834,0
2.71903,0.396664,-0.0319897
2.71225,0.532122,-0.0160641
2.73109,0.398423,-0.257641
2.71903,0.396664,0.0319897
2.69436,0.528612,0.111864
2.70343,0.66903,-0.129729
2.70951,0.670535,-0.0649507
2.70513,0.520927,-0.0801735
2.69313,0.656516,0
2.72436,0.387735,-0.0320363
2.73247,0.388888,-0.257641
2.71248,0.386044,0.0318966
2.71372,0.522581,0.0482385
2.69619,0.519204,0.111864
2.70574,0.65959,-0.129729
2.72218,0.52421,-0.145285
2.70301,0.510738,-0.0800572
2.69152,0.646177,0
2.71381,0.376572,-0.0318966
2.71381,0.376572,0.0318966
2.69798,0.509789,0.111864
2.70415,0.649208,-0.129543
2.71023,0.65067,-0.0648576
2.71657,0.503485,-0.0804062
2.69376,0.636777,0
2.71907,0.367632,-0.0319431
2.71511,0.367096,0.0318966
2.71337,0.502893,0.0481686
2.69582,0.499639,0.111701
2.71028,0.640683,-0.129729
2.71249,0.641204,-0.0648576
2.71822,0.494476,-0.0804062
2.69196,0.626935,0
2.72028,0.358615,-0.0319431
2.71631,0.358093,0.0318966
2.7317,0.360121,-0.160464
2.70139,0.491414,0.111864
2.7085,0.630788,-0.129543
2.71071,0.631301,-0.0647646
2.7041,0.482649,-0.0799408
2.72939,0.350612,-0.0320363
2.71701,0.484954,-0.0160409
2.72145,0.349593,0.0319431
2.71665,0.484888,0.0481686
2.73288,0.351061,-0.160464
2.6989,0.619123,-0.128984
2.71278,0.622309,-0.0647646
2.70971,0.473895,-0.0800572
2.72662,0.340586,-0.0319897
2.71869,0.475466,-0.0160409
2.69934,0.609313,0.0643924
2.71075,0.338603,0.0318034
2.70517,0.610629,-0.193923
2.71832,0.475402,0.0481686
2.73408,0.341518,-0.160464
2.70104,0.609697,-0.128984
2.71104,0.611954,-0.0646715
2.71143,0.46396,-0.0800572
2.72785,0.33059,-0.0319897
2.72041,0.465498,-0.0160409
2.70546,0.600281,0.0644854
2.71197,0.328665,0.0318034
2.70349,0.599845,-0.193644
2.7161,0.46476,0.0480988
2.71106,0.601524,-0.129357
2.71303,0.454493,-0.0800572
2.70045,0.589288,0
2.72105,0.320132,-0.0318966
2.70363,0.589981,0.0643924
2.72105,0.320132,0.0318966
2.71771,0.455277,0.0480988
2.70405,0.452988,0.111701
2.71314,0.592057,-0.129357
2.71535,0.592539,-0.0646715
2.68973,0.716688,-0.0485875
2.71847,0.446141,-0.0801735
2.69848,0.579489,0
2.71957,0.446322,-0.0160176
2.70557,0.581012,0.0643924
2.72209,0.311106,0.0318966
2.70751,0.581429,-0.193644
2.7192,0.446261,0.0480988
2.70159,0.443371,0.111538
2.71118,0.582217,-0.12917
2.71339,0.582691,-0.0645785
2.69234,0.706825,-0.0485875
2.71614,0.435541,-0.0800572
2.70059,0.569596,0
2.72719,0.301567,-0.0319431
2.71329,0.435085,-0.0159711
2.70377,0.570267,0.0642993
2.72719,0.301567,0.0319431
2.71353,0.572325,-0.193923
2.70939,0.571452,-0.128984
2.71551,0.572742,-0.0645785
2.69479,0.697422,-0.0485875
2.71764,0.426057,-0.0800572
2.72823,0.292045,-0.0319431
2.7227,0.42685,-0.0160176
2.70574,0.560825,0.0642993
2.71232,0.290342,0.0317569
2.7116,0.562039,-0.193644
2.72233,0.426792,0.0480988
2.70746,0.56118,-0.128798
2.71357,0.562448,-0.0644854
2.69333,0.687023,-0.0485177
2.71911,0.416569,-0.0800572
2.71729,0.281285,-0.0318034
2.72022,0.416738,-0.0159944
2.72127,0.281697,0.03185
2.70964,0.551775,-0.193365
2.71985,0.416682,0.048029
2.70616,0.414584,0.111538
2.70548,0.550929,-0.128612
2.7116,0.552175,-0.0643924
2.69959,0.678592,-0.0485875
2.72055,0.407074,-0.0800572
2.72224,0.272195,-0.03185
2.72165,0.407239,-0.0159944
2.71351,0.542705,0.0643924
2.72622,0.272593,0.0318966
2.71546,0.543095,-0.193644
2.71733,0.406592,0.0479592
2.70759,0.405134,0.111538
2.71131,0.542264,-0.128798
2.71743,0.54349,-0.0644854
2.72591,0.398155,-0.0801735
2.72715,0.263077,-0.0318966
2.71514,0.396582,-0.0159479
2.72317,0.262693,0.03185
2.72126,0.534384,-0.193923
2.72269,0.397685,0.048029
2.69586,0.529396,0.159999
2.70503,0.395105,0.111375
2.7171,0.533569,-0.128984
2.71539,0.533232,-0.0643924
2.69627,0.658774,-0.0484479
2.71527,0.387891,-0.0798244
2.70208,0.521805,0
2.73195,0.254878,-0.0319431
2.72034,0.388614,-0.0159711
2.74014,0.255641,-0.256897
2.71313,0.523939,0.0642993
2.72399,0.254135,0.03185
2.719,0.525073,-0.193644
2.71997,0.388561,0.0479592
2.69359,0.520165,0.159766
2.71877,0.525028,-0.128984
2.71705,0.524697,-0.0643924
2.70655,0.650285,-0.0485875
2.7207,0.378013,-0.0799408
2.70013,0.510683,0
2.72893,0.24403,-0.0318966
2.69136,0.646636,0.0160874
2.72577,0.378717,-0.0159944
2.71512,0.513518,0.0642993
2.71697,0.242962,0.0317569
2.71316,0.513147,-0.193086
2.72144,0.378115,0.0479592
2.7053,0.649985,-0.178314
2.69556,0.509819,0.159766
2.70376,0.375659,0.111212
2.71291,0.5131,-0.128612
2.71512,0.513518,-0.0642993
2.70102,0.638993,-0.0484479
2.72201,0.368514,-0.0799408
2.7019,0.501256,0
2.72578,0.234161,-0.03185
2.6936,0.637238,0.0160874
2.72311,0.368664,-0.0159711
2.71689,0.504038,0.0642993
2.72179,0.233819,0.0318034
2.71493,0.503674,-0.193086
2.72274,0.368614,0.0479592
2.70367,0.63962,-0.178058
2.69733,0.500408,0.159766
2.70506,0.36622,0.111212
2.71469,0.503628,-0.128612
2.6953,0.63764,-0.112841
2.71689,0.504038,-0.0642993
2.70302,0.630503,-0.0484479
2.72711,0.360484,-0.0800572
2.70346,0.492764,0
2.73447,0.226256,-0.0319431
2.72426,0.360106,-0.0159711
2.72251,0.225266,0.0318034
2.7165,0.495141,-0.193086
2.71992,0.359533,0.0478894
2.70178,0.630215,-0.177802
2.69496,0.491214,0.159533
2.7062,0.357719,0.111212
2.72019,0.495813,-0.128798
2.71846,0.495499,-0.0642993
2.69751,0.618804,-0.0483083
2.72842,0.350487,-0.0800572
2.70525,0.482853,0
2.73129,0.215917,-0.0318966
2.69398,0.617994,0.0160641
2.71366,0.348591,-0.0159014
2.72492,0.486365,-0.298158
2.72332,0.215287,0.0318034
2.72223,0.485883,-0.193365
2.71329,0.348543,0.0477498
2.71145,0.348308,0.111375
2.72198,0.48584,-0.128798
2.69569,0.618386,-0.112678
2.71239,0.484127,-0.0641132
2.69955,0.609855,-0.0483083
2.71369,0.339451,-0.0795917
2.70683,0.473878,0
2.73199,0.206858,-0.0318966
2.71877,0.340086,-0.0159246
2.73044,0.478011,-0.298587
2.74021,0.20748,-0.256526
2.71398,0.475129,0.0641132
2.72402,0.206254,0.0318034
2.72237,0.340536,0.0478894
2.71001,0.612217,-0.178058
2.69832,0.472388,0.159533
2.71571,0.475432,-0.128426
2.69772,0.609442,-0.112678
2.71398,0.475129,-0.0641132
2.69786,0.59909,-0.0482385
2.72286,0.330467,-0.0798244
2.70461,0.463279,0
2.73273,0.196844,-0.0318966
2.71999,0.330119,-0.0159246
2.74095,0.197436,-0.256526
2.71176,0.464504,0.0640202
2.72077,0.195982,0.0317569
2.72555,0.466867,-0.193365
2.7236,0.330556,0.0478894
2.70834,0.601416,-0.177802
2.70003,0.462496,0.159533
2.72137,0.466151,-0.128612
2.69994,0.599551,-0.112678
2.7157,0.465179,-0.0641132
2.69603,0.588815,-0.0481686
2.72002,0.320492,-0.0797081
2.71015,0.454497,0
2.72542,0.186756,-0.0318034
2.72113,0.320622,-0.0159246
2.71731,0.455696,0.0641132
2.72323,0.456689,-0.193086
2.72076,0.320579,0.0478196
2.71042,0.591958,-0.177802
2.70163,0.453067,0.159533
2.72125,0.456358,-0.0642063
2.70188,0.580712,-0.0482385
2.72504,0.311925,-0.0798244
2.70375,0.44421,0
2.73401,0.178238,-0.0318966
2.73013,0.312507,-0.0159711
2.72745,0.448103,-0.29773
2.71486,0.446035,0.0640202
2.72603,0.177718,0.0318034
2.72473,0.447657,-0.193086
2.72181,0.311555,0.0478196
2.71237,0.582967,-0.177802
2.70312,0.444106,0.159533
2.70806,0.309981,0.111049
2.72448,0.447616,-0.128612
2.70396,0.581159,-0.112678
2.72275,0.447332,-0.0642063
2.71181,0.572457,-0.0483781
2.73014,0.302375,-0.0799408
2.70931,0.434931,0
2.73465,0.168216,-0.0318966
2.72728,0.302057,-0.0159479
2.71253,0.435447,0.0639271
2.72267,0.167479,0.0317569
2.72241,0.437034,-0.192807
2.72691,0.302016,0.0478894
2.71058,0.572197,-0.177546
2.74216,0.168678,-0.159999
2.71315,0.300492,0.111212
2.72042,0.436715,-0.0641132
2.70205,0.560552,-0.0481686
2.72323,0.291992,-0.0797081
2.70686,0.424853,0
2.72036,0.291685,-0.0159014
2.72665,0.427959,-0.297301
2.71403,0.425978,0.0639271
2.73122,0.158439,0.03185
2.72392,0.42753,-0.192807
2.69349,0.558776,0.0800572
2.72397,0.292071,0.0478196
2.71256,0.562733,-0.177546
2.72367,0.42749,-0.128426
2.71196,0.562609,-0.112841
2.71403,0.425978,-0.0639271
2.70781,0.552387,-0.0482385
2.72418,0.282959,-0.0797081
2.70826,0.415873,0
2.73972,0.149817,-0.0319431
2.69642,0.550064,0.0159944
2.72529,0.283074,-0.0159246
2.72806,0.418914,-0.297301
2.71938,0.417582,0.0640202
2.72774,0.149162,0.0318034
2.72532,0.418494,-0.192807
2.7289,0.283449,0.0478894
2.71441,0.553734,-0.177546
2.70762,0.415776,0.159533
2.70989,0.552813,-0.112678
2.71938,0.417582,-0.0640202
2.70982,0.542458,-0.0482385
2.72918,0.273371,-0.0798244
2.71372,0.406536,0
2.73626,0.13957,-0.0318966
2.73029,0.273482,-0.0159479
2.73351,0.409501,-0.29773
2.71694,0.407019,0.0639271
2.72427,0.138959,0.0317569
2.72684,0.408502,-0.192807
2.71642,0.543781,-0.177546
2.70518,0.405257,0.159301
2.72658,0.408464,-0.128426
2.7119,0.542876,-0.112678
2.71694,0.407019,-0.0639271
2.71169,0.532997,-0.0482385
2.7341,0.264228,-0.0799408
2.71512,0.397062,0
2.73673,0.130019,-0.0318966
2.72725,0.263565,-0.0159246
2.73492,0.399957,-0.29773
2.7223,0.398112,0.0640202
2.72874,0.129639,0.0318034
2.72825,0.398981,-0.192807
2.7229,0.263145,0.0477498
2.71439,0.533526,-0.17729
2.7131,0.262198,0.111049
2.71378,0.533407,-0.112678
2.7223,0.398112,-0.0640202
2.70568,0.522012,-0.0480988
2.73102,0.254311,-0.0798244
2.72045,0.388146,0
2.73317,0.120288,-0.03185
2.72815,0.254043,-0.0159246
2.71971,0.388041,0.0639271
2.73716,0.120464,0.0318966
2.7238,0.253638,0.0477498
2.71623,0.524047,-0.17729
2.714,0.252725,0.111049
2.72541,0.388854,-0.12824
2.71563,0.52393,-0.112678
2.72367,0.388606,-0.0640202
2.70731,0.51351,-0.0480988
2.72384,0.245014,-0.0795917
2.72166,0.379598,0
2.72454,0.38,-0.427977
2.72495,0.245113,-0.0159014
2.73357,0.38126,-0.297301
2.71696,0.378943,0.0638341
2.72954,0.111538,0.0318034
2.72688,0.380327,-0.192528
2.7206,0.244722,0.04768
2.71787,0.515512,-0.17729
2.70519,0.377301,0.159068
2.72267,0.379739,-0.128054
2.71333,0.514652,-0.112515
2.72488,0.380048,-0.0640202
2.70909,0.504056,-0.0480988
2.72867,0.235848,-0.0797081
2.71107,0.368479,0
2.7419,0.102457,-0.0319431
2.72579,0.235599,-0.0159014
2.72701,0.370644,-0.296445
2.7143,0.368917,0.063741
2.73391,0.102159,0.03185
2.72819,0.370805,-0.192528
2.70442,0.503188,0.0800572
2.72941,0.235912,0.0478196
2.72357,0.506751,-0.177546
2.74942,0.102738,-0.160231
2.70649,0.367855,0.159068
2.71511,0.505177,-0.112515
2.72619,0.370533,-0.0640202
2.70698,0.493406,-0.048029
2.72951,0.225846,-0.0797081
2.71637,0.359064,0
2.73826,0.0922729,-0.0318966
2.73502,0.36153,-0.429207
2.70735,0.493473,0.0159944
2.73062,0.225938,-0.0159246
2.7196,0.359491,0.0638341
2.72627,0.0918688,0.0317569
2.72953,0.360804,-0.192528
2.73025,0.225907,0.0478196
2.70782,0.357934,0.159068
2.72927,0.36077,-0.12824
2.71301,0.494506,-0.112352
2.7196,0.359491,-0.0638341
2.71656,0.48536,-0.0481686
2.73427,0.216632,-0.0798244
2.72158,0.35009,0
2.73457,0.0825926,-0.03185
2.73627,0.35198,-0.429207
2.73139,0.216404,-0.0159246
2.73748,0.352135,-0.297301
2.71687,0.349485,0.063741
2.73457,0.0825926,0.03185
2.73473,0.351782,-0.192807
2.73501,0.21669,0.0478894
2.71927,0.485845,-0.177034
2.71301,0.348988,0.159301
2.73052,0.35124,-0.12824
2.71472,0.485032,-0.112352
2.72877,0.351015,-0.0640202
2.71422,0.475661,-0.0480988
2.73099,0.207263,-0.0797081
2.72669,0.341562,0
2.73882,0.0736333,-0.0318966
2.74134,0.343397,-0.429822
2.70276,0.473654,0.0159479
2.72412,0.206742,-0.0158782
2.73074,0.342069,-0.296445
2.72198,0.340972,0.0638341
2.73083,0.0734183,0.0318034
2.73193,0.342218,-0.192528
2.73173,0.207319,0.0478196
2.72087,0.476826,-0.177034
2.75034,0.073943,-0.160231
2.73167,0.342185,-0.12824
2.71632,0.476029,-0.112352
2.72198,0.340972,-0.0638341
2.71594,0.465709,-0.0480988
2.72774,0.196963,-0.0795917
2.72395,0.331082,0
2.74307,0.0636867,-0.0319431
2.70448,0.463744,0.0159479
2.72885,0.197043,-0.0159014
2.73592,0.332537,-0.296873
2.72322,0.330993,0.0638341
2.73508,0.063501,0.03185
2.72848,0.197016,0.0477498
2.7226,0.46685,-0.177034
2.7506,0.0638613,-0.160231
2.72894,0.331688,-0.128054
2.72198,0.466744,-0.112515
2.72719,0.331475,-0.0639271
2.72149,0.456888,-0.0481686
2.72841,0.187441,-0.0795917
2.71715,0.320635,0
2.73928,0.0540329,-0.0318966
2.7398,0.323308,-0.429207
2.70608,0.454301,0.0159479
2.7375,0.188065,-0.0159479
2.72917,0.322053,-0.296016
2.72038,0.321017,0.063741
2.72728,0.0537962,0.0317569
2.73034,0.322192,-0.192249
2.72915,0.187492,0.0477498
2.72027,0.456683,-0.176779
2.70859,0.319625,0.158836
2.72611,0.321692,-0.127868
2.71965,0.456579,-0.112352
2.7323,0.322423,-0.0640202
2.71905,0.447211,-0.0480988
2.72902,0.178391,-0.0795917
2.72217,0.312078,0
2.74344,0.0450136,-0.0319431
2.73693,0.31377,-0.428592
2.70758,0.445324,0.0159479
2.73022,0.313001,-0.296016
2.72143,0.311993,0.063741
2.72745,0.0447512,0.0317569
2.73536,0.31359,-0.192528
2.70253,0.444494,0.0797081
2.73375,0.178701,0.0478196
2.72571,0.448307,-0.177034
2.7136,0.311095,0.159068
2.71595,0.177537,0.110887
2.7351,0.31356,-0.12824
2.71721,0.446908,-0.112189
2.72938,0.312904,-0.0639271
2.72067,0.437243,-0.0480988
2.72965,0.168388,-0.0795917
2.7233,0.302099,0
2.73959,0.0349078,-0.0318966
2.73806,0.303737,-0.428592
2.73875,0.168949,-0.0159479
2.73925,0.303869,-0.296873
2.72256,0.302017,0.063741
2.73959,0.0349078,0.0318966
2.73649,0.303563,-0.192528
2.7264,0.168188,0.04768
2.72734,0.438314,-0.177034
2.71075,0.300707,0.158836
2.71658,0.167582,0.110887
2.72277,0.437581,-0.112352
2.72653,0.302458,-0.0638341
2.71823,0.427122,-0.048029
2.73422,0.159091,-0.0797081
2.72831,0.293017,0
2.7397,0.0253438,-0.0318966
2.73911,0.294177,-0.428592
2.73533,0.159155,-0.0159246
2.72844,0.293031,-0.295588
2.72757,0.292938,0.0638341
2.7317,0.0252698,0.0318034
2.7296,0.293156,-0.19197
2.70169,0.424523,0.0795917
2.73496,0.159134,0.0478196
2.72885,0.428791,-0.177034
2.75122,0.0254504,-0.160231
2.70781,0.290816,0.158603
2.71715,0.158097,0.110887
2.7333,0.293553,-0.128054
2.72034,0.427453,-0.112189
2.72757,0.292938,-0.0638341
2.72366,0.418237,-0.0480988
2.73476,0.149545,-0.0797081
2.72932,0.283491,0
2.73977,0.0157796,-0.0318966
2.74405,0.285022,-0.429207
2.70821,0.415865,0.0159246
2.73587,0.149605,-0.0159246
2.7334,0.283915,-0.296016
2.72062,0.282588,0.0636479
2.73977,0.0157796,0.0318966
2.7355,0.149585,0.0478196
2.75129,0.015846,-0.160231
2.73431,0.28401,-0.128054
2.72576,0.418561,-0.112352
2.72858,0.283415,-0.0638341
2.71712,0.408015,-0.0479592
2.72725,0.140066,-0.0794753
2.72228,0.27364,0
2.73981,0.0066947,-0.0318966
2.70957,0.406883,0.0159246
2.74034,0.140738,-0.0159479
2.74224,0.275645,-0.296873
2.71757,0.273165,0.0635549
2.73181,0.00667515,0.0318034
2.72756,0.27417,-0.191691
2.70847,0.406717,0.0797081
2.73198,0.140309,0.0477498
2.72776,0.409613,-0.176779
2.75133,0.00672285,-0.160231
2.7137,0.272777,0.158836
2.72714,0.40952,-0.112352
2.7295,0.274365,-0.0638341
2.72241,0.399583,-0.048029
2.73569,0.131404,-0.0797081
2.71919,0.264223,0
2.73581,-0.00238814,-0.03185
2.73801,0.266052,-0.427977
2.71091,0.397895,0.0159246
2.73918,0.266165,-0.296445
2.72244,0.264538,0.0636479
2.72846,0.265123,-0.191691
2.73643,0.131439,0.0478196
2.71062,0.26339,0.158603
2.73216,0.265483,-0.127868
2.72057,0.399313,-0.112026
2.7304,0.265312,-0.0638341
2.73213,0.121678,-0.0795917
2.72806,0.255477,0
2.74779,-0.0119883,-0.0319897
2.73499,0.256126,-0.427362
2.74405,0.256975,-0.296873
2.72733,0.255408,0.063741
2.73731,0.256343,-0.192249
2.73287,0.121711,0.0477498
2.72653,0.390472,-0.176523
2.7155,0.254301,0.158836
2.72195,0.389815,-0.112026
2.73131,0.255781,-0.0638341
2.72124,0.37954,-0.0479592
2.73656,0.111826,-0.0797081
2.73297,0.245834,0
2.74373,-0.022028,-0.0319431
2.73309,0.245846,-0.295588
2.72824,0.24541,0.063741
2.73573,-0.0219638,0.03185
2.73426,0.245951,-0.19197
2.7373,0.111856,0.0478196
2.72794,0.380475,-0.176523
2.72347,0.111291,0.111049
2.72336,0.379836,-0.112026
2.72824,0.24541,-0.063741
2.72651,0.370577,-0.048029
2.73294,0.102122,-0.0795917
2.72185,0.235259,0
2.74363,-0.031606,-0.0319431
2.70706,0.367934,0.0158782
2.74204,0.102463,-0.0159479
2.72601,0.235618,-0.294731
2.7251,0.23554,0.0636479
2.73163,-0.0314678,0.0318034
2.73112,0.23606,-0.191691
2.74167,0.102449,0.0478894
2.73483,0.236381,-0.127868
2.72863,0.370865,-0.112189
2.73307,0.236228,-0.0638341
2.72779,0.361058,-0.048029
2.73327,0.0925827,-0.0795917
2.72664,0.226088,0
2.7515,-0.0413024,-0.0320363
2.7123,0.359008,0.0159014
2.74238,0.0928912,-0.0159479
2.73078,0.226431,-0.295159
2.72591,0.226027,0.0636479
2.73551,-0.0410622,0.03185
2.72795,0.226196,-0.191412
2.73801,0.0927432,0.0478196
2.73053,0.361421,-0.176523
2.71407,0.225045,0.158603
2.73962,0.227164,-0.128054
2.72594,0.360814,-0.112026
2.73786,0.227018,-0.0639271
2.72501,0.351498,-0.0479592
2.73357,0.0835176,-0.0795917
2.72738,0.217044,0
2.73935,-0.0502073,-0.0318966
2.71347,0.350011,0.0159014
2.74267,0.0837959,-0.0159479
2.73151,0.217373,-0.295159
2.72664,0.216985,0.0636479
2.74062,0.218098,-0.192249
2.73831,0.0836624,0.0478196
2.7148,0.216043,0.158603
2.74036,0.218077,-0.128054
2.7192,0.350749,-0.111701
2.7386,0.217937,-0.0639271
2.72628,0.341509,-0.0479592
2.72986,0.0733912,-0.0794753
2.72815,0.207047,0
2.74315,-0.0603346,-0.0319431
2.7314,0.207293,0.063741
2.73742,0.20775,-0.19197
2.7346,0.0735185,0.0477498
2.72443,0.341278,-0.111864
2.73938,0.207898,-0.0639271
2.71951,0.331024,-0.0478196
2.73809,0.0640493,-0.0797081
2.73684,0.198101,0
2.74292,-0.069909,-0.0319431
2.7432,0.0641689,-0.0159479
2.73697,0.19811,-0.295588
2.73211,0.197758,0.063741
2.74211,0.198482,-0.192249
2.73484,0.0639732,0.0477498
2.73417,0.332808,-0.176523
2.72561,0.331766,-0.111864
2.73211,0.197758,-0.063741
2.72854,0.322945,-0.0479592
2.73429,0.0548894,-0.0795917
2.73349,0.188749,0
2.74268,-0.0790039,-0.0319431
2.71699,0.321578,0.0159014
2.7474,0.0551526,-0.0159711
2.73761,0.189033,-0.295588
2.72876,0.188422,0.0636479
2.74276,0.189388,-0.192249
2.73503,0.0549043,0.0477498
2.73129,0.323271,-0.176267
2.73066,0.323196,-0.112026
2.73674,0.188973,-0.0638341
2.73447,0.0453439,-0.0795917
2.72615,0.178682,0
2.74638,-0.088707,-0.0319897
2.74758,0.0455613,-0.0159711
2.73825,0.179475,-0.295588
2.73339,0.179157,0.063741
2.73942,0.179552,-0.19197
2.74321,0.0454888,0.0478894
2.72154,0.17838,0.158836
2.74313,0.179795,-0.128054
2.73738,0.179418,-0.0638341
2.73072,0.303887,-0.0479592
2.73461,0.0357978,-0.0795917
2.72277,0.168916,0
2.74206,-0.0981508,-0.0319431
2.71122,0.301716,0.0158549
2.73572,0.0358124,-0.0159014
2.73489,0.169669,-0.295159
2.73001,0.169366,0.0636479
2.73206,0.169493,-0.191412
2.74335,0.0359122,0.0478894
2.73348,0.304194,-0.176267
2.72215,0.168878,0.158836
2.73976,0.16997,-0.127868
2.72888,0.303681,-0.111864
2.73799,0.169861,-0.0638341
2.72779,0.293925,-0.0478894
2.73871,0.026291,-0.0797081
2.72733,0.159645,0
2.73983,0.0263017,-0.0159246
2.74341,0.160586,-0.296016
2.73458,0.16007,0.063741
2.74061,0.160422,-0.19197
2.73946,0.0262981,0.0478196
2.73453,0.294651,-0.176267
2.72272,0.159375,0.158836
2.74033,0.160407,-0.127868
2.72992,0.294154,-0.111864
2.74256,0.160537,-0.0639271
2.72482,0.283986,-0.0478196
2.73879,0.0167302,-0.0797081
2.72388,0.149904,0
2.7359,0.0167126,-0.0159014
2.73601,0.150571,-0.295159
2.73512,0.150522,0.063741
2.74513,0.151074,-0.192249
2.73953,0.0167348,0.0478196
2.73554,0.285103,-0.176267
2.74487,0.151059,-0.128054
2.73093,0.284623,-0.111864
2.73911,0.150742,-0.0638341
2.72978,0.274874,-0.0478894
2.73883,0.00717054,-0.0797081
2.72838,0.140601,0
2.71423,0.273309,0.0158549
2.73194,0.00715251,-0.0158782
2.74446,0.14143,-0.296016
2.73164,0.140769,0.0636479
2.73767,0.14108,-0.191691
2.74357,0.00718295,0.0478894
2.73652,0.275553,-0.176267
2.7374,0.141066,-0.127681
2.73588,0.275489,-0.112026
2.73164,0.140769,-0.0636479
2.71869,0.265132,-0.04768
2.73884,-0.00143456,-0.0797081
2.72481,0.131835,0
2.71507,0.26478,0.0158549
2.74395,-0.00143724,-0.0159479
2.74886,0.132999,-0.296445
2.73606,0.132379,0.063741
2.7381,0.132478,-0.191691
2.74358,-0.00143704,0.0478894
2.73737,0.266954,-0.176267
2.74182,0.132658,-0.127868
2.73674,0.266892,-0.112026
2.74005,0.132572,-0.0638341
2.73154,0.256764,-0.0478894
2.74681,-0.0110264,-0.0799408
2.72395,0.25605,0.0159014
2.74393,-0.0110148,-0.0159479
2.74931,0.123403,-0.296445
2.7405,0.123008,0.0638341
2.73456,0.122741,-0.191412
2.73156,-0.0109652,0.04768
2.73829,0.257398,-0.176267
2.74625,0.123266,-0.128054
2.73367,0.256964,-0.111864
2.7365,0.122828,-0.063741
2.72848,0.246391,-0.0478196
2.74276,-0.0210626,-0.0798244
2.7169,0.245345,0.0158549
2.73987,-0.0210405,-0.0159246
2.73499,0.112718,-0.191412
2.73524,0.247001,-0.176011
2.74669,0.1132,-0.128054
2.73061,0.246584,-0.111701
2.74493,0.113128,-0.0639271
2.72135,0.236173,-0.04768
2.73867,-0.0305926,-0.0797081
2.72606,0.102819,0
2.73978,-0.030605,-0.0159246
2.73537,0.10317,-0.191412
2.73608,0.237451,-0.176011
2.72145,0.102645,0.158603
2.73146,0.23705,-0.111701
2.74131,0.103394,-0.0638341
2.73009,0.227813,-0.0478196
2.74255,-0.0397315,-0.0798244
2.72639,0.0937788,0
2.71851,0.226846,0.0158549
2.73967,-0.0396897,-0.0159246
2.73764,0.0941658,0.063741
2.73171,0.0939619,-0.191133
2.74083,0.228709,-0.176267
2.7434,0.094364,-0.127868
2.73621,0.228324,-0.111864
2.73764,0.0941658,-0.063741
2.73087,0.218282,-0.0478196
2.72327,0.217674,0.0158782
2.74751,-0.0493972,-0.0159711
2.73395,0.0844849,0.0636479
2.74,0.0846716,-0.191691
2.73365,0.218504,-0.175755
2.74771,0.0849099,-0.128054
2.73699,0.218771,-0.111864
2.73795,0.0846084,-0.063741
2.72767,0.207967,-0.0477498
2.7382,-0.0592692,-0.0797081
2.72006,0.207387,0.0158549
2.74331,-0.0593799,-0.0159479
2.73824,0.0745733,0.063741
2.74029,0.0746291,-0.191691
2.73842,0.208787,-0.176011
2.74001,0.0746215,-0.127681
2.73379,0.208434,-0.111701
2.74224,0.0746822,-0.0638341
2.72838,0.198444,-0.0477498
2.74597,-0.0690283,-0.0799408
2.74309,-0.0689558,-0.0159479
2.73849,0.0650143,0.063741
2.74452,0.0651575,-0.19197
2.73515,0.198937,-0.175755
2.74026,0.0650562,-0.127681
2.73849,0.19918,-0.111864
2.73849,0.0650143,-0.063741
2.72506,0.188643,-0.04768
2.72144,0.188393,0.0158549
2.7387,0.0554547,0.063741
2.74872,0.0556578,-0.192249
2.73583,0.189388,-0.175755
2.74446,0.0555715,-0.127868
2.73518,0.189344,-0.111701
2.7427,0.0555357,-0.0638341
2.72966,0.179869,-0.0477498
2.72205,0.179367,0.0158549
2.73087,0.0462372,0.0635549
2.74042,0.180578,-0.176011
2.73664,0.0463349,-0.127495
2.73579,0.180272,-0.111701
2.74286,0.0464403,-0.0638341
2.73427,0.170588,-0.0478196
2.72266,0.169864,0.0158549
2.73501,0.0367581,0.0636479
2.74904,0.0369466,-0.192249
2.74502,0.171259,-0.176267
2.74877,0.0369431,-0.128054
2.74039,0.17097,-0.111864
2.74701,0.0369194,-0.0639271
2.73887,0.1608,-0.0478894
2.72726,0.160118,0.0158782
2.73513,0.0267336,0.0636479
2.74563,0.161197,-0.176267
2.7409,0.02679,-0.127681
2.741,0.160925,-0.111864
2.74313,0.0268117,-0.0638341
2.73142,0.150798,-0.0477498
2.7392,0.0172112,0.063741
2.7382,0.151172,-0.175755
2.74097,0.0172223,-0.127681
2.74155,0.151356,-0.111864
2.7432,0.0172363,-0.0638341
2.72789,0.142008,-0.04768
2.73199,0.00858282,0
2.72427,0.141819,0.0158549
2.73525,0.00859306,0.0636479
2.74664,0.142984,-0.176267
2.74101,0.00861118,-0.127681
2.73802,0.142535,-0.111701
2.74324,0.00861818,-0.0638341
2.7404,0.13211,-0.0478894
2.732,-0.00190729,0
2.74717,0.132436,-0.176267
2.74502,-0.00191639,-0.127868
2.74254,0.132213,-0.111864
2.73926,-0.00191236,-0.063741
2.73285,0.122186,-0.0477498
2.73198,-0.0114437,0
2.72523,0.121846,0.0158549
2.74362,0.122668,-0.176011
2.749,-0.011515,-0.128054
2.73923,-0.0114742,-0.063741
2.73322,0.1136,-0.0477498
2.7296,0.11345,0.0158782
2.744,0.114048,-0.176011
2.73936,0.113855,-0.111701
2.74318,-0.0201089,-0.0638341
2.7376,0.104211,-0.0478196
2.74438,0.104469,-0.176011
2.74374,0.104445,-0.111864
2.7431,-0.0296843,-0.0638341
2.73395,0.0945161,-0.0477498
2.73032,0.0943908,0.0158782
2.74074,0.0947508,-0.175755
2.74009,0.0947284,-0.111701
2.74504,0.0853072,-0.176011
2.73882,-0.0487627,-0.063741
2.73454,0.0754274,-0.0477498
2.73538,-0.0582533,0
2.72692,0.0752171,0.0158549
2.74931,0.0758348,-0.176267
2.74068,0.0755968,-0.111701
2.74264,-0.0584078,-0.0638341
2.7348,0.0654043,-0.0477498
2.73117,0.0653176,0.0158782
2.74957,0.0657576,-0.176267
2.74094,0.0655512,-0.111701
2.7464,-0.0685595,-0.0639271
2.73901,0.0559394,-0.0478196
2.72739,0.0557019,0.0158549
2.74579,0.0560779,-0.176011
2.73716,0.0559015,-0.111538
2.74215,-0.0780321,-0.0638341
2.73518,0.0467878,-0.0477498
2.72756,0.0466573,0.0158549
2.74596,0.0469722,-0.176011
2.74132,0.0468928,-0.111701
2.73533,0.0372399,-0.0477498
2.75409,0.0374954,-0.176523
2.74547,0.0373779,-0.111864
2.73144,0.0276511,-0.04768
2.75421,0.0278816,-0.176523
2.74159,0.0277538,-0.111701
2.73953,0.0176913,-0.0478196
2.7399,0.0176937,0.0159246
2.74167,0.0177052,-0.111701
2.73957,0.00908478,-0.0478196
2.7497,0.0091184,-0.112026
2.73958,-0.000956298,-0.0478196
2.73195,-0.000953635,0.0158782
2.74572,-0.000958442,-0.111864
2.73956,-0.0100411,-0.0478196
2.7497,-0.0100782,-0.112026
2.74351,-0.0196325,-0.0478894
2.73588,-0.0195779,0.0159014
2.74965,-0.0196764,-0.112026
2.74343,-0.029209,-0.0478894
2.74956,-0.0292744,-0.112026
2.7513,-0.0393784,-0.048029
2.74715,-0.0484314,-0.0479592
2.74697,-0.0580204,-0.0479592
2.74674,-0.0680882,-0.0479592
2.7425,-0.077084,-0.0478894
2.74621,-0.0867829,-0.0479592
