3.79839,0.590882,-0.121745
3.79596,0.58745,-0.260987
3.79898,0.567121,-0.12165
3.80442,0.56488,-0.261326
3.80782,0.541526,-0.261326
3.80978,0.540652,-0.40301
3.80514,0.517345,-0.26092
3.81007,0.516864,-0.402698
3.78994,0.494641,-0.121049
3.79898,0.63545,-0.158002
3.79241,0.491934,-0.259835
3.79904,0.633074,-0.298853
3.80725,0.492711,-0.402073
3.78795,0.47076,-0.12089
3.78801,0.609747,-0.157387
3.79536,0.468655,-0.259835
3.80482,0.610067,-0.299008
3.80428,0.468611,-0.401448
3.77062,0.4464,0.0182242
3.79573,0.448095,-0.121049
3.78576,0.585576,-0.157141
3.79915,0.445474,-0.259903
3.81046,0.587014,-0.299162
3.78522,0.424593,0.0182818
3.78748,0.423575,-0.1207
3.78829,0.562189,-0.1571
3.79091,0.420944,-0.259157
3.80511,0.56231,-0.298466
3.78178,0.400727,0.018253
3.79199,0.400537,-0.120764
3.78475,0.53795,-0.156814
3.79463,0.680002,-0.194885
3.79739,0.398091,-0.259428
3.80454,0.538393,-0.298157
3.7792,0.377018,0.018229
3.78896,0.514851,-0.156855
3.80464,0.657726,-0.195188
3.79678,0.37449,-0.259225
3.80481,0.514638,-0.297924
3.81358,0.371577,-0.543549
3.77248,0.352984,0.0181858
3.78001,0.492448,-0.0181632
3.7871,0.490951,-0.15665
3.80466,0.633713,-0.194986
3.79305,0.350635,-0.258818
3.80098,0.490389,-0.297383
3.80269,0.489059,-0.438457
3.80889,0.347541,-0.542566
3.7676,0.329221,0.0181522
3.78098,0.468999,-0.0181536
3.79861,0.608775,-0.194481
3.78419,0.326412,-0.258072
3.80292,0.466936,-0.297306
3.80409,0.60829,-0.335552
3.80404,0.323576,-0.541583
3.7633,0.30744,0.15469
3.76955,0.306097,0.0181522
3.77981,0.445322,-0.0181346
3.78192,0.443161,-0.156199
3.79932,0.585,-0.19433
3.79209,0.303664,-0.258479
3.80374,0.443362,-0.297151
3.80578,0.584635,-0.335379
3.80398,0.300073,-0.541302
3.77009,0.28472,0.154894
3.76537,0.282513,0.0181234
3.77254,0.421012,-0.0180869
3.78356,0.282615,-0.120162
3.78159,0.419617,-0.156076
3.79888,0.561093,-0.194128
3.79937,0.703611,-0.233082
3.79388,0.28039,-0.258479
3.79945,0.419249,-0.296609
3.80929,0.561272,-0.335379
3.81006,0.418872,-0.438344
3.80279,0.276511,-0.540881
3.77077,0.261512,0.154853
3.76005,0.258923,0.0180898
3.77604,0.397961,-0.0180917
3.79159,0.53829,-0.0544777
3.77525,0.258711,-0.119846
3.78409,0.396406,-0.156076
3.80324,0.537913,-0.194178
3.80559,0.680637,-0.233202
3.78856,0.256634,-0.258005
3.79997,0.395722,-0.296455
3.81069,0.53761,-0.335205
3.7975,0.252712,-0.539897
3.76732,0.238055,0.154649
3.76456,0.236034,0.0181042
3.77841,0.374784,-0.0180917
3.79582,0.51515,-0.054492
3.77976,0.235728,-0.119941
3.78844,0.373375,-0.156158
3.80477,0.656425,-0.232901
3.7811,0.232831,-0.257395
3.808,0.513419,-0.334684
3.79906,0.232805,-0.398635
3.807,0.371314,-0.437435
3.79502,0.229168,-0.539336
3.75674,0.214252,0.154157
3.76794,0.213044,0.0181138
3.77766,0.351315,-0.0180774
3.77315,0.212083,-0.119687
3.78469,0.349571,-0.155912
3.79888,0.63143,-0.232299
3.77449,0.209185,-0.256852
3.78667,0.347421,-0.295062
3.79545,0.209217,-0.398115
3.79043,0.205556,-0.538493
3.75499,0.191045,0.154035
3.75892,0.327049,0.119102
3.77376,0.327611,-0.0180488
3.77438,0.188928,-0.119687
3.78079,0.325828,-0.155666
3.79961,0.466235,-0.193522
3.79283,0.606532,-0.231697
3.77172,0.185825,-0.256581
3.77979,0.323415,-0.294366
3.79169,0.185681,-0.397594
3.81238,0.464763,-0.476059
3.78964,0.182199,-0.538212
3.81089,0.179888,-0.684183
3.74891,0.169057,0.291194
3.75709,0.168046,0.154076
3.76086,0.303979,0.119102
3.76228,0.166436,0.0180754
3.77072,0.304047,-0.018025
3.77247,0.165633,-0.119593
3.77973,0.302384,-0.155543
3.79843,0.44245,-0.19332
3.80437,0.584461,-0.232179
3.7678,0.162463,-0.256242
3.78667,0.300611,-0.294753
3.78779,0.162199,-0.397073
3.80728,0.44045,-0.475075
3.79266,0.159026,-0.538493
3.80883,0.298424,-0.578138
3.80701,0.1563,-0.683301
3.74589,0.145896,0.290884
3.76005,0.145067,0.154157
3.75567,0.280376,0.118882
3.76423,0.143386,0.0180802
3.78346,0.419198,-0.0541506
3.76942,0.142332,-0.119466
3.7785,0.276643,-0.293979
3.80342,0.557329,-0.372102
3.78176,0.1387,-0.396344
3.80497,0.41654,-0.47446
3.79654,0.135858,-0.538914
3.8027,0.274478,-0.576941
3.7507,0.123039,0.291194
3.75487,0.121798,0.153912
3.77029,0.396398,0.0841116
3.75804,0.120063,0.0180466
3.78895,0.396287,-0.0541933
3.76123,0.118916,-0.119181
3.7692,0.255034,-0.154969
3.80434,0.536756,-0.231757
3.78609,0.253853,-0.294443
3.80972,0.534396,-0.372391
3.78254,0.115493,-0.396344
3.79182,0.252708,-0.434594
3.80845,0.393288,-0.474583
3.79235,0.112414,-0.538212
3.80333,0.251075,-0.576791
3.7474,0.0999167,0.290884
3.75855,0.0988354,0.154035
3.77762,0.373748,0.0842225
3.75471,0.0968983,0.0180274
3.75971,0.233597,-0.0179487
3.78633,0.372542,-0.0541221
3.77269,0.232024,-0.155051
3.79569,0.511802,-0.231035
3.77763,0.230011,-0.29367
3.80602,0.510084,-0.371717
3.79014,0.092451,-0.397073
3.78834,0.229137,-0.434026
3.8019,0.369049,-0.473475
3.78901,0.0890489,-0.53765
3.80381,0.227674,-0.576642
3.79645,0.085909,-0.681006
3.80576,0.225591,-0.720919
3.73194,0.0777005,0.426217
3.73997,0.0767576,0.290266
3.7533,0.213046,0.255297
3.75409,0.0756708,0.15383
3.77785,0.350378,0.0841781
3.75123,0.0737793,0.0180082
3.76407,0.210691,-0.017963
3.78456,0.348935,-0.0540652
3.79876,0.488502,-0.231035
3.77996,0.206883,-0.293747
3.78967,0.205888,-0.434026
3.80508,0.345804,-0.473599
3.78651,0.0657468,-0.537229
3.79131,0.203588,-0.574547
3.79395,0.0625641,-0.680476
3.80707,0.202235,-0.720919
3.79952,0.0596711,-0.827281
3.7393,0.0549024,0.427011
3.73638,0.0537507,0.289956
3.75454,0.190012,0.255297
3.74649,0.0525227,0.153502
3.77296,0.326587,0.0840228
3.74861,0.0507202,0.0179938
3.7583,0.187243,-0.0179297
3.75579,0.0495716,-0.118959
3.78781,0.463487,-0.230192
3.78502,0.045861,-0.396448
3.79285,0.182727,-0.434253
3.78883,0.0425342,-0.53751
3.79447,0.180415,-0.574846
3.80323,0.320916,-0.61517
3.7982,0.0393245,-0.681182
3.81118,0.17901,-0.721476
3.73857,0.031949,0.426897
3.73166,0.0307826,0.289569
3.75074,0.0295652,0.153666
3.76891,0.30295,0.0838897
3.74585,0.027696,0.0179794
3.76102,0.0265609,-0.119118
3.7886,0.440006,-0.230071
3.78026,0.022606,-0.395927
3.78795,0.159201,-0.433572
3.79983,0.437211,-0.511846
3.78902,0.0192856,-0.53751
3.79945,0.157293,-0.575445
3.813,0.29819,-0.616443
3.80132,0.0160309,-0.681712
3.8073,0.155421,-0.720547
3.73969,0.00901134,0.427011
3.74685,0.00654358,0.153502
3.75246,0.141536,0.118535
3.76871,0.279671,0.0838454
3.77379,0.416501,0.0472494
3.76211,0.00348415,-0.119149
3.78803,0.27705,-0.192007
3.79917,0.417624,-0.230553
3.77892,0.135599,-0.432435
3.81526,0.415282,-0.51357
3.78708,-0.00396169,-0.537229
3.79738,0.133872,-0.574996
3.79741,-0.00728638,-0.681006
3.80229,0.131853,-0.719432
3.73173,-0.0139055,0.426103
3.75341,0.120743,0.255026
3.76283,0.256887,0.219978
3.74382,-0.0164336,0.15338
3.75326,0.118508,0.118535
3.76237,0.255998,0.0836679
3.77503,0.254807,-0.0538234
3.76006,-0.0195894,-0.119086
3.78667,0.253602,-0.191856
3.76026,-0.0225438,-0.255496
3.77571,0.112291,-0.431981
3.79955,0.251466,-0.471999
3.78303,-0.0271703,-0.536667
3.79319,0.110426,-0.574248
3.8075,0.250792,-0.615011
3.78549,-0.0304916,-0.678888
3.80106,0.108464,-0.719061
3.79007,-0.0335055,-0.825154
3.73157,-0.0368027,0.426103
3.7276,-0.0378697,0.28926
3.75607,0.0977618,0.255162
3.75065,-0.0394786,0.153666
3.74492,0.0952478,0.118251
3.76387,0.232908,0.0836679
3.74573,-0.0412576,0.0179794
3.77852,0.231762,-0.0538519
3.75488,-0.0426036,-0.118928
3.78517,0.23018,-0.191704
3.78427,0.0893094,-0.43289
3.79309,0.227672,-0.471015
3.78081,-0.0503556,-0.536386
3.78885,0.0870356,-0.5735
3.80404,0.22713,-0.614215
3.78031,-0.0536485,-0.678005
3.79983,0.082245,-0.865387
3.72531,-0.0596031,0.425422
3.72929,-0.0607736,0.289415
3.74663,0.0745147,0.254484
3.75133,-0.062508,0.153707
3.76423,0.209753,0.0836457
3.74541,-0.0642402,0.0179794
3.77887,0.208518,-0.0538377
3.75854,-0.0657122,-0.119054
3.77454,0.206297,-0.191098
3.79402,0.206033,-0.330953
3.77271,-0.0700437,-0.395198
3.78574,0.0661052,-0.433004
3.79145,0.204234,-0.470646
3.78142,-0.0735725,-0.536527
3.78932,0.063786,-0.5735
3.80537,0.203785,-0.614215
3.78286,-0.076903,-0.678535
3.78937,-0.0800129,-0.825154
3.79734,0.0588828,-0.864721
3.72587,-0.0824821,0.425536
3.74425,0.0520747,0.391262
3.74103,0.0514421,0.254078
3.74389,-0.0853652,0.153421
3.76046,0.186405,0.0835348
3.74194,-0.0871505,0.017965
3.77109,0.184886,-0.0537097
3.76106,-0.0888438,-0.119149
3.77474,0.183084,-0.191048
3.79435,0.323077,-0.22971
3.78427,0.182223,-0.329999
3.78116,-0.0934124,-0.396136
3.78111,0.0428188,-0.432435
3.78965,0.180824,-0.470277
3.80948,0.32028,-0.511581
3.78486,-0.0968748,-0.537088
3.79063,0.0405445,-0.573649
3.80753,0.180479,-0.614374
3.79019,-0.100321,-0.679947
3.7867,0.0383213,-0.716088
3.80327,0.177749,-0.757274
3.78491,-0.103156,-0.824303
3.79373,0.0355451,-0.863833
3.73953,0.0290608,0.390743
3.72528,-0.106448,0.289182
3.74427,0.0285094,0.254281
3.7363,-0.108133,0.153134
3.76053,0.163284,0.0835127
3.77482,0.299753,0.047125
3.74633,-0.110256,0.017989
3.77415,0.16183,-0.0537381
3.75945,-0.11189,-0.119118
3.75677,0.0232933,-0.154108
3.7718,0.15975,-0.190846
3.7873,0.299082,-0.229168
3.79029,0.159208,-0.330432
3.78031,0.0196124,-0.432322
3.79267,0.157651,-0.470523
3.78419,-0.120096,-0.537088
3.78289,0.0172489,-0.572452
3.80363,0.156909,-0.613579
3.79374,0.0151132,-0.717389
3.80037,0.15425,-0.756494
3.73168,0.00610188,0.389911
3.73352,-0.129615,0.289879
3.75036,0.00554332,0.254688
3.74555,-0.131407,0.153543
3.76146,0.140207,0.0835127
3.74759,-0.133312,0.0179986
3.76508,0.138302,-0.0535959
3.77593,0.27508,-0.0896834
3.7537,-0.134776,-0.118959
3.76772,0.136423,-0.190594
3.78309,0.275403,-0.228807
3.75182,-0.137659,-0.25509
3.78433,-0.00358729,-0.432776
3.7777,0.133814,-0.468555
3.7849,-0.00596596,-0.572752
3.80354,0.133533,-0.613419
3.79376,-0.00816498,-0.717389
3.80026,0.130894,-0.756299
3.79019,-0.149865,-0.825792
3.79096,-0.011004,-0.863167
3.73662,-0.0168178,0.390431
3.73465,-0.152602,0.290033
3.74733,-0.0174546,0.254484
3.75026,0.116751,0.0832465
3.77223,0.253007,0.0470503
3.73671,-0.155888,0.0179506
3.76686,0.115228,-0.0536101
3.76857,0.251307,-0.0894702
3.7528,-0.157806,-0.118959
3.77675,0.251654,-0.228325
3.75589,-0.160891,-0.255429
3.7636,-0.0251504,-0.292045
3.78027,-0.0267793,-0.432322
3.78341,0.110777,-0.46917
3.80583,0.249522,-0.510387
3.78677,-0.0292048,-0.573051
3.79738,0.109992,-0.612306
3.81028,0.249147,-0.653861
3.78381,-0.0313615,-0.715531
3.79904,0.107518,-0.755909
3.79701,-0.173475,-0.827494
3.79959,-0.034344,-0.865165
3.73645,-0.0397449,0.390431
3.73265,-0.175468,0.289956
3.73418,-0.0403075,0.253604
3.7559,0.0938626,0.0833574
3.76074,0.229065,0.0468885
3.74167,-0.1791,0.0179794
3.7615,0.0919659,-0.0535247
3.77304,0.22836,-0.0895413
3.75875,-0.181166,-0.119181
3.78619,0.228958,-0.228807
3.7638,-0.184373,-0.256039
3.76039,-0.0482046,-0.291813
3.77665,0.0890387,-0.329044
3.77606,-0.0499215,-0.431867
3.80234,0.225872,-0.509724
3.78751,-0.0524532,-0.5732
3.80289,0.225238,-0.652342
3.79766,0.0841625,-0.755519
3.80224,-0.0577017,-0.865831
3.72221,-0.0624371,0.388976
3.72752,-0.198156,0.289647
3.73486,-0.0632361,0.253671
3.75541,0.0707962,0.0833352
3.77206,0.206532,0.047013
3.7445,-0.20227,0.0179986
3.76699,0.0689756,-0.0535959
3.77337,0.205151,-0.0895176
3.77855,0.205234,-0.228265
3.75961,-0.207299,-0.255835
3.75703,-0.0712203,-0.291581
3.77812,0.0658813,-0.329131
3.78884,0.202743,-0.367285
3.78363,-0.0732439,-0.432776
3.7802,-0.0755536,-0.572153
3.8042,0.2019,-0.652342
3.77921,-0.0777115,-0.714787
3.79124,0.0607489,-0.754153
3.80084,-0.0810099,-0.865609
3.72872,-0.0854344,0.389703
3.72822,-0.221142,0.289801
3.74378,0.0475996,0.083069
3.77026,0.183238,0.0469756
3.74718,-0.225483,0.0180178
3.76034,0.0457753,-0.0534963
3.77256,0.181898,-0.0894702
3.75894,0.0437899,-0.190038
3.77675,0.181902,-0.228084
3.75129,-0.229936,-0.255361
3.78443,0.0427656,-0.329652
3.79002,0.179491,-0.367285
3.78065,-0.0987729,-0.572303
3.79975,0.0400866,-0.612465
3.80044,0.178323,-0.651498
3.78491,-0.239822,-0.680123
3.79449,0.0375143,-0.754738
3.79734,-0.10425,-0.864943
3.80287,0.0359377,-0.903978
3.73409,-0.108485,0.390327
3.72982,-0.108947,0.2534
3.76831,0.159973,0.0469383
3.74373,-0.248338,0.0180082
3.75755,0.0226833,-0.0534536
3.75378,-0.250255,-0.119149
3.76513,0.0207576,-0.190341
3.7748,0.158599,-0.227904
3.75081,-0.253016,-0.255429
3.75587,-0.117319,-0.291581
3.78163,0.0195285,-0.329391
3.78409,0.155946,-0.36661
3.77998,-0.121969,-0.572303
3.79597,0.0167536,-0.611828
3.77747,-0.262631,-0.679064
3.79858,-0.127613,-0.865387
3.73917,-0.269253,0.153584
3.73772,-0.134357,0.118061
3.74108,0.00165276,0.0830025
3.76223,0.136594,0.0468512
3.74513,-0.271522,0.0180226
3.75362,-0.000372605,-0.0533967
3.75517,-0.273501,-0.119244
3.7592,-0.00234147,-0.190038
3.76673,0.135112,-0.227362
3.75516,-0.276466,-0.255835
3.75707,-0.140437,-0.291735
3.78168,-0.00367553,-0.329391
3.78099,0.132584,-0.366225
3.76706,-0.278466,-0.395615
3.77965,-0.142801,-0.432549
3.79206,-0.00653153,-0.611192
3.77579,-0.285804,-0.679064
3.78107,-0.147414,-0.715531
3.79719,-0.0107156,-0.90259
3.73845,-0.292269,0.153625
3.74582,-0.157668,0.118345
3.74802,-0.021342,0.0831578
3.754,0.113236,0.0467392
3.73962,-0.158126,-0.0178344
3.76455,-0.023473,-0.0535532
3.76311,-0.0254344,-0.19024
3.76349,0.111879,-0.227121
3.76134,-0.300136,-0.256378
3.75913,-0.163618,-0.291968
3.78273,0.109411,-0.366321
3.76826,-0.301813,-0.395927
3.77302,-0.0284649,-0.467694
3.78511,-0.168654,-0.57335
3.79293,-0.0298068,-0.611351
3.77102,-0.308726,-0.678535
3.78108,-0.170656,-0.715716
3.79997,-0.0340407,-0.903284
3.74777,-0.180793,0.11844
3.74782,-0.0443389,0.0831578
3.75463,0.0901997,0.0467392
3.74157,-0.181214,-0.0178487
3.76133,-0.0465342,-0.0535105
3.77089,0.0891417,-0.0893518
3.75333,-0.184147,-0.154149
3.77087,-0.048627,-0.190644
3.77409,0.0890196,-0.227723
3.76043,-0.323295,-0.256445
3.76403,-0.186977,-0.292432
3.77836,-0.0500427,-0.329131
3.78631,0.0862665,-0.36661
3.77476,-0.0516423,-0.46794
3.79421,0.0854525,-0.507867
3.77475,-0.329041,-0.53751
3.78302,-0.191825,-0.5732
3.78675,-0.0529963,-0.610396
3.8017,0.0849574,-0.65116
3.78094,-0.193903,-0.715902
3.79871,-0.0573415,-0.903053
3.73864,0.0725444,0.455623
3.73897,-0.201145,0.254281
3.73159,-0.337853,0.153502
3.7446,-0.203677,0.118377
3.74447,-0.0672804,0.0830912
3.76111,0.0672674,0.0468139
3.73739,-0.204005,-0.0178344
3.75498,-0.0695014,-0.0534252
3.77336,0.0660372,-0.0893992
3.75911,-0.207559,-0.154436
3.76251,-0.0716117,-0.19024
3.76957,0.0657735,-0.227422
3.7544,-0.345997,-0.256174
3.76182,-0.210014,-0.292354
3.773,-0.0731288,-0.328697
3.78578,0.0630159,-0.366514
3.77338,-0.0747831,-0.467817
3.79565,0.0621863,-0.508
3.78275,-0.21509,-0.57335
3.7834,-0.0761708,-0.609919
3.80117,0.061613,-0.650992
3.77183,-0.216648,-0.714416
3.78601,-0.0787354,-0.753178
3.79926,-0.0806695,-0.903284
3.741,0.0496295,0.455865
3.73617,-0.0875218,0.354783
3.73169,-0.223725,0.253875
3.74557,-0.0894424,0.218523
3.74128,-0.226529,0.118314
3.73699,-0.0900861,0.0829359
3.76245,0.0442001,0.0468263
3.73408,-0.226812,-0.0178249
3.75548,-0.0925649,-0.0534394
3.75801,-0.0945961,-0.190038
3.7719,0.0426651,-0.227542
3.74923,-0.368734,-0.255971
3.75051,-0.232475,-0.291581
3.77647,-0.0963798,-0.329044
3.77302,-0.235391,-0.432322
3.76987,-0.0978575,-0.467448
3.78977,-0.0995653,-0.611033
3.80147,0.0382884,-0.650992
3.77043,-0.239788,-0.714416
3.78153,-0.101859,-0.752397
3.73284,-0.249015,0.118093
3.74037,-0.113135,0.0830247
3.75465,0.0210684,0.0467268
3.73504,-0.386275,0.0180226
3.74159,-0.25032,-0.0178677
3.75884,-0.115729,-0.0534963
3.76789,0.0196959,-0.0892571
3.74998,-0.389077,-0.119403
3.75528,-0.253606,-0.154395
3.75636,-0.117622,-0.189988
3.7691,0.0195049,-0.227362
3.74689,-0.391732,-0.255971
3.75398,-0.255822,-0.291968
3.76953,-0.258402,-0.432095
3.7692,-0.120987,-0.467448
3.78721,0.0155665,-0.506806
3.77687,-0.261289,-0.572901
3.79868,0.0149506,-0.650485
3.79162,-0.125417,-0.754543
3.72725,-0.271624,0.117967
3.73661,-0.135974,0.0829581
3.75471,-0.00197006,0.0467268
3.72763,-0.408641,0.0179986
3.73301,-0.272763,-0.0178344
3.76494,-0.00342106,-0.0891861
3.74057,-0.411315,-0.119181
3.75166,-0.276496,-0.154313
3.75158,-0.140519,-0.189786
3.76615,-0.00361936,-0.227181
3.74739,-0.415044,-0.256174
3.76228,-0.27959,-0.292741
3.76442,-0.14396,-0.466956
3.78822,-0.00767371,-0.506939
3.79476,-0.00834926,-0.64981
3.79176,-0.148718,-0.754738
3.7305,-0.294882,0.118124
3.74769,-0.159409,0.0832243
3.75363,-0.0250018,0.0467143
3.72405,-0.43139,0.0179938
3.73824,-0.296216,-0.0178677
3.75985,-0.026487,-0.0890676
3.74393,-0.434951,-0.119371
3.74691,-0.299272,-0.15419
3.75064,-0.163535,-0.189786
3.76706,-0.0267351,-0.227241
3.75369,-0.439073,-0.256784
3.75851,-0.30251,-0.292586
3.77536,-0.167584,-0.468432
3.76878,-0.445373,-0.538352
3.79365,-0.0316251,-0.649641
3.79273,-0.172069,-0.755128
3.7564,-0.0480716,0.0467516
3.72134,-0.454232,0.0179938
3.73735,-0.319233,-0.0178725
3.75762,-0.0495302,-0.0890203
3.74317,-0.458158,-0.119434
3.74799,-0.322514,-0.154313
3.75456,-0.186794,-0.190038
3.76582,-0.0498356,-0.227181
3.74895,-0.461853,-0.256649
3.7607,-0.464434,-0.396865
3.77922,-0.190996,-0.469047
3.77438,-0.331024,-0.57335
3.7855,-0.0547878,-0.648291
3.74281,-0.0677978,0.319082
3.74645,-0.205442,0.0832465
3.75204,-0.0710438,0.0467019
3.71848,-0.477057,0.0179938
3.72835,-0.341521,-0.0178392
3.76224,-0.0726821,-0.0891387
3.73534,-0.480479,-0.119276
3.74395,-0.345322,-0.154231
3.75946,-0.0728253,-0.22682
3.74604,-0.484848,-0.256649
3.76047,-0.349163,-0.293051
3.77797,-0.214182,-0.469047
3.78645,-0.077381,-0.506806
3.77424,-0.354362,-0.573649
3.78706,-0.0780547,-0.648629
3.79229,-0.218712,-0.755519
3.73713,-0.227939,0.083069
3.75053,-0.0940394,0.0466894
3.73133,-0.503256,-0.119244
3.74375,-0.368484,-0.154313
3.75495,-0.0957897,-0.226579
3.74695,-0.50836,-0.25692
3.76024,-0.372427,-0.293205
3.77164,-0.237048,-0.468432
3.77424,-0.240915,-0.752202
3.73666,-0.250932,0.0830912
3.75388,-0.117175,0.0467392
3.72587,-0.387455,-0.0178487
3.72817,-0.526142,-0.119244
3.73843,-0.391136,-0.15419
3.7513,-0.118733,-0.226398
3.7408,-0.530921,-0.256717
3.75888,-0.395596,-0.293283
3.75644,-0.534278,-0.397385
3.77011,-0.260185,-0.468432
3.74303,-0.27444,0.0832687
3.74909,-0.140057,0.0466894
3.72586,-0.549153,-0.119276
3.73795,-0.414287,-0.154272
3.75748,-0.142012,-0.22682
3.73353,-0.553279,-0.256445
3.75242,-0.418211,-0.292973
3.75309,-0.557317,-0.397385
3.7724,-0.283611,-0.468924
3.76708,-0.423773,-0.573649
3.73803,-0.159546,0.318912
3.72497,-0.295255,0.21794
3.73729,-0.297085,0.0831799
3.74717,-0.163015,0.046677
3.73032,-0.573219,-0.119529
3.73633,-0.437331,-0.154313
3.74681,-0.440878,-0.292741
3.7496,-0.580335,-0.397385
3.77059,-0.306753,-0.468924
3.78143,-0.170193,-0.506541
3.73838,-0.320267,0.0832465
3.7451,-0.185955,0.0466645
3.74871,-0.323195,-0.0535247
3.73266,-0.597044,-0.119719
3.72961,-0.45976,-0.154149
3.7381,-0.463124,-0.292277
3.76135,-0.467538,-0.433458
3.77948,-0.332028,-0.61151
3.73137,-0.342742,0.0831356
3.74089,-0.208763,0.0466272
3.72019,-0.479414,-0.0178725
3.72597,-0.619444,-0.119624
3.73617,-0.486181,-0.292354
3.73318,-0.366021,0.0832243
3.74253,-0.231899,0.0466645
3.72765,-0.506031,-0.154313
3.72374,-0.64559,-0.256784
3.743,-0.510444,-0.293128
3.73384,-0.389231,0.0832908
3.74603,-0.255198,0.0467268
3.72447,-0.528894,-0.154313
3.74078,-0.533542,-0.293205
3.75014,-0.536412,-0.433231
3.72244,-0.411146,0.0830912
3.74164,-0.415316,-0.0535532
3.74298,-0.417449,-0.190392
3.75966,-0.280962,-0.227422
3.74434,-0.557512,-0.293747
3.74973,-0.559852,-0.433572
3.72757,-0.576085,-0.154723
3.74531,-0.440992,-0.190644
3.73888,-0.580171,-0.293592
3.74848,-0.464702,-0.190947
3.73328,-0.602784,-0.293437
3.75591,-0.468618,-0.46917
3.73336,-0.484117,-0.0535532
3.72656,-0.625184,-0.293205
3.75493,-0.491913,-0.469416
3.76125,-0.355509,-0.646941
3.73131,-0.50715,-0.0535674
3.73854,-0.510126,-0.190745
3.7566,-0.373639,-0.227723
3.75283,-0.515079,-0.469539
3.73308,-0.530739,-0.0536385
3.7383,-0.533479,-0.190896
3.75225,-0.396472,-0.227603
3.72679,-0.553194,-0.0535959
3.72508,-0.554935,-0.190392
3.75173,-0.41971,-0.227723
3.75203,-0.560289,-0.330432
3.72899,-0.438699,0.0467268
3.74197,-0.441682,-0.0892571
3.75206,-0.443073,-0.227904
3.74881,-0.606927,-0.33078
3.7503,-0.4896,-0.228145
3.74796,-0.630414,-0.33104
3.76075,-0.495036,-0.507602
3.73716,-0.511027,-0.0893518
3.74228,-0.511926,-0.227843
3.73912,-0.652542,-0.330606
3.73594,-0.534231,-0.0893992
3.74302,-0.535444,-0.228084
3.75363,-0.540036,-0.367092
3.72962,-0.556701,-0.0893281
3.73177,-0.557221,-0.227603
3.75123,-0.563206,-0.367188
3.72219,-0.578961,-0.0892334
3.72729,-0.579955,-0.227542
3.73253,-0.60425,-0.228084
3.7258,-0.626644,-0.227904
