2.73283,0.240053,-0.159766
2.85877,0.39262,0.117563
2.914,0.546394,-0.138104
2.82556,0.388059,-0.149472
2.85956,0.392728,0.235632
2.92816,0.549049,-0.0693242
2.81373,0.376432,-0.0826171
2.91512,0.536077,0
2.74607,0.23156,-0.0320828
2.80419,0.375156,-0.360117
2.72643,0.229904,-0.25541
2.94186,0.540995,0.0696033
2.75005,0.231896,0.0321294
2.90017,0.533328,-0.2062
2.80954,0.375872,-0.231401
2.85017,0.381307,0.0501931
2.72967,0.230177,-0.159533
2.84428,0.380519,0.116911
2.90017,0.533329,-0.13736
2.82294,0.377665,-0.149262
2.9222,0.537379,-0.0691381
2.8071,0.365575,-0.0823844
2.91304,0.525188,0
2.7349,0.221006,-0.0319431
2.78581,0.362802,-0.357592
2.836,0.369339,-0.0166221
2.72721,0.220385,-0.25541
2.93193,0.528593,0.0693242
2.73889,0.221328,0.0319897
2.89023,0.521077,-0.205363
2.80293,0.365032,-0.23075
2.7225,0.220004,-0.159068
2.84559,0.370588,0.116911
2.89808,0.522492,-0.137174
2.81632,0.366776,-0.148843
2.91618,0.525755,-0.0689519
2.80439,0.355271,-0.082268
2.90697,0.513624,0
2.72768,0.210841,-0.03185
2.78706,0.353075,-0.357592
2.82934,0.358432,-0.0165756
2.72003,0.210249,-0.254667
2.92981,0.517659,0.0692311
2.73565,0.211457,0.0319431
2.88417,0.509595,-0.204805
2.80023,0.354744,-0.230424
2.83292,0.358886,0.0498441
2.83101,0.358643,0.11626
2.89989,0.512372,-0.137174
2.81362,0.35644,-0.148634
2.90225,0.512789,-0.0685797
2.89692,0.501427,0
2.72042,0.20073,-0.0317569
2.77252,0.341405,-0.355571
2.81866,0.347087,-0.0165058
2.70883,0.199875,-0.253551
2.91978,0.505384,0.0689519
2.73239,0.201613,0.0318966
2.882,0.498845,-0.204526
2.80145,0.344968,-0.230424
2.70804,0.199816,-0.158138
2.82431,0.347782,0.115934
2.88591,0.499521,-0.136429
2.80692,0.345641,-0.148215
2.89614,0.501292,-0.0683936
2.79489,0.334261,-0.0819189
2.89077,0.489976,0
2.71711,0.190953,-0.0317103
2.77763,0.332197,-0.356076
2.81986,0.337247,-0.0165058
2.86238,0.485164,-0.312723
2.70951,0.190418,-0.253551
2.9097,0.493185,0.0686728
2.7211,0.191233,0.0317569
2.86799,0.486115,-0.20341
2.79076,0.333767,-0.229448
2.82345,0.337676,0.0496346
2.70075,0.189803,-0.157673
2.81757,0.336973,0.115609
2.8837,0.488777,-0.136243
2.79621,0.334418,-0.147587
2.88604,0.489175,-0.0681145
2.78413,0.323121,-0.0815699
2.88852,0.479228,0
2.77089,0.321585,-0.355066
2.8091,0.326019,-0.0164361
2.85621,0.473868,-0.311867
2.70618,0.180694,-0.25318
2.90746,0.482371,0.0685797
2.71776,0.181468,0.0317103
2.86573,0.475448,-0.203131
2.77607,0.322186,-0.228146
2.81666,0.326897,0.049495
2.69343,0.179843,-0.157208
2.91121,0.482992,0.171859
2.81476,0.326675,0.115446
2.88145,0.478055,-0.136057
2.78942,0.323735,-0.147169
2.88379,0.478444,-0.0680214
2.78126,0.312952,-0.0814535
2.88227,0.46786,0
2.70641,0.171222,-0.0315706
2.75228,0.309691,-0.352541
2.80227,0.315316,-0.0163896
2.85,0.46262,-0.31101
2.69885,0.170743,-0.252436
2.90123,0.470937,0.0683936
2.71439,0.171727,0.0316637
2.85556,0.463523,-0.202294
2.77718,0.312493,-0.228146
2.81381,0.316615,0.0494252
2.69404,0.170439,-0.157208
2.90893,0.472187,0.171626
2.80794,0.315954,0.11512
2.86732,0.465432,-0.135313
2.78657,0.313549,-0.146959
2.86965,0.465811,-0.0676492
2.77439,0.302375,-0.0812208
2.87204,0.455914,0
2.699,0.161295,-0.0314775
2.75729,0.300512,-0.353046
2.96374,0.620238,0.0175985
2.79142,0.304231,-0.0163199
2.83981,0.450798,-0.309725
2.6875,0.160608,-0.251321
2.89101,0.458925,0.0681145
2.70699,0.161773,0.0315706
2.77429,0.302364,-0.227821
2.79502,0.304623,0.0490762
2.89084,0.458899,0.170464
2.80902,0.306149,0.11512
2.86104,0.454167,-0.13494
2.73824,0.289249,-0.550697
2.86168,0.444544,0
2.69553,0.152118,-0.0314309
2.75038,0.290532,-0.352036
2.95795,0.608793,0.017552
2.78844,0.294552,-0.0162966
2.83343,0.440156,-0.308868
2.68007,0.151246,-0.250577
2.88066,0.447493,0.0678353
2.70351,0.152569,0.0315241
2.84682,0.442237,-0.201457
2.76735,0.292324,-0.22717
2.79602,0.295352,0.0490762
2.8884,0.448696,0.170231
2.79412,0.295152,0.114469
2.85068,0.442836,-0.134382
2.77672,0.293314,-0.146331
2.853,0.443196,-0.067184
2.71972,0.277699,-0.546775
2.69205,0.142499,-0.0313844
2.73954,0.279722,-0.350521
2.95221,0.596881,0.0175055
2.78149,0.284006,-0.0162501
2.83102,0.429668,-0.30844
2.68058,0.141891,-0.250577
2.8743,0.436237,0.0676492
2.69604,0.14271,0.0314309
2.83257,0.429904,-0.200341
2.76042,0.281854,-0.226519
2.79305,0.285186,0.0490064
2.67173,0.141423,-0.155813
2.87416,0.436216,0.169301
2.79116,0.284993,0.114306
2.84826,0.432285,-0.134196
2.77375,0.283216,-0.146122
2.85453,0.433237,-0.067184
2.75746,0.271829,-0.080639
2.72067,0.268203,-0.546775
2.68054,0.132508,-0.0312447
2.7405,0.270157,-0.350521
2.94251,0.584234,0.0174357
2.78247,0.274294,-0.0162501
2.8207,0.418034,-0.307154
2.66514,0.131746,-0.24909
2.8758,0.426201,0.0676492
2.70052,0.133495,0.0314775
2.82616,0.418843,-0.199783
2.75345,0.271434,-0.225868
2.79005,0.275042,0.0489365
2.66822,0.131898,-0.15558
2.87172,0.425595,0.169068
2.78021,0.274072,0.113818
2.84185,0.421168,-0.133824
2.7628,0.272355,-0.145494
2.84811,0.422097,-0.0669978
2.75052,0.260485,-0.0804062
2.71778,0.257384,-0.545991
2.84257,0.410126,0
2.67704,0.122031,-0.0311981
2.72176,0.257761,-0.347995
2.77553,0.262853,-0.0162036
2.81047,0.405495,-0.305869
2.66165,0.12133,-0.248718
2.86554,0.413441,0.0673701
2.69302,0.12276,0.0313844
2.81984,0.406848,-0.199224
2.74653,0.260107,-0.225217
2.77914,0.263195,0.0487271
2.66471,0.121469,-0.155347
2.77726,0.263017,0.113655
2.83158,0.408541,-0.133265
2.75587,0.260991,-0.145075
2.84971,0.411157,-0.0669978
2.74336,0.251114,-0.0801735
2.71466,0.248487,-0.545206
2.67341,0.113451,-0.0311515
2.78655,0.393113,-0.437816
2.72256,0.24921,-0.347995
2.7644,0.253039,-0.0161339
2.66202,0.112968,-0.248718
2.86287,0.403879,0.067277
2.69339,0.114299,0.0313844
2.74337,0.251114,-0.224891
2.77199,0.253734,0.0485875
2.77011,0.253562,0.113329
2.82493,0.398527,-0.132893
2.74872,0.251604,-0.144657
2.83119,0.39941,-0.0665326
2.69989,0.237633,-0.542068
2.6698,0.103962,-0.031105
2.78791,0.383383,-0.437816
2.71946,0.239356,-0.34749
2.75331,0.242335,-0.0160641
2.79734,0.384679,-0.304156
2.64648,0.103055,-0.247231
2.84049,0.390614,0.0667187
2.68578,0.104585,0.0312912
2.74026,0.241186,-0.224566
2.76489,0.243354,0.0484479
2.6495,0.103172,-0.154417
2.84832,0.39169,0.16744
2.76302,0.24319,0.113003
2.81443,0.38703,-0.132335
2.7456,0.241657,-0.144447
2.82861,0.388979,-0.0664395
2.69288,0.227549,-0.540499
2.66215,0.094361,-0.0310118
2.78531,0.373126,-0.437201
2.70842,0.228861,-0.345975
2.74218,0.231715,-0.0159944
2.79078,0.373858,-0.303299
2.64284,0.0936767,-0.246859
2.82995,0.379105,0.0664395
2.67414,0.094786,0.0311515
2.72916,0.230614,-0.22359
2.75775,0.23303,0.0483083
2.64984,0.0939249,-0.154417
2.75987,0.233209,0.112841
2.73449,0.231065,-0.143819
2.83391,0.379636,-0.0665326
2.68584,0.217514,-0.53893
2.66246,0.0850671,-0.0310118
2.77484,0.361867,-0.435356
2.70524,0.219085,-0.34547
2.74297,0.22214,-0.0159944
2.79207,0.364114,-0.303299
2.64315,0.0844502,-0.246859
2.83918,0.370258,0.0666256
2.67445,0.0854503,0.0311515
2.72598,0.220764,-0.223264
2.75456,0.223079,0.0482385
2.64616,0.0845464,-0.154185
2.83911,0.370248,0.166743
2.7527,0.222928,0.112515
2.7313,0.221195,-0.14361
2.83125,0.369224,-0.0664395
2.72667,0.211243,-0.0795917
2.68267,0.207835,-0.538146
2.65475,0.0755459,-0.0309187
2.76432,0.350687,-0.433511
2.69017,0.208415,-0.34345
2.73177,0.211638,-0.0159246
2.63945,0.0751107,-0.246488
2.82856,0.358836,0.0663465
2.66674,0.0758872,0.0310584
2.79076,0.354041,-0.196713
2.71878,0.210632,-0.222613
2.74336,0.212536,0.048029
2.63846,0.0750824,-0.15372
2.83246,0.359331,0.166278
2.74549,0.212701,0.112189
2.72409,0.211043,-0.143191
2.82459,0.358333,-0.0662534
2.72341,0.201428,-0.0794753
2.68338,0.198468,-0.538146
2.65499,0.0662779,-0.0309187
2.75769,0.340067,-0.432282
2.68692,0.19873,-0.342945
2.7285,0.201805,-0.0159014
2.63572,0.0657967,-0.246116
2.81392,0.347002,0.0659743
2.66299,0.0664775,0.0310118
2.78406,0.34332,-0.196155
2.7195,0.20114,-0.222613
2.7401,0.202663,0.0479592
2.63072,0.065672,-0.153254
2.82577,0.348463,0.165813
2.74223,0.202821,0.112026
2.71684,0.200943,-0.142773
2.78241,0.205792,0.50869
2.81789,0.347491,-0.0660673
2.67623,0.188548,-0.536577
2.65121,0.0569233,-0.0308722
2.75493,0.329968,-0.431667
2.69156,0.189628,-0.34345
2.7252,0.191998,-0.0158782
2.76809,0.331544,-0.3003
2.62,0.0562533,-0.244629
2.81114,0.336701,0.0658812
2.66321,0.0571808,0.0310118
2.71223,0.191084,-0.221962
2.73281,0.192534,0.0478196
2.62694,0.0564023,-0.153022
2.82301,0.338122,0.16558
2.73495,0.192685,0.111701
2.70956,0.190896,-0.142354
2.77133,0.195248,0.506538
2.66514,0.17842,-0.534224
2.64739,0.0475971,-0.0308256
2.75214,0.319894,-0.431052
2.68033,0.179437,-0.341934
2.72585,0.182485,-0.0158782
2.76133,0.320962,-0.299443
2.62018,0.047108,-0.244629
2.8123,0.326887,0.0658812
2.64739,0.0475971,0.0308256
2.7745,0.322493,-0.195318
2.70095,0.180817,-0.220986
2.72548,0.18246,0.04768
2.62712,0.0472327,-0.153022
2.81227,0.326883,0.164882
2.7356,0.183137,0.111701
2.69825,0.180637,-0.141726
2.76414,0.185048,0.505103
2.80038,0.325502,-0.0656021
2.654,0.16837,-0.53187
2.63155,0.0381233,-0.0306393
2.74146,0.308957,-0.429207
2.67698,0.169828,-0.341429
2.7145,0.172208,-0.0158084
2.75453,0.31043,-0.298587
2.61237,0.0378454,-0.243885
2.8015,0.315724,0.0656021
2.64754,0.038355,0.0308256
2.77164,0.312359,-0.195039
2.69759,0.171135,-0.22066
2.72211,0.172691,0.0476102
2.62328,0.0380035,-0.152789
2.81736,0.317511,0.165115
2.73224,0.173333,0.111538
2.77143,0.312335,-0.129915
2.69089,0.17071,-0.141307
2.8445,0.320569,0.351471
2.76477,0.175397,0.505103
2.8015,0.315724,-0.0656021
2.69402,0.161471,-0.0785444
2.65849,0.159341,-0.532655
2.77949,0.303423,0
2.63566,0.028983,-0.0306859
2.73859,0.298958,-0.428592
2.66963,0.160009,-0.340419
2.71907,0.162973,-0.0158317
2.75164,0.300383,-0.298158
2.6085,0.0286843,-0.243513
2.79861,0.305511,0.065509
2.63966,0.029027,0.0307325
2.76082,0.301385,-0.194202
2.68623,0.161004,-0.219684
2.71072,0.162472,0.0474007
2.6194,0.0288042,-0.152557
2.81448,0.307243,0.164882
2.72086,0.16308,0.111049
2.77251,0.302661,-0.129915
2.69546,0.161557,-0.141516
2.82586,0.308486,0.349034
2.75358,0.165041,0.50295
2.78669,0.304209,-0.0652298
2.65117,0.150081,-0.531086
2.7765,0.293782,0
2.62774,0.0201805,-0.0305928
2.73171,0.289043,-0.427362
2.66619,0.150931,-0.339914
2.69963,0.152824,-0.0157154
2.60062,0.0199722,-0.24277
2.79563,0.295807,0.0654159
2.7618,0.292227,-0.194202
2.68277,0.151869,-0.219359
2.70725,0.153255,0.0473309
2.60751,0.0200251,-0.151859
2.80357,0.296647,0.164185
2.71739,0.153829,0.110887
2.76555,0.292623,-0.129543
2.69199,0.152391,-0.141307
2.82292,0.298694,0.348546
2.64384,0.140409,-0.529517
2.76955,0.283274,0
2.6278,0.0110072,-0.0305928
2.72877,0.279103,-0.426747
2.66273,0.141412,-0.339409
2.85913,0.434445,0.0168081
2.69216,0.142975,-0.0156689
2.7378,0.280026,-0.296445
2.59669,0.0108768,-0.242398
2.78471,0.284825,0.0651368
2.75884,0.282178,-0.193923
2.68328,0.142503,-0.219359
2.70378,0.143592,0.0472611
2.60756,0.0109224,-0.151859
2.79665,0.286045,0.16372
2.70594,0.143706,0.110398
2.7586,0.282154,-0.12917
2.68852,0.142781,-0.141098
2.77676,0.284011,-0.0649507
2.6404,0.130985,-0.528732
2.76654,0.273212,0
2.61982,0.00182934,-0.0304996
2.65925,0.13192,-0.338904
2.69664,0.133775,-0.0156922
2.7348,0.270078,-0.296016
2.59273,0.00181042,-0.242026
2.77773,0.274317,0.0649507
2.62382,0.00183213,0.0305462
2.74789,0.27137,-0.193086
2.67182,0.132544,-0.218382
2.70027,0.133955,0.0471913
2.60359,0.001818,-0.151627
2.8016,0.276675,0.163952
2.70642,0.134261,0.110398
2.75957,0.272524,-0.12917
2.66905,0.132407,-0.140051
2.77375,0.273924,-0.0648576
2.62908,0.121226,-0.526379
2.61581,-0.00730387,-0.0304531
2.6478,0.122089,-0.337389
2.69709,0.124362,-0.0156922
2.73968,0.260907,-0.296445
2.58874,-0.00722826,-0.241655
2.77867,0.26462,0.0649507
2.61581,-0.00730387,0.0304531
2.74088,0.261021,-0.192528
2.6643,0.12285,-0.217731
2.69672,0.124345,0.0471215
2.60358,-0.00726971,-0.151627
2.7946,0.266137,0.163487
2.69889,0.124445,0.110073
2.75653,0.262511,-0.128984
2.67748,0.123458,-0.14047
2.79823,0.266483,0.345134
2.73201,0.125972,0.498645
2.76673,0.263483,-0.0646715
2.62949,0.112048,-0.526379
2.75245,0.25243,0
2.61177,-0.0164102,-0.0304065
2.64425,0.112676,-0.336884
2.68552,0.114435,-0.0156224
2.7287,0.250252,-0.295159
2.58471,-0.0162402,-0.241283
2.76763,0.253823,0.0646715
2.61577,-0.0164354,0.0304531
2.74177,0.251451,-0.192528
2.66073,0.113379,-0.217406
2.68915,0.11459,0.0469819
2.59555,-0.0163083,-0.151161
2.78358,0.255286,0.162789
2.69931,0.115023,0.110073
2.74549,0.251792,-0.128426
2.66592,0.1136,-0.139842
2.78728,0.255625,0.343672
2.72457,0.116099,0.49721
2.75967,0.253092,-0.0644854
2.62987,0.102869,-0.526379
2.7573,0.243173,0
2.5997,-0.0254091,-0.0302668
2.64066,0.103291,-0.336379
2.83322,0.390119,0.0166221
2.67391,0.104592,-0.0155527
2.72163,0.240027,-0.294303
2.58066,-0.025223,-0.240911
2.7685,0.244161,0.0646715
2.6077,-0.0254873,0.0303599
2.73071,0.240828,-0.191691
2.64915,0.103623,-0.21643
2.68154,0.10489,0.0468423
2.58749,-0.0252898,-0.150696
2.77252,0.244516,0.162092
2.69171,0.105288,0.109747
2.75431,0.24291,-0.128798
2.67029,0.10445,-0.140051
2.7842,0.245546,0.343184
2.7446,0.242053,-0.0641132
2.62629,0.0935479,-0.525594
2.74617,0.232533,0
2.5996,-0.0344843,-0.0302668
2.70171,0.228769,-0.421828
2.63704,0.0939307,-0.335873
2.8306,0.379694,0.0165988
2.67426,0.0952565,-0.0155527
2.72245,0.230525,-0.294303
2.57657,-0.0341789,-0.240539
2.75738,0.233483,0.0643924
2.73551,0.23163,-0.19197
2.6495,0.0943746,-0.21643
2.68589,0.0956707,0.0469121
2.58739,-0.0343224,-0.150696
2.77336,0.234836,0.162092
2.68806,0.0957483,0.109584
2.73524,0.231607,-0.127868
2.65866,0.094701,-0.139423
2.78109,0.23549,0.342697
2.74144,0.232133,-0.0640202
2.61484,0.0840026,-0.523241
2.74697,0.222947,0
2.59546,-0.0434908,-0.0302203
2.69068,0.218378,-0.419983
2.62942,0.0844709,-0.334863
2.82001,0.368258,0.0165291
2.67458,0.0859216,-0.0155527
2.71531,0.220378,-0.293446
2.57644,-0.043172,-0.240539
2.75021,0.22321,0.0642063
2.59546,-0.0434908,0.0302203
2.72039,0.22079,-0.190854
2.64583,0.0849981,-0.216104
2.67821,0.0860384,0.0467725
2.57927,-0.0432195,-0.150231
2.75824,0.223862,0.161161
2.68039,0.0861085,0.109258
2.74001,0.222382,-0.128054
2.64301,0.0849075,-0.138586
2.77002,0.224818,0.341234
2.74224,0.222563,-0.0640202
2.60728,0.0746494,-0.521672
2.73178,0.212117,0
2.5793,-0.0522272,-0.030034
2.6297,0.0752913,-0.334863
2.82128,0.358411,0.0165291
2.71607,0.210897,-0.293446
2.57229,-0.0520853,-0.240167
2.74699,0.213298,0.0641132
2.59529,-0.0525511,0.0302203
2.71319,0.210674,-0.190296
2.63814,0.0755331,-0.215453
2.82013,0.358266,0.0827335
2.6745,0.076574,0.0467026
2.79179,0.354665,-0.18036
2.75503,0.213922,0.160929
2.68068,0.0767509,0.109258
2.7328,0.212197,-0.127681
2.64329,0.0756805,-0.138586
2.77079,0.215146,0.341234
2.70233,0.0773708,0.492906
2.73503,0.212369,-0.0638341
2.79837,0.345085,-0.0492158
2.61145,0.0651912,-0.522456
2.73254,0.202104,0
2.57909,-0.0616799,-0.030034
2.61409,0.065257,-0.332843
2.80669,0.346111,0.0164361
2.66313,0.0664811,-0.0154829
2.70492,0.200062,-0.292161
2.5681,-0.061417,-0.239796
2.74376,0.202934,0.0640202
2.59108,-0.0619668,0.0301737
2.70996,0.200434,-0.190017
2.63441,0.0657644,-0.215128
2.81349,0.346949,0.0825008
2.66276,0.0664721,0.0464932
2.5749,-0.0615797,-0.149999
2.75181,0.203529,0.160696
2.67694,0.0668261,0.109096
2.64355,0.0659924,-0.138586
2.7676,0.204697,0.340747
2.69472,0.0672699,0.491471
2.72382,0.201459,-0.0635549
2.63027,0.0569344,-0.0765663
2.7292,0.19276,0
2.57887,-0.0702316,-0.030034
2.6731,0.188798,-0.416909
2.61429,0.0565885,-0.332843
2.79988,0.335849,0.0163896
2.65533,0.0574769,-0.0154364
2.69367,0.190251,-0.290876
2.74043,0.193553,0.0639271
2.58287,-0.0703405,0.0300806
2.70265,0.190885,-0.189459
2.6386,0.0571148,-0.215453
2.80668,0.336665,0.082268
2.65897,0.0575557,0.0464234
2.77834,0.333266,-0.179337
2.5667,-0.0699001,-0.149534
2.74052,0.193559,0.159999
2.66516,0.0576897,0.108607
2.72226,0.19227,-0.127123
2.64375,0.0572263,-0.138586
2.76034,0.19496,0.339772
2.7857,0.334149,-0.114306
2.7165,0.191863,-0.0633688
2.62646,0.0476794,-0.0764499
2.60007,0.0472005,-0.520103
2.72188,0.182696,0
2.57461,-0.0791109,-0.0299874
2.6698,0.179201,-0.416294
2.61447,0.0474619,-0.332843
2.80104,0.326073,0.0163896
2.69432,0.180846,-0.290876
2.5517,-0.0784069,-0.238309
2.73311,0.18345,0.063741
2.57861,-0.0792338,0.030034
2.69534,0.180915,-0.188901
2.63081,0.0477586,-0.214802
2.80387,0.326403,0.0821517
2.65516,0.0482005,0.0463536
2.77552,0.323103,-0.179081
2.56245,-0.0787372,-0.149301
2.74118,0.183991,0.159999
2.65336,0.0481679,0.108119
2.71494,0.18223,-0.126751
2.63595,0.0478518,-0.138167
2.75308,0.184791,0.338797
2.78685,0.324422,-0.114306
2.71316,0.182111,-0.0632757
2.78185,0.314493,-0.0488667
2.6266,0.0389688,-0.0764499
2.59237,0.038461,-0.518534
2.71049,0.172904,0
2.56634,-0.0873767,-0.0298943
2.66249,0.169842,-0.415064
2.61461,0.038791,-0.332843
2.79018,0.315434,0.0163199
2.68696,0.171403,-0.290019
2.55142,-0.0868689,-0.238309
2.72173,0.173621,0.0634618
2.56634,-0.0873767,0.0298943
2.68796,0.171467,-0.188342
2.62298,0.0389152,-0.214151
2.79699,0.316204,0.0819189
2.6513,0.0393354,0.0462838
2.77261,0.313448,-0.178825
2.73779,0.174645,0.159766
2.65351,0.039368,0.108119
2.70755,0.172717,-0.126379
2.6321,0.0390504,-0.137958
2.74576,0.175154,0.337822
2.776,0.313831,-0.113818
2.67953,0.0397541,0.488601
2.71375,0.173112,-0.0632757
2.77896,0.304347,-0.0487969
2.61472,0.0296658,-0.0761008
2.58857,0.029369,-0.51775
2.71108,0.163443,0
2.56202,-0.0961826,-0.0298477
2.66307,0.160549,-0.415064
2.60283,0.0295308,-0.331328
2.64379,0.0299955,-0.0153667
2.68358,0.161785,-0.28959
2.71833,0.163881,0.0633688
2.56202,-0.0961826,0.0298477
2.68854,0.162085,-0.188342
2.6231,0.0297608,-0.214151
2.7941,0.306006,0.0818026
2.64743,0.0300368,0.046214
2.76575,0.302901,-0.178314
2.54988,-0.0957268,-0.148603
2.72642,0.164369,0.159068
2.64164,0.0299711,0.10763
2.69618,0.162545,-0.12582
2.62423,0.0297736,-0.137539
2.74635,0.16557,0.337822
2.67571,0.0303577,0.487883
2.69438,0.162437,-0.0628105
2.77205,0.293801,-0.0486573
2.61081,0.0205064,-0.0759845
2.69965,0.153298,0
2.55368,-0.104798,-0.0297546
2.65178,0.150579,-0.413219
2.60292,0.0204444,-0.331328
2.7764,0.294262,0.0162269
2.67618,0.151965,-0.288734
2.71489,0.154163,0.0632757
2.54968,-0.104634,0.029708
2.68511,0.152472,-0.188063
2.60725,0.0204784,-0.212849
2.78323,0.294986,0.0814535
2.63952,0.0207318,0.0460744
2.75489,0.291982,-0.177546
2.54953,-0.104628,-0.148603
2.71502,0.154171,0.158371
2.64173,0.0207492,0.10763
2.69673,0.153132,-0.12582
2.62032,0.0205811,-0.13733
2.73502,0.155307,0.336359
2.76222,0.29276,-0.113166
2.66793,0.020955,0.486448
2.70291,0.153483,-0.0629966
2.60687,0.010921,-0.0758681
2.58087,0.010812,-0.516181
2.6962,0.143191,0
2.55328,-0.114156,-0.0297546
2.64836,0.14065,-0.412604
2.59504,0.0108714,-0.330318
2.62793,0.0110092,-0.0152737
2.66481,0.141524,-0.287448
2.70745,0.143788,0.0630896
2.55727,-0.114335,0.0298012
2.68166,0.142419,-0.187784
2.61129,0.0109395,-0.213175
2.78031,0.284376,0.0813371
2.63558,0.0110412,0.0460045
2.75197,0.281477,-0.17729
2.53317,-0.113257,-0.147673
2.70759,0.143796,0.157906
2.64179,0.0110672,0.10763
2.68929,0.142824,-0.125448
2.62038,0.0109776,-0.13733
2.73161,0.145071,0.335872
2.66406,0.0111605,0.485731
2.68748,0.142728,-0.0626244
2.6029,0.00227199,-0.0757518
2.69666,0.134248,0
2.54489,-0.122239,-0.0296615
2.64882,0.131866,-0.412604
2.59109,0.00226169,-0.329813
2.62396,0.00229037,-0.0152505
2.65732,0.13229,-0.286592
2.69992,0.134411,0.0629035
2.54489,-0.122239,0.0296615
2.60334,0.00227238,-0.212524
2.77328,0.274367,0.0811044
2.74891,0.271956,-0.177034
2.53677,-0.121849,-0.147906
2.70406,0.134617,0.157673
2.62982,0.00229549,0.107142
2.67778,0.133308,-0.12489
2.61241,0.0022803,-0.136911
2.73207,0.136011,0.335872
2.75227,0.272288,-0.112678
2.66015,0.00232196,0.485013
2.68395,0.133615,-0.0625313
2.75109,0.262476,-0.0482385
2.59889,-0.00680405,-0.0756354
2.61265,0.120925,-0.732167
2.56519,-0.00671582,-0.513043
2.68113,0.124094,0
2.54046,-0.130917,-0.0296149
2.64531,0.122436,-0.41199
2.61995,-0.00685918,-0.0152272
2.65379,0.122829,-0.286163
2.68839,0.12443,0.0626244
2.54046,-0.130917,0.0296149
2.65865,0.123054,-0.18611
2.62759,-0.00687919,0.0458649
2.7419,0.2616,-0.176523
2.53234,-0.130499,-0.147673
2.70053,0.124992,0.15744
2.62981,-0.006885,0.107142
2.67423,0.123775,-0.124703
2.60442,-0.00681852,-0.136492
2.72063,0.125922,0.33441
2.74525,0.261919,-0.112352
2.65227,-0.00694379,0.483578
2.6804,0.12406,-0.0624383
2.75203,0.252392,-0.0482385
2.59485,-0.0163037,-0.075519
2.61308,0.111348,-0.732167
2.56515,-0.0161171,-0.513043
2.52798,-0.139565,-0.0294752
2.6339,0.112235,-0.410145
2.58311,-0.0162299,-0.328802
2.6159,-0.016436,-0.015204
2.64628,0.112763,-0.285307
2.68484,0.114406,0.0625313
2.53996,-0.140227,0.0296149
2.6551,0.113139,-0.185831
2.61955,-0.0164589,0.0457253
2.52387,-0.139339,-0.147208
2.69698,0.114924,0.157208
2.62177,-0.0164729,0.106816
2.66669,0.113633,-0.124331
2.60437,-0.0163636,-0.136492
2.70918,0.115443,0.332947
2.73823,0.251126,-0.112026
2.65222,-0.0166642,0.483578
2.68484,0.114406,-0.0625313
2.7409,0.242208,-0.048029
2.59478,-0.0249092,-0.075519
2.60189,0.102228,-0.728932
2.66994,0.104902,0
2.52351,-0.147715,-0.0294287
2.6303,0.103345,-0.40953
2.5751,-0.0247203,-0.327792
2.64664,0.103986,-0.285307
2.6852,0.105502,0.0625313
2.53149,-0.148182,0.0295218
2.60748,-0.0250311,0.0455159
2.5234,-0.147708,-0.147208
2.68936,0.105665,0.156743
2.61771,-0.0251293,0.106653
2.66705,0.104788,-0.124331
2.70955,0.106458,0.332947
2.64428,-0.0253844,0.482144
2.66922,0.104874,-0.0621591
2.73376,0.231963,-0.0478894
2.59068,-0.0339136,-0.0754027
2.60223,0.0931458,-0.728932
2.66229,0.0952958,0
2.52298,-0.156522,-0.0294287
2.6267,0.0940217,-0.408915
2.57103,-0.0336564,-0.327287
2.63506,0.094321,-0.284021
2.68555,0.0961284,0.0625313
2.53096,-0.157017,0.0295218
2.64385,0.0946355,-0.184994
2.58717,-0.0338677,-0.211222
2.60738,-0.0341322,0.0455159
2.5149,-0.15602,-0.146743
2.67775,0.0958489,0.156045
2.61361,-0.0342138,0.10649
2.65941,0.0951926,-0.123959
2.70593,0.0968578,0.33246
2.73191,0.231806,-0.111701
2.64024,-0.0345624,0.481426
2.66557,0.0954131,-0.0620661
2.57456,-0.0426909,-0.0749372
2.59099,0.0836893,-0.725697
2.65462,0.0857444,0
2.51843,-0.165066,-0.0293821
2.61911,0.0845976,-0.407685
2.62742,0.0848661,-0.283165
2.66988,0.0862376,0.0621591
2.52641,-0.165589,0.0294752
2.57906,-0.0427657,-0.210571
2.60325,-0.0431666,0.0454461
2.71743,0.221027,-0.174732
2.51035,-0.164536,-0.14651
2.60148,-0.0431374,0.106002
2.64375,0.0853936,-0.123214
2.69832,0.087156,0.331485
2.60697,-0.0432283,0.212849
2.63617,-0.0437126,0.480709
2.66589,0.0861085,-0.0620661
2.72734,0.212252,-0.0477498
2.57839,-0.0517584,-0.0750536
2.59127,0.0746438,-0.725697
2.51783,-0.173856,-0.0293821
2.62334,0.0755678,-0.4083
2.59543,-0.0521006,-0.0150877
2.62373,0.0755789,-0.282736
2.66617,0.0768016,0.0620661
2.52182,-0.174132,0.0294287
2.71023,0.21092,-0.17422
2.50976,-0.173299,-0.14651
2.66637,0.0768074,0.155347
2.60132,-0.0522187,0.106002
2.64404,0.0761639,-0.123214
2.71752,0.211488,-0.111049
2.62814,-0.0527571,0.479274
2.66217,0.0766864,-0.061973
2.73205,0.203027,-0.0478196
2.5742,-0.0606636,-0.0749372
2.58766,0.0655012,-0.724619
2.50125,-0.181486,-0.0291958
2.60383,0.0659106,-0.405226
2.55864,-0.060297,-0.325772
2.59124,-0.0610652,-0.0150645
2.61602,0.0662192,-0.281879
2.65443,0.0671914,0.0617869
2.57073,-0.060582,-0.20992
2.70299,0.200867,-0.173709
2.59712,-0.061204,0.105839
2.6363,0.0667324,-0.122842
2.67902,0.0678138,0.329047
2.62794,-0.0619301,0.479274
2.65843,0.0672926,-0.06188
2.71279,0.192076,-0.0474705
2.56597,-0.0694332,-0.0747045
2.57632,0.0562155,-0.721384
2.64337,0.0576786,0
2.49662,-0.189913,-0.0291493
2.60405,0.0568205,-0.405226
2.54651,-0.0689066,-0.324257
2.61226,0.0569998,-0.281451
2.65865,0.0580119,0.06188
2.50858,-0.190823,0.029289
2.58666,-0.0699929,0.0451668
2.50053,-0.19021,-0.146045
2.65487,0.0579294,0.15465
2.58491,-0.0699456,0.10535
2.62852,0.0573546,-0.12247
2.57153,-0.0695835,-0.134817
2.62377,-0.0709971,0.478556
2.65465,0.0579247,-0.0617869
2.56572,-0.0783897,-0.0747045
2.5765,0.0472221,-0.721384
2.63556,0.0483045,0
2.49594,-0.198626,-0.0291493
2.60028,0.0476579,-0.404611
2.54229,-0.077674,-0.323752
2.57476,-0.0786659,-0.0149715
2.65084,0.0485846,0.0616939
2.5079,-0.199578,0.029289
2.5864,-0.0790216,0.0451668
2.48393,-0.19767,-0.145115
2.58864,-0.0790902,0.105513
2.62072,0.0480325,-0.122098
2.67546,0.0490358,0.32856
2.64284,0.048438,-0.0615077
2.54944,-0.0868011,-0.074239
2.56509,0.0380567,-0.718149
2.62771,0.0389857,0
2.49124,-0.207006,-0.0291027
2.59252,0.0384637,-0.403381
2.53804,-0.0864128,-0.323247
2.57447,-0.087653,-0.0149715
2.64299,0.0392125,0.0615077
2.49922,-0.207669,0.0291958
2.57811,-0.0877772,0.0450272
2.48322,-0.20634,-0.145115
2.57637,-0.0877178,0.105025
2.66767,0.0395786,0.327585
2.61141,-0.0889109,0.476404
2.639,0.0391532,-0.0614147
2.69464,0.163395,-0.0471215
2.54916,-0.0948099,-0.074239
2.56905,0.0300431,-0.719227
2.49058,-0.214832,-0.0291027
2.58473,0.0302264,-0.402151
2.56618,-0.0954431,-0.014925
2.47997,-0.213916,-0.23236
2.6431,0.0309091,0.0615077
2.49058,-0.214832,0.0291027
2.57782,-0.0958761,0.0450272
2.47858,-0.213797,-0.144882
2.64334,0.0309119,0.153952
2.57209,-0.0956627,0.104862
2.61299,0.0305569,-0.121725
2.55872,-0.0951655,-0.134189
2.54478,-0.104433,-0.0741227
2.48177,-0.223675,-0.0290096
2.58894,0.0203339,-0.278881
2.63521,0.0206973,0.0613216
2.48974,-0.224393,0.0291027
2.47774,-0.223312,-0.144882
2.63945,0.0207306,0.15372
2.56771,-0.105374,0.104699
2.60909,0.0204922,-0.121539
2.55434,-0.104826,-0.13398
2.652,0.0208292,0.325635
2.53641,-0.11296,-0.07389
2.47301,-0.231591,-0.0289165
2.57698,0.0112442,-0.400921
2.52907,-0.112633,-0.322237
2.58502,0.0112794,-0.278452
2.63126,0.0114811,0.0612286
2.48894,-0.233083,0.0291027
2.56507,-0.114236,0.0448178
2.47695,-0.23196,-0.144882
2.63551,0.0114996,0.153487
2.55934,-0.113981,0.104373
2.60116,0.0113497,-0.121167
2.54598,-0.113386,-0.133561
2.62327,0.0114462,-0.0610425
2.53999,-0.122005,-0.0740063
2.47617,-0.240609,-0.028963
2.56909,0.00224196,-0.399691
2.52073,-0.121079,-0.321226
2.55301,-0.12263,-0.0148553
2.63129,0.00229623,0.0612286
2.48413,-0.241383,0.0290561
2.59766,0.00226688,-0.181646
2.53663,-0.121843,-0.207317
2.55666,-0.122805,0.0446782
2.4642,-0.239446,-0.144185
2.62755,0.00229297,0.153022
2.56292,-0.123106,0.104536
2.60118,0.00226996,-0.121167
2.64414,0.00230745,0.32466
2.61129,0.00227878,-0.0607633
2.53561,-0.129779,-0.07389
2.47142,-0.247988,-0.0289165
2.56909,-0.00582908,-0.399691
2.51638,-0.128795,-0.320721
2.54862,-0.130445,-0.014832
2.61928,-0.00594297,0.0609494
2.48336,-0.249186,0.0290561
2.58568,-0.00586672,-0.180809
2.55227,-0.130632,0.0446084
2.45549,-0.246389,-0.14372
2.62754,-0.00596171,0.153022
2.54655,-0.13034,0.103885
2.59318,-0.00588375,-0.120795
2.6362,-0.00598134,0.323685
2.61529,-0.0059339,-0.0608564
2.51914,-0.138196,-0.0734245
2.49868,-0.137074,-0.500491
2.4705,-0.257044,-0.0289165
2.55719,-0.0151749,-0.397847
2.51193,-0.1378,-0.320216
2.67748,0.115029,0.0155759
2.57307,-0.0152691,-0.277167
2.61525,-0.0155194,0.0608564
2.47447,-0.257458,0.028963
2.58165,-0.01532,-0.18053
2.55177,-0.139986,0.0446084
2.45457,-0.255387,-0.14372
2.61952,-0.0155447,0.152557
2.54606,-0.139672,0.103885
2.58915,-0.0153645,-0.120609
2.52872,-0.138721,-0.132724
2.60725,-0.0154719,-0.0606703
2.51466,-0.146756,-0.0733081
2.46163,-0.264811,-0.0288233
2.50747,-0.146336,-0.319711
2.53964,-0.148213,-0.0147855
2.56902,-0.0242132,-0.276739
2.61118,-0.0246105,0.0607633
2.46561,-0.265238,0.0288699
2.58158,-0.0243315,-0.18053
2.54728,-0.148659,0.0445385
2.45366,-0.263954,-0.14372
2.61545,-0.0246508,0.152324
2.54555,-0.148559,0.103885
2.58508,-0.0243645,-0.120423
2.52424,-0.147315,-0.132515
2.62418,-0.024733,0.322223
2.60318,-0.0245351,-0.0605772
2.51016,-0.154847,-0.0731918
2.58779,-0.0329726,0
2.45676,-0.272531,-0.0287768
2.55308,-0.0325303,-0.397232
2.49905,-0.154162,-0.318701
2.53514,-0.156388,-0.0147623
2.56495,-0.0326816,-0.27631
2.61108,-0.0332693,0.0607633
2.46471,-0.273413,0.0288699
2.57351,-0.0327906,-0.179972
2.53879,-0.156613,0.0443989
2.45277,-0.272089,-0.14372
2.61536,-0.0333238,0.152324
2.53707,-0.156507,0.103559
2.58898,-0.0329878,-0.120609
2.51975,-0.155439,-0.132305
2.59909,-0.0331165,-0.0604842
2.50559,-0.163786,-0.0730754
2.58765,-0.0424571,0
2.45177,-0.281078,-0.0287302
2.54109,-0.041693,-0.395387
2.49451,-0.163061,-0.318196
2.52657,-0.165157,-0.0147158
2.60694,-0.0427736,0.0606703
2.45575,-0.281534,0.0287768
2.56539,-0.0420918,-0.179414
2.5342,-0.165656,0.0443291
2.43986,-0.279712,-0.143022
2.60723,-0.0427783,0.151859
2.53249,-0.165544,0.103397
2.58085,-0.0423455,-0.120236
2.51916,-0.164673,-0.132305
2.616,-0.0429222,0.321248
2.59095,-0.0425112,-0.0602981
2.50101,-0.172256,-0.0729591
2.45078,-0.289635,-0.0287302
2.54092,-0.0505628,-0.395387
2.48996,-0.171495,-0.317691
2.65084,0.0768229,0.0154132
2.51799,-0.173426,-0.0146693
2.56068,-0.0509559,-0.275882
2.43638,-0.287933,-0.229014
2.59478,-0.0516346,0.0603911
2.45872,-0.290574,0.0288233
2.56523,-0.0510464,-0.179414
2.65776,0.0770234,0.0773808
2.52962,-0.174227,0.0442593
2.4349,-0.287759,-0.142789
2.59509,-0.0516406,0.151161
2.51993,-0.173559,0.102908
2.56871,-0.0511156,-0.119678
2.50661,-0.172642,-0.131677
2.58679,-0.0514755,-0.060205
2.45682,-0.1774,-0.492647
2.57131,-0.0596982,0
2.4498,-0.29776,-0.0287302
2.53284,-0.0588051,-0.394157
2.48542,-0.179465,-0.317186
2.64708,0.0679294,0.0153899
2.52139,-0.182063,-0.0146925
2.55254,-0.0592625,-0.275025
2.4275,-0.29505,-0.228271
2.5906,-0.0601461,0.0602981
2.45377,-0.298243,0.0287768
2.56105,-0.0594601,-0.179135
2.52105,-0.182038,0.0441197
2.43393,-0.295831,-0.142789
2.5949,-0.060246,0.151161
2.52333,-0.182203,0.103071
2.56453,-0.0595408,-0.119492
2.50204,-0.180666,-0.131468
2.58261,-0.0599605,-0.060112
2.49978,-0.189276,-0.0729591
2.57108,-0.0686733,0
2.43684,-0.304821,-0.0285905
2.52867,-0.0675404,-0.393542
2.48478,-0.18814,-0.317186
2.64331,0.0586003,0.0153667
2.51277,-0.190259,-0.014646
2.55232,-0.0681722,-0.275025
2.58638,-0.0690818,0.060205
2.44478,-0.305814,0.0286836
2.55684,-0.068293,-0.178856
2.51641,-0.190535,0.0440499
2.42892,-0.30383,-0.142557
2.59069,-0.0691969,0.150929
2.51471,-0.190406,0.102745
2.5683,-0.0685989,-0.119678
2.5014,-0.189398,-0.131468
2.59954,-0.0694335,0.319298
2.58238,-0.0689751,-0.060112
2.4911,-0.197804,-0.0727263
2.56282,-0.0778535,0
2.43968,-0.314261,-0.0286371
2.52445,-0.076688,-0.392927
2.47616,-0.196618,-0.316176
2.6355,0.0487637,0.0153202
2.50408,-0.198834,-0.0145995
2.5441,-0.0772849,-0.274168
2.58211,-0.0784395,0.060112
2.44364,-0.314772,0.0286836
2.5486,-0.0774215,-0.178298
2.49184,-0.197863,-0.204062
2.51171,-0.19944,0.0439801
2.42779,-0.31273,-0.142557
2.58642,-0.0785705,0.150696
2.514,-0.199622,0.102745
2.56803,-0.0780118,-0.119678
2.4967,-0.198249,-0.131259
2.57012,-0.0780752,-0.0598328
2.48243,-0.205837,-0.0724936
2.55853,-0.0866635,0
2.4346,-0.32225,-0.0285905
2.52022,-0.0853657,-0.392312
2.47151,-0.204932,-0.315671
2.63166,0.0395037,0.015297
2.50337,-0.207574,-0.0145995
2.53587,-0.0858958,-0.273312
2.57782,-0.0873169,0.0600189
2.43856,-0.322775,0.0286371
2.54831,-0.0863173,-0.178298
2.63859,0.0396077,0.076799
2.511,-0.208207,0.0439801
2.41877,-0.320155,-0.142092
2.57815,-0.087328,0.150231
2.5093,-0.208066,0.102582
2.55976,-0.0867049,-0.119306
2.48804,-0.206303,-0.13084
2.56184,-0.0867754,-0.0596467
2.55821,-0.0955939,0
2.42553,-0.329669,-0.0284974
2.52386,-0.09431,-0.392927
2.47078,-0.213558,-0.315671
2.62778,0.0302712,0.0152737
2.49466,-0.215622,-0.014553
2.53555,-0.0947471,-0.273312
2.4152,-0.328265,-0.227527
2.56551,-0.0958667,0.0597397
2.43742,-0.331285,0.0286371
2.54401,-0.095063,-0.178019
2.63071,0.030305,0.0765663
2.50627,-0.216626,0.0439103
2.57384,-0.0961778,0.149999
2.50059,-0.216135,0.102257
2.55145,-0.0953411,-0.118934
2.49128,-0.21533,-0.131049
2.58279,-0.0965121,0.317348
2.61366,0.0301085,-0.10649
2.55752,-0.095568,-0.0595536
2.54589,-0.103589,0
2.42443,-0.337711,-0.0284974
2.51168,-0.102197,-0.391083
2.46215,-0.221041,-0.31466
2.61987,0.0214914,0.0152272
2.48994,-0.223536,-0.0145298
2.53125,-0.102993,-0.272883
2.41015,-0.335722,-0.227155
2.56119,-0.104211,0.0596467
2.42839,-0.338263,0.0285439
2.53172,-0.103012,-0.177181
2.6308,0.0215811,0.0765663
2.50156,-0.224578,0.0438404
2.56952,-0.10455,0.149766
2.4919,-0.223712,0.101931
2.54713,-0.103639,-0.118747
2.47066,-0.221804,-0.130003
2.5532,-0.103886,-0.0594606
2.60758,0.0118329,-0.0455159
2.5455,-0.112919,0
2.42317,-0.346595,-0.0284974
2.50339,-0.111052,-0.389853
2.46133,-0.230063,-0.31466
2.61993,0.0118889,0.0152272
2.48114,-0.231916,-0.0144833
2.52688,-0.112094,-0.272455
2.56878,-0.113952,0.0598328
2.42713,-0.347161,0.0285439
2.52734,-0.112114,-0.176902
2.46502,-0.230409,-0.202109
2.48877,-0.232629,0.043631
2.41528,-0.345466,-0.142092
2.56513,-0.11379,0.149534
2.49107,-0.232843,0.101931
2.54274,-0.112797,-0.118561
2.46983,-0.230858,-0.130003
2.5528,-0.113243,-0.0594606
2.6036,0.00363531,-0.0454461
2.46348,-0.238074,-0.0720282
2.54113,-0.120726,0
2.4102,-0.352469,-0.0283577
2.50303,-0.118916,-0.389853
2.45269,-0.237031,-0.31365
2.48438,-0.240094,-0.0145065
2.52255,-0.119843,-0.272027
2.55642,-0.121452,0.0595536
2.42207,-0.354206,0.0284974
2.52697,-0.120053,-0.176902
2.48803,-0.240446,0.043631
2.40233,-0.351319,-0.141394
2.56476,-0.121848,0.149534
2.48634,-0.240284,0.101768
2.53838,-0.120595,-0.118375
2.46909,-0.238616,-0.130003
2.56978,-0.122087,0.315885
2.54444,-0.120883,-0.0592745
2.45856,-0.247131,-0.0719118
2.53666,-0.130277,0
2.40883,-0.361721,-0.0283577
2.49861,-0.128323,-0.389238
2.44782,-0.24605,-0.313145
2.47548,-0.248832,-0.01446
2.51412,-0.12912,-0.27117
2.39856,-0.36018,-0.226412
2.55195,-0.131062,0.0594606
2.51454,-0.129141,-0.176065
2.47913,-0.249198,0.0434914
2.40097,-0.360541,-0.141394
2.55231,-0.131081,0.148836
2.4854,-0.249829,0.101768
2.53391,-0.130136,-0.118189
2.47213,-0.248495,-0.130212
2.56929,-0.131953,0.315885
2.53198,-0.130037,-0.0589953
2.59556,-0.0154025,-0.0453064
2.45371,-0.255298,-0.0717954
2.53219,-0.138912,0
2.40755,-0.370127,-0.0283577
2.4942,-0.136828,-0.388623
2.43905,-0.253772,-0.312135
2.47062,-0.257057,-0.0144368
2.51366,-0.137895,-0.27117
2.38942,-0.36734,-0.225668
2.54349,-0.139531,0.0592745
2.52602,-0.138573,-0.176902
2.47824,-0.25785,0.0434914
2.39575,-0.368313,-0.141162
2.54785,-0.13977,0.148603
2.47259,-0.257262,0.10128
2.52945,-0.138761,-0.118003
2.4633,-0.256296,-0.129793
2.56485,-0.140703,0.315398
2.52751,-0.138655,-0.0589023
2.5875,-0.023484,-0.0451668
2.44892,-0.262579,-0.0716791
2.52376,-0.146403,0
2.40242,-0.377069,-0.0283111
2.48981,-0.144434,-0.388008
2.4698,-0.264818,-0.0144368
2.50924,-0.145561,-0.270741
2.38825,-0.374844,-0.225668
2.54304,-0.147521,0.0592745
2.40242,-0.377069,0.0283111
2.50566,-0.145353,-0.175507
2.46549,-0.264355,0.043282
2.54341,-0.147543,0.148371
2.52501,-0.146476,-0.117817
2.45454,-0.263182,-0.129375
2.55647,-0.148301,0.314423
2.52307,-0.146363,-0.0588092
2.5914,-0.0325662,-0.0452366
2.51924,-0.154966,0
2.39714,-0.384819,-0.0282646
2.48535,-0.152881,-0.387393
2.43337,-0.269506,-0.31163
2.46886,-0.273437,-0.0144368
2.50475,-0.154075,-0.270313
2.5425,-0.156397,0.0592745
2.39319,-0.384185,0.028218
2.50912,-0.154343,-0.175786
2.44883,-0.271219,-0.201133
2.46853,-0.2734,0.0433518
2.57451,-0.032354,-0.16501
2.53889,-0.156175,0.148138
2.46686,-0.273215,0.101117
2.5205,-0.155043,-0.117631
2.44964,-0.271308,-0.129165
2.55198,-0.15698,0.313935
2.51457,-0.154678,-0.0586231
2.58327,-0.0419341,-0.045097
2.43903,-0.279187,-0.0714464
2.51865,-0.164198,0
2.38782,-0.392305,-0.0281714
2.48477,-0.161989,-0.387393
2.42448,-0.27752,-0.31062
2.4599,-0.281574,-0.0143903
2.49623,-0.162737,-0.269456
2.37765,-0.390633,-0.224925
2.52595,-0.164674,0.0589023
2.39966,-0.39425,0.0283111
2.50057,-0.16302,-0.175228
2.46354,-0.281991,0.043282
2.5383,-0.165479,0.148138
2.46584,-0.282255,0.101117
2.51991,-0.16428,-0.117631
2.44863,-0.280285,-0.129165
2.54742,-0.166074,0.313448
2.51797,-0.164154,-0.0587162
2.57511,-0.0507934,-0.0449574
2.43804,-0.287699,-0.0714464
2.51407,-0.172715,0
2.39433,-0.401962,-0.0282646
2.48025,-0.170391,-0.386778
2.41955,-0.285517,-0.310115
2.45095,-0.289222,-0.0143438
2.49168,-0.171176,-0.269028
2.52935,-0.173764,0.0589953
2.39827,-0.402624,0.0283111
2.49601,-0.171474,-0.174949
2.5864,-0.0510162,0.0752863
2.45856,-0.29012,0.0432122
2.37469,-0.398665,-0.140231
2.4569,-0.289924,0.100791
2.51135,-0.172528,-0.117258
2.44367,-0.288362,-0.128956
2.54683,-0.174965,0.313448
2.50542,-0.17212,-0.058437
2.57093,-0.0592404,-0.0448876
2.5095,-0.180764,0
2.3851,-0.408549,-0.0281714
2.47573,-0.178331,-0.386163
2.42253,-0.294017,-0.31062
2.44998,-0.297348,-0.0143438
2.48713,-0.179152,-0.268599
2.36708,-0.405464,-0.224181
2.51281,-0.181002,0.0586231
2.38904,-0.409225,0.028218
2.49543,-0.17975,-0.174949
2.43794,-0.295887,-0.200482
2.45759,-0.298271,0.0432122
2.55807,-0.0589442,-0.163987
2.44799,-0.297107,0.100466
2.49881,-0.179994,-0.1167
2.43873,-0.295983,-0.128746
2.53831,-0.182839,0.312473
2.5612,-0.0590161,-0.104373
2.50084,-0.18014,-0.058344
2.56669,-0.0685561,-0.0448178
2.50084,-0.189356,0
2.37964,-0.416599,-0.0281249
2.46717,-0.186807,-0.384934
2.4175,-0.302401,-0.310115
2.44491,-0.305829,-0.0143206
2.49042,-0.188567,-0.269028
2.51611,-0.190513,0.0587162
2.37964,-0.416599,0.0281249
2.48679,-0.188292,-0.174391
2.43288,-0.304325,-0.200157
2.45251,-0.306781,0.0431423
2.55385,-0.068213,-0.163731
2.51652,-0.190543,0.146975
2.44292,-0.305581,0.100303
2.49813,-0.189151,-0.1167
2.42574,-0.303432,-0.128118
2.55697,-0.0682963,-0.104211
2.49219,-0.188701,-0.0581579
2.56245,-0.0769471,-0.044748
2.49222,-0.197018,0
2.37038,-0.423082,-0.0280317
2.46654,-0.194987,-0.384934
2.41255,-0.309911,-0.30961
2.44388,-0.313935,-0.0143206
2.48582,-0.196511,-0.268599
2.5075,-0.198225,0.0585301
2.37431,-0.423785,0.0280783
2.4782,-0.195909,-0.173833
2.42395,-0.311376,-0.199506
2.44355,-0.313892,0.0430027
2.54962,-0.0765617,-0.163475
2.50791,-0.198258,0.14651
2.44189,-0.31368,0.100303
2.50148,-0.197749,-0.116886
2.42076,-0.310965,-0.127909
2.5251,-0.199617,0.311011
2.49554,-0.19728,-0.0582509
2.49551,-0.206045,0
2.36888,-0.431354,-0.0280317
2.45797,-0.202945,-0.383704
2.40752,-0.317811,-0.309105
2.4388,-0.32194,-0.0142973
2.47719,-0.204533,-0.267743
2.50679,-0.206977,0.0585301
2.37282,-0.43207,0.0280783
2.47352,-0.20423,-0.173554
2.42285,-0.319835,-0.199506
2.4464,-0.322944,0.0430725
2.54136,-0.0851935,-0.162964
2.36504,-0.430653,-0.139999
2.50721,-0.207011,0.14651
2.43682,-0.321679,0.10014
2.49281,-0.205822,-0.116514
2.41966,-0.319413,-0.127909
2.52439,-0.20843,0.311011
2.49085,-0.20566,-0.0581579
2.54985,-0.0948356,-0.0445385
2.49075,-0.214847,0
2.36335,-0.439302,-0.0279852
2.45327,-0.211613,-0.383089
2.40634,-0.326633,-0.309105
2.42571,-0.329263,-0.0142276
2.46058,-0.212244,-0.266029
2.50601,-0.216163,0.0585301
2.36729,-0.440033,0.0280317
2.47276,-0.213294,-0.173554
2.43331,-0.330294,0.0428631
2.35559,-0.437859,-0.139534
2.43167,-0.330071,0.0999771
2.49203,-0.214957,-0.116514
2.42243,-0.328817,-0.128118
2.48211,-0.214101,-0.0579717
2.5535,-0.103898,-0.0446084
2.47803,-0.222467,0
2.36574,-0.448294,-0.0280317
2.45645,-0.220529,-0.383704
2.40125,-0.334483,-0.3086
2.42851,-0.33828,-0.0142508
2.46378,-0.221187,-0.266457
2.49728,-0.224194,0.058344
2.36181,-0.447549,0.0279852
2.472,-0.221925,-0.173554
2.4126,-0.336064,-0.198855
2.42818,-0.338234,0.0427933
2.42654,-0.338005,0.0998143
2.47933,-0.222583,-0.115956
2.41731,-0.33672,-0.127909
2.51492,-0.225778,0.310036
2.48135,-0.222764,-0.0579717
2.4733,-0.230312,0
2.35638,-0.454621,-0.0279386
2.45177,-0.228307,-0.383089
2.3962,-0.341884,-0.308094
2.42738,-0.346331,-0.0142508
2.46303,-0.229356,-0.266457
2.48856,-0.231733,0.0581579
2.42705,-0.346284,0.0427933
2.489,-0.231774,0.14558
2.42541,-0.34605,0.0998143
2.47858,-0.230803,-0.115956
2.40036,-0.342477,-0.127072
2.53145,-0.111411,-0.103234
2.48059,-0.230991,-0.0579717
2.53276,-0.120328,-0.0442593
2.47248,-0.238944,0
2.35086,-0.462072,-0.027892
2.44703,-0.236484,-0.382474
2.42219,-0.354224,-0.0142276
2.4543,-0.237187,-0.265601
2.48773,-0.240418,0.0581579
2.35086,-0.462072,0.027892
2.42582,-0.354754,0.0427933
2.41627,-0.353358,0.0994886
2.4698,-0.238685,-0.115583
2.40311,-0.351432,-0.127281
2.50938,-0.24251,0.309548
2.47579,-0.239264,-0.0578787
2.53232,-0.129168,-0.0442593
2.46367,-0.246776,0
2.34923,-0.470275,-0.027892
2.44619,-0.245024,-0.382474
2.41303,-0.361491,-0.0141811
2.45346,-0.245753,-0.265601
2.4829,-0.248702,0.0580648
2.34139,-0.468705,0.0277989
2.39719,-0.359117,-0.197878
2.40875,-0.36085,0.0425141
2.47937,-0.248348,0.145115
2.41502,-0.36179,0.0994886
2.46895,-0.247305,-0.115583
2.40186,-0.359818,-0.127281
2.47096,-0.247506,-0.0577856
2.3359,-0.475669,-0.0277523
2.41182,-0.369491,-0.0141811
2.44867,-0.253478,-0.265172
2.47808,-0.256522,0.0579717
2.34766,-0.478063,0.027892
2.4489,-0.253501,-0.172159
2.41545,-0.370047,0.0426537
2.33602,-0.475693,-0.138836
2.40591,-0.368586,0.0991629
2.4562,-0.254257,-0.115025
2.40066,-0.367781,-0.127281
2.46217,-0.254875,-0.0575995
2.46193,-0.26354,0
2.33814,-0.484631,-0.0277989
2.40656,-0.377288,-0.0141578
2.43987,-0.261177,-0.264316
2.46127,-0.263468,0.0575995
2.34206,-0.485443,0.0278455
2.44007,-0.261199,-0.171601
2.41019,-0.377856,0.0425839
2.50666,-0.144972,-0.160917
2.40461,-0.376982,0.0991629
2.45132,-0.262404,-0.114839
2.39541,-0.37554,-0.127072
2.5177,-0.145611,-0.102745
2.46524,-0.263894,-0.0576926
2.51486,-0.154697,-0.0439801
2.33244,-0.492372,-0.0277523
2.4317,-0.269321,-0.380629
2.39727,-0.384838,-0.0141113
2.43889,-0.270118,-0.264316
2.40089,-0.38542,0.0424443
2.50213,-0.153913,-0.160661
2.4424,-0.270507,-0.114467
2.38613,-0.383051,-0.126653
2.45631,-0.272047,-0.0575065
2.37528,-0.389392,-0.07005
2.33079,-0.500104,-0.0277523
2.39992,-0.393433,-0.0141346
2.43403,-0.277753,-0.263887
2.37627,-0.389555,-0.196577
2.39565,-0.392733,0.0423744
2.43752,-0.278151,-0.11428
2.37697,-0.389669,-0.126234
2.4554,-0.280191,-0.0575065
2.32121,-0.506531,-0.0276592
2.39065,-0.400486,-0.0140881
2.4291,-0.285783,-0.263459
2.4544,-0.28876,0.0575065
2.3749,-0.397847,-0.196577
2.39032,-0.400432,0.0423046
2.38871,-0.400161,0.0986745
2.4405,-0.287125,-0.114467
2.38347,-0.399284,-0.126653
2.4544,-0.28876,-0.0575065
2.31934,-0.515035,-0.0276592
2.38522,-0.40857,-0.0140648
2.42014,-0.293726,-0.262602
2.37342,-0.406549,-0.196577
2.38884,-0.40919,0.0423046
2.38722,-0.408913,0.0986745
2.4315,-0.295105,-0.114094
2.44539,-0.296791,-0.0573204
2.36319,-0.412868,-0.0698173
2.31762,-0.522724,-0.0276592
2.37597,-0.415101,-0.0140183
2.4152,-0.301258,-0.262174
2.38747,-0.417109,0.0423046
2.48385,-0.187197,-0.159638
2.42258,-0.302178,-0.113722
2.37669,-0.415226,-0.126444
2.44439,-0.304898,-0.0573204
2.30409,-0.52813,-0.0275195
2.37845,-0.424094,-0.0140416
2.41019,-0.30918,-0.261745
2.43538,-0.312411,0.0571343
2.37812,-0.424037,0.042165
2.4792,-0.195552,-0.159382
2.48621,-0.196105,-0.101605
2.43935,-0.31292,-0.0572273
2.35632,-0.42864,-0.0697009
2.37695,-0.432394,-0.0140416
2.40516,-0.317072,-0.261317
2.37663,-0.432335,0.042165
2.41249,-0.318038,-0.11335
2.36587,-0.430379,-0.126025
2.48248,-0.21326,-0.0434914
2.36363,-0.438499,-0.0139718
2.40798,-0.325999,-0.261745
2.42521,-0.328333,0.0569482
2.37117,-0.439899,0.0420952
2.43364,-0.329473,0.143022
2.41136,-0.326458,-0.11335
2.36043,-0.437906,-0.125816
2.34942,-0.443927,-0.0695846
2.35823,-0.445592,-0.0139486
2.39113,-0.331796,-0.260032
2.42411,-0.336373,0.0569482
2.36184,-0.446275,0.0419556
2.40631,-0.333903,-0.113164
2.35896,-0.445731,-0.125816
2.42411,-0.336373,-0.0569482
2.47728,-0.230247,0.01446
2.35658,-0.454233,-0.0139486
2.4017,-0.342241,-0.261317
2.41494,-0.344128,0.0567621
2.35626,-0.454171,0.0418858
2.42337,-0.345328,0.142557
2.40111,-0.342157,-0.112978
2.35339,-0.453618,-0.125606
2.34225,-0.459957,-0.0694682
2.47646,-0.238892,0.01446
2.35106,-0.461685,-0.0139253
2.38869,-0.348898,-0.260032
2.41373,-0.352555,0.0567621
2.35466,-0.462393,0.0418858
2.42215,-0.353785,0.142557
2.39595,-0.349959,-0.112791
2.33279,-0.466562,-0.0692355
2.46765,-0.24674,0.0144135
2.34943,-0.469889,-0.0139253
2.38352,-0.356645,-0.259603
2.40853,-0.360387,0.056669
2.38358,-0.356654,-0.168532
2.4209,-0.362238,0.142557
2.39472,-0.35832,-0.112791
2.34625,-0.469253,-0.125397
2.33515,-0.475092,-0.0693518
2.34786,-0.477677,-0.0139253
2.37447,-0.363344,-0.258747
2.40732,-0.368372,0.056669
2.41179,-0.369056,0.142092
2.38561,-0.36505,-0.112419
2.32956,-0.48243,-0.0692355
2.45796,-0.26268,0.0143671
2.33051,-0.482626,-0.0138324
2.36925,-0.371015,-0.258318
2.40207,-0.376154,0.056576
2.37715,-0.372253,-0.168253
2.33518,-0.483592,-0.124978
2.33273,-0.491582,-0.0138556
2.39679,-0.383904,0.0564829
2.3719,-0.379917,-0.167974
2.37906,-0.381064,-0.112233
2.33348,-0.491741,-0.124978
2.31832,-0.497005,-0.0690027
2.45607,-0.279834,0.0143671
2.331,-0.499722,-0.0138556
2.39544,-0.392268,0.0564829
2.37056,-0.388194,-0.167974
2.37377,-0.388721,-0.112047
2.32394,-0.498208,-0.12456
2.31657,-0.505094,-0.0690027
2.44713,-0.287472,0.0143206
2.32924,-0.507856,-0.0138556
2.39011,-0.399967,0.0563898
2.36525,-0.395808,-0.167695
2.3724,-0.397004,-0.112047
2.30699,-0.511447,-0.06877
2.44611,-0.296012,0.0143206
2.3887,-0.408308,0.0563898
2.36386,-0.404062,-0.167695
2.36313,-0.403936,-0.111675
2.30909,-0.520375,-0.0688864
2.3682,-0.413318,0
2.43713,-0.30356,0.0142741
2.38726,-0.416643,0.0563898
2.35457,-0.410939,-0.167137
2.36564,-0.41287,-0.111861
2.37938,-0.415268,-0.0562037
2.42382,-0.310499,-0.0426537
2.29946,-0.526647,-0.0686537
2.44002,-0.312574,0.0142973
2.37792,-0.423571,0.0562037
2.35312,-0.419155,-0.167137
2.43506,-0.311939,0.0714464
2.36025,-0.420424,-0.111675
2.37792,-0.423571,-0.0562037
2.29372,-0.533765,-0.0685373
2.43891,-0.321089,0.0142973
2.37249,-0.431154,0.0561107
2.34772,-0.426653,-0.166857
2.42999,-0.319915,0.07133
2.3509,-0.427232,-0.111302
2.41367,-0.326341,-0.0425141
2.29184,-0.541768,-0.0685373
2.35588,-0.436636,0
2.43778,-0.3296,0.0142973
2.3749,-0.440162,0.0562037
2.34229,-0.434118,-0.166578
2.4249,-0.327859,0.0712136
2.40514,-0.325187,-0.155545
2.3494,-0.435435,-0.111302
2.35041,-0.444115,0
2.42473,-0.336459,0.0142276
2.36549,-0.446964,0.0560176
2.34468,-0.443033,-0.166857
2.41978,-0.335772,0.0710973
2.40003,-0.333032,-0.155289
2.35179,-0.444375,-0.111489
2.34892,-0.451906,0
2.4236,-0.344497,0.0142276
2.37185,-0.456317,0.0562037
2.33928,-0.450052,-0.166578
2.42261,-0.344357,0.0712136
2.39892,-0.340989,-0.155289
2.34638,-0.451417,-0.111302
2.35614,-0.453295,-0.0558315
2.41051,-0.351225,0.0141578
2.41348,-0.351659,0.0709809
2.39376,-0.348785,-0.155033
2.34087,-0.458836,-0.111116
2.40064,-0.349787,-0.0988373
2.39707,-0.357817,-0.0423046
2.33787,-0.466728,0
2.41322,-0.360228,0.0141811
2.40829,-0.359491,0.0708645
2.38858,-0.35655,-0.154777
2.33533,-0.466222,-0.11093
2.3915,-0.356985,-0.0985116
2.35292,-0.469733,-0.0558315
2.39185,-0.365578,-0.0422348
2.41195,-0.368649,0.0141811
2.40306,-0.367291,0.0707482
2.38732,-0.364885,-0.154777
2.33761,-0.475167,-0.111116
2.39024,-0.365331,-0.0985116
2.39056,-0.373925,-0.0422348
2.33847,-0.483848,0
2.39879,-0.375212,0.0141113
2.39782,-0.375059,0.0706318
2.38209,-0.372599,-0.154521
2.33202,-0.482514,-0.11093
2.385,-0.373054,-0.0983488
2.32894,-0.49036,0
2.40142,-0.384215,0.0141346
2.37683,-0.380281,-0.154266
2.33032,-0.490652,-0.11093
2.38368,-0.381377,-0.0983488
2.33222,-0.491051,-0.0554593
2.38395,-0.389959,-0.042165
2.3233,-0.497648,0
2.39217,-0.391304,0.0140881
2.39119,-0.391145,0.0705155
2.38337,-0.389865,-0.154777
2.3286,-0.498783,-0.11093
2.37445,-0.388405,-0.0980231
2.3344,-0.500026,-0.0555524
2.37863,-0.397619,-0.0420952
2.39079,-0.399651,0.0140881
2.38587,-0.39883,0.0703991
2.37806,-0.397524,-0.154521
2.32294,-0.506058,-0.110744
2.37308,-0.396691,-0.0980231
2.32873,-0.507321,-0.0554593
2.38117,-0.406593,-0.042165
2.38938,-0.407994,0.0140881
2.37272,-0.40515,-0.154266
2.37168,-0.404972,-0.0980231
2.32695,-0.515446,-0.0554593
2.36791,-0.412841,-0.0419556
2.37612,-0.414271,0.0140183
2.37515,-0.414103,0.0701664
2.35949,-0.411373,-0.153498
2.36631,-0.412562,-0.0978603
2.36646,-0.421104,-0.0419556
