2.15148,0.195423,-0.125813
2.14878,0.180438,-0.12558
2.1494,0.172937,-0.12558
2.14601,0.165127,-0.125348
2.15056,0.157927,-0.12558
2.14412,0.134897,-0.125115
2.13744,0.112019,-0.12465
2.06939,0.10121,-0.0241203
2.16002,0.105643,-0.201875
2.13383,0.104362,-0.124418
2.16435,0.0982832,-0.202246
2.13418,0.0969132,-0.124418
2.13554,0.201868,-0.112418
2.07404,0.086928,-0.0241669
2.15672,0.0903935,-0.201503
2.06234,0.0792266,-0.0240272
2.161,0.0830169,-0.201875
2.0626,0.0720276,-0.0240272
2.16526,0.0756125,-0.202246
2.14549,0.180162,-0.112836
2.06684,0.0649534,-0.0240738
2.15755,0.0678042,-0.201503
2.14611,0.172672,-0.112836
2.06703,0.0584594,-0.0240738
2.15775,0.0610251,-0.201503
2.12355,0.0600578,-0.12372
2.14266,0.165621,-0.112627
2.06724,0.0505226,-0.0240738
2.15001,0.0525453,-0.200759
2.03126,0.0496431,0.0236547
2.16694,0.15913,-0.177375
2.13133,0.156515,-0.111999
2.06341,0.043222,-0.0240272
2.15018,0.0450395,-0.200759
2.12788,0.148795,-0.11179
2.09445,0.139848,-0.0610901
2.06353,0.0367397,-0.0240272
2.15429,0.0383556,-0.201131
2.11608,0.0376753,-0.123255
2.13232,0.142376,-0.111999
2.05565,0.0294224,-0.0239341
2.15043,0.030779,-0.200759
2.03965,0.0291934,0.0237478
2.16048,0.136684,-0.176724
2.12882,0.13468,-0.11179
2.09138,0.124984,-0.0609738
2.14654,0.0232287,-0.200387
2.16094,0.129141,-0.176724
2.12927,0.127248,-0.11179
2.08781,0.117457,-0.0608574
2.05581,0.0150696,-0.0239341
2.13864,0.0156768,-0.199644
2.16138,0.121596,-0.176724
2.11236,0.0154842,-0.123022
2.12572,0.11959,-0.11158
2.08422,0.10996,-0.060741
2.05585,0.00789478,-0.0239341
2.14665,0.00824349,-0.200387
2.15383,0.113632,-0.176073
2.12612,0.11217,-0.11158
2.08459,0.102683,-0.060741
2.05186,0.000716543,-0.0238875
2.14667,0.000749651,-0.200387
2.1582,0.106309,-0.176398
2.1265,0.104748,-0.11158
2.08493,0.0954064,-0.060741
2.14267,-0.00673065,-0.200016
2.15855,0.0987752,-0.176398
2.04782,-0.0135816,-0.0238409
2.13865,-0.0141841,-0.199644
2.1549,0.0910709,-0.176073
2.07755,0.0809013,-0.0605083
2.13461,-0.021236,-0.199272
2.11549,0.0823789,-0.110952
2.04768,-0.0275194,-0.0238409
2.13851,-0.0287401,-0.199644
2.02368,-0.0271969,0.0235616
2.1475,0.0761194,-0.175422
2.11577,0.0749944,-0.110952
2.07807,0.0660326,-0.0605083
2.04756,-0.0350249,-0.0238409
2.06692,0.0656784,-0.012019
2.14378,0.0681207,-0.175096
2.12675,0.171862,-0.0993905
2.11203,0.0671119,-0.110743
2.07428,0.0590268,-0.060392
2.06313,0.0587095,-0.0119958
2.13427,-0.0435888,-0.199272
2.14432,0.166126,-0.150395
2.13603,0.0607839,-0.174445
2.1313,0.165117,-0.0995766
2.11624,0.0602208,-0.110952
2.06648,0.0515868,-0.0601592
2.04328,-0.0488658,-0.0237944
2.05932,0.0514081,-0.0119725
2.13411,-0.051038,-0.199272
2.14489,0.15864,-0.150395
2.1442,0.0535268,-0.175096
2.12389,0.157087,-0.0992044
2.12994,-0.0583786,-0.1989
2.01511,-0.0552313,0.0234684
2.14437,0.0460413,-0.175096
2.03522,0.0436978,0.0355331
2.12044,0.149391,-0.0990182
2.10463,0.0451879,-0.110324
2.06279,0.0370879,-0.0600429
2.05963,0.037031,-0.0119725
2.12972,-0.0658117,-0.1989
2.0109,-0.06214,0.0234219
2.13798,0.14313,-0.149837
2.14452,0.0385572,-0.175096
2.12095,0.14199,-0.0990182
2.10477,0.0378426,-0.110324
2.07091,0.0300024,-0.0602756
2.03866,-0.070122,-0.0237478
2.18613,0.0316717,-0.278295
2.05575,0.0297828,-0.0119493
2.1255,-0.073109,-0.198529
2.01467,-0.0692971,0.0234684
2.14065,0.0310129,-0.174771
2.12143,0.134585,-0.0990182
2.10888,0.0305526,-0.110534
2.067,0.0227289,-0.0601592
2.0344,-0.0770869,-0.0237012
2.1902,0.0240836,-0.2788
2.13893,0.1282,-0.149837
2.14075,0.0235399,-0.174771
2.08696,-0.0790786,-0.121627
2.11391,0.1267,-0.098646
2.05907,0.015454,-0.0599265
2.03412,-0.0841874,-0.0237012
2.18233,0.0163791,-0.27779
2.12493,-0.087946,-0.198529
2.13538,0.120508,-0.149558
2.13683,0.0160376,-0.174445
2.11434,0.119321,-0.098646
2.05511,0.00824984,-0.0598101
2.18634,0.00877663,-0.278295
2.1318,0.112842,-0.149279
2.11474,0.111939,-0.098646
2.09711,0.0084184,-0.109906
2.0925,0.110762,-0.0487595
2.05913,0.00107863,-0.0599265
2.18636,0.00114527,-0.278295
2.12029,-0.102586,-0.198157
2.13218,0.105401,-0.149279
2.1329,0.00111727,-0.17412
2.11113,0.10436,-0.0984599
2.09712,0.00109853,-0.109906
2.09687,0.103655,-0.0488526
2.05512,-0.00573812,-0.0598101
2.17445,-0.00607129,-0.27678
2.13252,0.09833,-0.149279
2.12891,-0.00594414,-0.173795
2.11546,0.0975432,-0.098646
2.09312,-0.00584421,-0.109696
2.05509,-0.0129123,-0.0598101
2.17838,-0.013687,-0.277285
2.12887,0.0907151,-0.149
2.12489,-0.0133509,-0.173469
2.1078,0.0898175,-0.0982737
2.09309,-0.0131511,-0.109696
2.08155,0.0886988,-0.0484804
2.05103,-0.0200473,-0.0596938
2.17038,-0.0212139,-0.276275
2.11515,-0.124181,-0.197785
2.12518,0.0831269,-0.148721
2.12882,-0.0208076,-0.173795
2.11209,0.0826149,-0.0984599
2.09303,-0.0204578,-0.109696
2.07785,0.0812754,-0.0483873
2.04695,-0.0275104,-0.0595774
2.17823,-0.0292748,-0.277285
2.17803,0.0772004,-0.234757
2.1107,-0.131684,-0.197413
1.99998,-0.124776,0.0233287
2.12148,0.0751963,-0.148442
2.14395,0.181163,-0.137892
2.1044,0.0745906,-0.0980876
2.09294,-0.0281285,-0.109696
2.08213,0.0738013,-0.0484804
2.05084,-0.0343658,-0.0596938
2.17812,-0.0364985,-0.277285
2.17032,0.0697214,-0.2339
2.12172,0.0681602,-0.148442
2.12065,-0.0355354,-0.173144
2.14453,0.174052,-0.137892
2.10862,0.0677394,-0.0982737
2.09283,-0.0350694,-0.109696
2.08236,0.0668958,-0.0484804
2.04272,-0.041361,-0.0594611
2.17004,-0.0439392,-0.276275
2.17055,0.0621466,-0.2339
2.11796,0.0606408,-0.148163
2.10885,0.06038,-0.0982737
2.08471,-0.0422114,-0.109277
2.11587,0.164294,-0.0864623
2.07859,0.0595135,-0.0483873
2.04656,-0.0485866,-0.0595774
2.04735,0.051467,0
2.16988,-0.0515143,-0.276275
2.12614,0.0534474,-0.148721
1.9818,-0.0470492,0.0807633
2.10505,0.0529174,-0.0980876
2.08854,-0.0495835,-0.109487
2.11245,0.156612,-0.0862994
2.07878,0.052257,-0.0483873
2.04752,0.0443195,0
2.16968,-0.0590889,-0.276275
2.10471,-0.160471,-0.197041
2.12232,0.0459386,-0.148442
2.12016,-0.0577401,-0.173144
2.06649,-0.157557,-0.120697
1.98162,-0.0539672,0.0807633
2.08924,0.0452227,-0.0973431
2.08437,-0.0567653,-0.109277
2.10899,0.148955,-0.0861366
2.07095,0.0448268,-0.0482012
2.03966,0.0370269,0
2.16946,-0.0666621,-0.276275
2.15915,0.039196,-0.232615
2.10414,-0.167817,-0.197041
2.12247,0.03853,-0.148442
2.13481,0.143291,-0.137125
2.06195,-0.164452,-0.120464
1.98542,-0.0610068,0.0809261
2.10138,0.0381471,-0.0979015
2.08416,-0.0640408,-0.109277
2.11748,0.142127,-0.0864623
2.0711,0.0375975,-0.0482012
2.03794,-0.0697421,-0.0593447
2.03978,0.0299069,0
2.0129,-0.167613,-0.023515
2.16129,-0.0739631,-0.275265
2.1553,0.0316006,-0.232186
1.98898,-0.165621,0.0232356
2.12259,0.031121,-0.148442
2.13928,0.136091,-0.137381
1.97321,-0.0675267,0.0804376
2.1015,0.0308117,-0.0979015
2.07593,-0.0710422,-0.108859
2.10599,0.133974,-0.0859738
2.07122,0.0303678,-0.0482012
2.08791,0.125508,-0.0365104
2.03369,-0.0767047,-0.0592283
2.03987,0.0227865,0
2.16102,-0.081507,-0.275265
2.11869,0.023667,-0.148163
2.11147,-0.0796383,-0.172493
2.00627,-0.0756704,0.0350444
1.97695,-0.0745647,0.0806004
2.10159,0.023476,-0.0979015
2.07567,-0.0782882,-0.108859
2.10645,0.126622,-0.0859738
2.07131,0.0231377,-0.0482012
2.03994,0.0156659,0
2.15279,-0.088723,-0.274255
2.15149,0.0165226,-0.231758
2.11078,0.01621,-0.147605
2.13221,0.120702,-0.136869
1.97668,-0.0814651,0.0806004
2.09367,0.0160785,-0.0975292
2.07938,-0.0856976,-0.109068
2.0989,0.118816,-0.0856481
2.05938,0.0158152,-0.0479221
2.03311,-0.0909006,-0.0592283
2.03598,0.00852836,0
2.15643,-0.0964144,-0.27476
2.15154,0.00901239,-0.231758
2.11881,0.0088753,-0.148163
2.12863,0.113047,-0.136613
1.9684,-0.0880075,0.0802748
2.08972,0.00875344,-0.0973431
2.07508,-0.0927771,-0.108859
2.10329,0.111701,-0.085811
2.06742,0.00866005,-0.0481082
2.06914,0.102646,-0.0361614
2.03278,-0.0979969,-0.0592283
2.032,0.00141861,0
2.15608,-0.103941,-0.27476
2.15155,0.00150207,-0.231758
1.97851,-0.1926,0.0231425
2.11484,0.00147644,-0.147884
2.12502,0.105418,-0.136357
1.96808,-0.094878,0.0802748
2.07075,-0.0998275,-0.108649
2.10367,0.104359,-0.085811
2.06949,0.0954226,-0.0361614
2.02799,-0.00566323,0
2.15174,-0.111262,-0.274255
2.14757,-0.00599715,-0.23133
2.11084,-0.00589458,-0.147605
2.10617,-0.108905,-0.172167
2.12936,0.0981836,-0.136613
1.96774,-0.101747,0.0802748
2.09372,-0.00584678,-0.0975292
2.07039,-0.107055,-0.108649
2.09603,0.0966467,-0.0854853
2.06743,-0.00577337,-0.0481082
2.06583,0.0876673,-0.0360916
2.02803,-0.112319,-0.059112
2.02796,-0.0130962,0
2.14736,-0.118928,-0.27375
2.13958,-0.013817,-0.230473
1.97708,-0.206753,0.0231425
2.1108,-0.0136312,-0.147605
2.0978,-0.116183,-0.171516
2.12173,0.0900399,-0.136102
1.96735,-0.108959,0.0802748
2.08969,-0.0134948,-0.0973431
2.06599,-0.114422,-0.10844
2.09238,0.0887942,-0.0853225
2.0634,-0.013325,-0.0480151
2.03164,-0.119278,-0.0592283
2.0239,-0.0197819,0
2.15091,-0.126281,-0.274255
2.13952,-0.020912,-0.230473
1.97241,-0.212879,0.0230959
2.10675,-0.0205917,-0.147326
2.11404,0.0826914,-0.13559
2.04464,-0.220675,-0.119766
1.96299,-0.115248,0.0801119
2.08564,-0.0203853,-0.097157
2.06959,-0.121506,-0.108649
2.09666,0.0820113,-0.0854853
2.05934,-0.0201283,-0.0479221
2.06637,0.0736038,-0.0360916
2.23141,-0.138824,-0.447147
2.02782,-0.0268996,0
2.15046,-0.133788,-0.274255
2.13546,-0.0283274,-0.230044
2.08596,-0.232503,-0.195926
2.01128,-0.0266802,0.0468054
1.97563,-0.220206,0.0231425
2.10268,-0.0278926,-0.147047
2.10094,-0.130707,-0.171842
2.1223,0.0755957,-0.136102
1.95859,-0.121851,0.0799491
2.08894,0.0744076,-0.0851596
2.05861,0.0664928,-0.035952
2.0228,-0.132581,-0.0589956
2.22311,-0.14571,-0.445579
2.01972,-0.0334913,0
2.20121,-0.0365009,-0.342505
2.13535,-0.0354087,-0.230044
1.97092,-0.2263,0.0230959
2.0946,-0.0347329,-0.146489
2.12254,0.0685575,-0.136102
1.96216,-0.128607,0.0801119
2.08146,-0.034515,-0.0969709
2.09317,0.067609,-0.0853225
2.05916,-0.0341453,-0.0479221
2.05883,0.0593065,-0.035952
2.01834,-0.139366,-0.0588792
2.21867,-0.153199,-0.444794
2.01959,-0.0405413,0
2.20107,-0.0441843,-0.342505
2.14317,-0.0430219,-0.230901
1.97011,-0.233178,0.0230959
2.10244,-0.0422044,-0.147047
2.09602,-0.14473,-0.171516
2.12276,0.0611481,-0.136102
1.95771,-0.13518,0.0799491
2.08132,-0.0417804,-0.0969709
2.0854,0.0600719,-0.0849968
2.05903,-0.0413329,-0.0479221
2.05903,0.0521195,-0.035952
2.02183,-0.1467,-0.0589956
2.21813,-0.160943,-0.444794
2.01544,-0.0474965,0
2.20091,-0.0518672,-0.342505
2.14501,-0.155638,-0.27375
2.03531,0.0515192,0.0118331
2.13903,-0.050409,-0.230473
2.10228,-0.049543,-0.147047
2.09153,-0.151757,-0.171191
1.98647,-0.144135,0.0347652
2.107,0.0533338,-0.135078
1.95324,-0.141723,0.0797863
2.07717,-0.0489512,-0.0967847
2.0856,0.0527922,-0.0849968
2.05521,0.0444859,-0.0358821
2.02128,-0.154109,-0.0589956
2.22534,-0.169668,-0.446363
2.02325,-0.0551009,0
2.1928,-0.0597184,-0.341275
2.14442,-0.163499,-0.27375
2.03549,0.0440591,0.0118331
2.13485,-0.0581403,-0.230044
1.9684,-0.24727,0.0230959
2.10209,-0.0572479,-0.147047
2.09096,-0.159422,-0.171191
1.98593,-0.151415,0.0347652
2.10718,0.0456109,-0.135078
2.03652,-0.255828,-0.119534
1.95669,-0.149185,0.0799491
2.08178,0.0450612,-0.084834
2.05468,-0.0559569,-0.047829
2.01278,-0.160177,-0.0587629
2.22477,-0.177047,-0.446363
2.02306,-0.06181,0
2.18469,-0.0667482,-0.340045
2.13991,-0.170294,-0.273244
2.03562,0.0373089,0.0118331
2.13465,-0.0652194,-0.230044
2.07768,-0.268,-0.195554
2.00252,-0.0611826,0.0466193
2.0979,-0.0640965,-0.146768
2.11131,0.0386962,-0.135334
2.03566,-0.262579,-0.119534
1.94822,-0.155039,0.0796234
2.07278,-0.0633293,-0.0965986
2.05866,-0.163828,-0.108231
2.08592,0.0382307,-0.0849968
2.2085,-0.183512,-0.443225
2.18839,-0.0745083,-0.34066
2.03574,0.0302031,0.0118331
2.13043,-0.072535,-0.229616
2.08968,-0.0711476,-0.14621
2.10744,0.0312669,-0.135078
1.94767,-0.161839,0.0796234
2.07255,-0.0705643,-0.0965986
2.05011,-0.170351,-0.107812
2.08604,0.0309493,-0.0849968
2.04756,0.0232298,-0.0357425
2.00763,-0.17388,-0.0586465
2.20785,-0.19122,-0.443225
2.01058,-0.0754817,0
2.18417,-0.0819985,-0.340045
2.03583,0.0230968,0.0118331
2.13017,-0.0799712,-0.229616
2.0974,-0.0787409,-0.146768
2.08523,-0.180601,-0.170865
2.10754,0.0239103,-0.135078
2.03377,-0.276785,-0.119534
1.96329,-0.0737062,0.114418
1.94709,-0.168636,0.0796234
2.04552,-0.177162,-0.107603
2.07415,0.0235315,-0.0845083
2.05162,0.0161137,-0.0358123
2.01099,-0.181246,-0.0587629
2.20326,-0.198574,-0.442441
2.01031,-0.0824995,0
2.17597,-0.089298,-0.338815
2.13406,-0.192337,-0.272739
2.0279,0.0159274,0.0117866
2.12988,-0.0874064,-0.229616
1.95292,-0.272727,0.0229562
2.09312,-0.0858981,-0.146489
2.08459,-0.187878,-0.170865
2.00309,0.0157325,0.0582974
1.97967,-0.178423,0.0346954
2.09963,0.0164908,-0.134567
1.94649,-0.175432,0.0796234
2.05285,-0.185018,-0.108021
2.08221,0.016354,-0.084834
2.00637,-0.187891,-0.0586465
2.21036,-0.206995,-0.44401
2.01001,-0.0895163,0
2.17959,-0.0970689,-0.33943
2.12943,-0.199415,-0.272234
2.02395,0.00883118,0.0117633
2.12956,-0.0948405,-0.229616
1.95591,-0.280109,0.0230028
2.0968,-0.0933815,-0.146768
2.10366,0.00917902,-0.134823
2.03179,-0.290976,-0.119534
1.95874,-0.0872329,0.114185
1.93791,-0.18148,0.0792978
2.06771,-0.0920859,-0.0964125
2.07426,0.00905072,-0.0845083
2.04542,-0.0910933,-0.0476429
2.04369,0.00178345,-0.0356727
2.20572,-0.21433,-0.443225
2.00968,-0.096532,0
2.17529,-0.104487,-0.338815
2.13267,-0.207231,-0.272739
2.02397,0.00176624,0.0117633
2.13319,-0.102464,-0.230044
1.99316,-0.0957384,0.0464332
1.99915,0.00174459,0.0581811
2.0957,0.00182884,-0.134311
2.02681,-0.297487,-0.119301
1.95842,-0.0940697,0.114185
1.94124,-0.18863,0.0794606
2.06338,-0.0991113,-0.0962264
2.07428,0.00181015,-0.0845083
2.03968,-0.00533988,-0.0356029
2.00501,-0.201894,-0.0586465
2.19716,-0.221242,-0.441656
2.00134,-0.103135,0
2.17492,-0.112079,-0.338815
2.12798,-0.214277,-0.272234
2.03196,-0.00531966,0.0118098
2.12884,-0.109705,-0.229616
1.95391,-0.293757,0.0230028
2.09211,-0.107812,-0.146489
2.00315,-0.00524422,0.0582974
2.10368,-0.00550741,-0.134823
2.02576,-0.30456,-0.119301
1.95808,-0.100905,0.114185
1.93262,-0.194604,0.079135
2.05903,-0.106108,-0.0960402
2.07827,-0.0054409,-0.0846712
2.04074,-0.105165,-0.0475499
2.04365,-0.0124841,-0.0356727
2.00031,-0.208477,-0.0585302
2.20027,-0.229317,-0.442441
1.99698,-0.1099,0
2.17451,-0.119671,-0.338815
2.12722,-0.221703,-0.272234
2.02393,-0.0123636,0.0117633
2.12845,-0.117136,-0.229616
1.95287,-0.300575,0.0230028
2.08774,-0.114895,-0.14621
2.07383,-0.216139,-0.170214
1.99512,-0.0121876,0.0580647
2.09566,-0.0128018,-0.134311
2.02469,-0.311629,-0.119301
1.9359,-0.201763,0.0792978
2.04212,-0.212834,-0.107603
2.07024,-0.0126466,-0.0843455
2.04036,-0.112288,-0.0475499
2.04359,-0.0196177,-0.0356727
2.00752,-0.216315,-0.0587629
2.19556,-0.236576,-0.441656
2.00856,-0.117572,0
1.97552,-0.311124,-0.0232822
2.17803,-0.127491,-0.33943
2.12643,-0.229127,-0.272234
2.02387,-0.0194284,0.0117633
2.12406,-0.124332,-0.229188
2.08334,-0.121949,-0.145931
1.99906,-0.0191902,0.0581811
2.08762,-0.0200403,-0.133799
1.95334,-0.114339,0.113952
1.93518,-0.20852,0.0792978
2.05824,-0.12048,-0.0960402
2.07019,-0.019873,-0.0843455
2.03951,-0.0266987,-0.0356029
1.99881,-0.222436,-0.0585302
2.19862,-0.244672,-0.442441
2.00814,-0.124582,0
2.17757,-0.135093,-0.33943
2.12562,-0.236549,-0.272234
2.01979,-0.0264405,0.0117401
2.11567,-0.131253,-0.228331
1.94283,-0.31293,0.0229097
2.0829,-0.12922,-0.145931
2.07227,-0.230612,-0.170214
1.99099,-0.0260634,0.0579483
2.09153,-0.0273796,-0.134055
2.02246,-0.325756,-0.119301
1.94496,-0.120663,0.113487
1.93047,-0.214831,0.079135
2.07011,-0.0270992,-0.0843455
1.99413,-0.22826,-0.0584138
2.19784,-0.251578,-0.442441
2.00375,-0.13063,0
2.17319,-0.141676,-0.338815
2.0157,-0.0327208,0.0117168
2.11922,-0.138158,-0.228759
1.98724,-0.129554,0.0463402
2.07154,-0.237121,-0.170214
1.99089,-0.0323182,0.0579483
2.09542,-0.034015,-0.134311
2.02143,-0.332109,-0.119301
1.94856,-0.127032,0.11372
1.92979,-0.220895,0.079135
2.05341,-0.133868,-0.0958541
2.03589,-0.233041,-0.107393
2.06601,-0.0335376,-0.0841827
1.99332,-0.235219,-0.0584138
2.18916,-0.258329,-0.440872
1.99131,-0.136801,0
2.16874,-0.148991,-0.3382
2.12007,-0.250176,-0.271729
2.01957,-0.0398356,0.0117401
2.11872,-0.145554,-0.228759
1.94071,-0.325808,0.0229097
2.07802,-0.142758,-0.145652
2.0707,-0.24435,-0.170214
1.99077,-0.0392675,0.0579483
2.09529,-0.0413292,-0.134311
1.929,-0.22763,0.079135
2.05293,-0.141035,-0.0958541
2.0311,-0.239678,-0.107184
1.88536,-0.129523,0.232039
2.06189,-0.0406703,-0.0840198
1.99641,-0.243007,-0.0585302
2.19209,-0.266825,-0.441656
1.99079,-0.144099,0
1.9671,-0.337655,-0.0232356
2.16818,-0.156938,-0.3382
2.01541,-0.0471439,0.0117168
2.11817,-0.153319,-0.228759
1.94344,-0.333595,0.0229562
2.07748,-0.150373,-0.145652
1.99461,-0.0466573,0.0580647
1.96519,-0.239207,0.0345558
2.09513,-0.0490086,-0.134311
1.9476,-0.140972,0.11372
1.93609,-0.235664,0.0794606
2.0524,-0.148558,-0.0958541
2.03417,-0.247603,-0.107393
1.88092,-0.136146,0.231552
2.05773,-0.0481338,-0.083857
2.03496,-0.0543537,-0.0355331
1.99163,-0.24913,-0.0584138
2.19119,-0.274092,-0.441656
1.99828,-0.151304,0
2.15582,-0.163232,-0.336356
2.10646,-0.263493,-0.270214
2.00725,-0.0536135,0.0116703
2.11765,-0.160342,-0.228759
1.94233,-0.340038,0.0229562
2.06901,-0.156659,-0.145093
1.99045,-0.0531646,0.0579483
2.08697,-0.0557428,-0.133799
1.94712,-0.14743,0.11372
1.92737,-0.241091,0.079135
2.04393,-0.15476,-0.0954819
1.88046,-0.142382,0.231552
2.05756,-0.0549572,-0.083857
1.99467,-0.256938,-0.0585302
2.19406,-0.282623,-0.442441
1.99372,-0.15831,0
2.16309,-0.171758,-0.337585
2.10941,-0.271719,-0.270719
2.01104,-0.0610915,0.0116936
2.10912,-0.167473,-0.227903
2.0724,-0.164557,-0.145372
1.99024,-0.0604596,0.0579483
2.08675,-0.0633916,-0.133799
2.0126,-0.359949,-0.119069
1.94258,-0.154249,0.113487
1.92647,-0.248154,0.079135
2.05131,-0.162883,-0.0958541
2.0324,-0.261798,-0.107393
1.88388,-0.149588,0.232039
2.06134,-0.0626195,-0.0840198
2.02253,-0.0685079,-0.0353237
1.98583,-0.26285,-0.0582974
2.18917,-0.289765,-0.441656
1.99316,-0.165269,0
2.15854,-0.178981,-0.336971
2.11238,-0.279601,-0.271224
2.01081,-0.0681109,0.0116936
2.11249,-0.175163,-0.228331
1.93591,-0.353211,0.0229097
2.06784,-0.171461,-0.145093
1.98602,-0.0672711,0.057832
2.08652,-0.0706753,-0.133799
2.01133,-0.366972,-0.119069
1.93805,-0.160699,0.113255
1.92163,-0.254353,0.0789721
2.04675,-0.169712,-0.095668
2.05312,-0.0695439,-0.0836942
2.02229,-0.0752145,-0.0353237
1.98495,-0.269434,-0.0582974
1.98862,-0.171533,0
2.15793,-0.186138,-0.336971
2.11144,-0.286604,-0.271224
2.01058,-0.0747787,0.0116936
2.10397,-0.181484,-0.227474
1.97613,-0.170456,0.0461541
1.93079,-0.358897,0.0228631
2.06726,-0.178317,-0.145093
1.98579,-0.0738566,0.057832
2.08627,-0.0775941,-0.133799
1.94149,-0.167468,0.113487
1.92474,-0.261261,0.079135
2.04618,-0.176498,-0.095668
2.02661,-0.275089,-0.107184
2.04888,-0.0762034,-0.0835313
1.98395,-0.276707,-0.0582974
2.17544,-0.303416,-0.439303
1.99196,-0.179179,0
1.9609,-0.371934,-0.0232356
2.01428,-0.0823106,0.0117168
2.10329,-0.189194,-0.227474
1.93733,-0.367462,0.0229562
2.06262,-0.185535,-0.144814
2.05718,-0.286921,-0.169564
1.98151,-0.0809712,0.0577156
2.08199,-0.0850772,-0.133543
1.93688,-0.174225,0.113255
1.91981,-0.267762,0.0789721
2.04551,-0.183997,-0.095668
2.04859,-0.0837124,-0.0835313
2.02172,-0.0893308,-0.0353237
1.98302,-0.283285,-0.0582974
2.17831,-0.311183,-0.440087
1.98737,-0.185412,0
2.14871,-0.200464,-0.335741
2.10546,-0.300777,-0.270719
2.00201,-0.0884601,0.0116471
2.10661,-0.196537,-0.227903
1.9361,-0.373885,0.0229562
2.06596,-0.192745,-0.145093
2.05622,-0.293741,-0.169564
1.97723,-0.0873652,0.0575993
2.07771,-0.0918046,-0.133288
1.92287,-0.274692,0.079135
2.04489,-0.190779,-0.095668
2.02464,-0.28923,-0.107184
2.0483,-0.0905053,-0.0835313
2.0174,-0.0961969,-0.0352539
1.98598,-0.290785,-0.0584138
2.18109,-0.319353,-0.440872
1.98671,-0.192348,0
2.148,-0.207964,-0.335741
2.10048,-0.30755,-0.270214
2.00569,-0.0956384,0.0116703
2.098,-0.203123,-0.227046
2.06131,-0.19957,-0.144814
1.97692,-0.0942664,0.0575993
2.08136,-0.0992467,-0.133543
1.92373,-0.186251,0.112557
1.9219,-0.281402,0.079135
2.04024,-0.197531,-0.0954819
2.02362,-0.296296,-0.107184
1.86916,-0.180967,0.230577
2.05196,-0.097845,-0.0836942
1.97699,-0.296874,-0.0581811
2.17215,-0.32618,-0.439303
1.98201,-0.199229,0
2.14722,-0.215835,-0.335741
2.10326,-0.315835,-0.270719
2.00932,-0.103194,0.0116936
2.1012,-0.211209,-0.227474
2.06453,-0.207523,-0.145093
1.97256,-0.101306,0.0574829
2.077,-0.10667,-0.133288
1.93495,-0.194499,0.113255
1.9169,-0.287851,0.0789721
2.03552,-0.204608,-0.0952957
2.02252,-0.303711,-0.107184
1.86453,-0.18742,0.230089
2.05159,-0.105365,-0.0836942
2.02065,-0.11085,-0.0353237
1.97594,-0.303773,-0.0581811
1.9813,-0.206146,0
2.15038,-0.223738,-0.336356
2.00096,-0.109769,0.0116471
2.09649,-0.218131,-0.227046
1.92025,-0.392075,0.0228165
2.05189,-0.21349,-0.144256
1.97619,-0.10841,0.0575993
2.07263,-0.113701,-0.133032
1.99929,-0.408215,-0.118836
1.93029,-0.200838,0.113022
1.90798,-0.293326,0.0786465
2.0348,-0.211712,-0.0952957
2.01355,-0.309555,-0.106765
1.86781,-0.194338,0.230577
2.0552,-0.112745,-0.083857
2.0163,-0.116965,-0.0352539
1.97498,-0.309979,-0.0581811
2.16606,-0.339971,-0.438518
1.97269,-0.211517,0
2.13788,-0.229228,-0.334511
2.10112,-0.329778,-0.270719
1.99661,-0.115823,0.0116238
2.09184,-0.224292,-0.226617
2.05121,-0.219935,-0.144256
2.04409,-0.320827,-0.168913
1.96786,-0.114155,0.0573665
2.07624,-0.120443,-0.133288
1.911,-0.299938,0.0788093
2.0381,-0.218529,-0.0954819
2.01651,-0.316499,-0.106975
1.85535,-0.198935,0.229114
2.04686,-0.118738,-0.0835313
2.01189,-0.123757,-0.0351841
1.97388,-0.316871,-0.0581811
2.17261,-0.348773,-0.440087
1.98387,-0.219722,0
2.141,-0.237125,-0.335126
2.09212,-0.335852,-0.269709
1.99619,-0.122792,0.0116238
2.095,-0.23203,-0.227046
2.05836,-0.227972,-0.144814
1.96745,-0.121024,0.0573665
1.94283,-0.311886,0.0343463
2.06784,-0.127199,-0.132776
1.92892,-0.213636,0.113022
1.90994,-0.306607,0.0788093
1.85859,-0.205847,0.229602
2.04244,-0.125637,-0.0833685
2.00741,-0.131221,-0.0351142
1.9766,-0.325097,-0.0582974
2.17512,-0.357749,-0.440872
1.97506,-0.226427,0
2.13614,-0.244894,-0.334511
1.99571,-0.130456,0.0116238
2.09014,-0.23962,-0.226617
1.91995,-0.413003,0.0228631
2.04954,-0.234965,-0.144256
1.96298,-0.128316,0.0572502
2.07132,-0.135398,-0.133032
1.99491,-0.429128,-0.118836
1.92015,-0.220131,0.112557
1.91664,-0.315236,0.079135
2.03247,-0.233008,-0.0952957
1.85779,-0.212982,0.229602
2.04194,-0.133478,-0.0833685
2.00699,-0.137526,-0.0351142
1.96768,-0.329982,-0.0580647
1.97434,-0.232631,0
2.14321,-0.252528,-0.335741
2.09364,-0.351106,-0.270214
1.99928,-0.136998,0.0116471
2.08543,-0.245719,-0.226189
2.05275,-0.241869,-0.144535
1.96655,-0.134756,0.0573665
2.06292,-0.141359,-0.13252
1.99355,-0.435393,-0.118836
1.92341,-0.22663,0.11279
1.90381,-0.319272,0.0786465
2.03173,-0.239392,-0.0952957
1.84922,-0.217888,0.228627
2.04152,-0.139892,-0.0833685
2.01447,-0.145106,-0.0352539
1.97046,-0.337524,-0.0581811
1.96161,-0.238075,0
2.14232,-0.260008,-0.335741
2.08849,-0.357742,-0.269709
1.99081,-0.143401,0.0116006
2.0885,-0.253477,-0.226617
2.02952,-0.450678,-0.194067
1.91326,-0.424861,0.0228165
2.04793,-0.248553,-0.144256
2.03941,-0.349336,-0.168913
1.9581,-0.141045,0.0571338
2.07038,-0.149133,-0.133032
1.90269,-0.325916,0.0786465
2.03088,-0.246483,-0.0952957
2.0119,-0.344623,-0.106975
2.04101,-0.147018,-0.0833685
2.00595,-0.151885,-0.0351142
1.9692,-0.344744,-0.0581811
1.96469,-0.24576,0
1.9429,-0.438921,-0.023189
2.12959,-0.266386,-0.333896
1.98628,-0.150395,0.0115773
2.09545,-0.262117,-0.227474
1.91169,-0.43187,0.0228165
2.03909,-0.255067,-0.143698
2.03812,-0.356809,-0.168913
2.06584,-0.156419,-0.132776
1.92174,-0.240388,0.11279
1.90148,-0.332887,0.0786465
2.02203,-0.252933,-0.0949235
1.85944,-0.232594,0.230089
2.02851,-0.153592,-0.08288
2.00942,-0.158851,-0.0351841
1.96805,-0.351272,-0.0581811
1.96783,-0.252783,0
2.13261,-0.27395,-0.334511
2.08203,-0.371616,-0.269204
1.98178,-0.156666,0.0115541
2.09063,-0.268557,-0.227046
2.04615,-0.262844,-0.144256
2.033,-0.362865,-0.168587
1.95706,-0.154712,0.0571338
2.05337,-0.162325,-0.132008
1.92093,-0.246759,0.11279
1.90037,-0.339191,0.0786465
2.02118,-0.259637,-0.0949235
1.85078,-0.237747,0.229114
2.03595,-0.160948,-0.0832057
2.00487,-0.165535,-0.0351142
1.96681,-0.35814,-0.0581811
1.96297,-0.259127,0
2.13164,-0.281393,-0.334511
2.08072,-0.378882,-0.269204
1.98521,-0.163912,0.0115773
2.08574,-0.275333,-0.226617
2.04126,-0.269462,-0.143977
1.95651,-0.161542,0.0571338
2.06472,-0.170477,-0.132776
1.98339,-0.462279,-0.118604
1.9161,-0.25294,0.112557
1.89917,-0.345823,0.0786465
2.02423,-0.267213,-0.0951096
1.84994,-0.244206,0.229114
2.0314,-0.167725,-0.0830429
2.00824,-0.173226,-0.0351841
1.96549,-0.365346,-0.0581811
1.96597,-0.266858,0
2.1306,-0.289204,-0.334511
2.08322,-0.38723,-0.269709
1.9846,-0.171187,0.0115773
2.08471,-0.282976,-0.226617
2.04026,-0.276942,-0.143977
1.95192,-0.168368,0.0570174
2.05215,-0.177014,-0.132008
1.98557,-0.470466,-0.118836
1.91516,-0.259961,0.112557
1.89396,-0.352051,0.0784836
2.01531,-0.273556,-0.0947374
1.85296,-0.251519,0.229602
2.03077,-0.175169,-0.0830429
1.99567,-0.179162,-0.0349746
1.96027,-0.37146,-0.0580647
1.9571,-0.272615,0
2.12566,-0.296094,-0.333896
2.08186,-0.3945,-0.269709
1.98399,-0.178113,0.0115773
2.08371,-0.290251,-0.226617
2.03928,-0.284062,-0.143977
1.95929,-0.175896,0.0572502
2.0555,-0.184533,-0.132264
1.89665,-0.359404,0.0786465
2.01435,-0.280589,-0.0947374
2.00159,-0.379289,-0.106765
1.84028,-0.256342,0.228139
2.03014,-0.182257,-0.0830429
1.99506,-0.185779,-0.0349746
1.96295,-0.378716,-0.0581811
1.95223,-0.278539,0
1.93503,-0.472425,-0.023189
2.12858,-0.3037,-0.334511
2.08054,-0.401401,-0.269709
1.98339,-0.184691,0.0115773
2.0788,-0.296598,-0.226189
2.03833,-0.290823,-0.143977
2.03165,-0.39197,-0.168913
1.94675,-0.18128,0.0569011
2.05488,-0.191349,-0.132264
1.98232,-0.48397,-0.118836
1.90544,-0.271863,0.112092
1.89544,-0.365691,0.0786465
2.00032,-0.385924,-0.106765
1.83549,-0.261882,0.227652
2.02555,-0.188618,-0.08288
1.99838,-0.193127,-0.0350444
1.96162,-0.385566,-0.0581811
1.9552,-0.28593,0
2.12359,-0.310556,-0.333896
2.07912,-0.408661,-0.269709
1.97875,-0.191229,0.0115541
2.0373,-0.297937,-0.143977
2.03027,-0.399059,-0.168913
1.95407,-0.188843,0.0571338
2.04625,-0.197752,-0.131753
1.91238,-0.279668,0.112557
2.01634,-0.294872,-0.0949235
1.99896,-0.392904,-0.106765
1.84242,-0.269437,0.228627
2.02886,-0.196071,-0.0830429
1.99372,-0.199702,-0.0349746
1.96026,-0.392411,-0.0581811
1.95419,-0.292754,0
2.13032,-0.319138,-0.335126
2.07379,-0.415137,-0.269204
1.97409,-0.197736,0.0115308
2.03625,-0.305046,-0.143977
1.95339,-0.195663,0.0571338
2.05746,-0.206087,-0.13252
1.97502,-0.496823,-0.118604
1.90745,-0.285751,0.112325
2.0153,-0.301908,-0.0949235
1.99757,-0.39988,-0.106765
1.83754,-0.275278,0.228139
2.02021,-0.202356,-0.0827172
1.99297,-0.207008,-0.0349746
1.95098,-0.397994,-0.0579483
1.95311,-0.299914,0
2.12132,-0.325744,-0.333896
2.07614,-0.423529,-0.269709
1.97733,-0.205383,0.0115541
2.03512,-0.312508,-0.143977
2.02346,-0.41278,-0.168587
1.94869,-0.202408,0.0570174
2.04081,-0.211977,-0.131497
1.89849,-0.291528,0.111859
2.00628,-0.30808,-0.0945512
1.8326,-0.281409,0.227652
2.02343,-0.210172,-0.08288
1.99629,-0.213694,-0.0350444
1.95755,-0.405745,-0.0581811
1.9482,-0.305429,0
2.11247,-0.331182,-0.332666
2.0748,-0.430049,-0.269709
1.97667,-0.211594,0.0115541
2.03018,-0.318281,-0.143698
1.94407,-0.208104,0.0569011
2.04807,-0.219237,-0.132008
1.90546,-0.298727,0.112325
2.00531,-0.314381,-0.0945512
1.83955,-0.288394,0.228627
2.01878,-0.216102,-0.0827172
1.99152,-0.220569,-0.0349746
1.95102,-0.313201,0
2.11905,-0.340176,-0.333896
1.97588,-0.218838,0.0115541
2.07723,-0.333463,-0.226617
2.02506,-0.325088,-0.143419
2.0167,-0.42572,-0.168262
1.93932,-0.214788,0.0567847
2.04329,-0.226303,-0.131753
2.00019,-0.321095,-0.0943651
1.8424,-0.295764,0.229114
2.014,-0.22306,-0.0825544
1.9868,-0.226719,-0.0349048
1.95076,-0.418562,-0.0580647
1.94997,-0.31967,0
2.11401,-0.346562,-0.333281
2.06787,-0.443691,-0.269204
1.97117,-0.224935,0.0115308
2.02791,-0.332447,-0.143698
2.01917,-0.433242,-0.168587
1.94257,-0.221671,0.0569011
2.04253,-0.233078,-0.131753
1.98796,-0.426546,-0.106556
1.84141,-0.301872,0.229114
2.01722,-0.23019,-0.0827172
1.95319,-0.426221,-0.0581811
1.94884,-0.326474,0
2.10499,-0.352633,-0.332051
2.06631,-0.450906,-0.269204
1.96243,-0.23088,0.0114843
2.07099,-0.346937,-0.226189
2.02674,-0.339524,-0.143698
2.01375,-0.439438,-0.168262
1.94178,-0.22845,0.0569011
2.03774,-0.23974,-0.131497
1.97,-0.531914,-0.118836
1.89435,-0.317345,0.111859
1.84034,-0.308298,0.229114
2.01244,-0.236763,-0.0825544
1.9812,-0.240102,-0.034835
1.94375,-0.3326,0
2.11154,-0.361311,-0.333281
2.06472,-0.458116,-0.269204
1.95764,-0.237248,0.0114611
2.02948,-0.347269,-0.143977
1.937,-0.234746,0.0567847
2.03689,-0.246851,-0.131497
1.9011,-0.325303,0.112325
2.00072,-0.342349,-0.0945512
1.84317,-0.31539,0.229602
2.01557,-0.244267,-0.0827172
1.98428,-0.247858,-0.0349048
1.94619,-0.439307,-0.0580647
1.94252,-0.339722,0
2.1141,-0.369729,-0.333896
2.06303,-0.465681,-0.269204
1.96867,-0.245908,0.0115308
2.06846,-0.361748,-0.226189
2.0164,-0.352643,-0.14314
2.01445,-0.454714,-0.168587
1.9401,-0.242339,0.0569011
2.03597,-0.254315,-0.131497
1.8999,-0.332268,0.112325
2.00339,-0.350368,-0.0947374
1.98331,-0.447686,-0.106556
2.01466,-0.251653,-0.0827172
1.9834,-0.254783,-0.0349048
1.94075,-0.445203,-0.0579483
1.94132,-0.346501,0
2.11279,-0.377106,-0.333896
1.9678,-0.252779,0.0115308
2.06718,-0.368966,-0.226189
2.01908,-0.36038,-0.143419
2.01285,-0.461743,-0.168587
1.93527,-0.248601,0.0567847
2.03903,-0.261929,-0.131753
2.00215,-0.357359,-0.0947374
2.0098,-0.258175,-0.0825544
1.9825,-0.261705,-0.0349048
1.94697,-0.45379,-0.0581811
1.9401,-0.353275,0
2.10369,-0.383063,-0.332666
2.052,-0.478271,-0.268194
1.95501,-0.258076,0.0114611
2.01781,-0.367426,-0.143419
2.00734,-0.467862,-0.168262
1.93439,-0.255355,0.0567847
2.03019,-0.268,-0.131241
1.99696,-0.36363,-0.0945512
2.00493,-0.264666,-0.0823915
1.97369,-0.267204,-0.0347652
1.94156,-0.459324,-0.0580647
1.93498,-0.358977,0
2.1024,-0.390037,-0.332666
2.05426,-0.485986,-0.268699
1.96207,-0.265631,0.0115076
2.0568,-0.381577,-0.225332
2.01266,-0.373388,-0.14314
2.00966,-0.475433,-0.168587
1.93354,-0.261768,0.0567847
2.02533,-0.274195,-0.130985
1.95658,-0.565107,-0.118604
1.99575,-0.37025,-0.0945512
2.008,-0.271849,-0.0825544
1.97275,-0.274092,-0.0347652
1.93765,-0.366473,0
2.09715,-0.396639,-0.332051
2.04484,-0.4913,-0.267689
1.96113,-0.272478,0.0115076
2.05937,-0.389494,-0.225761
1.92469,-0.267415,0.056552
2.03227,-0.282362,-0.131497
1.98659,-0.375729,-0.094179
2.00308,-0.278307,-0.0823915
1.97569,-0.281886,-0.034835
1.93434,-0.472257,-0.0579483
1.92844,-0.372057,0
2.10732,-0.406569,-0.333896
2.05459,-0.501615,-0.269204
1.9522,-0.278534,0.0114611
2.05402,-0.396286,-0.225332
1.99314,-0.591153,-0.194067
2.00994,-0.38778,-0.14314
2.0062,-0.489802,-0.168587
1.93557,-0.276162,0.0569011
2.02727,-0.289245,-0.131241
1.98912,-0.383765,-0.0943651
1.97519,-0.482231,-0.106556
2.00205,-0.285647,-0.0823915
1.97474,-0.288436,-0.034835
1.93277,-0.478669,-0.0579483
1.93112,-0.37922,0
2.09433,-0.41127,-0.332051
2.04521,-0.506517,-0.268194
1.96314,-0.286741,0.0115308
2.0527,-0.403095,-0.225332
2.00472,-0.393674,-0.142861
2.0007,-0.495494,-0.168262
1.93069,-0.282001,0.0567847
2.03025,-0.296543,-0.131497
1.98784,-0.390359,-0.0943651
1.97359,-0.488778,-0.106556
2.00109,-0.292284,-0.0823915
1.97372,-0.295327,-0.034835
1.93884,-0.487362,-0.0581811
1.92586,-0.385174,0
2.1045,-0.420903,-0.333896
2.04343,-0.513653,-0.268194
1.9463,-0.291224,0.0114378
2.05518,-0.411038,-0.225761
2.00725,-0.401452,-0.14314
1.99896,-0.502474,-0.168262
1.92574,-0.288147,0.0566684
2.0213,-0.302447,-0.130985
1.99038,-0.398079,-0.0945512
1.97187,-0.495665,-0.106556
1.99215,-0.298084,-0.0820659
1.96873,-0.301609,-0.0347652
1.92842,-0.392693,0
2.09915,-0.427458,-0.333281
2.04931,-0.522745,-0.269204
1.94923,-0.298622,0.0114611
2.04983,-0.417415,-0.225332
2.00584,-0.408457,-0.14314
2.00105,-0.510434,-0.168587
1.92867,-0.295473,0.0567847
2.02813,-0.31071,-0.131497
1.98506,-0.404227,-0.0943651
1.96625,-0.501557,-0.106347
1.999,-0.306247,-0.0823915
1.96377,-0.307517,-0.0346954
1.92773,-0.498546,-0.0579483
1.92711,-0.399085,0
2.09772,-0.434417,-0.333281
2.04373,-0.528544,-0.268699
1.95218,-0.305703,0.0114843
2.04844,-0.424211,-0.225332
2.00838,-0.415915,-0.143419
1.99935,-0.517067,-0.168587
1.92373,-0.301248,0.0566684
2.01526,-0.315581,-0.130729
1.98371,-0.410807,-0.0943651
1.96845,-0.509075,-0.106556
2.00192,-0.313493,-0.0825544
1.96268,-0.31437,-0.0346954
1.92598,-0.505272,-0.0579483
1.92179,-0.404985,0
2.09619,-0.441737,-0.333281
2.04187,-0.535675,-0.268699
1.94715,-0.311882,0.0114611
2.04694,-0.431358,-0.225332
1.9952,-0.420455,-0.142582
1.99368,-0.523032,-0.168262
1.92662,-0.308594,0.0567847
2.02202,-0.323876,-0.131241
1.97836,-0.416905,-0.094179
1.96279,-0.51493,-0.106347
2.00082,-0.320479,-0.0825544
1.96552,-0.321866,-0.0347652
1.92428,-0.412529,0
2.08691,-0.447394,-0.332051
2.04382,-0.543819,-0.269204
1.94999,-0.319324,0.0114843
2.04542,-0.438501,-0.225332
1.99762,-0.428253,-0.142861
1.99184,-0.529988,-0.168262
1.91764,-0.314025,0.056552
2.02088,-0.330932,-0.131241
1.9847,-0.425484,-0.0945512
1.95712,-0.520751,-0.106137
1.98785,-0.325523,-0.0820659
1.96438,-0.328725,-0.0347652
1.92283,-0.419244,0
2.08919,-0.455518,-0.332666
2.03808,-0.549917,-0.268699
1.94492,-0.325468,0.0114611
2.04777,-0.446485,-0.225761
2.00001,-0.436074,-0.14314
1.99383,-0.537976,-0.168587
1.91653,-0.320717,0.056552
2.01184,-0.336667,-0.130729
1.9793,-0.431558,-0.0943651
1.9553,-0.527579,-0.106137
1.99459,-0.333779,-0.0823915
1.96322,-0.33558,-0.0347652
1.92135,-0.425953,0
2.09145,-0.463663,-0.333281
2.02084,-0.552839,-0.266678
1.93983,-0.331582,0.0114378
2.03843,-0.451909,-0.224904
1.99458,-0.442189,-0.142861
1.99194,-0.544932,-0.168587
1.9154,-0.327405,0.056552
2.01459,-0.34436,-0.130985
1.96115,-0.536509,-0.106556
1.98553,-0.339393,-0.0820659
1.9581,-0.341743,-0.0346954
1.91985,-0.432657,0
1.9426,-0.339038,0.0114611
2.03684,-0.459022,-0.224904
1.99692,-0.450026,-0.14314
1.99002,-0.551882,-0.168587
1.91818,-0.334776,0.0566684
2.00944,-0.350704,-0.130729
1.97234,-0.444487,-0.094179
1.95926,-0.543352,-0.106556
1.98827,-0.347009,-0.0822287
1.95683,-0.348917,-0.0346954
1.91435,-0.438797,0
1.94528,-0.346858,0.0114843
2.03902,-0.467373,-0.225332
1.98748,-0.455559,-0.142582
1.92088,-0.342506,0.0567847
2.00814,-0.358066,-0.130729
1.9746,-0.452606,-0.0943651
1.95341,-0.549448,-0.106347
1.99092,-0.354996,-0.0823915
1.9596,-0.35612,-0.0347652
1.91678,-0.44605,0
1.94412,-0.353307,0.0114843
2.03746,-0.474132,-0.225332
1.98984,-0.463051,-0.142861
1.98229,-0.564669,-0.168262
1.91186,-0.347444,0.056552
2.01873,-0.366865,-0.131497
1.95542,-0.557017,-0.106556
1.9858,-0.360881,-0.0822287
1.95835,-0.362958,-0.0347652
1.93108,-0.357905,0.0114146
1.99598,-0.47183,-0.143419
1.90671,-0.353387,0.0564356
2.00566,-0.371727,-0.130729
1.96758,-0.465116,-0.094179
1.98453,-0.367811,-0.0822287
1.94921,-0.368306,-0.0346256
1.93375,-0.365386,0.0114378
2.0341,-0.488344,-0.225332
1.99432,-0.478795,-0.143419
1.98212,-0.579613,-0.168587
1.90939,-0.360783,0.056552
2.00435,-0.378726,-0.130729
1.96983,-0.472915,-0.0943651
1.98323,-0.374736,-0.0822287
1.95184,-0.375864,-0.0346954
1.93246,-0.372134,0.0114378
1.99264,-0.485753,-0.143419
1.98009,-0.586529,-0.168587
1.90812,-0.367446,0.056552
2.00301,-0.38572,-0.130729
1.96817,-0.479788,-0.0943651
1.98584,-0.382412,-0.0823915
1.95051,-0.382675,-0.0346954
1.93508,-0.379647,0.0114611
1.98706,-0.491747,-0.14314
1.90683,-0.374104,0.056552
2.00166,-0.392709,-0.130729
1.95872,-0.484735,-0.0939929
1.98057,-0.388572,-0.0822287
1.94531,-0.388358,-0.0346256
1.92596,-0.384496,0.0114146
1.97768,-0.496391,-0.142582
1.97605,-0.599993,-0.168587
1.90165,-0.379643,0.0564356
2.00034,-0.399345,-0.130729
1.96486,-0.493173,-0.0943651
1.97143,-0.393573,-0.0819031
1.94394,-0.395146,-0.0346256
1.92853,-0.392013,0.0114378
1.98367,-0.505261,-0.14314
1.97013,-0.605715,-0.168262
1.99894,-0.406325,-0.130729
1.95925,-0.499043,-0.094179
1.97788,-0.402044,-0.0822287
1.93864,-0.401119,-0.0345558
1.92715,-0.398742,0.0114378
2.02536,-0.523416,-0.225332
1.98189,-0.512182,-0.14314
1.96801,-0.612589,-0.168262
2.00141,-0.414109,-0.130985
1.97255,-0.408136,-0.0820659
1.93973,-0.501287,-0.0466193
1.94114,-0.408708,-0.0346256
1.92574,-0.405467,0.0114378
1.98009,-0.519097,-0.14314
1.99214,-0.419448,-0.130473
1.95185,-0.511695,-0.0939929
1.97502,-0.415843,-0.0822287
1.9397,-0.415481,-0.0346256
1.92823,-0.413024,0.0114611
1.97055,-0.523955,-0.142582
1.99067,-0.426399,-0.130473
1.94619,-0.517479,-0.0938067
1.96965,-0.421897,-0.0820659
1.94214,-0.423101,-0.0346954
1.92287,-0.418901,0.0114378
1.96871,-0.530831,-0.142582
1.99697,-0.435044,-0.130985
1.94823,-0.525309,-0.0939929
1.96426,-0.427919,-0.0819031
1.93683,-0.428675,-0.0346256
1.92537,-0.42614,0.0114611
1.96694,-0.537356,-0.142582
1.98772,-0.439939,-0.130473
1.94263,-0.530714,-0.0938067
1.95893,-0.433567,-0.0817402
1.93914,-0.436649,-0.0346954
1.91209,-0.430558,0.0113914
2.01592,-0.558684,-0.225332
1.9688,-0.545627,-0.142861
1.98609,-0.447221,-0.130473
1.94452,-0.538897,-0.0939929
1.96123,-0.441622,-0.0819031
1.93371,-0.442523,-0.0346256
1.97457,-0.554655,-0.143419
1.98841,-0.455042,-0.130729
1.93493,-0.543521,-0.0936206
1.96357,-0.449356,-0.0820659
1.93605,-0.450176,-0.0346954
1.96495,-0.559359,-0.142861
1.98292,-0.461076,-0.130473
1.96199,-0.456208,-0.0820659
1.93446,-0.456932,-0.0346954
1.95915,-0.565108,-0.142582
1.9813,-0.467995,-0.130473
1.95649,-0.462135,-0.0819031
1.92897,-0.462748,-0.0346256
1.96099,-0.573063,-0.142861
1.97577,-0.473977,-0.130218
1.95875,-0.469894,-0.0820659
1.93123,-0.470425,-0.0346954
2.00204,-0.592652,-0.224904
1.95898,-0.579905,-0.142861
1.97799,-0.481815,-0.130473
1.95322,-0.475782,-0.0819031
1.92586,-0.475532,-0.0346256
1.96097,-0.587201,-0.14314
1.98034,-0.488984,-0.130729
1.9556,-0.482874,-0.0820659
1.93574,-0.485506,-0.034835
1.95881,-0.594384,-0.14314
1.97853,-0.496239,-0.130729
1.95769,-0.491011,-0.0822287
1.97292,-0.502158,-0.130473
1.94822,-0.49587,-0.0819031
1.97511,-0.509695,-0.130729
1.94656,-0.502328,-0.0819031
1.97323,-0.516931,-0.130729
1.94084,-0.508446,-0.0817402
1.97527,-0.52484,-0.130985
1.94678,-0.517271,-0.0820659
1.96957,-0.530694,-0.130729
1.94882,-0.525103,-0.0822287
1.96386,-0.536514,-0.130473
1.95812,-0.5423,-0.130218
1.96391,-0.551289,-0.130729
1.95813,-0.557049,-0.130473
1.96001,-0.564987,-0.130729
1.95803,-0.571825,-0.130729
